# .PCD v0.7 - Point Cloud Data file format
VERSION 0.7
FIELDS x y z rgba
SIZE 4 4 4 4
TYPE F F F U
COUNT 1 1 1 1
WIDTH 1084
HEIGHT 1
VIEWPOINT 0 0 0 1 0 0 0
POINTS 1084
DATA ascii
1.4174203 -1.0763621 -0.17969279 4288047360
1.4662883 -1.113399 -0.17679632 4288308480
1.4691807 -1.1155225 -0.16784003 4288308480
1.4837842 -1.1265372 -0.15992437 4288308480
1.48146 -1.1246992 -0.14992975 4288308480
1.4607923 -1.1089363 -0.13806814 4288177920
1.4827207 -1.1255095 -0.13007118 4288308480
1.4906158 -1.1314287 -0.12049823 4288308480
1.4840457 -1.1263683 -0.1096165 4288308480
1.4808236 -1.1238495 -0.098931842 4288308480
1.4659092 -1.1124578 -0.087488085 4288177920
1.4740726 -1.1185799 -0.077374846 4288308480
1.4761053 -1.1200494 -0.066783078 4288308480
1.4533323 -1.1026975 -0.055148717 4288177920
1.4710455 -1.1160643 -0.045027781 4288177920
1.4714711 -1.1163144 -0.034196481 4288177920
1.4808359 -1.1233456 -0.023464167 4288308480
1.4795219 -1.1222756 -0.012478355 4288308480
1.4826027 -1.1245391 -0.0015035608 4288308480
1.4927684 -1.1321759 0.0095634414 4288308480
1.4165514 -1.0742997 0.019576604 4288047360
1.2764928 -0.9680174 0.027084678 4287394560
1.281747 -0.97193837 0.03664891 4287394560
1.2840155 -0.97359508 0.046143174 4287394560
1.2694376 -0.96247864 0.054891914 4287394560
1.2486926 -0.94668818 0.06305714 4287264000
1.2219818 -0.92637706 0.070509456 4287133440
1.2210387 -0.92560178 0.079172634 4287133440
1.2216847 -0.92603105 0.087850288 4287133440
1.1711247 -0.88764888 0.092400938 4287002880
1.0602287 -0.80354333 0.090971015 4286480640
1.0637574 -0.80616504 0.098517828 4286480640
1.006415 -0.76265854 0.09995842 4286219520
1.0478312 -0.79399174 0.11098655 4286480640
1.0934963 -0.82854033 0.12291171 4286611200
1.0501026 -0.79560906 0.12471078 4286480640
1.0665665 -0.80803013 0.13330711 4286611200
0.96213454 -0.72886503 0.12611181 4286088960
1.0145626 -0.76853168 0.13901235 4286350080
1.0101106 -0.76510942 0.14425004 4286350080
1.0254481 -0.77667606 0.15221296 4286350080
1.0339291 -0.78304851 0.15912013 4286480640
1.0126114 -0.76685345 0.1611959 4286350080
1.3133498 -0.99453855 0.21578158 4287655680
1.4469006 -1.0955988 0.24484912 4288177920
1.5978229 -1.2097988 0.27795064 4288830720
1.6977264 -1.2853572 0.30302846 4289222400
1.6777054 -1.2701163 0.30672181 4289222400
1.6551069 -1.2529263 0.30941358 4289091840
1.7816885 -1.3486613 0.34004083 4289614080
1.754634 -1.3280954 0.34135064 4289483520
1.7408894 -1.3176061 0.34470946 4289483520
1.7351383 -1.3131676 0.34918717 4289483520
1.692513 -1.2808248 0.34569383 4289222400
1.6363329 -1.2382292 0.33874798 4288961280
1.6358378 -1.2377737 0.34278002 4288961280
1.6393205 -1.2403278 0.34725389 4289091840
1.6389189 -1.239943 0.35050789 4289091840
1.6456416 -1.2449479 0.35488808 4289091840
1.6453416 -1.2446398 0.35735118 4289091840
1.6450958 -1.2443725 0.35940775 4289091840
1.6527615 -1.2500893 0.36278 4289091840
1.6565546 -1.2528764 0.36488852 4289091840
1.6525497 -1.2497659 0.36485305 4289091840
1.6525307 -1.2496698 0.3652682 4289091840
1.6486423 -1.246648 0.36440024 4289091840
1.6408839 -1.2407004 0.36225215 4289091840
1.6449666 -1.2437062 0.36229387 4289091840
1.6341784 -1.2354689 0.35864258 4288961280
1.6344452 -1.2355899 0.35700604 4288961280
1.7021272 -1.2866713 0.36958972 4289352960
1.6907252 -1.2779689 0.36450016 4289222400
1.7252809 -1.3040032 0.36884886 4289352960
1.7387416 -1.3140913 0.36816835 4289483520
1.7523345 -1.324278 0.36702886 4289483520
1.7682118 -1.3361895 0.36587021 4289614080
1.7732334 -1.3398967 0.36198708 4289614080
1.7660681 -1.3343953 0.35520497 4289614080
1.7322006 -1.3087204 0.34277368 4289483520
1.6151065 -1.2201731 0.31399482 4288961280
1.4697479 -1.1102859 0.28030393 4288308480
1.2357517 -0.93345809 0.23084021 4287264000
1.0638835 -0.80358034 0.19434345 4286611200
1.0604094 -0.80061853 0.16040388 4286480640
1.0300649 -0.77765739 0.15010725 4286350080
1.053619 -0.79538786 0.14753123 4286480640
1.0660806 -0.80474257 0.14303039 4286480640
1.0547248 -0.79611862 0.13517056 4286480640
1.0060078 -0.75929683 0.1227408 4286219520
1.0688527 -0.80667698 0.12369161 4286611200
1.1801755 -0.89063567 0.12900767 4287002880
1.1863773 -0.89525741 0.12193681 4287002880
1.2060035 -0.91000819 0.11594131 4287133440
1.2493451 -0.94265062 0.11167619 4287264000
1.2488703 -0.94223076 0.10308348 4287264000
1.2497144 -0.94280601 0.094485 4287264000
1.2554787 -0.94709283 0.08610975 4287264000
1.2616622 -0.95169532 0.077585772 4287394560
1.3122354 -0.98977888 0.07130187 4287525120
1.4792665 -1.1156925 0.069701515 4288308480
1.4961077 -1.1283207 0.059621539 4288308480
1.4893866 -1.1231784 0.04846539 4288308480
1.4951729 -1.1274682 0.037671052 4288308480
1.482031 -1.1174853 0.02641407 4288308480
1.4787651 -1.1149499 0.015426161 4288308480
1.4877615 -1.1216596 0.0045076041 4288308480
1.4573926 -1.0986919 -0.0063762702 4288177920
1.4670845 -1.1059262 -0.017274871 4288177920
1.4707989 -1.1086537 -0.028183103 4288177920
1.4883153 -1.1217839 -0.039481357 4288308480
1.4765059 -1.11281 -0.050000917 4288308480
1.4816186 -1.1165904 -0.060989704 4288308480
1.4891645 -1.1222038 -0.07210426 4288308480
1.5043621 -1.1335824 -0.083674975 4288308480
1.4807081 -1.1156853 -0.092934027 4288308480
1.4799213 -1.1150197 -0.10335244 4288308480
1.4989864 -1.12931 -0.11517221 4288308480
1.4994427 -1.12958 -0.12557283 4288308480
1.4593438 -1.0993003 -0.13216922 4288177920
1.3524185 -1.0186887 -0.13157603 4287786240
1.3135076 -0.98931485 -0.13647917 4287525120
1.2921113 -0.97313589 -0.14265536 4287525120
1.2924258 -0.9733091 -0.15093395 4287525120
1.3230891 -0.99633616 -0.16278343 4287655680
1.4289571 -1.0759884 -0.18454377 4288047360
1.4940406 -1.124922 -0.20186746 4288308480
1.5035225 -1.1319872 -0.21189712 4288439040
1.4990326 -1.128533 -0.21975061 4288439040
1.5142211 -1.1398931 -0.23030062 4288439040
1.5134718 -1.1392546 -0.23824733 4288439040
1.5234816 -1.1467143 -0.24766676 4288439040
1.5270709 -1.1493407 -0.25583196 4288569600
1.5172604 -1.1418823 -0.26143339 4288439040
1.4953332 -1.1253064 -0.26450279 4288439040
1.5019131 -1.1301842 -0.27224183 4288439040
1.5091343 -1.1355439 -0.27984515 4288439040
1.5084702 -1.1349699 -0.28569338 4288439040
1.5146054 -1.1395116 -0.29252183 4288439040
1.5072643 -1.1339144 -0.29640815 4288439040
1.512136 -1.1375049 -0.30234468 4288439040
1.5062934 -1.1330358 -0.30578777 4288439040
1.506972 -1.133472 -0.31018475 4288439040
1.5054206 -1.1322311 -0.31376091 4288439040
1.5073932 -1.1336406 -0.3177076 4288439040
1.5037353 -1.1308156 -0.32009482 4288439040
1.505558 -1.1321124 -0.32327136 4288439040
1.491534 -1.1214936 -0.32264906 4288439040
1.4912975 -1.1212424 -0.32460961 4288439040
1.4966911 -1.125224 -0.32742175 4288439040
1.496555 -1.125048 -0.32864687 4288439040
1.4885982 -1.1189933 -0.32776511 4288439040
1.4846303 -1.1159377 -0.32737187 4288308480
1.4987526 -1.1264791 -0.33058381 4288439040
1.4964746 -1.1246934 -0.32979244 4288439040
1.5026549 -1.1292644 -0.33047652 4288439040
1.4986291 -1.1261653 -0.32852918 4288439040
1.5015788 -1.1283081 -0.3277266 4288439040
1.502396 -1.1288483 -0.32607162 4288439040
1.5063097 -1.1317148 -0.32470104 4288439040
1.5100747 -1.1344694 -0.32290727 4288439040
1.5068978 -1.1320086 -0.31925255 4288439040
1.5053842 -1.1307975 -0.31558836 4288439040
1.5017831 -1.1280187 -0.31113216 4288439040
1.4987262 -1.125649 -0.30644503 4288439040
1.4993184 -1.1260201 -0.30215579 4288439040
1.4885557 -1.1178639 -0.29526165 4288308480
1.4824773 -1.1132264 -0.28901115 4288308480
1.4752556 -1.107731 -0.28225231 4288308480
1.4866567 -1.1162187 -0.27871495 4288308480
1.506716 -1.1312057 -0.27635658 4288439040
1.5035233 -1.1287349 -0.26935017 4288439040
1.4928811 -1.1206721 -0.26076379 4288308480
1.4728588 -1.1055695 -0.25038421 4288308480
1.4684783 -1.1022092 -0.24249513 4288308480
1.4456335 -1.0849915 -0.23142 4288177920
1.3511672 -1.0140252 -0.20922866 4287786240
1.2872348 -0.96598202 -0.19237055 4287525120
1.2555982 -0.9421792 -0.1806455 4287394560
1.2659397 -0.94987714 -0.17487539 4287394560
1.3238364 -0.99325395 -0.17507984 4287655680
1.4268508 -1.070474 -0.1800946 4288047360
1.471671 -1.1040275 -0.17666675 4288308480
1.4806435 -1.1106858 -0.16840741 4288308480
1.4833235 -1.1126233 -0.15917332 4288308480
1.4842062 -1.1132126 -0.14954874 4288308480
1.4751498 -1.1063476 -0.13881356 4288308480
1.4932435 -1.1198443 -0.1304197 4288308480
1.4968449 -1.1224717 -0.12047105 4288308480
1.4905831 -1.1177028 -0.1096165 4288308480
1.4905422 -1.117599 -0.099144414 4288308480
1.4723657 -1.1038982 -0.087488085 4288177920
1.4725704 -1.1039793 -0.076957062 4288177920
1.4800142 -1.1094873 -0.066666335 4288308480
1.4571398 -1.0922682 -0.055050783 4288177920
1.4697298 -1.1016334 -0.044790283 4288177920
1.47795 -1.1077224 -0.034196481 4288177920
1.4837178 -1.1119726 -0.023406779 4288308480
1.4797087 -1.1088953 -0.01242523 4288308480
1.4870349 -1.1143126 -0.0015014461 4288308480
1.4850504 -1.1127527 0.0094723003 4288308480
1.3855401 -1.0381215 0.019064121 4287786240
1.2683032 -0.95021886 0.026792983 4287394560
1.2647209 -0.94747305 0.036003634 4287394560
1.2694907 -0.95098412 0.045421317 4287394560
1.2800639 -0.9588418 0.055108905 4287394560
1.2580224 -0.94226974 0.063249975 4287264000
1.2303816 -0.92150617 0.070683144 4287264000
1.2232133 -0.91607749 0.078966215 4287133440
1.2270592 -0.91889751 0.087850288 4287133440
1.162517 -0.87050724 0.091320075 4286872320
1.0728785 -0.80333227 0.091653243 4286480640
1.0724277 -0.80294222 0.098885886 4286480640
0.99488097 -0.74483305 0.098380163 4286219520
1.0404739 -0.77891588 0.10972472 4286350080
1.109468 -0.83051163 0.12416098 4286741760
1.0515321 -0.78709114 0.12433383 4286480640
1.0107112 -0.75648636 0.12577289 4286350080
1.0084012 -0.75470793 0.13159761 4286219520
0.98269719 -0.73542243 0.13405688 4286219520
1.0376209 -0.77647489 0.14753011 4286350080
1.0220046 -0.7647388 0.1510379 4286350080
1.0194004 -0.76274019 0.15619761 4286350080
0.97893423 -0.73241442 0.15515296 4286219520
1.1507597 -0.86091363 0.18824095 4286872320
1.344663 -1.0059119 0.22655253 4287786240
1.4360201 -1.0741838 0.24871117 4288177920
1.4775959 -1.1052113 0.26258337 4288308480
1.4980183 -1.1204134 0.27267295 4288439040
1.508368 -1.1280804 0.28074801 4288439040
1.7260933 -1.2908285 0.3279894 4289352960
1.7341983 -1.2968047 0.33589944 4289352960
1.7434181 -1.3036138 0.34370041 4289483520
1.7005495 -1.271476 0.34072974 4289222400
1.6440611 -1.22916 0.33432916 4288961280
1.6545826 -1.2369453 0.34102824 4289091840
1.6619813 -1.242395 0.34673557 4289091840
1.6615248 -1.2419723 0.35041863 4289091840
1.6611173 -1.2415864 0.35370228 4289091840
1.6607611 -1.241239 0.35658303 4289091840
1.6675614 -1.2462398 0.36059394 4289091840
1.6602094 -1.240664 0.36112428 4289091840
1.5713563 -1.1741877 0.34340417 4288700160
1.5751728 -1.1769625 0.34544629 4288700160
1.5861442 -1.1850827 0.3486616 4288830720
1.5900702 -1.1879381 0.34992641 4288830720
1.6598223 -1.2399685 0.36526835 4289091840
1.670966 -1.2482116 0.36728153 4289091840
1.6671774 -1.2452999 0.36558148 4289091840
1.6563433 -1.2371264 0.36191896 4289091840
1.6605599 -1.2401943 0.36112577 4289091840
1.6419392 -1.226207 0.35496357 4288961280
1.7060388 -1.2739935 0.36619511 4289352960
1.6914774 -1.2630368 0.36004263 4289222400
1.7301949 -1.2918628 0.3647587 4289352960
1.7240102 -1.2871606 0.35951942 4289352960
1.7007728 -1.2697282 0.35037938 4289222400
1.6663889 -1.243977 0.33869055 4289091840
1.6251224 -1.2130916 0.32542983 4288961280
1.5587534 -1.1634734 0.30710474 4288700160
1.4732511 -1.0995814 0.2851662 4288308480
1.3848276 -1.0335176 0.26295543 4287916800
1.1330781 -0.84557772 0.21073675 4286872320
1.0344452 -0.77192074 0.18814108 4286350080
1.0730777 -0.80041015 0.16161199 4286611200
1.073657 -0.80078989 0.1557772 4286611200
1.0973351 -0.81839651 0.15298222 4286611200
1.1090745 -0.82709754 0.14814961 4286741760
1.0521679 -0.78460783 0.13425475 4286480640
1.0144041 -0.75639749 0.12322542 4286350080
1.0069872 -0.75081784 0.11602411 4286219520
1.1800377 -0.8797881 0.1284301 4287002880
1.1995635 -0.89428705 0.12275448 4287133440
1.2040905 -0.89760303 0.11525267 4287133440
1.2538984 -0.93467164 0.11159452 4287264000
1.2482445 -0.93039626 0.10258266 4287264000
1.2439812 -0.92715776 0.093641557 4287264000
1.2609754 -0.93976212 0.08610975 4287264000
1.2628427 -0.94109195 0.077319868 4287264000
1.2728113 -0.94845867 0.068858288 4287394560
1.2619561 -0.94030803 0.059202924 4287264000
1.2702545 -0.94642919 0.050400436 4287394560
1.2167276 -0.90648848 0.0394204 4287133440
1.2462955 -0.92845625 0.031263731 4287264000
1.309044 -0.97513837 0.023229288 4287525120
1.368384 -1.0192753 0.014212498 4287786240
1.4029449 -1.0449502 0.0042321095 4287916800
1.4046328 -1.0461389 -0.0061186692 4287916800
1.43392 -1.0678813 -0.016810814 4288047360
1.4449128 -1.0759974 -0.027566485 4288047360
1.4556193 -1.0838993 -0.038445834 4288177920
1.4501371 -1.0797462 -0.048894092 4288047360
1.4605604 -1.0874358 -0.059861038 4288177920
1.4746773 -1.0978744 -0.07109189 4288177920
1.4790237 -1.101038 -0.081907414 4288177920
1.4636251 -1.0895033 -0.091461882 4288177920
1.4621551 -1.0883375 -0.10166715 4288177920
1.466783 -1.0917107 -0.11220731 4288177920
1.4756819 -1.0982621 -0.12304499 4288177920
1.4375094 -1.0697824 -0.12962504 4288047360
1.3469697 -1.0023377 -0.13047555 4287655680
1.3212636 -0.98314422 -0.13668756 4287525120
1.2996415 -0.9669919 -0.14286229 4287525120
1.2815377 -0.95345926 -0.14901112 4287394560
1.3063512 -0.97185671 -0.16002475 4287525120
1.3935373 -1.0366505 -0.1791864 4287916800
1.4523224 -1.0803099 -0.19537692 4288177920
1.4742911 -1.0965793 -0.20687351 4288308480
1.4654567 -1.0899369 -0.21389401 4288177920
1.4703165 -1.0934795 -0.22265035 4288177920
1.4815311 -1.1017476 -0.23220487 4288308480
1.4889307 -1.1071776 -0.24099718 4288308480
1.4898648 -1.1077996 -0.24851325 4288308480
1.4860884 -1.1049191 -0.25494871 4288308480
1.4559813 -1.0824631 -0.2564221 4288177920
1.4660414 -1.089871 -0.26458412 4288177920
1.4653744 -1.0893036 -0.27054909 4288177920
1.4686967 -1.0917017 -0.27695122 4288308480
1.4801461 -1.10014 -0.28462377 4288308480
1.4815447 -1.1011072 -0.2900838 4288308480
1.4780697 -1.0984524 -0.29424864 4288308480
1.4720688 -1.0939211 -0.29754102 4288308480
1.4815725 -1.1009111 -0.30363128 4288308480
1.4843132 -1.1028754 -0.30801722 4288308480
1.4798107 -1.0994577 -0.31053874 4288308480
1.4852211 -1.1034051 -0.31477997 4288308480
1.480993 -1.1001918 -0.31661507 4288308480
1.4770664 -1.0972028 -0.31813118 4288308480
1.4642574 -1.0876166 -0.31733912 4288308480
1.4751449 -1.0956316 -0.32130629 4288308480
1.4678937 -1.0901743 -0.3209525 4288308480
1.4638691 -1.0871141 -0.32092011 4288308480
1.4717323 -1.0928817 -0.32311818 4288308480
1.4638456 -1.0869539 -0.32148194 4288308480
1.4685817 -1.090399 -0.32223988 4288308480
1.4786043 -1.0977687 -0.32377496 4288308480
1.4696387 -1.0910406 -0.32077494 4288308480
1.4751649 -1.0950713 -0.3205637 4288308480
1.4673685 -1.0892122 -0.31708676 4288308480
1.471297 -1.0920566 -0.31577677 4288308480
1.4681437 -1.0896446 -0.31257805 4288308480
1.4680012 -1.0894674 -0.30966184 4288308480
1.4670078 -1.0886586 -0.30620822 4288308480
1.4554217 -1.0799897 -0.30021849 4288177920
1.4448634 -1.0720845 -0.29414949 4288177920
1.4375051 -1.0665548 -0.28844145 4288177920
1.4383112 -1.0670828 -0.28405741 4288177920
1.419578 -1.0531154 -0.27554798 4288047360
1.4234072 -1.0558867 -0.27115083 4288047360
1.4363242 -1.0653988 -0.26811048 4288047360
1.4408027 -1.0686505 -0.26312053 4288177920
1.4455098 -1.0720714 -0.2578339 4288177920
1.4403098 -1.0681446 -0.2504898 4288177920
1.420087 -1.0530782 -0.24036597 4288047360
1.4086609 -1.0445364 -0.23160838 4287916800
1.3892365 -1.0300653 -0.22142734 4287916800
1.3214293 -0.97972459 -0.20373638 4287655680
1.2679055 -0.93997955 -0.18866022 4287394560
1.2485808 -0.92559224 -0.17885698 4287264000
1.2617395 -0.93528551 -0.17353947 4287394560
1.3040035 -0.96655101 -0.17170922 4287525120
1.37661 -1.0203012 -0.17300005 4287786240
1.3840742 -1.0257661 -0.16543095 4287786240
1.391217 -1.030992 -0.15755022 4287916800
1.3894486 -1.029614 -0.14845352 4287916800
1.3813 -1.0235084 -0.13857669 4287786240
1.3603189 -1.0078957 -0.12745306 4287786240
1.356874 -1.0052773 -0.11799565 4287655680
1.3361062 -0.9898259 -0.1070683 4287655680
1.316572 -0.9752903 -0.096400328 4287525120
1.1681666 -0.86529773 -0.077364743 4286872320
1.2516962 -0.92710984 -0.07405366 4287264000
1.2487402 -0.92485958 -0.064976908 4287264000
1.225446 -0.90754747 -0.054960351 4287133440
1.210052 -0.89608806 -0.045517776 4287133440
1.2463006 -0.92287081 -0.037816729 4287264000
1.239818 -0.91801029 -0.028562397 4287264000
1.2305901 -0.91111773 -0.019329423 4287133440
1.2423673 -0.91977698 -0.01038708 4287264000
1.2519457 -0.92680746 -0.001258605 4287264000
1.2518318 -0.92666221 0.0079501579 4287264000
1.2161747 -0.90020818 0.016661314 4287133440
1.272613 -0.94192165 0.026767643 4287394560
1.2773724 -0.94538218 0.036206372 4287394560
1.2750671 -0.94361407 0.045423359 4287394560
1.2666421 -0.93731749 0.054295041 4287264000
1.2551533 -0.92875481 0.062832601 4287264000
1.2357296 -0.91432208 0.070683144 4287264000
1.2285298 -0.90893525 0.078966215 4287133440
1.2323921 -0.91173285 0.087850288 4287133440
1.1765186 -0.87033999 0.092020065 4287002880
1.0967906 -0.81130719 0.093290605 4286611200
1.0578448 -0.78244716 0.097119212 4286480640
1.0200567 -0.75444722 0.10043333 4286350080
1.0650876 -0.78770083 0.1118345 4286480640
1.0646371 -0.78731591 0.11862856 4286480640
1.1148883 -0.82442337 0.13125494 4286741760
1.1111811 -0.82162803 0.13767736 4286741760
1.0026314 -0.7413156 0.13027878 4286219520
1.0274456 -0.7596125 0.13955522 4286350080
1.0350006 -0.76514781 0.14652121 4286350080
1.1010629 -0.81393242 0.16201803 4286611200
1.0107701 -0.74713665 0.15420562 4286219520
0.99458545 -0.73512506 0.15695207 4286219520
1.1174816 -0.82590663 0.18200709 4286741760
1.2176441 -0.89987546 0.20426522 4287133440
1.2664448 -0.93587911 0.21839352 4287394560
1.3311338 -0.98361844 0.23553319 4287655680
1.4260188 -1.0536628 0.25844562 4288047360
1.499864 -1.108153 0.27795875 4288308480
1.6379149 -1.2100704 0.30988896 4288961280
1.7095578 -1.2629162 0.32969597 4289222400
1.7014238 -1.2568247 0.33397231 4289222400
1.7118995 -1.2644799 0.34152195 4289222400
1.6511945 -1.2195605 0.33432916 4288961280
1.6617612 -1.2272843 0.34102824 4289091840
1.6652246 -1.2297612 0.3459115 4289091840
1.6687325 -1.232271 0.35041863 4289091840
1.6683229 -1.2318875 0.35370228 4289091840
1.6751002 -1.2368104 0.35810849 4289091840
1.6787574 -1.2394292 0.3614473 4289091840
1.5823172 -1.1681505 0.34269515 4288700160
1.5932279 -1.176128 0.34668055 4288830720
1.5891351 -1.1730295 0.34700358 4288830720
1.5890599 -1.172897 0.34779444 4288830720
1.5890408 -1.1728057 0.34819019 4288830720
1.6781119 -1.238464 0.36769909 4289091840
1.6671159 -1.230268 0.36485353 4289091840
1.6744045 -1.2355654 0.36558148 4289091840
1.6746196 -1.2356428 0.36433315 4289091840
1.671721 -1.233423 0.36198404 4289091840
1.6561915 -1.2218847 0.35649961 4289091840
1.6533988 -1.2197441 0.35336474 4289091840
1.7059469 -1.2584271 0.36155578 4289222400
1.6913682 -1.2475908 0.35503483 4289222400
1.6961812 -1.2510587 0.35219005 4289222400
1.6054589 -1.1840664 0.32931677 4288830720
1.4948546 -1.1024204 0.30251592 4288308480
1.4743721 -1.0872437 0.29396868 4288308480
1.428888 -1.053633 0.28030452 4288047360
1.391348 -1.0258844 0.26815134 4287916800
1.2878759 -0.94952863 0.24349131 4287525120
1.1077332 -0.81665885 0.20513453 4286741760
1.0812036 -0.79704791 0.1957974 4286611200
1.2023311 -0.88596505 0.18029785 4287133440
1.1137798 -0.82066 0.16090214 4286741760
1.0636797 -0.78369355 0.14765118 4286480640
1.0674441 -0.78641528 0.1419742 4286480640
1.0992353 -0.80978346 0.13965607 4286611200
1.0260059 -0.75578719 0.12409774 4286350080
1.0386038 -0.76501685 0.11915136 4286350080
1.1943704 -0.87969387 0.12942998 4287002880
1.1967285 -0.88137269 0.12193681 4287002880
1.2125111 -0.89293754 0.11555873 4287133440
1.2543792 -0.92370999 0.11115646 4287264000
1.2323512 -0.9074291 0.10084032 4287133440
1.2240759 -0.90127641 0.091746323 4287133440
1.2512686 -0.92123759 0.085078925 4287264000
1.2583851 -0.92641604 0.076715164 4287264000
1.2477421 -0.91852027 0.067211404 4287264000
1.2462018 -0.91732603 0.058212109 4287264000
1.2602559 -0.92761022 0.049788438 4287264000
1.2499406 -0.91995716 0.040322121 4287264000
1.208127 -0.88912374 0.030175805 4287133440
1.2427716 -0.91456032 0.02195834 4287264000
1.2424792 -0.91428494 0.012849262 4287264000
1.2370925 -0.91026121 0.0037157396 4287133440
1.2201319 -0.89772242 -0.0052920976 4287133440
1.2272499 -0.9029001 -0.014325963 4287133440
1.2346648 -0.90829557 -0.023453951 4287133440
1.2316947 -0.90605086 -0.032391556 4287133440
1.2429183 -0.91424698 -0.04172701 4287264000
1.258155 -0.92539364 -0.051343605 4287264000
1.2567813 -0.92432249 -0.060326818 4287264000
1.2290936 -0.90389949 -0.06777364 4287133440
1.2491698 -0.91860348 -0.077724807 4287264000
1.2606181 -0.92696118 -0.087276794 4287264000
1.2744303 -0.93705589 -0.097073227 4287394560
1.2429497 -0.91384894 -0.10319366 4287264000
1.2714281 -0.9347254 -0.1141559 4287394560
1.28953 -0.94797122 -0.12437449 4287394560
1.2922276 -0.94989175 -0.13310894 4287394560
1.2891731 -0.94758403 -0.14110228 4287394560
1.2583147 -0.92484123 -0.14568186 4287264000
1.2829615 -0.9428941 -0.15648395 4287394560
1.2979593 -0.95385373 -0.1661792 4287525120
1.3168645 -0.9676832 -0.17639269 4287525120
1.3211447 -0.97076458 -0.18458712 4287525120
1.2969091 -0.95289373 -0.18847974 4287525120
1.324162 -0.9728536 -0.19965644 4287655680
1.3328172 -0.97914797 -0.20799881 4287655680
1.3405126 -0.98473656 -0.21604204 4287655680
1.3434042 -0.98679566 -0.22312045 4287655680
1.3571827 -0.99685109 -0.23183373 4287786240
1.3143812 -0.96534973 -0.23048954 4287525120
1.3104541 -0.96240216 -0.2354885 4287525120
1.3159564 -0.9663794 -0.24191871 4287525120
1.3284072 -0.9754585 -0.24942099 4287655680
1.331152 -0.9774096 -0.25487366 4287655680
1.3359575 -0.98087353 -0.26045471 4287655680
1.3386551 -0.9827894 -0.26535007 4287655680
1.353452 -0.99358726 -0.27239096 4287786240
1.3560748 -0.99544716 -0.27671868 4287786240
1.3628696 -1.0003691 -0.28160155 4287786240
1.3533384 -0.99330759 -0.28277922 4287786240
1.3649284 -1.0017482 -0.28804305 4287786240
1.3610424 -0.9988305 -0.28972232 4287786240
1.3467066 -0.98824483 -0.28880921 4287786240
1.344232 -0.98636383 -0.29007638 4287655680
1.3512108 -0.99141943 -0.29304865 4287786240
1.351087 -0.99126333 -0.29414514 4287786240
1.3438634 -0.98589855 -0.2933473 4287655680
1.3398637 -0.98289955 -0.29290423 4287655680
1.3421414 -0.98450553 -0.29348922 4287655680
1.3350596 -0.97924638 -0.29168528 4287655680
1.3381236 -0.98142898 -0.29175636 4287655680
1.3482044 -0.98875755 -0.29300734 4287786240
1.3380035 -0.98121172 -0.28951034 4287655680
1.3370764 -0.98046726 -0.28769234 4287655680
1.3331602 -0.97753108 -0.28490198 4287655680
1.3220972 -0.96935534 -0.28027654 4287655680
1.3085219 -0.95933884 -0.27483737 4287525120
1.3110607 -0.96113682 -0.27248394 4287525120
1.3090439 -0.95959508 -0.26886645 4287525120
1.2965086 -0.95034343 -0.2628153 4287525120
1.2930386 -0.94773751 -0.25834128 4287525120
1.284938 -0.94173807 -0.25267926 4287394560
1.2668718 -0.9284361 -0.24485274 4287394560
1.2755269 -0.93471742 -0.24193896 4287394560
1.2805685 -0.93835014 -0.23801187 4287394560
1.2938923 -0.9480508 -0.23527892 4287525120
1.2945491 -0.94846952 -0.22991763 4287525120
1.2857122 -0.94193304 -0.22264495 4287394560
1.2567098 -0.92062473 -0.21180101 4287264000
1.256981 -0.92076272 -0.20578404 4287264000
1.2656968 -0.92708606 -0.20087227 4287394560
1.2715793 -0.93133348 -0.19521064 4287394560
1.2536802 -0.91816324 -0.1857444 4287264000
1.2356175 -0.90487498 -0.17624182 4287264000
1.2491802 -0.91474694 -0.17107613 4287264000
1.2677203 -0.92826235 -0.16621654 4287394560
1.2744963 -0.93316239 -0.15948133 4287394560
1.2346784 -0.9039489 -0.14694248 4287133440
1.235284 -0.9043327 -0.13929233 4287133440
1.246621 -0.91257221 -0.13262299 4287264000
1.2592541 -0.92175931 -0.12579171 4287264000
1.224902 -0.89655483 -0.11427402 4287133440
1.2340229 -0.90317124 -0.10685293 4287133440
1.2592067 -0.92154235 -0.10047403 4287264000
1.2460669 -0.91186595 -0.090847351 4287264000
1.234031 -0.90299863 -0.081376955 4287133440
1.2327019 -0.90196657 -0.072617769 4287133440
1.2350228 -0.90360522 -0.063988104 4287133440
1.2331734 -0.90219259 -0.055070236 4287133440
1.2042925 -0.88100529 -0.045107279 4287002880
1.2204894 -0.89279521 -0.036875077 4287133440
1.2304277 -0.90000588 -0.028224787 4287133440
1.2301307 -0.89972925 -0.019239541 4287133440
1.2225959 -0.89415938 -0.010178049 4287133440
1.2367769 -0.90447116 -0.0012380368 4287133440
1.2407689 -0.90733063 0.0078461925 4287133440
1.2403185 -0.90694153 0.016919401 4287133440
1.2502745 -0.91416126 0.026185311 4287264000
1.2503222 -0.91413581 0.035288092 4287264000
1.254241 -0.91694045 0.044490371 4287264000
1.2564566 -0.91849971 0.053628135 4287264000
1.2475996 -0.91196483 0.062187418 4287264000
1.2450681 -0.91005433 0.070912808 4287264000
1.2370298 -0.90411925 0.079172634 4287133440
1.2395778 -0.90592188 0.087984771 4287133440
1.1763557 -0.85966051 0.091614023 4286872320
1.1168038 -0.81608713 0.094586842 4286741760
1.1091534 -0.81044334 0.10139456 4286611200
1.0651976 -0.77827406 0.1044296 4286480640
1.1399503 -0.83283633 0.11918359 4286741760
1.1282082 -0.82420331 0.12517487 4286741760
1.2081629 -0.88255537 0.14162831 4287133440
1.2128125 -0.8858934 0.1496276 4287133440
1.0130709 -0.73994428 0.13107286 4286219520
1.0704514 -0.78180325 0.14477544 4286480640
1.1478112 -0.8382476 0.16179727 4286872320
1.1980765 -0.87489873 0.17554022 4287002880
1.0688772 -0.78049904 0.16237406 4286480640
1.066167 -0.77846867 0.16752949 4286480640
1.2993002 -0.94862986 0.21071658 4287525120
1.4234064 -1.0391723 0.23776305 4288047360
1.4995198 -1.0946674 0.2574822 4288308480
1.478137 -1.0789865 0.26042745 4288308480
1.477692 -1.0785905 0.26666719 4288308480
1.5254687 -1.1133901 0.28149694 4288439040
1.6529229 -1.2063352 0.31139338 4288961280
1.6782696 -1.2247529 0.32228029 4289091840
1.6967487 -1.2381568 0.331633 4289222400
1.7272136 -1.2603045 0.34310639 4289352960
1.6622585 -1.2128283 0.3351329 4289091840
1.664898 -1.2146741 0.34021387 4289091840
1.6763452 -1.222945 0.34673557 4289091840
1.6758837 -1.2225276 0.35041863 4289091840
1.6754718 -1.2221465 0.35370228 4289091840
1.6822777 -1.2270299 0.35810849 4289091840
1.6004803 -1.167291 0.34312361 4288830720
1.5930761 -1.1618142 0.34355342 4288700160
1.6743579 -1.2210116 0.36278 4289091840
1.5959424 -1.163751 0.34700358 4288830720
1.5998454 -1.1665201 0.3486616 4288830720
1.5998256 -1.1664287 0.3490583 4288830720
1.6852989 -1.2286659 0.36769909 4289091840
1.6814179 -1.2257556 0.36641437 4289091840
1.6783912 -1.2234683 0.36488935 4289091840
1.6666662 -1.2148411 0.36105675 4289091840
1.6669369 -1.2149583 0.35940921 4289091840
1.6672637 -1.2151164 0.35735297 4289091840
1.6564949 -1.2071882 0.35251725 4288961280
1.7212167 -1.2542721 0.36323705 4289352960
1.6946237 -1.234812 0.35420197 4289222400
1.6688615 -1.2159597 0.34504059 4289091840
1.6274816 -1.1857314 0.33241144 4288830720
1.5323641 -1.1163582 0.30878529 4288439040
1.5149984 -1.103634 0.30078182 4288439040
1.5156411 -1.1040293 0.29605597 4288439040
1.5153946 -1.1037768 0.29081419 4288439040
1.451493 -1.0571628 0.2732563 4288177920
1.3052034 -0.95055318 0.24067318 4287525120
1.105027 -0.80471563 0.19925919 4286611200
1.2065459 -0.87827057 0.18015951 4287133440
1.1113143 -0.80889606 0.15986243 4286741760
1.0642101 -0.7745589 0.14709586 4286480640
1.0647722 -0.77491695 0.14101593 4286480640
1.0725644 -0.78053635 0.13568752 4286480640
1.0424634 -0.75858092 0.12555161 4286350080
1.0736398 -0.78121573 0.12264653 4286480640
1.1964959 -0.87055242 0.12910847 4287002880
1.2139322 -0.88318044 0.12316333 4287133440
1.2297871 -0.89465648 0.11670647 4287133440
1.2459298 -0.90634024 0.10993791 4287264000
1.2290875 -0.89402938 0.10014533 4287133440
1.2312469 -0.89554107 0.09189117 4287133440
1.2416958 -0.9030813 0.084068835 4287133440
1.2334689 -0.8970387 0.074876308 4287133440
1.2284164 -0.8933053 0.065888926 4287133440
1.2327284 -0.89638168 0.057337813 4287133440
1.2424984 -0.90342635 0.048878122 4287133440
1.2442182 -0.90461707 0.039966814 4287264000
1.2318578 -0.89557117 0.030637689 4287133440
1.2221003 -0.88841861 0.021501279 4287133440
1.2181653 -0.8854996 0.012544248 4287133440
1.2239698 -0.88966024 0.0036606931 4287133440
1.2078726 -0.87790173 -0.0052166516 4287002880
1.2141926 -0.88243693 -0.014113287 4287133440
1.2161698 -0.88381553 -0.023004407 4287133440
1.2181989 -0.88523161 -0.031900462 4287133440
1.2159232 -0.88351953 -0.040647231 4287133440
1.2260385 -0.89081073 -0.04982033 4287133440
1.2386148 -0.89988887 -0.059202123 4287133440
1.2501512 -0.9082104 -0.068641827 4287264000
1.2380995 -0.89939564 -0.076708645 4287133440
1.2377583 -0.89908844 -0.085330017 4287133440
1.2492023 -0.90734118 -0.094747335 4287264000
1.2496799 -0.90762812 -0.10331163 4287264000
1.239764 -0.90036684 -0.11084004 4287133440
1.2516831 -0.90896291 -0.12021133 4287264000
1.2643545 -0.91810411 -0.12968458 4287264000
1.2701491 -0.92225087 -0.1384296 4287264000
1.2450567 -0.90397173 -0.14353472 4287264000
1.2492646 -0.90696687 -0.15172681 4287264000
1.2719722 -0.92339158 -0.16216049 4287394560
1.267231 -0.91988891 -0.16902354 4287264000
1.2601439 -0.91468388 -0.17531666 4287264000
1.2192953 -0.88497514 -0.17644778 4287133440
1.269559 -0.9213962 -0.19061075 4287394560
1.280172 -0.92903721 -0.19893494 4287394560
1.2789648 -0.92809981 -0.2052478 4287394560
1.280915 -0.92945361 -0.21183889 4287394560
1.2721115 -0.92300469 -0.2163796 4287394560
1.2445675 -0.90295988 -0.2173208 4287264000
1.2658634 -0.9183498 -0.22651023 4287394560
1.2684896 -0.92019415 -0.23220311 4287394560
1.2646725 -0.91736454 -0.23644663 4287394560
1.2687011 -0.92022592 -0.24188562 4287394560
1.2717484 -0.92237526 -0.24688476 4287394560
1.2627224 -0.91576833 -0.24923673 4287394560
1.2674975 -0.91917068 -0.25400996 4287394560
1.2623408 -0.91537058 -0.25649881 4287394560
1.2608674 -0.91424167 -0.25942045 4287394560
1.2561158 -0.9107362 -0.26135147 4287264000
1.2558087 -0.91045332 -0.26389143 4287264000
1.2338043 -0.89444119 -0.26152366 4287264000
1.2455345 -0.90288526 -0.26597962 4287264000
1.2350892 -0.89525419 -0.26539397 4287264000
1.2106309 -0.87746769 -0.26144668 4287133440
1.2459853 -0.90303284 -0.27011341 4287264000
1.2379394 -0.89714223 -0.26907995 4287264000
1.2267476 -0.88897276 -0.26703942 4287264000
1.2370077 -0.89634848 -0.26935282 4287264000
1.2298901 -0.89113212 -0.26756883 4287264000
1.2361476 -0.89560682 -0.26837987 4287264000
1.2550325 -0.9092291 -0.27160224 4287264000
1.2556269 -0.90959954 -0.27053481 4287264000
1.2721022 -0.92147362 -0.27255234 4287394560
1.2699242 -0.91983509 -0.27023828 4287394560
1.2570344 -0.91043854 -0.2653546 4287264000
1.2656779 -0.9166382 -0.26471236 4287394560
1.2688676 -0.9188875 -0.26259762 4287394560
1.2626247 -0.91430604 -0.25823385 4287394560
1.2674273 -0.91772312 -0.25583202 4287394560
1.2519337 -0.90644443 -0.24906936 4287264000
1.2449726 -0.90134472 -0.24378334 4287264000
1.228941 -0.88967919 -0.23651585 4287133440
1.2273847 -0.88849372 -0.23182161 4287133440
1.2354164 -0.89424872 -0.22864746 4287264000
1.2435811 -0.9000991 -0.22517298 4287264000
1.2656534 -0.91601443 -0.22383398 4287394560
1.2488689 -0.90380687 -0.2153493 4287264000
1.2286004 -0.88907975 -0.20618704 4287133440
1.2252414 -0.88659036 -0.1997388 4287133440
1.2388163 -0.8963539 -0.19577406 4287264000
1.257562 -0.90985733 -0.19224165 4287264000
1.2351199 -0.89356118 -0.1822201 4287133440
1.2274095 -0.88792425 -0.17433022 4287133440
1.2382653 -0.89571816 -0.16886377 4287133440
1.2512138 -0.90502483 -0.16335815 4287264000
1.2486351 -0.90309978 -0.15558419 4287264000
1.2240496 -0.88525927 -0.14506119 4287133440
1.2246495 -0.88563466 -0.137509 4287133440
1.2312695 -0.89036304 -0.13043569 4287133440
1.2285995 -0.88837361 -0.1222104 4287133440
1.2170132 -0.87993753 -0.11305785 4287133440
1.224615 -0.88537526 -0.10558984 4287133440
1.2375647 -0.89467847 -0.098329581 4287133440
1.2299244 -0.88909626 -0.089291267 4287133440
1.2249286 -0.88542622 -0.080435157 4287133440
1.2149936 -0.87818676 -0.071271956 4287133440
1.2116251 -0.87569404 -0.062510438 4287002880
1.2156318 -0.87853181 -0.054057378 4287133440
1.2095475 -0.87407678 -0.045112591 4287002880
1.2097678 -0.87417817 -0.036396641 4287002880
1.2044821 -0.87030107 -0.027512835 4287002880
1.2164347 -0.87887931 -0.018944923 4287133440
1.2263941 -0.88601631 -0.010166519 4287133440
1.2310456 -0.88931799 -0.0012270921 4287133440
1.2264614 -0.8859477 0.007722945 4287133440
1.2382423 -0.89439857 0.016819708 4287133440
1.2377055 -0.89395159 0.025812546 4287133440
1.2535315 -0.90532231 0.035229202 4287264000
1.2514148 -0.90373379 0.044202596 4287264000
1.2635658 -0.91244847 0.053703751 4287264000
1.2505347 -0.9029786 0.062070426 4287264000
1.2506915 -0.90303212 0.070932232 4287264000
1.2503732 -0.90274256 0.079688661 4287264000
1.2499794 -0.90239847 0.088348381 4287264000
1.2161404 -0.87791097 0.094312482 4287133440
1.1644132 -0.8405143 0.098202668 4286872320
1.0862976 -0.78407586 0.098885886 4286480640
1.0481786 -0.75651187 0.10232724 4286350080
1.100858 -0.79448014 0.11461053 4286611200
1.0810077 -0.78010273 0.11943165 4286480640
1.1709987 -0.84498817 0.13669224 4286872320
1.1543269 -0.83290273 0.14181098 4286872320
1.0641456 -0.76778173 0.13709991 4286480640
1.032196 -0.74468082 0.13901235 4286350080
1.055127 -0.76117402 0.1481047 4286480640
1.0666893 -0.76946414 0.15563008 4286480640
1.0813918 -0.78001833 0.16358203 4286480640
1.0771066 -0.77687585 0.16853438 4286480640
1.4096551 -1.0166631 0.22764909 4287916800
1.5106208 -1.0894089 0.25126669 4288308480
1.5858358 -1.1435755 0.27115482 4288700160
1.5341862 -1.106257 0.26916239 4288439040
1.5072281 -1.0867462 0.27085012 4288308480
1.6068339 -1.1584876 0.29526082 4288830720
1.6903971 -1.2186539 0.31711012 4289091840
1.701409 -1.2265115 0.32534599 4289222400
1.7199595 -1.239802 0.33475208 4289222400
1.6658849 -1.2007438 0.32952827 4288961280
1.6724993 -1.2054315 0.33577591 4289091840
1.6839533 -1.2136064 0.342657 4289091840
1.6834419 -1.2131574 0.34673557 4289091840
1.6829779 -1.2127428 0.35041863 4289091840
1.6897618 -1.2175506 0.3552154 4289091840
1.6075488 -1.1582357 0.34075856 4288830720
1.6000589 -1.1527628 0.34158757 4288700160
1.6030153 -1.1548163 0.34424004 4288830720
1.6068242 -1.1574835 0.34668055 4288830720
1.6066915 -1.1573112 0.34786874 4288830720
1.5994223 -1.151999 0.34710076 4288700160
1.5994021 -1.151908 0.3474957 4288700160
1.6066306 -1.1570374 0.34905845 4288830720
1.6853341 -1.2136364 0.36572069 4289091840
1.6854908 -1.2136689 0.36488935 4289091840
1.6817095 -1.2108659 0.36278117 4289091840
1.6779847 -1.2081039 0.36026749 4289091840
1.6783133 -1.2082603 0.35820633 4289091840
1.6635001 -1.1975167 0.35251725 4288961280
1.7204946 -1.2384636 0.36155578 4289222400
1.7137934 -1.2335582 0.35670048 4289222400
1.6831224 -1.2114015 0.34652394 4289091840
1.6455737 -1.1842979 0.3346917 4288961280
1.5428479 -1.110294 0.30958906 4288569600
1.5326228 -1.1028625 0.30300003 4288439040
1.5493082 -1.1147952 0.30135846 4288569600
1.601786 -1.1524789 0.30609947 4288700160
1.522507 -1.0953654 0.28541902 4288439040
1.3412293 -0.96488154 0.2462754 4287655680
1.1603042 -0.83466852 0.20834637 4286872320
1.2001032 -0.86292875 0.17844373 4287002880
1.158752 -0.83314013 0.16598523 4286872320
1.1187335 -0.80431366 0.15398179 4286741760
1.1314343 -0.81339097 0.14921434 4286741760
1.1627164 -0.83582437 0.14647387 4286872320
1.284825 -0.92354149 0.15409034 4287394560
1.3356524 -0.96001291 0.15193583 4287525120
1.2169178 -0.87461334 0.13076003 4287133440
1.2190571 -0.87609285 0.12316333 4287133440
1.2323425 -0.88558185 0.11645734 4287133440
1.2614573 -0.90644413 0.11084013 4287264000
1.2415686 -0.89209354 0.10073707 4287133440
1.2378576 -0.88936818 0.091996253 4287133440
1.2469362 -0.89583158 0.084068835 4287133440
1.2467861 -0.89566439 0.075366654 4287133440
1.2417144 -0.89196175 0.066322319 4287133440
1.2419881 -0.8920992 0.057525773 4287133440
1.2436819 -0.8932566 0.048719116 4287133440
1.2425034 -0.89235103 0.039744049 4287133440
1.233438 -0.88578165 0.030548114 4287133440
1.2192994 -0.87557012 0.021361889 4287133440
1.2223138 -0.87767643 0.012534098 4287133440
1.2235795 -0.8785271 0.0036441551 4287133440
1.2029082 -0.86362785 -0.0051733912 4287002880
1.211356 -0.86963528 -0.014021183 4287002880
1.2223233 -0.87745053 -0.02302371 4287133440
1.221195 -0.87658244 -0.031844638 4287133440
1.2246467 -0.8790018 -0.040766954 4287133440
1.2244606 -0.87880993 -0.049547307 4287133440
1.2301252 -0.88281697 -0.058549508 4287133440
1.2395668 -0.88953382 -0.067774959 4287133440
1.2222532 -0.87705117 -0.075408988 4287133440
1.2292172 -0.88198978 -0.084385507 4287133440
1.2335442 -0.88503587 -0.093167052 4287133440
1.2476103 -0.89506853 -0.10270767 4287264000
1.2461674 -0.89397407 -0.11094499 4287133440
1.2483937 -0.89551169 -0.11939231 4287264000
1.2618688 -0.90511781 -0.12888655 4287264000
1.2669742 -0.90871954 -0.13750421 4287264000
1.2610921 -0.9044407 -0.14477338 4287264000
1.254353 -0.89954787 -0.15170571 4287264000
1.2596357 -0.90327632 -0.15991409 4287264000
1.2677597 -0.9090417 -0.16838479 4287264000
1.2621814 -0.90498179 -0.17486361 4287264000
1.2494946 -0.89582586 -0.18005963 4287264000
1.2539614 -0.89896882 -0.18747938 4287264000
1.2686611 -0.90944666 -0.19631943 4287264000
1.2749461 -0.91389149 -0.20374493 4287394560
1.2692745 -0.90976566 -0.20903361 4287264000
1.2627274 -0.90501291 -0.21388288 4287264000
1.2541143 -0.89878017 -0.21806972 4287264000
1.2535269 -0.89829963 -0.22336245 4287264000
1.2569759 -0.90071142 -0.22913095 4287264000
1.2684771 -0.90889251 -0.23616388 4287394560
1.2667956 -0.90762746 -0.24051003 4287264000
1.2594371 -0.90229541 -0.24347009 4287264000
1.2652428 -0.90639466 -0.24868765 4287264000
1.266675 -0.90736037 -0.25278139 4287394560
1.2616068 -0.90366989 -0.25527552 4287264000
1.2596372 -0.90219927 -0.25808147 4287264000
1.2522284 -0.89683324 -0.25945103 4287264000
1.2582182 -0.90106326 -0.26329011 4287264000
1.2459764 -0.89223725 -0.26299736 4287264000
1.2460529 -0.89223278 -0.2649757 4287264000
1.2371234 -0.88578004 -0.26471764 4287264000
1.2329746 -0.88275093 -0.26515678 4287264000
1.2368653 -0.88547772 -0.26701337 4287264000
1.2439895 -0.89051884 -0.2692627 4287264000
1.2367544 -0.88528079 -0.26809037 4287264000
1.2454983 -0.89148057 -0.27006605 4287264000
1.2492466 -0.89410406 -0.27064201 4287264000
1.2500918 -0.89464962 -0.270271 4287264000
1.2511443 -0.89534342 -0.2696273 4287264000
1.2519103 -0.89583218 -0.26860493 4287264000
1.2670748 -0.9066233 -0.27033889 4287394560
1.2669896 -0.90650213 -0.26848537 4287394560
1.2667991 -0.90630561 -0.26629668 4287394560
1.2616194 -0.90254003 -0.2627593 4287264000
1.2688512 -0.90765315 -0.26149532 4287394560
1.2583898 -0.90011007 -0.25629079 4287264000
1.2588534 -0.90038192 -0.25303817 4287264000
1.2454925 -0.8907665 -0.2467512 4287264000
1.2365779 -0.88433212 -0.24112654 4287264000
1.2255296 -0.87637281 -0.23487264 4287133440
1.2304531 -0.87983525 -0.23142906 4287133440
1.2342585 -0.88249767 -0.2274777 4287133440
1.2443199 -0.88963252 -0.22436444 4287264000
1.260251 -0.90096265 -0.22194642 4287264000
1.2415679 -0.88754702 -0.21319504 4287264000
1.2335619 -0.88176531 -0.20615402 4287133440
1.2301884 -0.87929553 -0.1997067 4287133440
1.2403287 -0.8864845 -0.19519353 4287133440
1.2442293 -0.88921332 -0.1894083 4287264000
1.2416707 -0.88732582 -0.18242073 4287133440
1.2342559 -0.88196844 -0.1745698 4287133440
1.2335032 -0.88137209 -0.16751122 4287133440
1.2482425 -0.89184445 -0.16228905 4287264000
1.244296 -0.88896573 -0.15439554 4287133440
1.2254839 -0.8754676 -0.14462423 4287133440
1.2238605 -0.87424982 -0.13684614 4287133440
1.2325478 -0.88039696 -0.13002551 4287133440
1.233109 -0.88073939 -0.12214645 4287133440
1.2277576 -0.87685889 -0.11357944 4287133440
1.2260368 -0.87557179 -0.1052708 4287133440
1.2401121 -0.88556474 -0.098120369 4287133440
1.2350837 -0.88191539 -0.089291267 4287133440
1.2322918 -0.87986344 -0.080580674 4287133440
1.2200896 -0.87109303 -0.071271956 4287133440
1.2248383 -0.87442529 -0.062928222 4287133440
1.2249745 -0.87446451 -0.054245349 4287133440
1.2087889 -0.86285287 -0.044896033 4287002880
1.2174897 -0.86900592 -0.036476012 4287002880
1.2258084 -0.87488544 -0.027883066 4287133440
1.2298517 -0.87771291 -0.019073913 4287133440
1.2260457 -0.87493855 -0.010121203 4287133440
1.2362061 -0.88213056 -0.0012270921 4287133440
1.2389284 -0.88401443 0.0077688843 4287133440
1.2475022 -0.89007294 0.01687476 4287133440
1.2510322 -0.89253229 0.025981586 4287133440
1.2587849 -0.89800364 0.035229202 4287264000
1.2607278 -0.8993299 0.044345714 4287264000
1.2769967 -0.91087478 0.054048117 4287264000
1.2700828 -0.90588289 0.062777668 4287264000
1.2559315 -0.89573002 0.070932232 4287264000
1.2556115 -0.89544231 0.079688661 4287264000
1.2633443 -0.90089703 0.088920511 4287264000
1.3633924 -0.97217715 0.10529091 4287655680
1.4876482 -1.0607083 0.1249399 4288177920
1.4774889 -1.0533944 0.13393512 4288177920
1.3632318 -0.97186887 0.13252892 4287655680
1.3557326 -0.96645832 0.14055695 4287655680
1.3563503 -0.96683443 0.14922711 4287655680
1.3237545 -0.94353676 0.15387931 4287525120
1.279898 -0.91221637 0.15658201 4287394560
1.2006216 -0.85565716 0.15403797 4287002880
1.180683 -0.84139144 0.15834713 4286872320
1.0675707 -0.76073349 0.1492267 4286480640
1.1058663 -0.78796995 0.16067347 4286611200
1.0199074 -0.72667277 0.1536382 4286219520
1.034518 -0.73703367 0.1611959 4286350080
1.3070353 -0.93112451 0.21019708 4287525120
1.3607795 -0.96934706 0.22539984 4287655680
1.3907776 -0.99065024 0.23681177 4287786240
1.3857783 -0.98702365 0.2421122 4287786240
1.4705713 -1.047348 0.26316181 4288177920
1.5515209 -1.1049273 0.28390914 4288569600
1.6861943 -1.2007561 0.31500396 4289091840
1.6924268 -1.2051142 0.32228029 4289091840
1.7231305 -1.2268956 0.33397231 4289222400
1.7297167 -1.2315031 0.34072974 4289222400
1.6722575 -1.1905149 0.33432916 4288961280
1.6869766 -1.2009138 0.34184262 4289091840
1.6944991 -1.2061887 0.34755963 4289091840
1.6819819 -1.197199 0.34875298 4289091840
1.6895988 -1.2025405 0.35370228 4289091840
1.6892346 -1.2022014 0.35658303 4289091840
1.6099591 -1.1457062 0.34227026 4288830720
1.6024922 -1.1403166 0.34269515 4288700160
1.6023045 -1.1401072 0.34426638 4288700160
1.6021717 -1.1399368 0.34544629 4288700160
1.606107 -1.1426609 0.34710076 4288700160
1.6020739 -1.1397157 0.34662756 4288700160
1.6882664 -1.2009531 0.36526835 4289091840
1.6883637 -1.2009425 0.36485353 4289091840
1.6925334 -1.2038283 0.36488935 4289091840
1.6887357 -1.2010473 0.36278117 4289091840
1.6849948 -1.198307 0.36026749 4289091840
1.6700674 -1.1876122 0.35496357 4288961280
1.6664329 -1.1849488 0.35166976 4288961280
1.7244674 -1.2261338 0.36088327 4289222400
1.7056824 -1.2126966 0.35353571 4289222400
1.6869361 -1.1992887 0.34586468 4289091840
1.6645082 -1.1832653 0.33713487 4288961280
1.5577134 -1.1072733 0.31127217 4288569600
1.4657869 -1.0418597 0.28858158 4288177920
1.422807 -1.011243 0.2756018 4287916800
1.3847769 -0.98414809 0.26352909 4287786240
1.3597571 -0.96630239 0.25384912 4287655680
1.2164603 -0.86441201 0.22243688 4287133440
1.0908713 -0.7751174 0.19506465 4286611200
1.368058 -0.97165459 0.20257178 4287655680
1.3615065 -0.96693712 0.19421849 4287655680
1.3735781 -0.97544539 0.18827301 4287786240
1.4796952 -1.0507344 0.19433257 4288177920
1.563323 -1.1100448 0.19612245 4288569600
1.6010921 -1.1367873 0.191223 4288700160
1.5477666 -1.0988526 0.17533343 4288439040
1.2430336 -0.88244563 0.13301152 4287133440
1.2273916 -0.87128317 0.1234904 4287133440
1.2415464 -0.88127255 0.11683992 4287133440
1.2755846 -0.90537322 0.11161607 4287264000
1.2508136 -0.88773239 0.10106581 4287133440
1.2415985 -0.8811335 0.09189117 4287133440
1.2562059 -0.89144075 0.084342204 4287264000
1.2519833 -0.88838512 0.075366654 4287133440
1.2468901 -0.8847121 0.066322319 4287133440
1.2544996 -0.89005208 0.057864103 4287264000
1.248865 -0.88599551 0.048719116 4287133440
1.259096 -0.89319432 0.04010766 4287264000
1.2418396 -0.88089412 0.030628564 4287133440
1.2284579 -0.87134379 0.021433035 4287133440
1.228567 -0.87136322 0.012545949 4287133440
1.2327557 -0.8742758 0.0036562516 4287133440
1.2160765 -0.86238939 -0.005208327 4287002880
1.2245591 -0.86834705 -0.014115206 4287133440
1.2200739 -0.86510903 -0.022886012 4287002880
1.2303593 -0.87234396 -0.031950533 4287133440
1.2338245 -0.87474257 -0.040902123 4287133440
1.2368981 -0.87686324 -0.049843013 4287133440
1.2349031 -0.87539065 -0.058533169 4287133440
1.2520636 -0.88749617 -0.068174362 4287133440
1.2346758 -0.87511301 -0.075859562 4287133440
1.242481 -0.8805865 -0.084942408 4287133440
1.2460089 -0.88302803 -0.09371832 4287133440
1.2609448 -0.89355344 -0.10337508 4287264000
1.2432168 -0.88093197 -0.11022348 4287133440
1.2622702 -0.89437348 -0.12021901 4287264000
1.2598023 -0.89256543 -0.12814213 4287264000
1.2766001 -0.90440637 -0.13797468 4287264000
1.2623484 -0.89425021 -0.14431703 4287264000
1.2560567 -0.88973385 -0.15128222 4287264000
1.2630459 -0.89462513 -0.15968259 4287264000
1.2679889 -0.89806652 -0.16771741 4287264000
1.2660064 -0.89660257 -0.17466684 4287264000
1.2537166 -0.88783967 -0.17991957 4287264000
1.2605908 -0.89264828 -0.18768977 4287264000
1.267253 -0.8973062 -0.19528922 4287264000
1.2773539 -0.90439802 -0.20328419 4287394560
1.2727238 -0.90105987 -0.20873354 4287264000
1.2636912 -0.8946054 -0.21315965 4287264000
1.2534655 -0.88730717 -0.21705431 4287264000
1.2534198 -0.88721561 -0.22241849 4287264000
1.2563437 -0.88922614 -0.22806744 4287264000
1.2670879 -0.89677101 -0.2349285 4287264000
1.2651428 -0.89533466 -0.23920178 4287264000
1.2683203 -0.89752358 -0.24417232 4287264000
1.2680084 -0.89724308 -0.24819952 4287264000
1.2736082 -0.90114546 -0.25311294 4287394560
1.2742518 -0.90154076 -0.25676695 4287394560
1.2723246 -0.90011722 -0.25960198 4287394560
1.2668313 -0.89617127 -0.26139039 4287264000
1.2649332 -0.89476895 -0.2635999 4287264000
1.2608535 -0.89182365 -0.26503631 4287264000
1.2632645 -0.89346951 -0.26752424 4287264000
1.262718 -0.89302343 -0.26907644 4287264000
1.2553197 -0.88773209 -0.26884535 4287264000
1.2552037 -0.88759089 -0.2698513 4287264000
1.2567294 -0.88861048 -0.27089503 4287264000
1.2583194 -0.88967538 -0.27163675 4287264000
1.2514423 -0.88475412 -0.27023256 4287264000
1.2641287 -0.8936637 -0.27273351 4287264000
1.2567686 -0.88840127 -0.27059087 4287264000
1.2633146 -0.89296913 -0.27112424 4287264000
1.2630072 -0.89269227 -0.2698653 4287264000
1.2660562 -0.89478773 -0.2690047 4287264000
1.2636901 -0.89305592 -0.26667902 4287264000
1.2745483 -0.90066946 -0.26681805 4287394560
1.2737197 -0.90002388 -0.26418281 4287394560
1.2744583 -0.90048581 -0.26156524 4287394560
1.2609893 -0.89090967 -0.2557587 4287264000
1.2582294 -0.88890052 -0.25186744 4287264000
1.2506611 -0.88349485 -0.2467512 4287264000
1.2431161 -0.87810642 -0.24139975 4287264000
1.2404341 -0.87615341 -0.23674674 4287133440
1.2455821 -0.879731 -0.23330657 4287264000
1.241596 -0.87685722 -0.22788456 4287133440
1.246791 -0.88046741 -0.22388123 4287264000
1.2627865 -0.89170372 -0.22147423 4287264000
1.2513053 -0.88353753 -0.21397953 4287264000
1.2360429 -0.8727026 -0.20571539 4287133440
1.2453449 -0.87921166 -0.20133218 4287133440
1.2414209 -0.87638283 -0.19455855 4287133440
1.2507433 -0.88290513 -0.18961361 4287264000
1.2427633 -0.8772136 -0.18182731 4287133440
1.2434317 -0.87762678 -0.17514141 4287133440
1.2481544 -0.8809014 -0.16880102 4287133440
1.2607298 -0.88971734 -0.16323584 4287264000
1.2540637 -0.88495398 -0.15496515 4287264000
1.2305638 -0.86831284 -0.14462423 4287133440
1.2370706 -0.87284595 -0.13775225 4287133440
1.2376562 -0.87320095 -0.13002551 4287133440
