# .PCD v0.7 - Point Cloud Data file format
VERSION 0.7
FIELDS x y z rgba
SIZE 4 4 4 4
TYPE F F F U
COUNT 1 1 1 1
WIDTH 1078
HEIGHT 1
VIEWPOINT 0 0 0 1 0 0 0
POINTS 1078
DATA ascii
2.4934194 -0.85924339 0.075421542 4290919680
2.540612 -0.87541682 0.092491023 4291050240
2.8387144 -0.97803402 0.12070867 4292094720
2.8648624 -0.98694223 0.13921346 4292225280
2.8287642 -0.97440696 0.15448371 4292094720
2.6859248 -0.92510957 0.16268811 4291572480
2.8882985 -0.9947114 0.19196643 4292355840
2.8839731 -0.99312043 0.20846465 4292355840
2.8344073 -0.97595245 0.22115505 4292094720
2.6961985 -0.92826915 0.22562048 4291703040
2.9083805 -1.0012187 0.25955814 4292486400
2.9156611 -1.0036227 0.27614412 4292486400
2.8870473 -0.99367177 0.28891233 4292355840
2.8100395 -0.96706831 0.29596049 4292094720
2.7685373 -0.95268816 0.30580267 4291964160
2.7390528 -0.94244593 0.3162716 4291833600
2.6433804 -0.90943438 0.3181307 4291441920
2.5888076 -0.89056808 0.32385439 4291311360
2.6053293 -0.89616007 0.337926 4291441920
2.5223911 -0.86754304 0.33842346 4291050240
2.3273907 -0.80039346 0.32229379 4290397440
2.3177869 -0.79700929 0.33059293 4290397440
2.3163409 -0.79643071 0.33963543 4290397440
2.369159 -0.81450802 0.35644495 4290528000
2.4450479 -0.84051239 0.37679899 4290789120
2.4510577 -0.84249222 0.38625214 4290919680
2.4999194 -0.85919946 0.40219802 4291050240
2.4810848 -0.85263908 0.40689355 4290919680
2.5225391 -0.86679649 0.42107087 4291180800
2.57478 -0.88465708 0.4368273 4291311360
2.6396701 -0.90685964 0.45453236 4291572480
2.7414105 -0.94171625 0.478459 4291964160
2.7411246 -0.94152182 0.48426118 4291964160
2.7757735 -0.95332557 0.49573877 4292094720
2.8198087 -0.96835017 0.50845844 4292225280
2.8368776 -0.97411221 0.51582474 4292225280
2.7741659 -0.95248109 0.50802708 4292094720
2.7783735 -0.95382816 0.51181394 4292094720
2.7957165 -0.95968395 0.51744175 4292094720
2.7917254 -0.95821589 0.51852804 4292094720
2.791558 -0.95806038 0.51971495 4292094720
2.7914886 -0.95793861 0.52031136 4292094720
2.7691619 -0.95017958 0.51614976 4292094720
2.7553155 -0.94533169 0.51296735 4291964160
2.8223329 -0.96822584 0.52421278 4292225280
2.7863219 -0.95577419 0.51570272 4292094720
2.7289641 -0.93600327 0.50271189 4291833600
2.7298181 -0.93620032 0.49990577 4291833600
2.6269305 -0.9008224 0.4776507 4291572480
2.5580862 -0.87712467 0.46126622 4291311360
2.5093656 -0.86033112 0.44816098 4291050240
2.4817111 -0.85076267 0.43843392 4291050240
2.5142808 -0.86183965 0.43882102 4291050240
2.583792 -0.88557589 0.44491491 4291311360
2.5352921 -0.86886394 0.43013364 4291180800
2.4195337 -0.82910776 0.40388396 4290789120
2.3308389 -0.79863262 0.38226214 4290397440
2.3342907 -0.7997334 0.37556171 4290397440
2.3319104 -0.79883605 0.36748937 4290397440
2.3598948 -0.80833972 0.36369237 4290528000
2.8576584 -0.97830856 0.36463812 4292225280
2.8764586 -0.98464388 0.35359922 4292355840
2.8849592 -0.98745245 0.3407703 4292355840
2.885175 -0.98742503 0.3265411 4292355840
2.854176 -0.97671574 0.30857217 4292225280
2.8705487 -0.98221785 0.29545489 4292355840
2.8743057 -0.98340249 0.28060773 4292355840
2.8776143 -0.98443353 0.26536974 4292355840
2.8463824 -0.97364914 0.24680887 4292225280
2.8663623 -0.98038304 0.23247801 4292225280
2.8708506 -0.98181742 0.21649884 4292225280
2.8097248 -0.96081406 0.19566266 4292094720
2.5339952 -0.86643666 0.16163521 4291050240
2.4851308 -0.8496415 0.14380564 4290919680
2.4722857 -0.84516305 0.12827054 4290789120
2.4691517 -0.84400511 0.11319622 4290789120
2.2678936 -0.77513146 0.090161055 4290136320
2.2669148 -0.77471745 0.076222241 4290136320
2.2720511 -0.776393 0.062381264 4290136320
2.2538397 -0.77009088 0.04791338 4290005760
2.2474253 -0.76782036 0.03379764 4290005760
2.2478771 -0.76789588 0.019786088 4290005760
2.2566106 -0.77080011 0.0057690376 4290005760
2.226342 -0.76038307 -0.0082190568 4290005760
2.2381871 -0.76435006 -0.022238301 4290005760
2.2452815 -0.76669413 -0.036304254 4290005760
2.2618814 -0.77228314 -0.050631851 4290136320
2.2323451 -0.76212013 -0.063792057 4290005760
2.2633715 -0.77263308 -0.078621984 4290136320
2.26666 -0.77367616 -0.092614368 4290136320
2.2801552 -0.77820247 -0.10702541 4290136320
2.2373455 -0.76351333 -0.11850135 4290005760
2.2611766 -0.77156657 -0.13326226 4290136320
2.2616937 -0.77166373 -0.14664932 4290136320
2.2682357 -0.77381623 -0.16030823 4290136320
2.2553711 -0.76934832 -0.17238449 4290136320
2.2751932 -0.77603024 -0.18680869 4290136320
2.2859118 -0.77960593 -0.20045273 4290136320
2.2907019 -0.78115928 -0.21344258 4290266880
2.2555318 -0.76908672 -0.22231063 4290136320
2.2681546 -0.77331126 -0.23552081 4290136320
2.2880147 -0.78000212 -0.24939066 4290266880
2.2888398 -0.78020322 -0.26101536 4290266880
2.2820292 -0.77780163 -0.27144933 4290136320
2.2557228 -0.76875633 -0.27910188 4290136320
2.293571 -0.78157473 -0.29442975 4290266880
2.2954507 -0.78213471 -0.30499375 4290266880
2.2996433 -0.78348267 -0.31554836 4290266880
2.3086779 -0.78647977 -0.32646716 4290266880
2.296778 -0.78234541 -0.33404589 4290266880
2.2665534 -0.77197057 -0.33841532 4290136320
2.2610562 -0.77001905 -0.34595439 4290136320
2.2819138 -0.77704221 -0.35718411 4290266880
2.2776945 -0.77552563 -0.36413929 4290266880
2.2848458 -0.77788049 -0.37250313 4290266880
2.2694054 -0.77254415 -0.37673214 4290136320
2.2806895 -0.7763055 -0.38494894 4290266880
2.2762899 -0.77472818 -0.39009395 4290266880
2.2735057 -0.77370089 -0.39504635 4290266880
2.259202 -0.76875395 -0.39750114 4290136320
2.253042 -0.76657885 -0.40088359 4290136320
2.2482359 -0.76486486 -0.40401986 4290136320
2.2311747 -0.7589823 -0.40444785 4290136320
2.2234001 -0.75625968 -0.40605018 4290005760
2.2076564 -0.75082731 -0.4056944 4290005760
2.2120147 -0.75223202 -0.40854454 4290005760
2.2117846 -0.75207627 -0.41007316 4290005760
2.2116315 -0.75194669 -0.41113579 4290005760
2.2115557 -0.75184345 -0.41173124 4290005760
2.2269151 -0.75698698 -0.41471887 4290136320
2.2436361 -0.76259226 -0.41747254 4290136320
2.2391341 -0.76098359 -0.41578731 4290136320
2.2554355 -0.76644462 -0.41747028 4290136320
2.2649722 -0.76960611 -0.4173952 4290266880
2.2733147 -0.77236104 -0.41659567 4290266880
2.2735088 -0.77234733 -0.41380739 4290266880
2.2732687 -0.77218616 -0.41045731 4290266880
2.2757125 -0.77293652 -0.40710971 4290266880
2.2730124 -0.77193981 -0.40236899 4290266880
2.2792242 -0.77396953 -0.39873049 4290266880
2.2726104 -0.771644 -0.39238787 4290266880
2.2702973 -0.77077901 -0.38635427 4290266880
2.2640646 -0.76858371 -0.37922966 4290136320
2.2480648 -0.76307344 -0.37009439 4290136320
2.244391 -0.76174778 -0.36261979 4290136320
2.2624202 -0.76778764 -0.35818815 4290136320
2.2815869 -0.77421224 -0.35340232 4290266880
2.2843654 -0.77507508 -0.34559882 4290266880
2.267987 -0.76943851 -0.33455527 4290136320
2.2432752 -0.7609762 -0.32206181 4290136320
2.257947 -0.76587409 -0.31489494 4290136320
2.2703156 -0.76998991 -0.3069382 4290136320
2.2809155 -0.77350503 -0.29829705 4290266880
2.2483633 -0.76238716 -0.2837792 4290136320
2.2360187 -0.75812292 -0.27170071 4290005760
2.269402 -0.76936209 -0.26477173 4290136320
2.2793212 -0.77264506 -0.25459948 4290136320
2.2764244 -0.77158326 -0.24267837 4290136320
2.2274828 -0.75491679 -0.22584984 4290005760
2.2676506 -0.76845068 -0.21784812 4290136320
2.2674687 -0.76830959 -0.20551726 4290136320
2.2555435 -0.76418984 -0.19196317 4290136320
2.2315104 -0.75596911 -0.1773693 4290005760
2.2488999 -0.76178145 -0.16590981 4290005760
2.2664754 -0.76765555 -0.154082 4290136320
2.2619784 -0.76605314 -0.14051051 4290136320
2.2594078 -0.76510346 -0.1269477 4290136320
2.2519357 -0.76249433 -0.11303189 4290005760
2.2550375 -0.76346558 -0.099550538 4290005760
2.2676589 -0.76765937 -0.086286232 4290136320
2.2274082 -0.75395542 -0.071087085 4290005760
2.2564092 -0.76369298 -0.058089606 4290005760
2.272207 -0.76896024 -0.044412933 4290136320
2.2703052 -0.76823711 -0.030256595 4290136320
2.2648232 -0.76630282 -0.016066216 4290136320
2.2824192 -0.7721765 -0.0019468867 4290136320
2.2913167 -0.77510643 0.012347006 4290136320
2.3959312 -0.81041163 0.027850945 4290528000
2.4965727 -0.84436566 0.044556983 4290919680
2.5322962 -0.85635906 0.060903922 4291050240
2.6645112 -0.90097755 0.080543868 4291572480
2.6939323 -0.91083169 0.097986706 4291572480
2.8830514 -0.97467285 0.12246735 4292225280
2.8979673 -0.97961408 0.14066015 4292355840
2.8570588 -0.96568555 0.15583517 4292225280
2.7233875 -0.92040932 0.16474031 4291703040
2.9072394 -0.98244303 0.1929595 4292355840
2.9123514 -0.98406857 0.21021567 4292355840
2.8579543 -0.96558803 0.22266456 4292225280
2.7147422 -0.9171074 0.22682984 4291703040
2.9320567 -0.99041903 0.26126811 4292486400
2.9383166 -0.99243069 0.27785313 4292486400
2.9200954 -0.98617423 0.29175335 4292486400
2.8334944 -0.95682818 0.29794767 4292094720
2.7966125 -0.9442758 0.30839702 4291964160
2.7312672 -0.92211646 0.31484908 4291833600
2.716728 -0.91711265 0.32640931 4291703040
2.6698399 -0.90119076 0.33342513 4291572480
2.6684866 -0.90064061 0.34552562 4291572480
2.4916434 -0.84086704 0.33372113 4290919680
2.3533187 -0.79410362 0.3253172 4290528000
2.3448899 -0.79117733 0.33387226 4290397440
2.3111637 -0.77971703 0.33827779 4290266880
2.4451208 -0.82482463 0.36721933 4290789120
2.5305011 -0.85353786 0.38926983 4291180800
2.4689312 -0.83268392 0.38836783 4290919680
2.5460618 -0.85860825 0.40887913 4291180800
2.5547674 -0.86145473 0.41821346 4291180800
2.6080027 -0.87931412 0.43453845 4291441920
2.6682956 -0.89954913 0.45185801 4291572480
2.7212081 -0.917292 0.46770385 4291833600
2.7875938 -0.93957251 0.48561251 4292094720
2.8315778 -0.95429844 0.49930376 4292225280
2.857861 -0.96305645 0.5094378 4292355840
2.8702016 -0.96711463 0.51656532 4292355840
2.8119271 -0.94738066 0.51031512 4292225280
2.8207152 -0.95024282 0.51556367 4292225280
2.8286591 -0.95282 0.52007568 4292225280
2.8376293 -0.9557423 0.52418458 4292225280
2.8373609 -0.95555264 0.52598113 4292225280
2.8371909 -0.95539618 0.52717996 4292225280
2.8277876 -0.95213079 0.52604353 4292225280
2.8231506 -0.95047081 0.52517563 4292225280
2.8148799 -0.94758773 0.52301842 4292225280
2.8633647 -0.96380937 0.53077483 4292355840
2.8506265 -0.95942193 0.52654821 4292355840
2.8146398 -0.94721168 0.51745099 4292225280
2.7750006 -0.93377477 0.50715166 4292094720
2.7582076 -0.92802757 0.5005002 4291964160
2.6421044 -0.88887107 0.47544137 4291572480
2.590946 -0.87156945 0.46177861 4291311360
2.5421987 -0.85508239 0.44819033 4291180800
2.5454211 -0.85607731 0.44333085 4291180800
2.5912514 -0.87140036 0.4452644 4291311360
2.6076727 -0.87683141 0.44148058 4291441920
2.5010767 -0.84090096 0.41660929 4291050240
2.3518529 -0.79064739 0.38488403 4290528000
2.3520112 -0.79061836 0.37759814 4290528000
2.353117 -0.79090774 0.37002712 4290528000
2.3598564 -0.79309046 0.36289161 4290528000
2.8769495 -0.96622366 0.36637515 4292355840
2.9179285 -0.97988439 0.35798916 4292486400
2.9085636 -0.97663784 0.34288052 4292486400
2.9209599 -0.98069823 0.32993892 4292486400
2.8909256 -0.97051328 0.31192863 4292355840
2.8988678 -0.97307825 0.29778108 4292355840
2.9234226 -0.98121846 0.2848399 4292486400
2.9059677 -0.97525829 0.26745591 4292355840
2.8831875 -0.96751237 0.24950722 4292355840
2.8899858 -0.96969271 0.23393181 4292355840
2.9058497 -0.97491395 0.21870615 4292355840
2.8781919 -0.96553421 0.20003542 4292225280
2.7409897 -0.91941172 0.17449404 4291833600
2.628298 -0.88151973 0.15179044 4291441920
2.5737271 -0.86312693 0.1332705 4291180800
2.5693383 -0.86156529 0.11755707 4291180800
2.2870646 -0.76683164 0.090744048 4290136320
2.2868893 -0.766693 0.076742359 4290136320
2.2898054 -0.76759064 0.062744871 4290136320
2.284831 -0.76584327 0.048476532 4290136320
2.2603931 -0.75757307 0.033925701 4290005760
2.2750683 -0.76241195 0.019985989 4290136320
2.2809718 -0.76431054 0.0058198338 4290136320
2.240334 -0.7506153 -0.0082544256 4290005760
2.2568247 -0.75606161 -0.022379335 4290005760
2.2677243 -0.75963384 -0.036594953 4290136320
2.2758226 -0.76226711 -0.050843641 4290136320
2.2423525 -0.75097817 -0.06395191 4290005760
2.2773118 -0.76260674 -0.078950547 4290136320
2.2843947 -0.76489884 -0.093155332 4290136320
2.2945988 -0.76823533 -0.10749146 4290136320
2.2644858 -0.7580744 -0.11970288 4290136320
2.2845697 -0.76471794 -0.13437606 4290136320
2.2936001 -0.76766062 -0.14842561 4290136320
2.2821674 -0.76375443 -0.16097564 4290136320
2.274003 -0.76094258 -0.17346676 4290136320
2.3023674 -0.77035367 -0.18866813 4290266880
2.3083718 -0.77228206 -0.20202425 4290266880
2.314225 -0.77415943 -0.21521047 4290266880
2.2873576 -0.76509184 -0.2250043 4290136320
2.290554 -0.76608098 -0.23737924 4290266880
2.2988961 -0.76879072 -0.25008428 4290266880
2.3044698 -0.77057415 -0.26228136 4290266880
2.2910275 -0.76599926 -0.27198419 4290266880
2.255918 -0.75418168 -0.27857766 4290136320
2.3122082 -0.77291942 -0.29623911 4290266880
2.3157387 -0.77401876 -0.30708501 4290266880
2.3220391 -0.77604347 -0.31799561 4290397440
2.3140793 -0.77330244 -0.32658827 4290266880
2.305995 -0.77052039 -0.33472782 4290266880
2.2811522 -0.7621398 -0.3399263 4290266880
2.2927258 -0.76592654 -0.35011128 4290266880
2.2901552 -0.76498771 -0.35777038 4290266880
2.2999926 -0.76819348 -0.36698237 4290266880
2.2940264 -0.76612061 -0.37326577 4290266880
2.3010411 -0.76838297 -0.3812342 4290266880
2.2907202 -0.76485652 -0.3858833 4290266880
2.2897155 -0.76444107 -0.39162481 4290266880
2.2854507 -0.76293743 -0.39634281 4290266880
2.28142 -0.76151228 -0.4006229 4290266880
2.2752423 -0.75937074 -0.40403962 4290266880
2.2713568 -0.75799465 -0.40737426 4290266880
2.2626715 -0.75501716 -0.40935296 4290136320
2.2502019 -0.75077772 -0.41013905 4290136320
2.226012 -0.74262905 -0.4082655 4290005760
2.2341139 -0.74525404 -0.41181719 4290136320
2.2254722 -0.74229366 -0.41180208 4290005760
2.233726 -0.74496865 -0.41442922 4290136320
2.2383204 -0.74642277 -0.4158974 4290136320
2.2490382 -0.7499184 -0.4180181 4290136320
2.2397768 -0.74675208 -0.41593781 4290136320
2.2482014 -0.74948239 -0.4166531 4290136320
2.2729447 -0.75765175 -0.41988698 4290266880
2.2779233 -0.75923175 -0.41895959 4290266880
2.2908623 -0.76346433 -0.41898909 4290266880
2.2945549 -0.76461488 -0.41682014 4290266880
2.3006418 -0.76656288 -0.41458628 4290266880
2.29795 -0.76558584 -0.41028288 4290266880
2.2952495 -0.764606 -0.40550992 4290266880
2.2883749 -0.762236 -0.39954761 4290266880
2.2963529 -0.7648133 -0.39571112 4290266880
2.287863 -0.76190585 -0.38858154 4290266880
2.2885156 -0.7620433 -0.38257504 4290266880
2.2627029 -0.75336909 -0.37177536 4290136320
2.2674673 -0.7548762 -0.36563134 4290136320
2.2893748 -0.76208967 -0.36174652 4290266880
2.3008528 -0.76583022 -0.35568935 4290266880
2.2972956 -0.764566 -0.34687519 4290266880
2.2855873 -0.76058966 -0.33649215 4290266880
2.2702355 -0.75540173 -0.32529506 4290136320
2.2814679 -0.75905961 -0.31755304 4290136320
2.2841752 -0.7598806 -0.30820817 4290266880
2.2948003 -0.76333523 -0.29952618 4290266880
2.2800903 -0.75836253 -0.2872211 4290136320
2.2677355 -0.75417417 -0.27501604 4290136320
2.2879934 -0.76083153 -0.26641911 4290136320
2.3026574 -0.76562738 -0.25670347 4290266880
2.2988195 -0.76427114 -0.24458697 4290266880
2.2545137 -0.74946243 -0.22814395 4290005760
2.2728424 -0.75547612 -0.21792033 4290136320
2.2851434 -0.75948513 -0.20671466 4290136320
2.2873888 -0.76015162 -0.19429319 4290136320
2.2548029 -0.74924397 -0.17887068 4290005760
2.2665536 -0.75306946 -0.16688567 4290136320
2.2889032 -0.76041538 -0.15530288 4290136320
2.2810028 -0.75771111 -0.14141564 4290136320
2.2865715 -0.75948119 -0.12822312 4290136320
2.2696114 -0.75376874 -0.11369673 4290136320
2.2727222 -0.75472265 -0.10013543 4290136320
2.2863197 -0.75915831 -0.086826503 4290136320
2.2497869 -0.74694937 -0.071661189 4290005760
2.2835913 -0.75809306 -0.058674682 4290136320
2.2851887 -0.75854367 -0.044579536 4290136320
2.2847636 -0.75832289 -0.030389888 4290136320
2.2787402 -0.75624418 -0.016133411 4290136320
2.3001668 -0.76327479 -0.0019581988 4290136320
2.3233178 -0.77087611 0.012495033 4290266880
2.3886182 -0.79245943 0.027711794 4290528000
2.5170801 -0.8349908 0.044835396 4290919680
2.6847687 -0.89052451 0.064445138 4291572480
2.8063381 -0.93075061 0.084665708 4291964160
2.6991932 -0.8951208 0.097986706 4291572480
2.927578 -0.97075689 0.12411641 4292486400
2.9354899 -0.97327805 0.14220376 4292486400
2.9047914 -0.96299851 0.15812998 4292355840
2.7239654 -0.90295601 0.16445424 4291703040
2.9426994 -0.97536063 0.19493257 4292486400
2.9498603 -0.97763121 0.21250835 4292486400
2.9008963 -0.96130264 0.22557002 4292355840
2.7200394 -0.90127516 0.22682984 4291703040
2.9762647 -0.98607075 0.26469097 4292616960
2.9733708 -0.9850083 0.28062049 4292616960
2.951787 -0.97775519 0.29434556 4292616960
2.9073904 -0.96294785 0.30512285 4292355840
2.8782575 -0.95319843 0.31678265 4292355840
2.7545235 -0.91212523 0.31691197 4291833600
2.7220252 -0.9012689 0.32640931 4291703040
2.675045 -0.88562042 0.33342513 4291572480
2.6557853 -0.87915158 0.34321195 4291572480
2.456003 -0.81293148 0.32830763 4290789120
2.3847394 -0.78926027 0.32901946 4290528000
2.3552499 -0.77941823 0.3346951 4290397440
2.370209 -0.78428602 0.34624538 4290528000
2.4417102 -0.8078602 0.36599401 4290789120
2.3978531 -0.79326612 0.36814722 4290658560
2.4036498 -0.79510003 0.37736383 4290658560
2.5369418 -0.8391031 0.4066225 4291180800
2.5916421 -0.85710508 0.42342514 4291311360
2.661407 -0.88008493 0.44257468 4291572480
2.7634866 -0.91374475 0.46706849 4291964160
2.7986634 -0.92527837 0.48008168 4292094720
2.8426704 -0.93972862 0.4942449 4292225280
2.8726764 -0.94954789 0.50556672 4292355840
2.8989999 -0.95814794 0.51576728 4292486400
2.8358238 -0.93716884 0.50938678 4292225280
2.8398576 -0.93840289 0.51438302 4292225280
2.8617558 -0.94553924 0.52204919 4292355840
2.86129 -0.94528562 0.52505362 4292355840
2.8609204 -0.94506383 0.52746093 4292355840
2.8700013 -0.9479636 0.53099906 4292355840
2.8604772 -0.94471812 0.53047502 4292355840
2.8697574 -0.94768304 0.53281486 4292355840
2.8604357 -0.94450504 0.53107888 4292355840
2.8427975 -0.93858194 0.52718061 4292225280
2.8252571 -0.93269235 0.52269471 4292225280
2.8870354 -0.95298642 0.53223878 4292486400
2.8696933 -0.94716191 0.52654868 4292355840
2.8430851 -0.93828064 0.5185867 4292225280
2.7809954 -0.9176929 0.50365651 4292094720
2.750212 -0.90743893 0.49393535 4291964160
2.6446719 -0.87252361 0.47044006 4291572480
2.5696175 -0.84767234 0.4521459 4291311360
2.5278778 -0.8338151 0.4394218 4291180800
2.5653524 -0.84608668 0.43995956 4291311360
2.5888538 -0.85374749 0.43744498 4291311360
2.476995 -0.81677258 0.4117983 4290919680
2.4061594 -0.79333121 0.39300823 4290658560
2.3551106 -0.77641797 0.37736309 4290528000
2.3891597 -0.78755987 0.37496695 4290658560
2.3752167 -0.78288102 0.36454609 4290528000
2.9140899 -0.95996141 0.37039101 4292486400
2.9532146 -0.97274709 0.36162063 4292616960
2.9565706 -0.97374952 0.347868 4292616960
2.961004 -0.97510654 0.33381653 4292616960
2.9294717 -0.96462047 0.31547669 4292486400
2.929522 -0.964535 0.30034724 4292486400
2.94011 -0.96791863 0.28590998 4292486400
2.9389362 -0.96742994 0.26996422 4292486400
2.9114466 -0.95827961 0.25146151 4292355840
2.9301374 -0.96432954 0.23671807 4292486400
2.9310477 -0.96452701 0.22016968 4292486400
2.9286633 -0.96364045 0.20314203 4292486400
2.8932867 -0.95189947 0.18382457 4292355840
2.8010957 -0.92147082 0.1614475 4291964160
2.632762 -0.86600274 0.13605361 4291311360
2.5837736 -0.84979898 0.11797786 4291180800
2.3032722 -0.75746232 0.091199525 4290136320
2.3062885 -0.75837392 0.07723178 4290266880
2.3097427 -0.7594294 0.06315586 4290266880
2.3120213 -0.7600981 0.048944589 4290266880
2.2759469 -0.74815905 0.034078337 4290136320
2.302243 -0.75672311 0.020169681 4290136320
2.2939081 -0.75390363 0.0058246707 4290136320
2.2541416 -0.74075574 -0.0083067594 4290005760
2.2744632 -0.74735469 -0.022529263 4290136320
2.2876198 -0.75159812 -0.036864311 4290136320
2.2993112 -0.75535929 -0.051289771 4290136320
2.278002 -0.74827957 -0.064864412 4290136320
2.2917497 -0.75271565 -0.079319865 4290136320
2.3030241 -0.75633854 -0.093756787 4290136320
2.3170404 -0.76086104 -0.1083572 4290266880
2.2833548 -0.74971998 -0.12049168 4290136320
2.302238 -0.75583994 -0.13517916 4290266880
2.3027458 -0.75592661 -0.14875574 4290266880
2.3140411 -0.75955397 -0.16293551 4290266880
2.2886 -0.75112355 -0.17427024 4290136320
2.3217146 -0.76191109 -0.18991421 4290266880
2.3307927 -0.76480913 -0.20362125 4290266880
2.3233979 -0.7623018 -0.21567531 4290266880
2.3059371 -0.75649273 -0.2264231 4290266880
2.3144248 -0.7591967 -0.23941953 4290266880
2.3259897 -0.76290941 -0.2525731 4290266880
2.3173919 -0.76000869 -0.26327294 4290266880
2.3180826 -0.7601546 -0.27469504 4290266880
2.2828939 -0.74853593 -0.28139442 4290136320
2.3360696 -0.7658903 -0.29874897 4290397440
2.3380911 -0.7664718 -0.30948108 4290397440
2.3491056 -0.77000082 -0.3211118 4290397440
2.3364093 -0.76575786 -0.32913339 4290397440
2.3330071 -0.76456165 -0.33802491 4290397440
2.3043413 -0.75508732 -0.34274817 4290266880
2.3112254 -0.75726265 -0.35228381 4290266880
2.3139038 -0.75805968 -0.36081102 4290266880
2.3197613 -0.75989795 -0.36945 4290397440
2.3132563 -0.75768661 -0.37569535 4290266880
2.3241425 -0.76117146 -0.38434488 4290397440
2.3223214 -0.76049429 -0.39047727 4290397440
2.3119233 -0.75700879 -0.39468464 4290266880
2.3123326 -0.75706232 -0.40025443 4290397440
2.312974 -0.7571919 -0.40540263 4290397440
2.2974043 -0.75201494 -0.40720919 4290266880
2.276907 -0.74522632 -0.40760159 4290266880
2.2763696 -0.74497128 -0.41105512 4290266880
2.2723026 -0.74356127 -0.41338542 4290136320
2.2433813 -0.73401934 -0.41067293 4290136320
2.247752 -0.73537123 -0.41354591 4290136320
2.2521982 -0.73674756 -0.41595611 4290136320
2.2520416 -0.73661804 -0.41703233 4290136320
2.2426035 -0.73345298 -0.41589871 4290136320
2.2519655 -0.73643655 -0.4177624 4290136320
2.2618477 -0.73958951 -0.4192321 4290136320
2.2702897 -0.74227095 -0.41993904 4290136320
2.2917988 -0.74922365 -0.42255539 4290266880
2.3000724 -0.75184846 -0.42221743 4290266880
2.3103113 -0.75511503 -0.42172927 4290397440
2.3073752 -0.75407511 -0.41833651 4290266880
2.322845 -0.75905001 -0.41777378 4290397440
2.3126519 -0.75563884 -0.412103 4290397440
2.3102348 -0.75476867 -0.40735957 4290266880
2.3105702 -0.75479794 -0.40263185 4290266880
2.3185697 -0.75733054 -0.39875367 4290397440
2.3100703 -0.75447398 -0.39157903 4290266880
2.2975872 -0.7503171 -0.38333091 4290266880
2.2707877 -0.74148631 -0.37236217 4290136320
2.2905972 -0.74787515 -0.36862421 4290266880
2.3138297 -0.75538003 -0.36487836 4290266880
2.3325291 -0.76140368 -0.3598609 4290397440
2.3195679 -0.75709212 -0.34953055 4290266880
2.3040802 -0.75195694 -0.33852616 4290266880
2.2887061 -0.74685985 -0.32727259 4290266880
2.2999668 -0.7504546 -0.3194713 4290266880
2.3111732 -0.75403076 -0.31120783 4290266880
2.3171129 -0.75588804 -0.30181089 4290266880
2.2856765 -0.74555343 -0.28732339 4290136320
2.2863533 -0.74569482 -0.27669069 4290136320
2.3150449 -0.75497204 -0.26899767 4290266880
2.3219559 -0.75714517 -0.25830171 4290266880
2.3234119 -0.75753921 -0.24667041 4290266880
2.273016 -0.74102879 -0.2295153 4290136320
2.2913861 -0.74693799 -0.2192145 4290136320
2.3037164 -0.75087732 -0.20793027 4290266880
2.3012331 -0.74998796 -0.19502747 4290266880
2.2723808 -0.74050587 -0.17985149 4290136320
2.3031285 -0.75044554 -0.16918267 4290266880
2.3042748 -0.75073904 -0.15597335 4290266880
2.2986436 -0.74882448 -0.14216171 4290136320
2.3042264 -0.75056309 -0.1288891 4290266880
2.2919858 -0.74649632 -0.11451986 4290136320
2.2925942 -0.74661481 -0.10073811 4290136320
2.3050501 -0.75059116 -0.087288804 4290136320
2.26845 -0.73859423 -0.07203576 4290005760
2.3060048 -0.75074172 -0.059052873 4290136320
2.3123605 -0.75273055 -0.044937454 4290266880
2.3119359 -0.75251204 -0.030605463 4290266880
2.301147 -0.74892044 -0.016173178 4290136320
2.3248494 -0.75655371 -0.0018858003 4290266880
2.3272755 -0.75726241 0.012583021 4290266880
2.4868808 -0.80910927 0.028894357 4290789120
2.6754539 -0.87036872 0.04767127 4291572480
2.752176 -0.89523208 0.06604661 4291833600
2.8995757 -0.9430778 0.087427646 4292355840
2.8111165 -0.91420901 0.10196787 4291964160
2.9714839 -0.96625918 0.12585704 4292616960
2.9699051 -0.96564269 0.14371614 4292616960
2.953584 -0.96023339 0.16059846 4292486400
2.8358238 -0.92185014 0.17099507 4292094720
2.9631922 -0.96315122 0.19603468 4292486400
2.9795184 -0.9683544 0.2143548 4292616960
2.9328153 -0.9530738 0.22773387 4292486400
2.8222513 -0.91704589 0.23501639 4292094720
2.9953315 -0.97318155 0.26599631 4292616960
2.9895558 -0.97120124 0.28172636 4292616960
2.9753635 -0.96648729 0.29624543 4292616960
2.9166915 -0.94732761 0.30562633 4292355840
2.8884466 -0.93805343 0.31740636 4292355840
2.7550199 -0.89462608 0.3164666 4291833600
2.7404168 -0.88978887 0.32808781 4291833600
2.6753941 -0.86858368 0.33292827 4291572480
2.6334422 -0.85487229 0.33976763 4291441920
2.3414254 -0.75999606 0.31247464 4290397440
2.4118934 -0.78278524 0.33221173 4290658560
2.3668108 -0.76807141 0.33577341 4290528000
2.3297617 -0.75596744 0.33976114 4290397440
2.3725431 -0.76976681 0.35502052 4290528000
2.2784886 -0.73917198 0.34922087 4290136320
2.3536365 -0.76346916 0.36887386 4290397440
2.5417476 -0.82440019 0.40668488 4291180800
2.613029 -0.84742916 0.42617291 4291441920
2.7425556 -0.88934052 0.45526695 4291833600
2.773062 -0.89913672 0.46785766 4291964160
2.8218033 -0.91484261 0.48318982 4292094720
2.8611946 -0.92751414 0.49657559 4292355840
2.8921916 -0.93746203 0.50808549 4292355840
2.9044912 -0.9413479 0.51580954 4292486400
2.8458843 -0.92225456 0.51026434 4292225280
2.8546121 -0.92498392 0.51611036 4292225280
2.8578033 -0.9259187 0.52037019 4292355840
2.8620243 -0.92718697 0.5242182 4292355840
2.8757112 -0.93152112 0.52920336 4292355840
2.8707538 -0.92981565 0.53014678 4292355840
2.8752663 -0.93117744 0.53221709 4292355840
2.8564565 -0.9249866 0.52934498 4292355840
2.8527389 -0.9236837 0.52864546 4292225280
2.8528693 -0.92362696 0.52803981 4292225280
2.9193463 -0.9450478 0.53906679 4292486400
2.8971925 -0.93777561 0.53308201 4292486400
2.8751321 -0.9305352 0.52652436 4292355840
2.8625357 -0.92635906 0.52111709 4292355840
2.8312747 -0.91614431 0.51175749 4292225280
2.7513187 -0.89017665 0.49316001 4291964160
2.7027194 -0.87435877 0.47981226 4291703040
2.5862474 -0.8365891 0.45416412 4291311360
2.5373642 -0.82068843 0.44018522 4291180800
2.4665589 -0.79770154 0.42216158 4290919680
2.4628198 -0.79640681 0.41530219 4290919680
2.3832905 -0.77060652 0.39540848 4290528000
2.3830979 -0.77046156 0.38843858 4290528000
2.3906186 -0.7728101 0.3822566 4290528000
2.411571 -0.77949965 0.37769175 4290658560
2.3871076 -0.77150941 0.36559775 4290528000
2.9413478 -0.94998121 0.37314579 4292486400
2.9689469 -0.95879203 0.36285686 4292616960
2.9655759 -0.95760059 0.34826523 4292616960
2.9814913 -0.96263629 0.33548826 4292616960
2.9441352 -0.95047301 0.31645411 4292486400
2.9559414 -0.95418191 0.30248079 4292486400
2.9633813 -0.95648074 0.28762624 4292616960
2.9556043 -0.95386803 0.27098024 4292486400
2.9273176 -0.94463748 0.25235265 4292486400
2.9437153 -0.9498269 0.23736392 4292486400
2.9595499 -0.95483345 0.22188905 4292486400
2.9605343 -0.95504838 0.2049633 4292486400
2.9319367 -0.94572127 0.18592697 4292486400
2.8641157 -0.92374569 0.16476682 4292225280
2.701452 -0.87118906 0.13933867 4291572480
2.68852 -0.86692536 0.12252798 4291572480
2.3471444 -0.75676584 0.092760511 4290397440
2.3347361 -0.75268424 0.078036249 4290266880
2.3369627 -0.75332099 0.063779056 4290266880
2.3259263 -0.74968272 0.049145658 4290266880
2.3078661 -0.74378163 0.034490805 4290136320
2.3136086 -0.74555206 0.020230856 4290266880
2.3211048 -0.74788719 0.0058825645 4290266880
2.2860215 -0.73650372 -0.0084082857 4290136320
2.2938139 -0.7389347 -0.02267791 4290136320
2.3195598 -0.74714816 -0.037308235 4290266880
2.321754 -0.74777436 -0.051692337 4290266880
2.2965953 -0.73959184 -0.065270051 4290136320
2.3189285 -0.74670357 -0.080108628 4290266880
2.3324597 -0.75097978 -0.094775401 4290266880
2.3395019 -0.75316602 -0.10920056 4290266880
2.305747 -0.74221921 -0.12144307 4290136320
2.3166738 -0.74565619 -0.1357694 4290266880
2.3221197 -0.74732858 -0.14972349 4290266880
2.3269753 -0.74881053 -0.16353628 4290266880
2.3062294 -0.74205464 -0.1752805 4290266880
2.3308594 -0.74989879 -0.19030164 4290266880
2.3421824 -0.75346053 -0.20422931 4290397440
2.3543515 -0.75729358 -0.2181354 4290397440
2.3283145 -0.74883795 -0.22818813 4290266880
2.3320723 -0.74996567 -0.24078904 4290266880
2.3483872 -0.75513095 -0.25452316 4290397440
2.3444963 -0.75379854 -0.26584879 4290397440
2.3404465 -0.75241536 -0.27682105 4290397440
2.2966716 -0.73826283 -0.28255776 4290266880
2.353723 -0.75652033 -0.30043784 4290397440
2.3604643 -0.75860524 -0.31185222 4290397440
2.360496 -0.75853372 -0.32205927 4290397440
2.355926 -0.7569834 -0.33125585 4290397440
2.3459103 -0.75368398 -0.33925247 4290397440
2.3218994 -0.74588937 -0.34470752 4290266880
2.3357155 -0.75024676 -0.35534441 4290397440
2.3371172 -0.75061595 -0.36374265 4290397440
2.3467424 -0.75362593 -0.37304148 4290397440
2.3449197 -0.75295937 -0.38011888 4290397440
2.3464086 -0.75335616 -0.38729465 4290397440
2.3492777 -0.75419593 -0.39426422 4290397440
2.3329668 -0.74887872 -0.39752555 4290397440
2.3298573 -0.74779987 -0.40252692 4290397440
2.3155625 -0.74313152 -0.40509063 4290266880
2.3289759 -0.74735552 -0.41202644 4290397440
2.2943516 -0.73616534 -0.40994975 4290266880
2.2902005 -0.73475403 -0.41277269 4290266880
2.2944233 -0.73602933 -0.41662252 4290266880
2.2701344 -0.72815901 -0.41478673 4290136320
2.2829516 -0.73219115 -0.4192301 4290266880
2.2827132 -0.73203558 -0.42079711 4290266880
2.2825541 -0.7319054 -0.42188582 4290266880
2.2740347 -0.72909486 -0.42093283 4290136320
2.259969 -0.72450691 -0.41845697 4290136320
2.2933152 -0.73511761 -0.42426357 4290266880
2.297085 -0.73624647 -0.42409483 4290266880
2.3092568 -0.74006766 -0.42497206 4290266880
2.3316193 -0.74715364 -0.42720208 4290397440
2.3240542 -0.74464893 -0.42343882 4290397440
2.3291585 -0.74620372 -0.42149058 4290397440
2.3413084 -0.75001514 -0.42030147 4290397440
2.3489399 -0.7523784 -0.41778111 4290397440
2.3371348 -0.74851626 -0.41132686 4290397440
2.3490863 -0.75226265 -0.40857291 4290397440
2.3408005 -0.74952811 -0.40181914 4290397440
2.3345013 -0.74743026 -0.39497551 4290397440
2.3291976 -0.74565148 -0.38787347 4290397440
2.3164744 -0.74149811 -0.37913904 4290266880
2.3099756 -0.73933786 -0.37104326 4290266880
2.3407965 -0.74912143 -0.3684364 4290397440
2.3454065 -0.75051558 -0.36116689 4290397440
2.3559949 -0.75382221 -0.35435182 4290397440
2.3357773 -0.74727249 -0.34253776 4290397440
2.3025732 -0.73656994 -0.32863632 4290266880
2.3269622 -0.74429119 -0.32261324 4290266880
2.3302619 -0.74526596 -0.31318825 4290397440
2.3441634 -0.74963075 -0.30476028 4290397440
2.3164625 -0.74069214 -0.29064599 4290266880
2.3039067 -0.7365976 -0.27829087 4290266880
2.3254211 -0.74339557 -0.26969549 4290266880
2.3490615 -0.75087166 -0.26082593 4290397440
2.3467402 -0.75004846 -0.24867897 4290397440
2.300051 -0.73504633 -0.23180878 4290136320
2.3149571 -0.73972988 -0.22105348 4290266880
2.3275995 -0.74368906 -0.2096913 4290266880
2.3205624 -0.74136031 -0.19629623 4290266880
2.2860813 -0.73026526 -0.18059602 4290136320
2.3224726 -0.74180973 -0.1702833 4290266880
2.3171651 -0.74003428 -0.15655138 4290266880
2.3219864 -0.74149364 -0.14333577 4290266880
2.3313906 -0.744416 -0.13016376 4290266880
2.3075213 -0.73671466 -0.11507969 4290136320
2.3292665 -0.74357653 -0.10215742 4290266880
2.3274724 -0.74292326 -0.087972499 4290266880
2.2869978 -0.72992462 -0.072488487 4290136320
2.3284347 -0.74306917 -0.059515394 4290266880
2.3357568 -0.74532503 -0.045306977 4290266880
2.3439064 -0.7478444 -0.030970486 4290266880
2.3295751 -0.74319118 -0.016342271 4290266880
2.3447995 -0.747967 -0.0018984159 4290266880
2.3285768 -0.74271148 0.012566447 4290266880
2.4915524 -0.79460722 0.028894357 4290789120
2.6661901 -0.85021055 0.047417145 4291441920
2.8654907 -0.91366541 0.068637021 4292225280
2.9612761 -0.94410425 0.089120671 4292486400
2.8211558 -0.89933389 0.10214025 4291964160
2.9813454 -0.95029634 0.12603809 4292616960
2.9814394 -0.95022309 0.14400396 4292616960
2.9638858 -0.94452596 0.16085666 4292486400
2.8411462 -0.90531325 0.17099507 4292094720
2.9879801 -0.95199752 0.19730431 4292616960
2.9851093 -0.95097959 0.2143548 4292616960
2.9694068 -0.94587439 0.2301434 4292616960
2.8322952 -0.90210092 0.23541114 4292094720
3.0009503 -0.95571452 0.26599631 4292616960
3.0037048 -0.95648783 0.28252977 4292747520
2.9762006 -0.94762653 0.29577404 4292616960
2.9221611 -0.93031919 0.30562633 4292355840
2.8938625 -0.92120975 0.31740636 4292355840
2.7563963 -0.87735438 0.31603217 4291833600
2.7322991 -0.86958981 0.32650384 4291703040
2.6709459 -0.84997094 0.3317529 4291572480
2.610949 -0.8307879 0.33623537 4291311360
2.2313509 -0.70992488 0.29722762 4290005760
2.443814 -0.77743745 0.3359789 4290789120
2.3986328 -0.76298124 0.33965153 4290528000
2.4150181 -0.76810968 0.35153592 4290658560
2.4235587 -0.77074224 0.36197633 4290658560
2.4079144 -0.76568371 0.36836782 4290658560
2.3699601 -0.75353277 0.37073788 4290528000
2.5785406 -0.81976211 0.41180065 4291311360
2.6810186 -0.85224891 0.43644446 4291572480
2.810761 -0.89339447 0.46571717 4292094720
2.8234205 -0.89732063 0.47546384 4292094720
2.8581264 -0.90825176 0.48849517 4292225280
2.8844156 -0.91650623 0.49967054 4292355840
2.897604 -0.92059648 0.50808549 4292355840
2.8425486 -0.90300655 0.50386631 4292225280
2.8512089 -0.90565908 0.51026434 4292225280
2.9310546 -0.93091995 0.52894145 4292486400
2.8593926 -0.90806085 0.51968741 4292225280
2.8720722 -0.91198814 0.52507651 4292355840
2.876395 -0.91326135 0.52834111 4292355840
2.8714283 -0.91158503 0.52928162 4292355840
2.8759489 -0.91292077 0.53134996 4292355840
2.8711836 -0.91130883 0.5310812 4292355840
2.8618264 -0.90823984 0.52933997 4292355840
2.8582017 -0.90699077 0.52803981 4292225280
2.8396566 -0.90100759 0.5233736 4292225280
2.9119956 -0.92385972 0.53480637 4292486400
2.889895 -0.91674811 0.52824086 4292355840
2.8810329 -0.91383725 0.52350634 4292355840
2.8459582 -0.90261346 0.51345229 4292225280
2.7968631 -0.88694596 0.50038892 4292094720
2.7886 -0.88422912 0.49413568 4291964160
2.6634731 -0.8444609 0.46685362 4291572480
2.5933328 -0.822133 0.44905615 4291311360
2.5072732 -0.79476392 0.42833021 4291050240
2.4762452 -0.78484291 0.41678792 4290919680
2.4138196 -0.76497382 0.39972731 4290658560
2.4378295 -0.77249867 0.39661941 4290789120
2.4176991 -0.76603615 0.38586658 4290658560
2.4245574 -0.76812536 0.37901831 4290658560
2.422425 -0.76736599 0.37031582 4290658560
2.9383636 -0.9300254 0.37206894 4292486400
2.9797831 -0.94303215 0.36349988 4292616960
2.9767511 -0.94196975 0.34892446 4292616960
2.9823446 -0.94363678 0.33495829 4292616960
2.9591424 -0.93619311 0.3174749 4292486400
2.9519958 -0.93383014 0.30151564 4292486400
2.9831796 -0.94359165 0.28901097 4292616960
2.9706447 -0.93952417 0.2718555 4292616960
2.9423087 -0.93046063 0.25317726 4292486400
2.9530365 -0.93375111 0.23767796 4292486400
2.9655745 -0.93761313 0.2219338 4292486400
2.9696407 -0.93879616 0.20521925 4292486400
2.946949 -0.9315207 0.1865405 4292486400
2.9336441 -0.92721367 0.1684631 4292355840
2.8074648 -0.88723624 0.14454852 4291964160
2.7490978 -0.86869562 0.12506786 4291703040
2.4249115 -0.76617128 0.095667399 4290658560
2.3460894 -0.74118567 0.078282222 4290266880
2.350872 -0.7426154 0.064052716 4290397440
2.3398159 -0.73904198 0.04936149 4290266880
2.3255363 -0.73445141 0.034705427 4290266880
2.3360579 -0.73769367 0.020405371 4290266880
2.3446403 -0.74032283 0.005948355 4290266880
2.2988834 -0.72579563 -0.0084221167 4290136320
2.3235793 -0.73351228 -0.022910647 4290266880
2.3420181 -0.73925221 -0.037579581 4290266880
2.3442142 -0.73986435 -0.052074671 4290266880
2.3161428 -0.73092467 -0.065681979 4290266880
2.3375649 -0.73760426 -0.080580108 4290266880
2.359695 -0.7445057 -0.095680661 4290397440
2.3534064 -0.74244034 -0.1096216 4290397440
2.3295016 -0.73481852 -0.12244197 4290266880
2.3352907 -0.73656398 -0.13658123 4290266880
2.3493092 -0.74090439 -0.15116949 4290397440
2.3499403 -0.74102217 -0.16481721 4290397440
2.3381286 -0.73721677 -0.17734827 4290266880
2.3665969 -0.74611115 -0.19283321 4290397440
2.3693736 -0.74690473 -0.20618886 4290397440
2.3777549 -0.74946469 -0.21986651 4290397440
2.355459 -0.7423557 -0.23039162 4290397440
2.3554163 -0.74226087 -0.24271941 4290397440
2.3628309 -0.74451584 -0.25558457 4290397440
2.3763788 -0.74870265 -0.26893497 4290528000
2.3590384 -0.74315786 -0.27847347 4290397440
2.3189633 -0.73045313 -0.28474265 4290266880
2.380846 -0.74986339 -0.30330724 4290528000
2.3796353 -0.7493999 -0.3137731 4290528000
2.3876078 -0.75182825 -0.32512555 4290528000
2.3782902 -0.74881208 -0.3337521 4290528000
2.3725665 -0.74692804 -0.34244347 4290528000
2.340688 -0.73681128 -0.34682575 4290397440
2.3485742 -0.73921263 -0.35661188 4290397440
2.3594096 -0.74254155 -0.36650565 4290397440
2.3690441 -0.74549186 -0.37586334 4290528000
2.3637226 -0.74373573 -0.38243237 4290528000
2.3686931 -0.74521792 -0.39022484 4290528000
2.3579028 -0.74174178 -0.39495599 4290397440
2.3467367 -0.73814815 -0.39910966 4290397440
2.3493476 -0.73888826 -0.40512201 4290397440
2.3387022 -0.73545951 -0.40836185 4290397440
2.3300216 -0.73264921 -0.41143024 4290397440
2.3212018 -0.72979575 -0.41396281 4290397440
2.3132761 -0.72722399 -0.4161447 4290266880
2.287919 -0.71917355 -0.41465893 4290266880
2.2922242 -0.72044766 -0.4180356 4290266880
2.3013031 -0.72322178 -0.42180744 4290266880
2.2377505 -0.70317209 -0.41173664 4290005760
2.3093569 -0.72559339 -0.42604285 4290266880
2.2914248 -0.71988004 -0.42336172 4290266880
2.2914252 -0.71980113 -0.42349303 4290266880
2.315438 -0.72726429 -0.4275623 4290266880
2.3192153 -0.72837067 -0.42738897 4290397440
2.3276517 -0.73093992 -0.42756745 4290397440
2.3491173 -0.73759949 -0.42961666 4290397440
2.3594005 -0.74074692 -0.42909062 4290528000
2.360759 -0.74109191 -0.42642808 4290528000
2.3633263 -0.74181628 -0.42348084 4290528000
2.3581288 -0.74010354 -0.41865355 4290528000
2.360687 -0.74082494 -0.41471973 4290528000
2.3619256 -0.74113214 -0.41006485 4290528000
2.3652563 -0.74209559 -0.40528736 4290528000
2.3529701 -0.73815966 -0.39738736 4290397440
2.3389888 -0.73369277 -0.38880926 4290397440
2.3311455 -0.73115206 -0.38086271 4290397440
2.3274713 -0.72991937 -0.37319261 4290397440
2.3515577 -0.73739201 -0.36947894 4290397440
2.3692071 -0.7428447 -0.36419323 4290528000
2.3666003 -0.74194562 -0.3553271 4290528000
2.3455918 -0.73527843 -0.34338149 4290397440
2.3295398 -0.73016614 -0.33191299 4290266880
2.3363996 -0.73223567 -0.32336786 4290397440
2.348784 -0.73603594 -0.31514177 4290397440
2.3585482 -0.73901439 -0.3061139 4290397440
2.3349726 -0.73154682 -0.29247904 4290266880
2.3309326 -0.73020071 -0.28108931 4290266880
2.3572409 -0.73836082 -0.27293783 4290397440
2.3534179 -0.73708212 -0.2608861 4290397440
2.369132 -0.74192202 -0.25064984 4290397440
2.3137412 -0.72449589 -0.23282027 4290266880
2.3506124 -0.73596019 -0.22410919 4290397440
2.3404725 -0.7327047 -0.21052895 4290266880
2.3476946 -0.73488468 -0.19829416 4290397440
2.3093522 -0.72280294 -0.18216786 4290136320
2.3448665 -0.73383766 -0.17168109 4290266880
2.3538415 -0.73656529 -0.15881111 4290397440
2.3491557 -0.7350179 -0.14482224 4290397440
2.3538194 -0.7363959 -0.13125226 4290397440
2.3346777 -0.73032689 -0.11629894 4290266880
2.3368869 -0.73093742 -0.10238391 4290266880
2.2985184 -0.71885711 -0.086799294 4290136320
2.3071299 -0.72147071 -0.073074825 4290136320
2.3417699 -0.73222244 -0.059831515 4290266880
2.3582168 -0.73728371 -0.04574576 4290397440
2.3568397 -0.73677188 -0.03117251 4290397440
2.3472545 -0.73369449 -0.016525162 4290266880
2.368995 -0.74040836 -0.0020054693 4290397440
2.3569012 -0.73654729 0.012604479 4290397440
2.4688165 -0.77143639 0.028481422 4290789120
2.7217128 -0.85036558 0.048208263 4291572480
2.8353829 -0.88578266 0.067678466 4292094720
2.9538774 -0.92269886 0.088616736 4292486400
2.8263845 -0.88277662 0.10202825 4291964160
2.9823713 -0.93139386 0.12572995 4292616960
2.9809954 -0.93086135 0.14359798 4292616960
2.9477236 -0.9203701 0.15956691 4292486400
2.7393312 -0.85520905 0.16445424 4291703040
2.9928896 -0.93426591 0.19714536 4292616960
2.9988055 -0.93600923 0.21482284 4292616960
2.943764 -0.91872776 0.22761978 4292486400
2.8375447 -0.88547963 0.23530212 4292094720
2.9974768 -0.9352845 0.26508293 4292616960
2.9990969 -0.93568653 0.28146178 4292616960
2.9779289 -0.92897975 0.29528794 4292616960
2.9418254 -0.91761565 0.30700642 4292486400
2.9039724 -0.90570843 0.3178218 4292355840
2.7652998 -0.86236304 0.31636912 4291833600
2.7411556 -0.85473919 0.32686174 4291703040
2.6531408 -0.82720321 0.32884237 4291441920
2.5835681 -0.8054226 0.33200899 4291180800
2.2269602 -0.69417399 0.29602289 4290005760
2.4440742 -0.76176709 0.33531737 4290789120
2.443759 -0.76158464 0.34532818 4290789120
2.4384034 -0.75983155 0.35421297 4290658560
2.4327719 -0.75799286 0.36261275 4290658560
2.4029243 -0.74861032 0.36686063 4290658560
2.4376159 -0.75933409 0.38055432 4290658560
2.707406 -0.84328234 0.43151602 4291703040
2.8194542 -0.87808502 0.45806751 4292094720
2.8574569 -0.88982207 0.47251767 4292225280
2.8968756 -0.90199733 0.48687384 4292355840
2.859642 -0.8903054 0.48779771 4292225280
2.8897483 -0.89957899 0.49961981 4292355840
2.8982513 -0.90212601 0.50721484 4292355840
2.9200108 -0.90879846 0.51660007 4292486400
2.9324322 -0.91256332 0.52379471 4292486400
2.8558249 -0.88862497 0.51438302 4292225280
2.8684363 -0.89245033 0.52034247 4292355840
2.8726709 -0.89366889 0.52419537 4292355840
2.8817039 -0.89637965 0.52832317 4292355840
2.8767264 -0.89473224 0.52926874 4292355840
2.8897178 -0.89867336 0.53290302 4292355840
2.8764784 -0.89445692 0.53107864 4292355840
2.8633409 -0.89027303 0.52864814 4292225280
2.8634698 -0.8902145 0.5280478 4292225280
2.9254892 -0.90939474 0.53821522 4292486400
2.9126568 -0.90530539 0.5339632 4292486400
2.8858092 -0.89686126 0.52654868 4292355840
2.8731639 -0.89283234 0.52114677 4292355840
2.8511965 -0.88590771 0.51348728 4292225280
2.8880315 -0.89725339 0.51579183 4292355840
2.8436368 -0.88336295 0.50300872 4292225280
2.7922075 -0.8672905 0.48857021 4291964160
2.6932678 -0.83646595 0.46555874 4291703040
2.5990434 -0.80711251 0.44325018 4291311360
2.517571 -0.78172517 0.4230265 4291050240
2.4865322 -0.77200174 0.41107753 4290919680
2.4649575 -0.7652185 0.40036601 4290789120
2.458962 -0.76327258 0.39180565 4290789120
2.456403 -0.76239365 0.38337028 4290789120
2.4575934 -0.76267844 0.37508568 4290789120
2.9309592 -0.90880591 0.37045011 4292486400
2.9608896 -0.91798455 0.36053291 4292486400
2.9587607 -0.91722256 0.34618074 4292486400
2.9729152 -0.92150813 0.33328888 4292616960
2.9507034 -0.91452157 0.31599188 4292486400
2.9555078 -0.91590887 0.30132467 4292486400
2.9652066 -0.91881245 0.28674787 4292486400
2.960222 -0.91716599 0.27041084 4292486400
2.9325783 -0.90850013 0.25188416 4292355840
2.9513743 -0.91422147 0.23711658 4292486400
2.9618177 -0.9173544 0.2212553 4292486400
2.9603889 -0.91680998 0.20421493 4292486400
2.8180115 -0.87261969 0.17806244 4291964160
2.7936008 -0.8649646 0.16013868 4291833600
2.7148452 -0.84048659 0.13953581 4291572480
2.8044376 -0.86812681 0.12736531 4291964160
2.4799571 -0.76759696 0.097672723 4290789120
2.37713 -0.73568809 0.079185911 4290397440
2.375047 -0.73496163 0.064606965 4290397440
2.3704438 -0.7334556 0.04993096 4290397440
2.3527288 -0.72789329 0.035062581 4290266880
2.3607447 -0.73029202 0.020599771 4290397440
2.3662806 -0.73192304 0.0060096346 4290397440
2.260819 -0.69922453 -0.0082501499 4290005760
2.3457987 -0.72542626 -0.023068624 4290266880
2.3528063 -0.72751236 -0.037664019 4290266880
2.367542 -0.7319873 -0.052476212 4290397440
2.3385358 -0.72293878 -0.066174805 4290266880
2.3526897 -0.72723335 -0.080931455 4290266880
2.3695555 -0.73236513 -0.095882297 4290397440
2.3842371 -0.73682076 -0.11083137 4290397440
2.3480854 -0.7255677 -0.12316966 4290266880
2.3624663 -0.7299301 -0.1378939 4290397440
2.3812714 -0.73565835 -0.15292124 4290397440
2.3723602 -0.73282379 -0.16606042 4290397440
2.3617599 -0.72946805 -0.17878792 4290397440
2.3899856 -0.73810381 -0.19435704 4290528000
2.3892889 -0.73780638 -0.20751569 4290528000
2.4010732 -0.74136269 -0.22159036 4290528000
2.3597889 -0.7285344 -0.23036705 4290397440
2.3682895 -0.73107737 -0.24357356 4290397440
2.3899705 -0.73768795 -0.25802112 4290528000
2.3952677 -0.73924059 -0.27055061 4290528000
2.3857296 -0.7362147 -0.28108317 4290528000
2.3459876 -0.72386992 -0.28750873 4290397440
2.3994343 -0.74027872 -0.30509061 4290528000
2.4114871 -0.74391437 -0.31736606 4290658560
2.4005077 -0.74044472 -0.32625946 4290528000
2.4064398 -0.74219173 -0.33706039 4290528000
2.3948958 -0.73854899 -0.34501049 4290528000
2.3676808 -0.73007476 -0.35016096 4290397440
2.3850274 -0.73534155 -0.3614625 4290528000
2.3839095 -0.7349149 -0.36961281 4290528000
2.3850527 -0.73518527 -0.3776907 4290528000
2.381269 -0.73393703 -0.38454717 4290528000
2.379631 -0.73335034 -0.39129138 4290528000
2.3801451 -0.73342693 -0.39793521 4290528000
2.373668 -0.73134935 -0.40293548 4290528000
2.3668451 -0.72916573 -0.40737808 4290528000
2.3656023 -0.72870153 -0.41229001 4290528000
2.3521862 -0.7244879 -0.41457248 4290397440
2.3348653 -0.7190727 -0.41562763 4290397440
2.3306901 -0.71770662 -0.4185017 4290397440
2.3194096 -0.71415317 -0.4195902 4290266880
2.3143013 -0.71250069 -0.42128435 4290266880
2.2693744 -0.69859105 -0.41519067 4290136320
2.2550156 -0.69409335 -0.41415244 4290136320
2.2727413 -0.69947118 -0.41852069 4290136320
2.3229039 -0.71482962 -0.42839444 4290397440
2.3181973 -0.71330154 -0.42766088 4290266880
2.3422537 -0.72062308 -0.43172854 4290397440
2.3292396 -0.71653903 -0.42845878 4290397440
2.3582582 -0.72538483 -0.43240705 4290528000
2.3628314 -0.72671026 -0.43134636 4290528000
2.3640738 -0.72701108 -0.42916834 4290528000
2.3744819 -0.7301302 -0.42813885 4290528000
2.3808241 -0.73199844 -0.42585474 4290528000
2.3765624 -0.73060644 -0.42117551 4290528000
2.378186 -0.73102385 -0.41705313 4290528000
2.3803732 -0.73161435 -0.41253749 4290528000
2.3789976 -0.73110968 -0.4069244 4290528000
2.3799038 -0.73130637 -0.40123144 4290528000
2.3659053 -0.72692353 -0.39259693 4290528000
2.3533342 -0.7229802 -0.38381949 4290397440
2.3496606 -0.72177082 -0.37609854 4290397440
2.3737986 -0.72910392 -0.37233114 4290528000
2.3877048 -0.73329306 -0.36640784 4290528000
2.3974011 -0.73618847 -0.35933831 4290528000
2.3773139 -0.72993839 -0.34743589 4290528000
2.3565099 -0.72346967 -0.3351905 4290397440
2.3596025 -0.72433805 -0.3260332 4290397440
2.3758118 -0.72923219 -0.31823897 4290528000
2.3856053 -0.73215622 -0.30911562 4290528000
2.3585913 -0.72378439 -0.29495504 4290397440
2.3494148 -0.72088766 -0.28285968 4290397440
2.3795788 -0.73006123 -0.27508301 4290528000
2.3805113 -0.7302655 -0.26347163 4290397440
2.3932183 -0.73408139 -0.25280216 4290528000
2.3407843 -0.71791762 -0.23517835 4290266880
2.3596427 -0.72362041 -0.22462879 4290397440
2.3675849 -0.72597462 -0.21265043 4290397440
2.37483 -0.72811455 -0.20029345 4290397440
2.3316605 -0.71479881 -0.18366574 4290266880
2.3672464 -0.72562671 -0.17307998 4290397440
2.3737166 -0.72752839 -0.15993828 4290397440
2.3724277 -0.72705185 -0.14607003 4290397440
2.3734531 -0.72728455 -0.13218708 4290397440
2.3656583 -0.72481471 -0.11770982 4290397440
2.3635812 -0.72409707 -0.10344839 4290397440
2.2985082 -0.70408261 -0.086723335 4290136320
2.3390346 -0.71641636 -0.074035585 4290266880
2.368963 -0.72550166 -0.060503412 4290397440
2.3823805 -0.72952896 -0.046219211 4290397440
2.3828599 -0.72959387 -0.031549092 4290397440
2.3696835 -0.72547805 -0.01674284 4290397440
2.3892763 -0.73139423 -0.0021105877 4290397440
2.42384 -0.7418915 0.01284526 4290528000
2.6010995 -0.79605788 0.029851846 4291180800
