# .PCD v0.7 - Point Cloud Data file format
VERSION 0.7
FIELDS x y z rgba
SIZE 4 4 4 4
TYPE F F F U
COUNT 1 1 1 1
WIDTH 1101
HEIGHT 1
VIEWPOINT 0 0 0 1 0 0 0
POINTS 1101
DATA ascii
3.1910894 0.86768955 -0.54484624 4293269760
3.1915359 0.86791217 -0.53715396 4293269760
3.1784885 0.86446804 -0.52660722 4293269760
3.173466 0.86320311 -0.51683515 4293269760
3.1632085 0.86051476 -0.50566494 4293139200
3.1729355 0.86325681 -0.49711257 4293269760
3.181005 0.86554855 -0.48767725 4293269760
3.1847434 0.8666628 -0.47698465 4293269760
3.1382389 0.85411686 -0.45838729 4293008640
2.9569545 0.80491948 -0.42046112 4292486400
2.7760284 0.75580817 -0.38354376 4291833600
2.6226985 0.7141909 -0.35137978 4291180800
2.5356622 0.69059598 -0.32872364 4290919680
2.4638028 0.6711241 -0.30836788 4290658560
2.4602764 0.67023838 -0.29656062 4290658560
2.4385138 0.66439033 -0.28234643 4290528000
2.4032788 0.65487456 -0.26653594 4290397440
2.3852637 0.65004289 -0.25260425 4290397440
2.3729646 0.64676571 -0.23915407 4290266880
2.3375607 0.63719827 -0.22336143 4290266880
2.2963188 0.62603915 -0.20717233 4290005760
2.2886562 0.62402004 -0.19405019 4290005760
2.2751684 0.62041414 -0.18033998 4290005760
2.2673941 0.61836308 -0.1670063 4290005760
2.2820675 0.62242538 -0.15510757 4290005760
2.217952 0.60502744 -0.13796976 4289744640
2.1958172 0.59906179 -0.12379614 4289744640
2.1682045 0.59160233 -0.10947303 4289614080
2.2057524 0.60189551 -0.098267257 4289744640
2.1509259 0.58701879 -0.082942009 4289483520
2.1762664 0.59398663 -0.070801891 4289614080
2.2007926 0.60073394 -0.058260255 4289744640
2.2377102 0.61086029 -0.045614239 4289875200
2.2282162 0.60833627 -0.031805534 4289744640
2.2407365 0.61181366 -0.018262735 4289875200
2.3036978 0.62904567 -0.0046561006 4290005760
2.3041589 0.62923741 0.009472996 4290005760
2.1852841 0.596883 0.022384195 4289614080
2.3453386 0.64060169 0.038347762 4290136320
2.3822057 0.65072578 0.053467348 4290266880
2.3798516 0.65015191 0.067860089 4290266880
2.327785 0.63601434 0.080435686 4290136320
2.4131823 0.65938383 0.097853988 4290397440
2.4501717 0.6695478 0.11393774 4290528000
2.385505 0.65196902 0.12501766 4290397440
2.3327034 0.63762534 0.1358894 4290136320
2.4857461 0.67947167 0.15915132 4290658560
2.5223887 0.68954778 0.17589112 4290789120
2.4697554 0.67524987 0.1861341 4290658560
2.4119473 0.65953588 0.19516425 4290397440
2.5923722 0.70888114 0.22388524 4291050240
2.7056646 0.73990107 0.24815866 4291441920
2.9236071 0.79951435 0.28349245 4292225280
3.1630552 0.86501592 0.32296976 4293139200
3.1446834 0.8600899 0.33692932 4293008640
3.2363963 0.88524383 0.36265051 4293400320
3.2336493 0.88458949 0.37782738 4293400320
3.2376792 0.88578761 0.39337474 4293400320
3.2143936 0.87951982 0.4050754 4293269760
3.1753404 0.86894065 0.41405585 4293139200
3.2420959 0.88728768 0.43646088 4293400320
3.2460287 0.88846153 0.45021749 4293400320
3.2390752 0.88665903 0.46194026 4293400320
3.2428346 0.88778645 0.47464749 4293400320
3.2236733 0.88264525 0.48340365 4293400320
3.2056956 0.87782705 0.491651 4293269760
3.2285583 0.88418156 0.50560206 4293400320
3.2346573 0.88595116 0.51643831 4293400320
3.2342715 0.88594711 0.5256595 4293400320
3.2337594 0.88590896 0.5342474 4293400320
3.2347205 0.88627452 0.54245806 4293400320
3.2193544 0.88217121 0.54726791 4293400320
3.2319815 0.88573134 0.55618465 4293400320
3.2206306 0.88272744 0.56033307 4293400320
3.2159553 0.88155144 0.56495619 4293400320
3.2284789 0.88508594 0.57194626 4293400320
3.2102003 0.88018495 0.57280755 4293400320
3.2001176 0.87752855 0.57442272 4293400320
3.2091494 0.88010877 0.57878709 4293400320
3.2040362 0.87881446 0.57992542 4293400320
3.213285 0.88145608 0.58297861 4293400320
3.2083948 0.88022381 0.58278447 4293400320
3.2036173 0.87902266 0.58192271 4293400320
3.2165334 0.88267225 0.58358359 4293400320
3.2262166 0.88543695 0.58396363 4293400320
3.2217746 0.88432968 0.58109981 4293400320
3.2144945 0.88244432 0.57704914 4293400320
3.2269166 0.88596284 0.57584631 4293400320
3.2247083 0.88546962 0.57134736 4293400320
3.222712 0.88503486 0.56622064 4293400320
3.2232747 0.88530272 0.56088078 4293400320
3.2346246 0.88853139 0.55673695 4293400320
3.2262099 0.88633686 0.54853892 4293400320
3.2234209 0.88568646 0.54067981 4293400320
3.2141659 0.88326144 0.53113616 4293400320
3.2061586 0.8811788 0.52122474 4293400320
3.2262669 0.8868165 0.51523858 4293400320
3.2454197 0.89219373 0.50838667 4293530880
3.228312 0.88761324 0.49526852 4293400320
3.2146778 0.88398618 0.48221308 4293400320
2.9185226 0.8033309 0.36203891 4292225280
2.7111146 0.74640709 0.32391417 4291572480
2.6204634 0.72157848 0.30073357 4291180800
2.5550492 0.70368493 0.28085071 4290919680
2.5040252 0.68974549 0.26280186 4290789120
2.5007057 0.68892747 0.24972792 4290789120
2.5006137 0.68899757 0.23671328 4290789120
2.4444981 0.67364961 0.21843636 4290528000
2.4320757 0.67032415 0.20417848 4290528000
2.4297495 0.66977715 0.19061892 4290528000
2.4220181 0.66774201 0.17647962 4290528000
2.3824425 0.65693778 0.16009505 4290397440
2.3567374 0.6499505 0.14483435 4290266880
2.3912177 0.65953898 0.13305089 4290397440
2.378397 0.6560998 0.1183681 4290266880
2.2644398 0.6247946 0.099282421 4289875200
2.3009722 0.63494933 0.087122932 4290005760
2.3047609 0.63608289 0.073388621 4290005760
2.2615402 0.62425941 0.058318663 4289875200
2.1370909 0.59003991 0.04211501 4289483520
2.2409911 0.61876988 0.030460415 4289875200
2.2189445 0.61277777 0.01657098 4289744640
2.117835 0.58497906 0.002832443 4289352960
2.1596081 0.5965839 -0.010371402 4289614080
2.1826231 0.60301715 -0.023872772 4289614080
2.1685677 0.59922421 -0.036998063 4289614080
2.173408 0.60064441 -0.050354108 4289614080
2.26564 0.62618375 -0.066280738 4289875200
2.2835102 0.63120449 -0.080627277 4290005760
2.2000921 0.60826457 -0.090913624 4289744640
2.2116985 0.61155462 -0.10460528 4289744640
2.2631063 0.62583625 -0.12044524 4289875200
2.2854891 0.63210565 -0.13504703 4290005760
2.2715275 0.62833768 -0.14740629 4290005760
2.3011131 0.63659865 -0.16252482 4290005760
2.3656304 0.65451336 -0.18047249 4290266880
2.3838611 0.65964222 -0.19515991 4290397440
2.3735018 0.65687084 -0.20734024 4290266880
2.3711073 0.65630007 -0.21992257 4290266880
2.3760056 0.65774494 -0.23295578 4290397440
2.4619093 0.68158704 -0.25415057 4290658560
2.4884706 0.6890257 -0.26952049 4290789120
2.5648 0.71023029 -0.29049867 4291050240
2.6154623 0.72434074 -0.30887249 4291180800
2.7084117 0.75015306 -0.33258101 4291572480
3.137017 0.8688404 -0.39953226 4293008640
3.1860168 0.88251716 -0.41986382 4293269760
3.2054384 0.8880114 -0.43612924 4293269760
3.2053349 0.88810235 -0.44933325 4293269760
3.1924195 0.88464618 -0.4601858 4293269760
3.1888716 0.88378215 -0.47180638 4293269760
3.1855845 0.88298959 -0.48290786 4293269760
3.1887825 0.88399231 -0.49444515 4293269760
3.1869807 0.88361001 -0.50465143 4293269760
3.1907074 0.88475853 -0.51516461 4293269760
3.1972198 0.88667858 -0.52557063 4293269760
3.1838207 0.8830815 -0.53208524 4293269760
3.1947978 0.88623804 -0.54205465 4293269760
3.1740904 0.88061333 -0.54600543 4293269760
3.1683519 0.87913585 -0.55184138 4293269760
3.1630638 0.87778234 -0.55709678 4293269760
3.1453249 0.87297577 -0.55947459 4293139200
3.1361158 0.87053269 -0.56267691 4293139200
3.1387596 0.87137562 -0.56734288 4293139200
3.1429009 0.87263352 -0.57162958 4293139200
3.1376567 0.87128758 -0.57354546 4293139200
3.0733321 0.85354972 -0.5639466 4292878080
3.0730572 0.85357881 -0.56539798 4292878080
3.1320729 0.87006056 -0.57711458 4293139200
3.1272714 0.8688342 -0.57641804 4293139200
3.1187863 0.86658448 -0.57437271 4293139200
3.1383729 0.8721264 -0.57682204 4293139200
3.1508379 0.87569189 -0.57727706 4293139200
3.1675696 0.88044238 -0.57782191 4293269760
3.1831424 0.8848716 -0.57745486 4293269760
3.1823413 0.88475358 -0.57343268 4293269760
3.178019 0.88365692 -0.56811821 4293269760
3.1780272 0.88376242 -0.56292593 4293269760
3.1884735 0.88676751 -0.55891198 4293269760
3.1886506 0.88691926 -0.55243325 4293269760
3.177428 0.88390243 -0.54336768 4293269760
3.1769192 0.88386214 -0.5355354 4293269760
3.1876731 0.88695186 -0.52895963 4293269760
3.155062 0.87798661 -0.51464635 4293139200
3.1495755 0.87656009 -0.50427753 4293139200
3.1509957 0.8770532 -0.49445158 4293139200
3.1545603 0.87814224 -0.48438337 4293139200
3.1230886 0.86948687 -0.46848592 4293008640
2.9663587 0.82598871 -0.43396318 4292486400
2.8003464 0.77989841 -0.39881822 4291833600
2.6352963 0.73406523 -0.36467153 4291311360
2.5350704 0.70625848 -0.34017238 4290919680
2.4404228 0.67999744 -0.31687242 4290658560
2.4321177 0.67775965 -0.30487877 4290528000
2.4199698 0.67445147 -0.29215825 4290528000
2.3982232 0.66847032 -0.27811503 4290397440
2.3802681 0.66354316 -0.26439589 4290397440
2.3584385 0.65753603 -0.25015259 4290266880
2.32793 0.64911067 -0.23497993 4290136320
2.3059931 0.64307034 -0.22068703 4290136320
2.2609653 0.63059753 -0.20429853 4290005760
2.2571416 0.62959874 -0.1916737 4289875200
2.2532687 0.62858582 -0.17887942 4289875200
2.2358902 0.62380993 -0.16493849 4289875200
2.2687931 0.63304251 -0.15444167 4290005760
2.2561038 0.62957245 -0.14055963 4289875200
2.1557419 0.60166872 -0.12171965 4289614080
2.1416326 0.59779871 -0.10829346 4289483520
2.1752644 0.60723501 -0.097052544 4289614080
2.1796024 0.60850704 -0.084174484 4289614080
2.1668465 0.60501349 -0.070597798 4289614080
2.2020729 0.61489785 -0.058377508 4289744640
2.2341161 0.6238966 -0.045603316 4289875200
2.224637 0.62131715 -0.031794656 4289744640
2.2419527 0.62621063 -0.018291499 4289875200
2.3038495 0.6435405 -0.0046529709 4290005760
2.3052726 0.64400363 0.0095036607 4290005760
2.1817722 0.60961348 0.022394864 4289614080
2.3377168 0.65318894 0.03829648 4290136320
2.368747 0.66191524 0.053263415 4290266880
2.3760257 0.66401476 0.067871705 4290266880
2.3192294 0.64823055 0.080280967 4290136320
2.409302 0.67344046 0.097865768 4290397440
2.4462316 0.68381965 0.1139497 4290528000
2.3720489 0.66317856 0.12452547 4290266880
2.3154883 0.64745384 0.13511688 4290136320
2.4817476 0.69395024 0.15916345 4290658560
2.5135257 0.70289761 0.17556842 4290789120
2.4705846 0.69097668 0.18650812 4290658560
2.4042251 0.67251158 0.19486524 4290397440
2.5747628 0.72022587 0.22273722 4291050240
2.6196599 0.7328459 0.24068102 4291180800
2.7596197 0.77203238 0.26805526 4291703040
3.0252235 0.84634024 0.30942416 4292616960
3.0702825 0.85902351 0.3295114 4292747520
3.2168229 0.90007597 0.36105594 4293269760
3.2284424 0.90342027 0.37784317 4293400320
3.2238564 0.90223485 0.39234391 4293400320
3.2006121 0.89583236 0.40400606 4293269760
3.1606703 0.88475955 0.41282454 4293139200
3.2320976 0.90483165 0.43583342 4293400320
3.2226624 0.90229094 0.44771606 4293400320
3.233856 0.90552068 0.46195608 4293400320
3.2280729 0.90400207 0.47326657 4293400320
3.2137122 0.90008366 0.48270425 4293400320
3.195765 0.89516121 0.49093556 4293269760
3.2233536 0.90298164 0.50561786 4293400320
3.2294419 0.90478659 0.51645416 4293400320
3.2242994 0.9034487 0.52490157 4293400320
3.2323484 0.90580398 0.53489214 4293400320
3.2199969 0.90244853 0.54087842 4293400320
3.2141614 0.90091735 0.54728365 4293400320
3.2172678 0.90189052 0.55456436 4293400320
3.2201827 0.90281087 0.56117564 4293400320
3.2107658 0.90027761 0.56497192 4293400320
3.1962101 0.89630473 0.56716454 4293400320
3.205019 0.89887756 0.57282329 4293400320
3.2091842 0.90015048 0.57699513 4293400320
3.2087119 0.90012455 0.57965899 4293400320
3.2036057 0.89880043 0.58080024 4293400320
3.2033536 0.89883721 0.58213317 4293400320
3.2032132 0.89890581 0.58280015 4293400320
3.2031851 0.89900649 0.58280051 4293400320
3.2075434 0.90033782 0.58291042 4293400320
3.2029965 0.89917248 0.58071727 4293400320
3.221312 0.90441996 0.58197176 4293400320
3.2130947 0.90222639 0.57774669 4293400320
3.2169566 0.9034217 0.57501471 4293400320
3.2147505 0.90291518 0.57052171 4293400320
3.2132869 0.90261745 0.56549519 4293400320
3.2142651 0.90300554 0.56023514 4293400320
3.2160969 0.90363383 0.55446219 4293400320
3.2162418 0.90378922 0.5477463 4293400320
3.204901 0.90072042 0.53846192 4293400320
3.2089667 0.90197742 0.53115189 4293400320
3.1914601 0.8971771 0.51969296 4293269760
3.2067735 0.9015941 0.51297313 4293400320
3.2306485 0.90841776 0.5069102 4293400320
3.2230873 0.90641189 0.49528432 4293400320
3.2125266 0.90356314 0.482687 4293400320
2.7884533 0.78507853 0.3464959 4291833600
2.6507864 0.74646384 0.31724134 4291311360
2.5801289 0.72668862 0.29660317 4291050240
2.5509081 0.71856588 0.28086326 4290919680
2.4903889 0.70163471 0.26180869 4290789120
2.5014424 0.70484054 0.25021872 4290789120
2.5013523 0.70491099 0.23717935 4290789120
2.4405339 0.68788749 0.21844836 4290528000
2.4233341 0.68313926 0.20378764 4290528000
2.4306073 0.68528068 0.19100733 4290528000
2.4084868 0.6791454 0.17579192 4290397440
2.3737743 0.6694622 0.15978408 4290397440
2.3529129 0.66367805 0.14484592 4290266880
2.3738806 0.66967648 0.13231425 4290266880
2.3649223 0.66724473 0.11790159 4290266880
2.2607636 0.63798523 0.09929353 4289875200
2.2885795 0.64591295 0.086806856 4290005760
2.3058286 0.65086436 0.073552839 4290136320
2.2578673 0.63743347 0.058329757 4289875200
2.1336195 0.60248959 0.042125493 4289483520
2.2325389 0.63046759 0.030406358 4289875200
2.2191892 0.62678993 0.016610309 4289744640
2.1705794 0.61316538 0.0029129134 4289614080
2.1660268 0.61196595 -0.010409416 4289614080
2.1607904 0.61057335 -0.023660259 4289614080
2.1419477 0.60534072 -0.036590975 4289483520
2.0482934 0.57899266 -0.047513206 4289222400
2.238868 0.63286561 -0.065591566 4289875200
2.2519038 0.63663322 -0.079627916 4289875200
2.1782432 0.61592346 -0.090145521 4289614080
2.1898351 0.61928183 -0.10372811 4289744640
2.2411642 0.63386363 -0.11945979 4289875200
2.2587118 0.63890743 -0.13367003 4289875200
2.2399781 0.63370293 -0.14558357 4289875200
2.2695253 0.64213812 -0.16054277 4290005760
2.334908 0.66070181 -0.17840661 4290266880
2.3521602 0.66566789 -0.19286615 4290266880
2.3197749 0.65660477 -0.20296443 4290136320
2.3346589 0.66090184 -0.21688277 4290266880
2.321362 0.65723211 -0.22795692 4290136320
2.4253435 0.68672407 -0.25077167 4290528000
2.461448 0.69702756 -0.2670162 4290658560
2.4470804 0.69305766 -0.27760416 4290658560
2.3650694 0.66995102 -0.27974439 4290397440
2.4195669 0.68545938 -0.29758349 4290528000
2.9298172 0.82993168 -0.37373722 4292355840
3.0952048 0.87684661 -0.40854684 4292878080
3.1608238 0.89553547 -0.4307456 4293139200
3.1813087 0.9014526 -0.44667768 4293269760
3.1818731 0.90173107 -0.45939884 4293269760
3.1836724 0.90235889 -0.4717907 4293269760
3.1803901 0.90154731 -0.48289219 4293269760
3.1788242 0.90122122 -0.49369058 4293269760
3.193814 0.90558404 -0.50654382 4293269760
3.1759956 0.90065306 -0.51361161 4293269760
3.1872523 0.90395814 -0.52477264 4293269760
3.1966736 0.90674353 -0.53509027 4293400320
3.1848366 0.90350437 -0.54123223 4293269760
3.1651134 0.89802855 -0.54533577 4293269760
3.1717196 0.90001452 -0.5533154 4293269760
3.1579001 0.89620954 -0.55708122 4293269760
3.153465 0.89506394 -0.56182396 4293269760
3.145215 0.89283562 -0.5652166 4293139200
3.1203649 0.88589805 -0.56492549 4293139200
3.1377678 0.89094347 -0.57161409 4293139200
3.1325314 0.88956702 -0.57353002 4293139200
3.0730479 0.8727985 -0.56480193 4292878080
3.1223881 0.88690472 -0.57539755 4293139200
3.131691 0.88965154 -0.57797307 4293139200
3.118372 0.88597786 -0.57570326 4293139200
3.1472862 0.89429092 -0.58055395 4293139200
3.1427152 0.89309919 -0.57855016 4293139200
3.1418974 0.89297217 -0.57656628 4293139200
3.1623905 0.89889598 -0.57780629 4293269760
3.1731994 0.90207028 -0.57657844 4293269760
3.1771367 0.90329313 -0.57341701 4293269760
3.1766129 0.90324843 -0.56878144 4293269760
3.1861777 0.90606916 -0.56527835 4293269760
3.1879995 0.90669006 -0.55972886 4293269760
3.1881773 0.90684336 -0.55324072 4293269760
3.1722283 0.90241313 -0.54335207 4293269760
3.1717198 0.9023698 -0.53551978 4293269760
3.1634588 0.90012223 -0.52578688 4293269760
3.1498973 0.89636683 -0.51463085 4293139200
3.1362538 0.89258677 -0.50295269 4293139200
3.1148419 0.8865965 -0.48956496 4293008640
3.0728009 0.87473798 -0.47258872 4292878080
2.9169292 0.83050239 -0.43826562 4292355840
2.7892699 0.7942813 -0.40871289 4291833600
2.6593935 0.75742126 -0.37935317 4291441920
2.5296171 0.72058135 -0.35060999 4290919680
2.4389822 0.69487017 -0.32780382 4290658560
2.408746 0.68634009 -0.31326091 4290528000
2.3918462 0.68160325 -0.30031082 4290397440
2.4016724 0.68447185 -0.29041338 4290528000
2.371351 0.67591274 -0.2754384 4290397440
2.3400247 0.66706562 -0.2603406 4290266880
2.3229966 0.66228712 -0.24678607 4290136320
2.3059242 0.65749472 -0.23312928 4290136320
2.2792258 0.64995998 -0.21847191 4290005760
2.2476749 0.64104158 -0.20341998 4289875200
2.2902257 0.65322709 -0.19479266 4290005760
2.2217622 0.63379192 -0.17665613 4289875200
2.2044008 0.6289109 -0.16287085 4289744640
2.238199 0.63860464 -0.15259729 4289875200
2.2293608 0.63615131 -0.13910973 4289875200
2.1339574 0.60902876 -0.12067623 4289483520
2.1797841 0.62215126 -0.11039558 4289614080
2.1486332 0.61333537 -0.096009977 4289483520
2.1639817 0.61777264 -0.0836972 4289614080
2.1498308 0.61380082 -0.070147067 4289483520
2.1984558 0.62772655 -0.058366649 4289744640
2.2352536 0.63828254 -0.045690939 4289875200
2.2209821 0.63427699 -0.031783681 4289744640
2.2238445 0.63515729 -0.018161401 4289744640
2.3000636 0.65696126 -0.0046416069 4290005760
2.2966759 0.65606099 0.0094955927 4290005760
2.1781862 0.62232333 0.022405628 4289614080
2.3338742 0.66680646 0.038308013 4290136320
2.3696599 0.67708492 0.053382907 4290266880
2.3721192 0.67785507 0.067883432 4290266880
2.3154159 0.66174012 0.080292411 4290136320
2.40534 0.68747425 0.097877659 4290397440
2.4374053 0.69669718 0.11373818 4290528000
2.3777509 0.67973697 0.12504107 4290397440
2.3155193 0.66203767 0.1353523 4290136320
2.4776647 0.70840526 0.15917569 4290658560
2.5045931 0.71616757 0.17524576 4290789120
2.461724 0.70399696 0.18615833 4290658560
2.4002683 0.68651503 0.19487712 4290397440
2.5668402 0.73416919 0.22243108 4291050240
2.5886774 0.74048346 0.23824295 4291050240
2.636806 0.75431132 0.25657627 4291311360
2.8096955 0.80379313 0.28789255 4291964160
2.9603105 0.84691978 0.3182601 4292486400
3.2115259 0.91880858 0.3610718 4293269760
3.2097495 0.91839683 0.37629256 4293269760
3.2185469 0.92100811 0.39235982 4293400320
3.2087028 0.91829062 0.40570977 4293269760
3.1650031 0.90589249 0.41408703 4293139200
3.2267728 0.92365253 0.43584937 4293400320
3.225929 0.92350972 0.44892442 4293400320
3.2332892 0.92571378 0.46265289 4293400320
3.2179925 0.92143762 0.4725841 4293400320
3.2131727 0.92015827 0.4834353 4293400320
3.1952522 0.91513073 0.49168247 4293269760
3.2132862 0.9203909 0.50488758 4293400320
3.2193661 0.92223167 0.5157097 4293400320
3.2237313 0.92358267 0.52569121 4293400320
3.2089782 0.91946191 0.53192055 4293400320
3.2146857 0.92119813 0.54089433 4293400320
3.2183464 0.92234915 0.54891634 4293400320
3.2167017 0.92198193 0.55539834 4293400320
3.2053881 0.91884619 0.55953789 4293400320
3.2092588 0.92005914 0.56565547 4293400320
3.2084727 0.91993898 0.57029498 4293400320
3.1949916 0.91618264 0.57199174 4293400320
3.1991503 0.91747987 0.5761587 4293400320
3.1986787 0.91745114 0.57881862 4293400320
3.1983161 0.91745424 0.58081609 4293400320
3.2027984 0.91884649 0.58301014 4293400320
3.1979229 0.91755736 0.582816 4293400320
3.1884253 0.9149434 0.58109206 4293400320
3.2107668 0.92145783 0.58447635 4293400320
3.1977046 0.91782278 0.58073312 4293400320
3.2112539 0.92181885 0.58113146 4293400320
3.1992605 0.91849053 0.57622844 4293400320
3.2116399 0.92215323 0.57503062 4293400320
3.2056465 0.92054665 0.56986439 4293400320
3.2121832 0.92253518 0.56625229 4293400320
3.2127426 0.9228096 0.56091249 4293400320
3.2155201 0.92372119 0.55529618 4293400320
3.2156658 0.92387813 0.54857063 4293400320
3.2081401 0.92183352 0.53991377 4293400320
3.1941662 0.9179377 0.52959532 4293400320
3.1873379 0.91609305 0.5198974 4293269760
3.2157173 0.9243589 0.51527029 4293400320
3.2253025 0.92722958 0.50692618 4293400320
3.2177529 0.92517978 0.49530026 4293400320
3.2024529 0.92090327 0.48198768 4293400320
2.704165 0.77861369 0.3366113 4291572480
2.60221 0.74939102 0.31197107 4291180800
2.5758018 0.74189323 0.29661742 4291050240
2.5370724 0.73084891 0.27982536 4290919680
2.4909916 0.71768653 0.2623266 4290789120
2.4972456 0.71958196 0.25023469 4290789120
2.497155 0.719652 0.23719612 4290789120
2.4364378 0.70227039 0.21846549 4290528000
2.4240556 0.69879973 0.20420825 4290528000
2.426527 0.69960529 0.19102603 4290528000
2.404443 0.69333982 0.17581128 4290397440
2.3697882 0.68345225 0.15980399 4290397440
2.3489614 0.67754537 0.1448665 4290266880
2.3698933 0.68366742 0.13233586 4290266880
2.3705475 0.68394858 0.11840224 4290266880
2.2569654 0.65131015 0.099315755 4289875200
2.2885752 0.66050881 0.086975724 4290005760
2.2971516 0.66307074 0.07342422 4290005760
2.2492697 0.64935708 0.058230586 4289875200
2.1396399 0.61783606 0.042338595 4289483520
2.2249427 0.64251864 0.030380223 4289744640
2.2068107 0.63737679 0.016572777 4289744640
2.1021907 0.60728627 0.0028579545 4289352960
2.1707594 0.62715 -0.010423006 4289614080
2.1451185 0.61983728 -0.023499327 4289483520
2.1200924 0.61269999 -0.036248934 4289483520
2.0217946 0.58441424 -0.046948165 4289091840
2.2024481 0.63663805 -0.064600416 4289744640
2.2298713 0.64464098 -0.07894893 4289875200
2.1467383 0.62072623 -0.088958696 4289483520
2.1535187 0.62276828 -0.10214628 4289614080
2.2742157 0.65770978 -0.121394 4290005760
2.2270944 0.64418828 -0.1319861 4289875200
2.1997719 0.6363824 -0.14317615 4289744640
2.2292824 0.64499426 -0.15792596 4289875200
2.3031921 0.66643763 -0.17624302 4290136320
2.3252151 0.67289168 -0.19094093 4290136320
2.3015096 0.66613013 -0.20166905 4290136320
2.3077633 0.66802698 -0.21470846 4290136320
2.2992811 0.66566384 -0.22613229 4290136320
2.3983166 0.69438839 -0.24835666 4290397440
2.416218 0.69965744 -0.26251253 4290528000
2.41049 0.6980933 -0.27387562 4290528000
2.3429503 0.67864865 -0.27755818 4290266880
2.3697007 0.68647689 -0.2919043 4290397440
2.7649007 0.80091399 -0.35325098 4291833600
2.855057 0.82710791 -0.37744007 4292094720
3.0449736 0.88218039 -0.41561127 4292747520
3.1295874 0.90678668 -0.44010961 4293139200
3.1528206 0.91362971 -0.4559252 4293139200
3.1687963 0.91837293 -0.47033197 4293269760
3.1702759 0.91891921 -0.48212308 4293269760
3.1798851 0.92181951 -0.49464384 4293269760
3.1811647 0.92230749 -0.5053454 4293269760
3.1848755 0.92349929 -0.51587415 4293269760
3.1781988 0.92168152 -0.52412415 4293269760
3.1865392 0.92421389 -0.53425443 4293269760
3.1747234 0.92090541 -0.5403862 4293269760
3.1635621 0.91778529 -0.54595214 4293269760
3.1616299 0.91733891 -0.55245179 4293269760
3.1573036 0.91619778 -0.55788344 4293269760
3.1396208 0.91118336 -0.56027132 4293139200
3.1399035 0.91137654 -0.56518602 4293139200
3.1188791 0.90539008 -0.56558335 4293139200
3.1182768 0.90532476 -0.56899863 4293139200
3.0635083 0.88954681 -0.56181967 4292878080
3.0678544 0.8909139 -0.56478018 4292878080
3.0533936 0.88682419 -0.563618 4292878080
3.0532272 0.88688064 -0.56443107 4292878080
3.1168811 0.90545768 -0.57638747 4293139200
3.1169331 0.90557855 -0.57591695 4293139200
3.137399 0.91162449 -0.57853997 4293139200
3.1365814 0.91149253 -0.57655865 4293139200
3.1664972 0.92028308 -0.57953215 4293269760
3.1575179 0.91778094 -0.57469982 4293269760
3.1717579 0.92202061 -0.57341754 4293269760
3.1674483 0.92087317 -0.568106 4293269760
3.1665821 0.92072511 -0.56276149 4293269760
3.1693425 0.92162997 -0.55740696 4293269760
3.1755347 0.92353147 -0.5519945 4293269760
3.1753802 0.92358869 -0.54483032 4293269760
3.1616044 0.91968709 -0.53473657 4293269760
3.1495616 0.91628766 -0.52438748 4293139200
3.1325567 0.9114446 -0.51269144 4293139200
3.0900443 0.89918506 -0.49641153 4293008640
3.0032516 0.87404889 -0.47285858 4292616960
2.8464222 0.82854307 -0.43854901 4292094720
2.7452276 0.79920506 -0.41320235 4291703040
2.6402366 0.76875633 -0.38756725 4291311360
2.5240383 0.73504108 -0.36069268 4290919680
2.4250252 0.70631725 -0.33672085 4290528000
2.393893 0.69733447 -0.32232851 4290528000
2.3722615 0.69111359 -0.30908021 4290397440
2.3601394 0.68765807 -0.29687533 4290397440
2.3518133 0.68530625 -0.28491142 4290266880
2.3444209 0.68322533 -0.27281919 4290266880
2.3083625 0.67280018 -0.25730175 4290136320
2.2913494 0.66791654 -0.24388662 4290136320
2.2790704 0.66440988 -0.23085666 4290005760
2.2476258 0.65532219 -0.21586086 4289875200
2.2805638 0.6649794 -0.20680347 4290005760
2.2585824 0.65864521 -0.19248332 4290005760
2.1950099 0.64019662 -0.17488141 4289744640
2.1824574 0.63660473 -0.16158088 4289744640
2.2066109 0.64370435 -0.15075839 4289744640
2.2073617 0.64398736 -0.13803208 4289744640
2.1121147 0.61630064 -0.11970364 4289483520
2.1482689 0.6268968 -0.10904583 4289614080
2.1539156 0.62860453 -0.096474677 4289614080
2.1409664 0.62489295 -0.083011843 4289483520
2.1500137 0.62759185 -0.070339344 4289614080
2.1995165 0.64208406 -0.058563851 4289744640
2.2266538 0.65005887 -0.045663461 4289875200
2.217206 0.64736843 -0.031855527 4289744640
2.2248635 0.64966518 -0.018274071 4289875200
2.2827132 0.66659915 -0.0046889721 4290005760
2.2927713 0.66959834 0.0094188266 4290005760
2.1696832 0.63376284 0.022283418 4289614080
2.3251073 0.67916304 0.038150571 4290136320
2.3704305 0.69245225 0.053409748 4290266880
2.3484433 0.68610573 0.067241855 4290266880
2.3210742 0.67818755 0.080544844 4290136320
2.4012513 0.70165187 0.097795054 4290397440
2.4332623 0.71106374 0.11365452 4290528000
2.3689156 0.69235301 0.12470783 4290266880
2.3163757 0.67708516 0.13555309 4290136320
2.4734533 0.72300905 0.15909156 4290658560
2.5003362 0.73093003 0.17516127 4290789120
2.4575398 0.71850687 0.18607597 4290658560
2.4191566 0.70737016 0.19666167 4290528000
2.5624774 0.74929833 0.22234707 4291050240
2.5842774 0.75574124 0.23815936 4291050240
2.5631502 0.74964613 0.24976145 4291050240
2.6128385 0.76423818 0.26812059 4291180800
2.826035 0.8266055 0.30427098 4291964160
3.1800702 0.93013889 0.35805157 4293269760
3.1995239 0.93591917 0.37563926 4293269760
3.2083085 0.93858278 0.39168674 4293400320
3.1899219 0.93330544 0.40393525 4293269760
3.1548598 0.9231528 0.41337889 4293139200
3.2032003 0.93738127 0.43332168 4293400320
3.2251995 0.94391137 0.44950643 4293400320
3.2277896 0.94476783 0.46257573 4293400320
3.204998 0.93820226 0.47140568 4293400320
3.1934566 0.93492609 0.48122051 4293269760
3.1850674 0.93257171 0.49088606 4293269760
3.204021 0.93821603 0.50422883 4293400320
3.2186286 0.94259059 0.5164122 4293400320
3.2135015 0.94119221 0.5248639 4293400320
3.2082524 0.9397583 0.53265768 4293400320
3.2139471 0.94152749 0.54164743 4293400320
3.203392 0.93854135 0.54725975 4293400320
3.21122 0.94093627 0.55536324 4293400320
3.2093894 0.94050461 0.5611614 4293400320
3.1952708 0.93647563 0.56412816 4293400320
3.1944869 0.93635094 0.56876051 4293400320
3.1895411 0.93500805 0.5719772 4293400320
3.1936913 0.93632948 0.57614952 4293400320
3.1979465 0.93768251 0.57967114 4293400320
3.176106 0.93139154 0.57777357 4293269760
3.1926019 0.93633187 0.58215654 4293400320
3.1877334 0.93501359 0.58196706 4293400320
3.1829767 0.9337284 0.58111107 4293400320
3.1967709 0.93788058 0.58295125 4293400320
3.1827836 0.93389076 0.57904553 4293400320
3.2057614 0.94073743 0.58116847 4293400320
3.2022967 0.93983334 0.57780558 4293400320
3.2061434 0.94107354 0.5750798 4293400320
3.2039425 0.94054103 0.57059288 4293400320
3.2066827 0.94145817 0.5663138 4293400320
3.2034543 0.94062525 0.56031865 4293400320
3.2052777 0.94127482 0.55455196 4293400320
3.20542 0.94143176 0.54784226 4293400320
3.1941152 0.93823016 0.53856373 4293400320
3.188689 0.93675363 0.52968723 4293400320
3.1818709 0.93486863 0.51999527 4293269760
3.200717 0.94051749 0.51385397 4293400320
3.2064853 0.94232875 0.5049476 4293400320
3.2074842 0.9427405 0.49468604 4293400320
3.2064512 0.94255608 0.48354092 4293400320
2.6242342 0.77182025 0.32722637 4291311360
2.5675538 0.75526774 0.3083418 4291050240
2.581079 0.75934005 0.29772595 4291180800
2.532877 0.74527377 0.27983376 4290919680
2.4820991 0.73044688 0.26183063 4290789120
2.4883399 0.73237711 0.24976142 4290789120
2.4930241 0.73385042 0.23719986 4290789120
2.4457891 0.72005856 0.21966761 4290658560
2.4200449 0.71258301 0.20420873 4290528000
2.4177284 0.71199596 0.19064832 4290528000
2.4133899 0.71081406 0.17675345 4290528000
2.3610792 0.69551933 0.15947685 4290266880
2.3498614 0.69231123 0.14515559 4290266880
2.3698018 0.69827104 0.13254187 4290397440
2.3666227 0.69742846 0.11839268 4290266880
2.2628124 0.66696578 0.099726275 4290005760
2.289578 0.67493415 0.087145053 4290005760
2.2981405 0.67754531 0.073562883 4290136320
2.2551332 0.66497195 0.058462568 4289875200
2.1360943 0.63000411 0.042322237 4289483520
2.2250919 0.65630168 0.030413702 4289875200
2.2117858 0.65246981 0.016616844 4289744640
2.158541 0.63687032 0.0029125568 4289614080
2.1479754 0.63384241 -0.010351338 4289614080
2.1569738 0.63657898 -0.023693621 4289614080
2.0753353 0.61260235 -0.035563406 4289352960
2.1127648 0.62371767 -0.049175903 4289483520
2.1853702 0.64520609 -0.064233147 4289744640
2.2031634 0.65053868 -0.078160979 4289744640
2.1201727 0.6261521 -0.08803194 4289483520
2.1183238 0.62569022 -0.1006726 4289483520
2.2474496 0.66386205 -0.12019699 4289875200
2.2052009 0.65148646 -0.13093881 4289744640
2.1817584 0.64465624 -0.1422735 4289744640
2.2026124 0.65089548 -0.1563306 4289744640
2.3312912 0.68895841 -0.17872939 4290266880
2.298403 0.67934179 -0.18909074 4290136320
2.2747459 0.67244768 -0.19969332 4290005760
2.2724018 0.67184395 -0.21180835 4290005760
2.263948 0.6694358 -0.22306617 4290005760
2.3628335 0.69872659 -0.24512982 4290397440
2.3978896 0.70917201 -0.26099631 4290528000
2.3835974 0.70504236 -0.27131212 4290397440
2.394393 0.7083233 -0.28416657 4290528000
2.2330999 0.66075659 -0.27557319 4289875200
2.6207449 0.77539659 -0.33543503 4291311360
2.691164 0.79630882 -0.35641092 4291572480
2.7961273 0.82743698 -0.38232821 4291964160
2.9762568 0.88079399 -0.41929272 4292616960
3.0590351 0.90538073 -0.44314855 4292878080
3.1469951 0.9315055 -0.46792248 4293139200
3.1533782 0.93351078 -0.48039895 4293269760
3.1618743 0.93614101 -0.49270666 4293269760
3.1733563 0.93965471 -0.50498801 4293269760
3.1761663 0.94060308 -0.51536161 4293269760
3.1690388 0.93861085 -0.52352279 4293269760
3.1758301 0.94073641 -0.53338218 4293269760
3.1647699 0.93757868 -0.53962266 4293269760
3.1621675 0.93692309 -0.54665071 4293269760
3.1483145 0.93293613 -0.55106866 4293269760
3.1222022 0.92531812 -0.55262429 4293139200
3.1066806 0.92083353 -0.55533713 4293139200
3.1143827 0.92322493 -0.56154293 4293139200
3.0642016 0.90847254 -0.55660719 4292878080
3.0721099 0.91092283 -0.56151766 4293008640
3.053679 0.90557027 -0.56095433 4292878080
3.0806785 0.91367602 -0.56808531 4293008640
3.0804017 0.91370064 -0.56954521 4293008640
3.0622973 0.90844148 -0.5670414 4292878080
3.0622394 0.90852922 -0.56721365 4292878080
3.0528505 0.90585041 -0.56499887 4292878080
3.1118996 0.92345917 -0.57477015 4293139200
3.1182806 0.92545587 -0.5741204 4293139200
3.1222932 0.92675018 -0.57235998 4293139200
3.1522698 0.93574381 -0.57465959 4293269760
3.1499245 0.93515271 -0.57037294 4293269760
3.1643534 0.93953645 -0.56844389 4293269760
3.172101 0.94193846 -0.56462276 4293269760
3.1620858 0.93907046 -0.55699289 4293269760
3.1624868 0.93929201 -0.55057204 4293269760
3.1605804 0.93882835 -0.54311818 4293269760
3.1368017 0.93187267 -0.53134382 4293139200
3.1380246 0.93233573 -0.52324891 4293139200
3.0810776 0.91553092 -0.50501424 4293008640
2.983634 0.88669962 -0.48002115 4292616960
2.7977762 0.83161074 -0.44114786 4291964160
2.6934834 0.80072969 -0.41558167 4291572480
2.5811977 0.76746804 -0.38906378 4291180800
2.5100262 0.74641001 -0.3689678 4290919680
2.4245021 0.72108406 -0.34694466 4290658560
2.3934288 0.71192771 -0.33278218 4290528000
2.3623343 0.7027629 -0.3185007 4290397440
2.34548 0.69782698 -0.30598769 4290266880
2.3286076 0.69288439 -0.29328096 4290266880
2.3164723 0.68934822 -0.28097758 4290266880
2.3081231 0.68693638 -0.26891872 4290136320
2.3372805 0.69567233 -0.26083004 4290266880
2.3241255 0.69183153 -0.247655 4290266880
2.2476025 0.66915005 -0.2279152 4290005760
2.2343318 0.66527098 -0.21480562 4289875200
2.2500215 0.67000252 -0.2042325 4290005760
2.2280645 0.66353899 -0.1900551 4289875200
2.1731877 0.64728296 -0.1732877 4289614080
2.1510873 0.64077294 -0.15937772 4289614080
2.1933618 0.65341163 -0.14995144 4289744640
2.1854963 0.65113556 -0.13673793 4289744640
2.0856161 0.62148112 -0.11824793 4289352960
2.1217027 0.63227993 -0.10772039 4289483520
2.1581893 0.6431998 -0.096667178 4289614080
2.1495662 0.64069587 -0.083322488 4289614080
2.142585 0.63868022 -0.070048392 4289483520
2.1910453 0.6531679 -0.058264602 4289744640
2.2229266 0.66272265 -0.045487687 4289875200
2.2182846 0.66140485 -0.031747498 4289744640
2.2259285 0.66374493 -0.018134117 4289875200
2.28368 0.68100744 -0.0045131533 4290005760
2.2889278 0.68263632 0.0096068056 4290005760
2.1756282 0.6489554 0.022560904 4289614080
2.3212068 0.69238394 0.038343512 4290136320
2.3664522 0.70593029 0.053607296 4290266880
2.3593214 0.70387405 0.067862928 4290266880
2.3028085 0.68710321 0.08024025 4290136320
2.4020054 0.71673059 0.098191544 4290397440
2.4291728 0.72489703 0.1138584 4290528000
2.3697183 0.70724672 0.12515819 4290397440
2.3124797 0.69025356 0.1357463 4290136320
2.4645095 0.73564363 0.15898907 4290658560
2.5009091 0.74656808 0.17570311 4290789120
2.4581816 0.73390102 0.18663985 4290658560
2.3959746 0.71542287 0.1953036 4290397440
2.5581608 0.76386291 0.22255361 4291050240
2.5799229 0.77042931 0.23836538 4291050240
2.5502431 0.76165241 0.24912558 4291050240
2.4745762 0.73915505 0.25457233 4290789120
2.7068872 0.80853951 0.29215708 4291572480
3.0822442 0.9206205 0.34786615 4292878080
3.1677518 0.94622958 0.37277433 4293269760
3.1891525 0.952712 0.39023814 4293269760
3.1750269 0.94859248 0.40295401 4293269760
3.1542892 0.94249868 0.41421935 4293139200
3.2110975 0.95955414 0.43533775 4293400320
3.2197554 0.96223754 0.44971579 4293400320
3.2223408 0.96310872 0.46277857 4293400320
3.2090752 0.95924699 0.47299734 4293400320
3.1975486 0.95590425 0.48283774 4293400320
3.1702116 0.94783884 0.489602 4293269760
3.2118757 0.96038431 0.50649029 4293400320
3.2131948 0.96087974 0.51657641 4293400320
3.2175426 0.96228075 0.52656716 4293400320
3.2075679 0.95940274 0.53359038 4293400320
3.2132518 0.96120411 0.54258287 4293400320
3.1979859 0.95674497 0.54738754 4293400320
3.2010753 0.95777208 0.55466354 4293400320
3.189801 0.95450592 0.55878907 4293400320
3.1898808 0.95463431 0.56422615 4293400320
3.1975987 0.9570471 0.57036299 4293400320
3.1841626 0.95313507 0.57205421 4293400320
3.1883068 0.95448053 0.57621592 4293400320
3.1831172 0.953035 0.57801408 4293400320
3.1921937 0.9558574 0.58172148 4293400320
3.1919417 0.95589012 0.58305073 4293400320
3.1918008 0.95595664 0.58371294 4293400320
3.1823351 0.9532333 0.58198309 4293400320
3.2046008 0.96000659 0.58536071 4293400320
3.1868641 0.95480865 0.58075023 4293400320
3.1909287 0.95613635 0.57943016 4293400320
3.1836941 0.95408201 0.57538128 4293400320
3.18856 0.95565099 0.57284135 4293400320
3.194778 0.95762569 0.5698573 4293400320
3.1923752 0.95701969 0.56466317 4293400320
3.19807 0.95883954 0.56023157 4293400320
3.1951666 0.95808452 0.55363446 4293400320
3.2000349 0.95965838 0.54773039 4293400320
3.18875 0.95639306 0.53843993 4293400320
3.1748199 0.95233482 0.52813625 4293269760
3.1670644 0.95012665 0.51830006 4293269760
3.1906095 0.95730054 0.51293272 4293400320
3.2143626 0.96453911 0.50686336 4293400320
3.2021003 0.96098185 0.49450052 4293400320
3.1963291 0.95937061 0.48262841 4293400320
2.5979135 0.78076291 0.32452902 4291180800
2.5630584 0.77039844 0.30835557 4291050240
2.5670395 0.77169222 0.29664183 4291050240
2.5246313 0.75905639 0.27942762 4290919680
2.4777515 0.74507451 0.26184601 4290789120
2.4839807 0.74704158 0.24977759 4290789120
2.4838872 0.74711001 0.23676294 4290789120
2.4462743 0.735906 0.22011368 4290658560
2.4158034 0.72684556 0.20422679 4290528000
2.4134905 0.72624493 0.1906672 4290528000
2.4058089 0.72403067 0.17652774 4290528000
2.3521612 0.70799851 0.15917419 4290266880
2.340961 0.70472378 0.14488119 4290266880
2.3704271 0.71367586 0.13283107 4290397440
2.3481236 0.70706224 0.11769789 4290266880
2.2588429 0.68030298 0.09974879 4290005760
2.2855611 0.68842912 0.087168671 4290005760
2.2854939 0.68849927 0.073312052 4290005760
2.2416027 0.67538399 0.058239784 4289875200
2.1227713 0.63971442 0.042157501 4289483520
2.2211864 0.66941732 0.03043985 4289875200
2.1944976 0.6614722 0.016543856 4289744640
2.1595392 0.65103549 0.0029454799 4289614080
2.1580949 0.65068638 -0.01039206 4289614080
2.1617889 0.65188438 -0.023760676 4289614080
2.1280317 0.64180398 -0.036506824 4289483520
2.0717206 0.62492776 -0.048273992 4289352960
2.1633465 0.65261072 -0.063666046 4289614080
2.176327 0.65660709 -0.077312104 4289614080
2.0800929 0.62769657 -0.086487085 4289352960
2.100255 0.63385481 -0.099957585 4289352960
2.220552 0.67019439 -0.11893288 4289875200
2.1688256 0.65468997 -0.12897091 4289614080
2.1511683 0.64945233 -0.1404912 4289614080
2.1710401 0.65552849 -0.15432598 4289614080
2.3042777 0.69579154 -0.17693226 4290136320
2.2666843 0.68454409 -0.18677266 4290005760
2.2392647 0.67636228 -0.19688793 4289875200
2.235985 0.67546034 -0.20874421 4289875200
2.2227955 0.6715681 -0.21936044 4289875200
2.3177145 0.70029581 -0.24083428 4290266880
2.3527293 0.71095258 -0.2564933 4290266880
2.3479998 0.70961607 -0.26769271 4290266880
2.3587923 0.71296442 -0.2803964 4290397440
2.2608209 0.68347758 -0.27944958 4290005760
2.49353 0.75382781 -0.31967479 4290789120
2.5486751 0.77057552 -0.3380945 4291050240
2.6204016 0.79233497 -0.35889116 4291311360
2.6992035 0.81623662 -0.38089123 4291572480
2.8301737 0.85590333 -0.41067529 4292094720
3.0771358 0.93062383 -0.45829603 4293008640
3.1154447 0.9423148 -0.47541115 4293139200
3.1366305 0.94883358 -0.48958972 4293139200
3.1511323 0.95333332 -0.50229144 4293269760
3.1473598 0.95230973 -0.51154524 4293269760
3.153203 0.95419228 -0.52178365 4293269760
3.1551549 0.95489824 -0.53080404 4293269760
3.1445632 0.95181078 -0.53708428 4293269760
3.1318476 0.94807971 -0.54232758 4293139200
3.0889294 0.93521214 -0.54159397 4293008640
3.0470107 0.92264318 -0.54023564 4292878080
3.0602813 0.92676723 -0.54797792 4292878080
2.9965847 0.90760398 -0.54123056 4292747520
3.0091078 0.91149986 -0.54753846 4292747520
3.0179536 0.91428316 -0.55256885 4292747520
3.0174718 0.91424334 -0.55525953 4292747520
3.0170941 0.91423446 -0.55732322 4292747520
3.0262461 0.91710997 -0.56050289 4292878080
3.0119448 0.91288447 -0.55868763 4292747520
3.0071752 0.91154367 -0.55798554 4292747520
2.9940314 0.90766597 -0.55508202 4292747520
2.9894748 0.90638763 -0.55312788 4292747520
3.0620215 0.92846406 -0.56475329 4293008640
3.0985703 0.93963933 -0.56901169 4293139200
3.1183524 0.94573641 -0.56948084 4293139200
3.1345603 0.95075136 -0.56859624 4293269760
3.143265 0.95349288 -0.56565881 4293269760
3.1397378 0.95252723 -0.55985856 4293269760
3.1382132 0.95216781 -0.55377632 4293269760
3.145726 0.95454735 -0.5486365 4293269760
3.1180673 0.94626361 -0.53677768 4293139200
3.0954747 0.93951368 -0.52529109 4293008640
3.0618339 0.92941147 -0.51147121 4292878080
2.9320893 0.8901611 -0.48147064 4292486400
2.7722454 0.84177268 -0.44682986 4291833600
2.6633282 0.80882162 -0.42072073 4291441920
2.5526698 0.77533501 -0.3945829 4291050240
2.4310634 0.73851961 -0.3671141 4290658560
2.409518 0.73205763 -0.35485318 4290528000
2.3879733 0.72559416 -0.34235671 4290528000
2.3531439 0.71509725 -0.32779634 4290397440
2.3315754 0.70862281 -0.31494817 4290266880
2.3739645 0.72156119 -0.31029305 4290397440
2.3016801 0.69968909 -0.29044461 4290136320
2.2933559 0.69723141 -0.27871001 4290136320
2.276453 0.69216806 -0.26574394 4290136320
2.3141072 0.70367098 -0.25874966 4290136320
2.2923989 0.69714731 -0.24475656 4290136320
2.2293308 0.67805982 -0.22651319 4289875200
2.1893988 0.66599631 -0.21090926 4289744640
2.2269659 0.67747372 -0.20255166 4289875200
2.2145755 0.67377508 -0.18929468 4289875200
2.1330793 0.64907765 -0.17044495 4289483520
2.1291373 0.64794242 -0.1580871 4289483520
2.1617827 0.65792608 -0.14811251 4289614080
2.1491463 0.65414858 -0.13476084 4289614080
2.062808 0.62796736 -0.11722045 4289222400
2.1277959 0.64778352 -0.10828447 4289483520
2.1486099 0.65417343 -0.096472889 4289614080
2.150532 0.65482026 -0.083573855 4289614080
2.1340017 0.64985603 -0.069957562 4289483520
2.1823752 0.66462886 -0.058205601 4289744640
2.218982 0.67582572 -0.045558669 4289875200
2.2095654 0.67302567 -0.031750191 4289744640
2.2171953 0.67541063 -0.018167475 4289875200
2.2748444 0.69301319 -0.0045787822 4290005760
2.2800829 0.69467288 0.0095107164 4290005760
2.1765509 0.66323549 0.022536568 4289614080
2.3218713 0.70752156 0.038343213 4290136320
2.3660796 0.72104335 0.053612832 4290397440
2.3742616 0.72360229 0.068330549 4290397440
2.3035038 0.70213234 0.080327339 4290136320
2.4025238 0.73234391 0.098304018 4290528000
2.4344203 0.74212503 0.11422227 4290528000
2.3559604 0.71830571 0.1245729 4290266880
2.3083775 0.7038846 0.13566729 4290136320
2.4601376 0.75017023 0.1589053 4290658560
2.4917004 0.75985557 0.17528355 4290789120
2.4585912 0.74984354 0.1869196 4290658560
2.3917243 0.72954583 0.1952242 4290397440
2.5498097 0.77777946 0.22213812 4291050240
2.5801105 0.7870875 0.23872219 4291180800
2.5457189 0.77668411 0.24904445 4291050240
2.470186 0.75374097 0.25449497 4290789120
2.5364482 0.77401048 0.27419269 4291050240
2.9355056 0.89572477 0.33182296 4292355840
3.1359069 0.95690429 0.36959401 4293139200
3.1796937 0.97034848 0.38968197 4293269760
3.1560993 0.96325099 0.40117803 4293269760
3.1486914 0.96108824 0.4141348 4293139200
3.2053983 0.97847819 0.43525469 4293400320
3.2045598 0.97832096 0.44831055 4293400320
3.2071447 0.97920835 0.46133989 4293400320
3.2081132 0.97960335 0.47362277 4293400320
3.1824043 0.97185981 0.48133808 4293269760
3.1645813 0.96652132 0.48953718 4293269760
3.196713 0.97642606 0.5049361 4293400320
3.1980331 0.97693008 0.51499778 4293400320
3.1981254 0.97705996 0.52426988 4293400320
3.2018673 0.97830445 0.53354156 4293400320
3.1943214 0.97610378 0.5403046 4293400320
3.1970189 0.97703058 0.5481565 4293400320
3.1916084 0.9754824 0.55397427 4293400320
3.1982751 0.97762257 0.56124008 4293400320
3.1842051 0.97343051 0.56420147 4293400320
3.1791744 0.97199917 0.56807011 4293400320
3.183207 0.97333664 0.57288748 4293400320
3.1732061 0.97038764 0.57450235 4293400320
3.1774476 0.97179019 0.57801068 4293400320
3.1651046 0.96812588 0.57781982 4293269760
3.1648531 0.96815658 0.57914573 4293269760
3.1814013 0.97332251 0.58286434 4293400320
3.1681826 0.96939117 0.58045048 4293400320
3.1856968 0.97485501 0.58297467 4293400320
3.1811783 0.97358412 0.5807814 4293400320
3.1852341 0.97493541 0.57946742 4293400320
3.1912026 0.97687262 0.57781106 4293400320
3.1781542 0.97299439 0.57204318 4293400320
3.192842 0.97760004 0.57058609 4293400320
3.1913857 0.97726846 0.56555957 4293400320
3.1961269 0.97883356 0.56096107 4293400320
3.1941714 0.97835034 0.55452669 4293400320
3.2037492 0.98139721 0.54942769 4293400320
3.1915421 0.97777766 0.53996229 4293400320
3.1814899 0.97481728 0.53028494 4293400320
3.1793458 0.97427785 0.52133852 4293400320
3.1896238 0.9775421 0.51379794 4293400320
3.1991532 0.98057848 0.50548238 4293400320
3.1869073 0.97694725 0.49315536 4293400320
3.1906042 0.97819883 0.4827514 4293400320
2.5643959 0.78702497 0.3209267 4291050240
2.5585282 0.78532469 0.30836868 4291050240
2.5587008 0.78547627 0.29621544 4291050240
2.5239711 0.77492535 0.27986163 4290919680
2.4695656 0.75833768 0.2614564 4290789120
2.4748299 0.76004851 0.24931163 4290789120
2.4794943 0.76157594 0.23677564 4290789120
2.4333749 0.74752307 0.21935461 4290658560
2.4153416 0.74208504 0.20456143 4290528000
2.4235198 0.7446897 0.19180931 4290528000
2.3920157 0.73511565 0.17584026 4290397440
2.3432286 0.7202341 0.15886346 4290266880
2.3368177 0.71835846 0.14489315 4290266880
2.35764 0.72484428 0.1323619 4290266880
2.3487408 0.72220492 0.11794908 4290266880
2.2500679 0.69199342 0.099549629 4290005760
2.2815139 0.70174176 0.087180354 4290005760
2.2766688 0.70034409 0.073170722 4290005760
2.2376323 0.68844098 0.058251243 4289875200
2.1190107 0.65207982 0.042168353 4289483520
2.2172513 0.6823557 0.030451203 4289875200
2.1858301 0.67278641 0.016519425 4289744640
2.150933 0.66214615 0.0029504218 4289614080
2.1542699 0.66325784 -0.010381026 4289614080
2.1483994 0.6615386 -0.023643607 4289614080
2.1362653 0.6578927 -0.03670321 4289483520
2.0135796 0.62024462 -0.046987824 4289091840
2.1270261 0.65522099 -0.062695071 4289483520
2.1447656 0.66076297 -0.076313376 4289614080
2.1305506 0.65647465 -0.088735178 4289483520
2.0602477 0.63492572 -0.098214947 4289222400
2.1889322 0.67461133 -0.11743493 4289744640
2.1977816 0.67742193 -0.13091554 4289744640
2.1244581 0.65493715 -0.13898143 4289483520
2.1309533 0.65702087 -0.15173325 4289483520
2.2687342 0.69953012 -0.17450002 4290005760
2.294462 0.70754248 -0.18938702 4290136320
2.2076716 0.68090165 -0.19444317 4289875200
2.1863241 0.67441243 -0.20445865 4289744640
2.1646166 0.66781038 -0.21398656 4289614080
2.2907751 0.70676613 -0.2384463 4290136320
2.3257389 0.71762949 -0.25398967 4290266880
2.298229 0.70924145 -0.2624723 4290136320
2.3175712 0.71529233 -0.27597439 4290266880
2.2112517 0.68260688 -0.27379745 4289875200
2.3891482 0.73753875 -0.30682552 4290528000
2.4238944 0.7483443 -0.32210174 4290658560
2.4642904 0.76089442 -0.33809876 4290789120
2.4680054 0.76213408 -0.34887481 4290789120
2.6030049 0.80386972 -0.37837249 4291311360
2.7630627 0.85334551 -0.41224045 4291833600
2.8703997 0.88656682 -0.43878549 4292225280
2.9327686 0.90591991 -0.458572 4292486400
2.9826419 0.92142087 -0.47626784 4292616960
3.0050161 0.92843759 -0.48926666 4292747520
3.0249503 0.93470216 -0.50143909 4292747520
2.9874725 0.92324358 -0.50347733 4292616960
2.9413061 0.90909898 -0.50325239 4292486400
2.9769709 0.92021954 -0.51641488 4292616960
2.9985542 0.92699331 -0.52667183 4292747520
2.9322596 0.90662563 -0.52080458 4292486400
2.9493043 0.91199636 -0.52903533 4292616960
2.9673719 0.91768378 -0.53689539 4292616960
2.9845841 0.92310756 -0.54402983 4292747520
2.9971814 0.92710602 -0.54972953 4292747520
3.0014071 0.92851764 -0.55327356 4292747520
3.0104389 0.93141443 -0.55707061 4292747520
3.0101669 0.93143535 -0.55850446 4292747520
3.0137639 0.93265176 -0.56000704 4292747520
2.9873667 0.92459416 -0.55528444 4292747520
2.973305 0.92034847 -0.55220848 4292616960
2.9602885 0.91642451 -0.54869092 4292616960
2.9285581 0.90671122 -0.54109019 4292486400
2.9016278 0.89847988 -0.53378713 4292355840
2.9720602 0.92036575 -0.54372209 4292616960
2.935914 0.90928179 -0.53350323 4292486400
2.9054968 0.89996749 -0.52379471 4292355840
2.9549158 0.9153561 -0.52783227 4292616960
2.9608192 0.91728014 -0.52339488 4292616960
2.9273233 0.90700912 -0.51144701 4292486400
2.8772728 0.89161098 -0.49619961 4292355840
2.8057189 0.86955202 -0.47696227 4292094720
2.7282515 0.84565699 -0.45655337 4291703040
2.6399922 0.81841493 -0.43427226 4291441920
2.5515902 0.79112256 -0.41199026 4291050240
2.4880679 0.77152967 -0.39372766 4290919680
2.4665489 0.76494265 -0.38194087 4290789120
2.3813438 0.73862559 -0.36023742 4290528000
2.3692729 0.73496008 -0.34953851 4290397440
2.3515334 0.72953725 -0.33772367 4290397440
2.3262177 0.72176534 -0.32461336 4290266880
2.2999389 0.71369308 -0.31121889 4290136320
2.3374989 0.7254042 -0.30606145 4290266880
2.3292201 0.72290939 -0.29443404 4290266880
2.2626929 0.70235735 -0.27546391 4290005760
2.2363138 0.69424772 -0.26151368 4290005760
2.2738822 0.70596308 -0.25469494 4290136320
2.2616963 0.70225269 -0.24189876 4290005760
2.2437677 0.69676042 -0.22837718 4290005760
2.1626587 0.67167228 -0.20869473 4289614080
2.1868267 0.67923266 -0.1992448 4289744640
