# .PCD v0.7 - Point Cloud Data file format
VERSION 0.7
FIELDS x y z rgba
SIZE 4 4 4 4
TYPE F F F U
COUNT 1 1 1 1
WIDTH 1078
HEIGHT 1
VIEWPOINT 0 0 0 1 0 0 0
POINTS 1078
DATA ascii
2.0728104 -0.91721702 0.34344488 4289744640
2.063432 -0.91299772 0.34853467 4289744640
2.0620427 -0.91230869 0.35453758 4289744640
2.055917 -0.90952712 0.35929322 4289744640
2.0642121 -0.9131161 0.36615807 4289744640
2.0639582 -0.91292822 0.37110063 4289744640
2.0608625 -0.91148508 0.375092 4289744640
2.0613184 -0.91161054 0.37928644 4289744640
2.0734196 -0.91687816 0.38520387 4289744640
2.0819719 -0.92057776 0.39004555 4289875200
2.0541046 -0.90819669 0.38757914 4289744640
2.0618896 -0.91155732 0.39136019 4289744640
2.061631 -0.91136628 0.39316255 4289744640
2.0659485 -0.91319507 0.39537877 4289744640
2.0658317 -0.91306633 0.39628389 4289744640
2.0657876 -0.91296941 0.3967368 4289744640
2.0613108 -0.91091627 0.39587131 4289744640
2.080759 -0.9194203 0.39913294 4289875200
2.0674164 -0.91345477 0.39563346 4289744640
2.0711286 -0.91501433 0.3949379 4289744640
2.058826 -0.90950865 0.39073139 4289744640
2.0580537 -0.9090898 0.38826767 4289744640
2.0571594 -0.90861702 0.38532752 4289744640
2.0584741 -0.90911835 0.38234907 4289744640
2.0596015 -0.9095369 0.37888435 4289744640
2.0557308 -0.90775126 0.3740626 4289744640
2.0649116 -0.91172034 0.37116823 4289744640
2.0729854 -0.91520047 0.36760265 4289744640
2.0881624 -0.92181122 0.36481082 4289875200
2.1022305 -0.92793185 0.36132231 4289875200
2.1166441 -0.93420362 0.35739157 4289875200
2.132201 -0.94097775 0.35314736 4290005760
2.1286833 -0.93934482 0.34529647 4290005760
2.1200311 -0.9354496 0.3362582 4289875200
2.1076889 -0.929479 0.27654517 4289875200
2.1382248 -0.94284278 0.27022073 4290005760
2.1398008 -0.94345254 0.25977254 4290005760
2.1132262 -0.93166804 0.24573864 4289875200
2.0957694 -0.92389959 0.23271883 4289744640
2.1091068 -0.9296878 0.22288415 4289875200
2.1055846 -0.92805403 0.21096431 4289875200
2.1060255 -0.92816466 0.19922471 4289875200
2.082423 -0.91769439 0.18511707 4289744640
2.1164255 -0.93257421 0.17587449 4289875200
2.1259637 -0.93668693 0.16414654 4289875200
2.1095574 -0.92938435 0.15027073 4289875200
2.1103175 -0.92963493 0.13754934 4289875200
2.1319158 -0.93905151 0.1259027 4289875200
2.1362953 -0.94089299 0.11293761 4289875200
2.0701911 -0.91173542 0.096491478 4289614080
2.0125036 -0.88628429 0.081109367 4289483520
2.0184307 -0.88881028 0.068543755 4289483520
2.0111408 -0.88552457 0.055459134 4289483520
1.9995015 -0.88032722 0.042313047 4289352960
1.9875433 -0.8749907 0.029264417 4289352960
1.9908148 -0.87634939 0.016467143 4289352960
1.9933928 -0.87740302 0.0036069553 4289352960
1.9696106 -0.86687165 -0.0091772396 4289222400
1.9840889 -0.87315547 -0.022059305 4289352960
1.9943579 -0.87758857 -0.035033215 4289352960
1.9949178 -0.87775499 -0.047873132 4289352960
1.9823369 -0.87214833 -0.06027488 4289352960
2.0058134 -0.88238209 -0.073766343 4289352960
2.0151517 -0.88640404 -0.086872965 4289483520
2.019361 -0.88817251 -0.099753253 4289483520
1.9992243 -0.8792488 -0.1112337 4289352960
2.0092962 -0.88359201 -0.12420164 4289483520
2.0151172 -0.88606805 -0.13687254 4289483520
2.0220182 -0.88901776 -0.14954601 4289483520
2.007937 -0.88275582 -0.16047159 4289483520
2.0324123 -0.89341992 -0.17434977 4289483520
2.0282321 -0.89150465 -0.18571053 4289483520
2.0225878 -0.88894707 -0.1966792 4289483520
1.9968288 -0.87756294 -0.20530945 4289352960
2.0239787 -0.88939756 -0.21913792 4289483520
2.0275068 -0.89086568 -0.23034427 4289483520
2.026392 -0.89029664 -0.24078403 4289483520
2.0140233 -0.88479084 -0.24955626 4289483520
1.9545083 -0.8586055 -0.25187281 4289222400
2.0362711 -0.8943907 -0.27215144 4289614080
2.0397825 -0.89585084 -0.28210977 4289614080
2.0335612 -0.89304268 -0.29039878 4289614080
2.0362861 -0.89415807 -0.29961926 4289614080
2.0149739 -0.88473421 -0.30489907 4289483520
1.9982578 -0.87732708 -0.31037235 4289483520
2.013834 -0.88407755 -0.32048786 4289483520
2.0128951 -0.88358778 -0.32767484 4289483520
2.0217285 -0.88738143 -0.33610216 4289614080
2.019897 -0.88650054 -0.34240231 4289614080
2.0230868 -0.8878203 -0.34916332 4289614080
2.0308294 -0.89113504 -0.35633957 4289614080
2.0130818 -0.88328087 -0.35862026 4289483520
2.0158806 -0.88442981 -0.36409777 4289483520
2.0012023 -0.87792248 -0.36598048 4289483520
1.9907718 -0.87327713 -0.36816028 4289483520
1.9780642 -0.86763531 -0.36944896 4289352960
1.97515 -0.86628371 -0.37210539 4289352960
1.958645 -0.85898089 -0.37174812 4289352960
1.9619235 -0.8603422 -0.37468433 4289352960
1.9616578 -0.86015165 -0.37651294 4289352960
1.9303608 -0.84637576 -0.3719393 4289222400
1.933841 -0.84782654 -0.37359402 4289222400
1.9612677 -0.85975921 -0.37943664 4289352960
1.9702967 -0.86363757 -0.38129503 4289352960
1.9738439 -0.8651163 -0.38165051 4289352960
1.9809537 -0.86815393 -0.38224462 4289483520
1.9852377 -0.86995476 -0.38184386 4289483520
2.003468 -0.87785745 -0.38365579 4289483520
2.0070009 -0.87932873 -0.38219467 4289483520
2.0197949 -0.88485152 -0.38202792 4289614080
2.0114002 -0.88110483 -0.37741604 4289483520
2.0173347 -0.88362634 -0.37505037 4289614080
2.0266039 -0.88760626 -0.3728404 4289614080
2.0194113 -0.88438648 -0.36717594 4289614080
2.0125854 -0.88132769 -0.36118552 4289483520
2.0178854 -0.88357162 -0.35695177 4289483520
2.0076365 -0.87901717 -0.3495791 4289483520
1.9825256 -0.86796635 -0.33932739 4289352960
1.9816997 -0.86753339 -0.33290949 4289352960
2.0003426 -0.87561041 -0.32931286 4289483520
2.0097406 -0.87964559 -0.32372758 4289483520
2.0225999 -0.88519299 -0.31824937 4289483520
2.0133698 -0.88108659 -0.30893302 4289483520
1.9866363 -0.86933291 -0.29673493 4289352960
1.9922264 -0.87170404 -0.28910133 4289483520
2.0104101 -0.87957686 -0.28286114 4289483520
2.0197325 -0.88357735 -0.2749387 4289483520
2.00506 -0.87709606 -0.2634801 4289483520
1.9803849 -0.86624718 -0.25060749 4289352960
2.0062222 -0.8774609 -0.243818 4289483520
2.0285554 -0.88714254 -0.23609051 4289483520
2.0213187 -0.88391048 -0.22459692 4289483520
1.9844525 -0.86774176 -0.20981309 4289352960
1.9921426 -0.87102896 -0.19964842 4289352960
2.0151162 -0.880988 -0.19062008 4289483520
2.0130601 -0.88001919 -0.17890914 4289483520
1.9816824 -0.86625201 -0.16460361 4289352960
2.0022187 -0.87514538 -0.15447325 4289352960
2.0184765 -0.88217008 -0.14362933 4289483520
2.0106938 -0.8787027 -0.13087907 4289483520
1.9979953 -0.87309104 -0.11779545 4289352960
1.9875696 -0.86847186 -0.10486165 4289352960
1.9960734 -0.8721121 -0.092819698 4289352960
2.0009604 -0.87417394 -0.080428541 4289352960
1.9647616 -0.85831338 -0.066513889 4289222400
1.9942006 -0.87108511 -0.054771107 4289352960
1.9976022 -0.87249875 -0.042055305 4289352960
2.0094764 -0.87760723 -0.029373873 4289483520
2.0008037 -0.8737548 -0.016348612 4289352960
2.022157 -0.88299549 -0.0034621728 4289483520
2.0319123 -0.88717794 0.0096428078 4289483520
2.0382271 -0.8898598 0.022821454 4289483520
2.1209128 -0.92583376 0.03742243 4289875200
2.1339862 -0.93145806 0.051349457 4289875200
2.1448348 -0.93611169 0.065317705 4289875200
2.0785508 -0.90714818 0.076493107 4289614080
2.1237531 -0.92677397 0.091578886 4289875200
2.1452403 -0.93606269 0.10595457 4289875200
2.1247449 -0.92705697 0.11813702 4289875200
2.0148346 -0.87909597 0.12439423 4289483520
2.1100869 -0.92052186 0.14313246 4289744640
2.0764744 -0.90580547 0.15331995 4289744640
2.1205614 -0.9249357 0.16915105 4289875200
2.0119691 -0.87756407 0.172212 4289483520
2.1446912 -0.93529499 0.19591652 4290005760
2.1565516 -0.94038415 0.20916748 4290005760
2.1538992 -0.9391529 0.22082752 4290005760
2.1057885 -0.91812891 0.22729725 4289744640
1.8843184 -0.82163304 0.21333632 4288961280
2.1479602 -0.93633831 0.25434518 4290005760
2.1340005 -0.93018544 0.26344198 4289875200
2.1263604 -0.92678398 0.27291587 4289875200
2.0798264 -0.90645528 0.27682516 4289744640
1.9600217 -0.8542431 0.26988515 4289352960
2.1348639 -0.93025655 0.30348518 4290005760
2.1331997 -0.92945606 0.31239253 4290005760
2.1415036 -0.9329924 0.32243204 4290005760
2.1192205 -0.92322123 0.32743999 4289875200
2.0863931 -0.90886462 0.33023071 4289744640
2.0139132 -0.87726229 0.32597715 4289483520
2.0741315 -0.90338087 0.34279034 4289744640
2.0687129 -0.90094924 0.34853911 4289744640
2.0760212 -0.90405232 0.35603538 4289744640
2.0801027 -0.90575159 0.36259887 4289744640
2.0740197 -0.90303099 0.36696386 4289744640
2.0692387 -0.9008767 0.37110505 4289744640
2.0616117 -0.89748538 0.37427476 4289744640
2.0736866 -0.9026587 0.3805939 4289744640
2.0742021 -0.90280658 0.38437009 4289744640
2.0782571 -0.90449262 0.38835987 4289744640
2.0823767 -0.90620619 0.39191836 4289744640
2.0635476 -0.89794725 0.39067993 4289744640
2.0714197 -0.90129125 0.39402679 4289744640
2.0667133 -0.8991695 0.39452046 4289744640
2.066596 -0.89904171 0.39542362 4289744640
2.062938 -0.89737558 0.39518297 4289744640
2.0584493 -0.89534885 0.39431745 4289744640
2.0770428 -0.90334719 0.39740795 4289744640
2.0645685 -0.89785188 0.39408496 4289744640
2.076421 -0.90292102 0.39494234 4289744640
2.0882313 -0.90797079 0.39530906 4289875200
2.0926948 -0.90982974 0.39380452 4289875200
2.0840993 -0.90601903 0.38938579 4289744640
2.0727756 -0.90102446 0.38402998 4289744640
2.0693851 -0.89947397 0.3797192 4289744640
2.0771897 -0.90278244 0.3770107 4289744640
2.0788796 -0.90343648 0.37273258 4289744640
2.0845258 -0.90580708 0.36871281 4289744640
2.0889649 -0.90765327 0.3640255 4289744640
2.1121287 -0.91762292 0.36210421 4289875200
2.1220479 -0.92184472 0.35739613 4289875200
2.1285734 -0.92459363 0.35165235 4289875200
2.1306858 -0.92542762 0.34474549 4290005760
2.1209025 -0.92110217 0.33554396 4289875200
2.1057892 -0.91401839 0.27559626 4289875200
2.139576 -0.92857969 0.2697075 4290005760
2.1361389 -0.92700636 0.25867134 4289875200
2.1140535 -0.91735208 0.24521326 4289875200
2.0877812 -0.90588528 0.23124418 4289744640
2.0884631 -0.9060986 0.22014095 4289744640
2.1063843 -0.91378021 0.21051137 4289744640
2.095865 -0.90914053 0.19776089 4289744640
2.0831585 -0.90355414 0.18471514 4289744640
2.1126704 -0.91625351 0.17511874 4289875200
2.1176519 -0.91832733 0.16309078 4289875200
2.1057765 -0.91310126 0.14962265 4289744640
2.106535 -0.91334629 0.13695629 4289744640
2.1336827 -0.92501628 0.12569053 4289875200
2.1251676 -0.92124552 0.11206454 4289875200
2.0782044 -0.90083265 0.09662395 4289614080
2.0304701 -0.88008964 0.08163318 4289483520
2.0335979 -0.8813628 0.068890356 4289483520
2.0312688 -0.88027418 0.055880293 4289483520
2.0147676 -0.87305343 0.042534955 4289483520
2.0049052 -0.86870623 0.029452894 4289352960
2.0179107 -0.87425315 0.016659649 4289483520
2.0086782 -0.87017912 0.0036327459 4289352960
1.9792144 -0.85735494 -0.0091928979 4289352960
1.9974003 -0.86514181 -0.022144033 4289352960
1.9994349 -0.86594242 -0.035028916 4289352960
2.0082545 -0.86967689 -0.048063826 4289352960
2.0011454 -0.86652321 -0.060683414 4289352960
2.020092 -0.87463534 -0.07409545 4289483520
2.0331206 -0.88018763 -0.087416388 4289483520
2.0250125 -0.87660217 -0.099774003 4289483520
2.0088949 -0.86955535 -0.11148214 4289352960
2.0226564 -0.87542343 -0.1247029 4289483520
2.0422323 -0.88380307 -0.13834991 4289483520
2.0260069 -0.87671113 -0.14945689 4289483520
2.0267775 -0.87696397 -0.16155681 4289483520
2.0421572 -0.88352853 -0.1747352 4289614080
2.043999 -0.88424361 -0.18667097 4289614080
2.045105 -0.88464075 -0.19835322 4289614080
1.9941307 -0.86254376 -0.20451087 4289352960
2.0419149 -0.88310212 -0.22050969 4289614080
2.0417929 -0.88296914 -0.23137097 4289614080
2.0397575 -0.88201022 -0.24174987 4289614080
2.0319142 -0.87854385 -0.25112507 4289483520
1.9731531 -0.85309613 -0.25362065 4289352960
2.0542049 -0.88800734 -0.27384254 4289614080
2.0540109 -0.88784337 -0.28334925 4289614080
2.0469222 -0.88470387 -0.29155797 4289614080
2.0496495 -0.88580126 -0.30081323 4289614080
2.0287988 -0.87672406 -0.3062048 4289483520
2.0266032 -0.87569809 -0.31396249 4289483520
2.0362134 -0.87976587 -0.32321614 4289614080
2.0352635 -0.87927741 -0.33046451 4289614080
2.0410216 -0.88168275 -0.33843911 4289614080
2.0353305 -0.87914932 -0.34413543 4289614080
2.0385735 -0.88046986 -0.35093588 4289614080
2.0359857 -0.87927556 -0.35633519 4289614080
2.0322948 -0.87760609 -0.3611151 4289614080
2.0182683 -0.87148058 -0.36360297 4289483520
2.0198681 -0.87209326 -0.36844793 4289483520
2.0094204 -0.86751246 -0.37065729 4289483520
2.001189 -0.86388785 -0.37280867 4289483520
1.9928327 -0.86021024 -0.37447581 4289483520
1.9762828 -0.85300213 -0.37413579 4289352960
1.9759485 -0.85278344 -0.37639895 4289352960
1.9571638 -0.84461451 -0.37470025 4289352960
1.9651055 -0.84796292 -0.37765631 4289352960
1.9568349 -0.84432596 -0.3770662 4289352960
1.9567733 -0.84422624 -0.37760988 4289352960
1.9798157 -0.85407907 -0.38216138 4289352960
1.9915115 -0.859043 -0.38408193 4289483520
1.9744748 -0.85163152 -0.38003221 4289352960
2.0074587 -0.86576289 -0.3851285 4289483520
2.0113533 -0.86736572 -0.384186 4289483520
2.0247571 -0.87306297 -0.38459045 4289614080
2.037586 -0.87851173 -0.38440797 4289614080
2.0291724 -0.87481493 -0.3797777 4289614080
2.0269752 -0.87379467 -0.37588346 4289614080
2.0378964 -0.87842149 -0.37396291 4289614080
2.0417447 -0.88000339 -0.37028575 4289614080
2.0312815 -0.87542611 -0.36360863 4289614080
2.0320659 -0.87568986 -0.35854316 4289614080
2.0254228 -0.87275779 -0.3517746 4289614080
2.0064218 -0.8645094 -0.34253648 4289483520
2.0007114 -0.86198032 -0.33524325 4289483520
2.0181262 -0.86939967 -0.33139098 4289483520
2.0366421 -0.8772915 -0.32721782 4289614080
2.054091 -0.88472325 -0.32237169 4289614080
2.0266554 -0.87285042 -0.31017816 4289483520
1.9975011 -0.8602407 -0.29759738 4289483520
2.0018234 -0.86202794 -0.28975412 4289483520
2.0282557 -0.87332153 -0.2846415 4289483520
2.0330496 -0.87531042 -0.27604488 4289483520
2.0161517 -0.86797392 -0.26426187 4289483520
2.0073001 -0.86409754 -0.25335854 4289483520
2.0240827 -0.87123996 -0.24535798 4289483520
2.0373423 -0.87686718 -0.23650886 4289483520
2.0346591 -0.87564218 -0.22550099 4289483520
1.9940454 -0.85811806 -0.21028915 4289352960
2.0145659 -0.86686516 -0.20137493 4289483520
2.029367 -0.87315345 -0.19147585 4289483520
2.0273092 -0.8721981 -0.1797131 4289483520
1.9949396 -0.85822177 -0.16527931 4289352960
2.0256128 -0.87132716 -0.1558727 4289483520
2.0327492 -0.87432128 -0.14427239 4289483520
2.0249496 -0.87090045 -0.13146693 4289483520
2.0109112 -0.86480105 -0.11825082 4289352960
2.0100322 -0.8643533 -0.10576885 4289352960
2.0148895 -0.86636865 -0.093449332 4289483520
2.0197916 -0.86840296 -0.080971777 4289483520
1.9880962 -0.85472584 -0.067123681 4289352960
2.0038328 -0.86141157 -0.054891121 4289352960
2.0201058 -0.86832654 -0.042411935 4289483520
2.0284503 -0.87183738 -0.029567789 4289483520
2.0187232 -0.86759228 -0.016445162 4289483520
2.0455794 -0.8790465 -0.0034835895 4289483520
2.0462339 -0.87925607 0.0096933842 4289483520
2.0447364 -0.87854224 0.022841455 4289483520
2.11708 -0.90950751 0.037262831 4289744640
2.1301866 -0.91505623 0.051131152 4289875200
2.1346209 -0.91688412 0.064843632 4289875200
2.0663466 -0.88752604 0.075852528 4289614080
2.1199307 -0.9104349 0.09118624 4289875200
2.1286204 -0.91408736 0.10486846 4289875200
2.1172571 -0.90914041 0.11742596 4289744640
2.0070734 -0.86182261 0.12360439 4289352960
2.1122291 -0.90683663 0.14292099 4289744640
2.1050708 -0.90369391 0.15504983 4289744640
2.1139023 -0.90740591 0.1681976 4289744640
2.0042169 -0.86031711 0.17111836 4289352960
2.1455216 -0.92080963 0.19550297 4289875200
2.1574135 -0.9258306 0.2087284 4290005760
2.1419444 -0.9191258 0.21905084 4289875200
2.1019521 -0.901914 0.22631527 4289744640
1.879928 -0.80671221 0.21230607 4288961280
2.1360135 -0.91635835 0.25229609 4289875200
2.1311605 -0.91420388 0.26243299 4289875200
2.1143758 -0.90693867 0.270697 4289875200
2.0896313 -0.89626533 0.27743611 4289744640
1.9467226 -0.83498627 0.26738113 4289222400
2.1356866 -0.91583973 0.30284286 4289875200
2.1340203 -0.91505009 0.31173104 4289875200
2.1250448 -0.91113091 0.31915128 4289875200
2.1200092 -0.90889907 0.32674253 4289875200
2.0916498 -0.89668238 0.33023521 4289744640
2.0153496 -0.86394584 0.32539374 4289483520
2.0865483 -0.89434856 0.34398142 4289744640
2.093832 -0.8973909 0.35189196 4289744640
2.0903316 -0.89581722 0.35759461 4289744640
2.0935113 -0.89710242 0.36402503 4289744640
2.1046383 -0.90178758 0.37145352 4289875200
2.0912378 -0.8959778 0.37411499 4289744640
2.095566 -0.89775336 0.37949142 4289875200
2.0879736 -0.89442909 0.38225925 4289744640
2.0712657 -0.8872062 0.38286576 4289744640
2.0834882 -0.89235795 0.38836437 4289744640
2.0830874 -0.89211011 0.39107189 4289744640
2.0551524 -0.88008767 0.38811678 4289614080
2.0548937 -0.87990123 0.38990417 4289614080
2.0592337 -0.88168097 0.39210919 4289744640
2.0591166 -0.8815546 0.3930068 4289744640
2.0762784 -0.88881457 0.39674574 4289744640
2.082166 -0.89125395 0.39786622 4289744640
2.0695877 -0.88580036 0.39499119 4289744640
2.0813961 -0.8907696 0.39630601 4289744640
2.0725844 -0.88692605 0.39322722 4289744640
2.0853283 -0.89229381 0.39377299 4289744640
2.0852704 -0.89219058 0.39142632 4289744640
2.0938711 -0.8957864 0.39023536 4289875200
2.0906789 -0.89434367 0.38638154 4289744640
2.0944586 -0.89587903 0.3833631 4289875200
2.0924008 -0.89492077 0.37882501 4289744640
2.0867476 -0.89242697 0.37321007 4289744640
2.0894065 -0.89348292 0.36865407 4289744640
2.0902236 -0.8937521 0.36333585 4289744640
2.0956318 -0.89598137 0.35837737 4289744640
2.1055658 -0.90014207 0.35373333 4289875200
2.1339209 -0.9121654 0.35165694 4289875200
2.1223919 -0.90716237 0.3425459 4289875200
2.1089363 -0.9013378 0.33281711 4289875200
2.1065094 -0.89977527 0.27500397 4289744640
2.1230173 -0.90673399 0.26695108 4289875200
2.1369298 -0.91258448 0.25812307 4289875200
2.1065538 -0.8995477 0.24373397 4289744640
2.0788524 -0.88765365 0.22968076 4289744640
2.0953946 -0.89462507 0.22032358 4289744640
2.1055684 -0.89888024 0.20990656 4289744640
2.0932677 -0.89355415 0.19702448 4289744640
2.0755484 -0.88591927 0.18358167 4289614080
2.1051283 -0.89844459 0.17405887 4289744640
2.1184471 -0.90403777 0.16274744 4289875200
2.1027961 -0.8972851 0.14903982 4289744640
2.0989614 -0.89556837 0.13612418 4289744640
2.1169858 -0.90316486 0.12439463 4289744640
2.1213071 -0.90492219 0.11158364 4289875200
2.0880108 -0.89065552 0.096842729 4289744640
2.0418096 -0.87089485 0.081889801 4289483520
2.0469723 -0.8730129 0.069176607 4289483520
2.0501568 -0.87428814 0.056267004 4289483520
2.0382154 -0.86912245 0.042931877 4289483520
2.0288789 -0.86506665 0.029740328 4289483520
2.0290372 -0.86505383 0.016715769 4289483520
2.0311937 -0.86589158 0.0036738524 4289483520
2.0016558 -0.85323858 -0.0092641991 4289352960
2.0116055 -0.8573941 -0.022238575 4289352960
2.0219245 -0.86170602 -0.035324492 4289483520
2.0224845 -0.86186445 -0.048276115 4289483520
2.0252872 -0.86297697 -0.061251376 4289483520
2.0388818 -0.86868078 -0.074588843 4289483520
2.0520046 -0.87418288 -0.087998852 4289614080
2.04755 -0.87220699 -0.100622 4289483520
2.0359821 -0.8672061 -0.11269094 4289483520
2.0451775 -0.87103653 -0.12576583 4289483520
2.0473449 -0.87187773 -0.13834548 4289483520
2.0485239 -0.87229836 -0.15072976 4289614080
2.0401111 -0.8686409 -0.16220613 4289483520
2.0460248 -0.87107486 -0.17462511 4289483520
2.0619538 -0.87776583 -0.18783128 4289614080
2.0593898 -0.87659508 -0.1992321 4289614080
2.0165303 -0.85829836 -0.20628053 4289483520
2.0470238 -0.87117845 -0.22050527 4289614080
2.0642943 -0.87843734 -0.23332556 4289614080
2.0631602 -0.87787479 -0.2439014 4289614080
2.0543733 -0.87406105 -0.25325561 4289614080
1.9954561 -0.84895176 -0.25583562 4289352960
2.0601916 -0.87637269 -0.27395067 4289614080
2.0682788 -0.87972766 -0.28459746 4289614080
2.0715272 -0.88102704 -0.29431379 4289614080
2.0657179 -0.87847978 -0.30240616 4289614080
2.0557539 -0.87416893 -0.3094852 4289614080
2.0407829 -0.86773306 -0.31536233 4289614080
2.0495014 -0.87135583 -0.3245061 4289614080
2.0530975 -0.87280357 -0.33251882 4289614080
2.0552235 -0.87362713 -0.33993584 4289614080
2.0540619 -0.8730554 -0.3464261 4289614080
2.0518513 -0.8720386 -0.35233295 4289614080
2.0547068 -0.87317204 -0.35870469 4289614080
2.0455496 -0.86920816 -0.36255625 4289614080
2.0414762 -0.86740208 -0.36685446 4289614080
2.0376256 -0.86569101 -0.37075052 4289614080
2.0189781 -0.85770345 -0.37148586 4289483520
2.0188918 -0.85759056 -0.37515908 4289483520
2.0023458 -0.85049671 -0.37531957 4289483520
1.9939172 -0.84684682 -0.37652335 4289483520
1.9659446 -0.83490998 -0.37356371 4289352960
1.9792798 -0.8404907 -0.37797773 4289352960
1.974545 -0.83840925 -0.37851888 4289352960
1.974413 -0.83827966 -0.37949535 4289352960
1.9698173 -0.83625799 -0.37917224 4289352960
2.0019832 -0.84981906 -0.38546535 4289483520
2.0010149 -0.84933454 -0.38494751 4289483520
2.0172284 -0.85613179 -0.38727146 4289483520
2.0215359 -0.8578828 -0.38685513 4289483520
2.0345109 -0.86330622 -0.38762894 4289614080
2.0425081 -0.86661988 -0.38698617 4289614080
2.036988 -0.86420649 -0.38333726 4289614080
2.047847 -0.86873209 -0.38230821 4289614080
2.0447395 -0.86734122 -0.3782239 4289614080
2.0556915 -0.87190551 -0.3762795 4289614080
2.0513778 -0.870004 -0.37110084 4289614080
2.0552096 -0.87155241 -0.36696357 4289614080
2.0453136 -0.86728776 -0.35997486 4289614080
2.031924 -0.86154497 -0.3520211 4289614080
2.0250707 -0.85857034 -0.3448498 4289483520
2.0148005 -0.85415006 -0.33675605 4289483520
2.0322626 -0.86146933 -0.33287406 4289614080
2.0499172 -0.86886907 -0.32852384 4289614080
2.063767 -0.87465733 -0.32307872 4289614080
2.0453851 -0.8668049 -0.31225616 4289614080
2.0106902 -0.85205108 -0.29880983 4289483520
2.0287216 -0.85960895 -0.29290369 4289483520
2.0349145 -0.86215723 -0.28486133 4289483520
2.0518224 -0.86923796 -0.27789137 4289614080
2.0339749 -0.86161584 -0.26592582 4289483520
2.0187004 -0.85508335 -0.25415739 4289483520
2.0428538 -0.86522764 -0.24700817 4289614080
2.0561531 -0.87078005 -0.23808967 4289614080
2.0580513 -0.87151057 -0.22751525 4289614080
2.0164285 -0.85383898 -0.21211015 4289483520
2.037008 -0.86246932 -0.20310132 4289483520
2.0426769 -0.86479467 -0.19224554 4289483520
2.0406172 -0.86385262 -0.18043615 4289483520
2.0137949 -0.85244381 -0.16641763 4289483520
2.0343285 -0.86105222 -0.15614904 4289483520
2.0506754 -0.86788982 -0.14517434 4289483520
2.0428605 -0.86451602 -0.13229157 4289483520
2.0251117 -0.85694522 -0.11878271 4289483520
2.0242329 -0.85650349 -0.1062442 4289483520
2.038857 -0.86261153 -0.094315402 4289483520
2.0377026 -0.8620531 -0.081478417 4289483520
1.9967233 -0.84467226 -0.06724216 4289352960
2.0180247 -0.8536002 -0.055135384 4289352960
2.0389442 -0.86236542 -0.042692475 4289483520
2.0463891 -0.86543876 -0.029746875 4289483520
2.0366383 -0.8612504 -0.016541621 4289483520
2.0598764 -0.87099177 -0.0034920627 4289614080
2.0663869 -0.87366927 0.0097734025 4289614080
2.0627148 -0.87204736 0.022993276 4289614080
2.1227996 -0.89733976 0.037275616 4289744640
2.1263406 -0.8987608 0.050914586 4289875200
2.1270311 -0.89897853 0.064454302 4289875200
2.0622723 -0.87157446 0.075517491 4289614080
2.1169112 -0.8945604 0.090833321 4289744640
2.121022 -0.89622146 0.10423679 4289744640
2.1179147 -0.89483678 0.11717497 4289744640
2.0074584 -0.84816247 0.12332511 4289352960
2.1146157 -0.89329773 0.14273201 4289744640
2.1176884 -0.89452028 0.15559904 4289744640
2.1003289 -0.88712454 0.16670437 4289744640
1.995414 -0.84280306 0.16994625 4289352960
2.1416655 -0.9044103 0.19467123 4289875200
2.1444838 -0.90552396 0.20696501 4289875200
2.1380863 -0.90275145 0.21811792 4289875200
2.0851612 -0.88036263 0.22395217 4289744640
1.8671794 -0.78839308 0.21034493 4288830720
2.1330686 -0.90041131 0.2513279 4289875200
2.1313572 -0.89961499 0.26181147 4289875200
2.1196208 -0.89459336 0.27070159 4289875200
2.081094 -0.87828201 0.27562127 4289744640
1.9387519 -0.8182252 0.26562956 4289222400
2.1236212 -0.89605439 0.30038905 4289875200
2.1265254 -0.89720285 0.3098706 4289875200
2.1303139 -0.89872342 0.31915593 4289875200
2.1033669 -0.88729596 0.32337737 4289744640
2.0886273 -0.88101232 0.32894593 4289744640
2.0112298 -0.84833878 0.32392865 4289483520
2.1158125 -0.89231235 0.34795111 4289875200
2.1057987 -0.8880195 0.35303354 4289875200
2.0981636 -0.88472891 0.35805199 4289744640
2.1038005 -0.88702685 0.36491504 4289875200
2.0971169 -0.88413715 0.36921427 4289744640
2.1009662 -0.88568187 0.37493151 4289875200
2.0880296 -0.88016027 0.37719527 4289744640
2.0795126 -0.87649971 0.37977248 4289744640
2.0835252 -0.87811291 0.38418558 4289744640
2.0759304 -0.8748408 0.38600266 4289744640
2.0800719 -0.87650776 0.38954467 4289744640
2.0879126 -0.8797307 0.39333704 4289744640
2.0794771 -0.87610513 0.39360076 4289744640
2.0829177 -0.87747616 0.39564592 4289744640
2.096417 -0.8830778 0.39914587 4289875200
2.0872922 -0.87916237 0.39787054 4289744640
2.0746095 -0.87375122 0.39544669 4289744640
2.0747101 -0.87371653 0.39499569 4289744640
2.0774672 -0.87479883 0.39458495 4289744640
2.077713 -0.87482476 0.39323172 4289744640
2.0904882 -0.88011819 0.39377752 4289744640
2.0940633 -0.8815428 0.39211163 4289744640
2.0953248 -0.88199461 0.38954678 4289744640
2.0964007 -0.88236815 0.3864876 4289744640
2.1060143 -0.88632947 0.38453239 4289875200
2.107059 -0.88668901 0.38054332 4289875200
2.0995867 -0.88346952 0.37458542 4289744640
2.0954151 -0.88163722 0.36880693 4289744640
2.0980434 -0.88266182 0.36380047 4289744640
2.0962596 -0.8818326 0.35760453 4289744640
2.1062155 -0.88593471 0.35297385 4289875200
2.1264341 -0.89434624 0.34956208 4289875200
2.1230781 -0.89285547 0.34181577 4289875200
2.115299 -0.88950741 0.33300295 4289875200
2.0943184 -0.88017577 0.27274048 4289744640
2.1236811 -0.89241642 0.26638049 4289875200
2.1331143 -0.89629215 0.25703052 4289875200
2.100075 -0.88234705 0.24238829 4289744640
2.07214 -0.8705458 0.22837754 4289614080
2.0931947 -0.87929726 0.21955334 4289744640
2.107981 -0.88541776 0.20963357 4289744640
2.095 -0.87989104 0.1967058 4289744640
2.0714805 -0.8699457 0.18277332 4289614080
2.100668 -0.88210386 0.17326498 4289744640
2.1144764 -0.88781142 0.16204514 4289744640
2.1098375 -0.88578367 0.14917576 4289744640
2.0949347 -0.87945348 0.13553111 4289744640
2.1213603 -0.89044821 0.12434929 4289744640
2.1228559 -0.89099181 0.11139406 4289744640
2.0931621 -0.87846375 0.096847273 4289744640
2.064358 -0.86631089 0.082599327 4289614080
2.0787551 -0.87226242 0.070089303 4289614080
2.0773418 -0.87158847 0.05688322 4289614080
2.0542274 -0.8618232 0.043170158 4289483520
2.0467937 -0.85862839 0.029937202 4289483520
2.0386519 -0.85513759 0.016759424 4289483520
2.0491149 -0.85943937 0.0037053891 4289483520
2.0176561 -0.84618431 -0.0093075391 4289352960
2.0294774 -0.85105503 -0.022372581 4289483520
2.0407429 -0.85569209 -0.035556823 4289483520
2.0403805 -0.85545999 -0.048574973 4289483520
2.034889 -0.85308087 -0.061384544 4289483520
2.0568132 -0.86217803 -0.075051136 4289483520
2.0699656 -0.86760199 -0.088542089 4289614080
2.0664179 -0.866036 -0.10129044 4289614080
2.0422423 -0.85583812 -0.11275477 4289483520
2.0594261 -0.86294812 -0.1263231 4289614080
2.0744863 -0.86916834 -0.13982262 4289614080
2.0618534 -0.86380213 -0.15133031 4289614080
2.0589371 -0.86250144 -0.16329117 4289614080
2.0777359 -0.8702839 -0.17688143 4289614080
2.0762248 -0.86957067 -0.18865871 4289614080
2.0736501 -0.86841285 -0.20011093 4289614080
2.0260878 -0.84844351 -0.20674296 4289483520
2.0657706 -0.86495656 -0.22196828 4289614080
2.0785527 -0.87022007 -0.2343521 4289614080
2.0764935 -0.86927843 -0.24486707 4289614080
2.0720253 -0.86733007 -0.2547949 4289614080
2.0177772 -0.84457612 -0.25805047 4289483520
2.07442 -0.86817026 -0.27515721 4289614080
2.0907605 -0.87491852 -0.28697297 4289744640
2.090348 -0.87466538 -0.2962485 4289744640
2.07903 -0.86985612 -0.30360001 4289744640
2.0644667 -0.86369205 -0.31002817 4289614080
2.0540249 -0.85925078 -0.31662169 4289614080
2.0607138 -0.86196584 -0.3254737 4289614080
2.0672736 -0.86462671 -0.33398485 4289614080
2.0648386 -0.86353081 -0.34068191 4289614080
2.0673196 -0.86448801 -0.34779865 4289614080
2.0660112 -0.86386299 -0.35388568 4289614080
2.0642426 -0.86304617 -0.35947913 4289614080
2.0642405 -0.8629669 -0.36496103 4289614080
2.0546887 -0.85890162 -0.36831513 4289614080
2.0517356 -0.85759151 -0.37239388 4289614080
2.0366793 -0.85123038 -0.37381363 4289614080
2.0284016 -0.84769934 -0.37599564 4289483520
2.0245464 -0.84601456 -0.37853792 4289483520
2.0170026 -0.8427912 -0.37993592 4289483520
1.9889578 -0.83101559 -0.37699702 4289352960
1.9923233 -0.83234537 -0.3795279 4289352960
1.9921204 -0.83218664 -0.38094169 4289352960
1.9919868 -0.83205694 -0.38192445 4289352960
1.9919232 -0.83195668 -0.38247514 4289352960
2.0159879 -0.84191847 -0.38720217 4289483520
2.0322862 -0.84864014 -0.38998839 4289614080
2.0142577 -0.84104854 -0.38575354 4289483520
2.0392256 -0.85138392 -0.38927406 4289614080
2.0522337 -0.85673195 -0.3900376 4289614080
2.0585132 -0.85927445 -0.38905391 4289614080
2.0556304 -0.85799801 -0.38588747 4289614080
2.0706143 -0.86416793 -0.3855994 4289744640
2.0670474 -0.86260635 -0.38140166 4289744640
2.0743899 -0.86559111 -0.37876183 4289744640
2.0737121 -0.86523378 -0.37421045 4289744640
2.0684497 -0.86296672 -0.36841553 4289744640
2.0610461 -0.85980815 -0.36184672 4289614080
2.0542293 -0.85689473 -0.35500208 4289614080
2.0473659 -0.8539626 -0.34778103 4289614080
2.032516 -0.84770483 -0.33887562 4289483520
2.0545907 -0.85682505 -0.33569571 4289614080
2.0640767 -0.86070192 -0.32997537 4289614080
2.0779002 -0.86638421 -0.32448718 4289744640
2.0646584 -0.8607977 -0.31441692 4289614080
2.0339134 -0.8479256 -0.30150935 4289483520
2.0465069 -0.85309589 -0.29473901 4289614080
2.0618782 -0.85942173 -0.28791624 4289614080
2.0788388 -0.86640793 -0.28084826 4289614080
2.0527089 -0.85546082 -0.26770887 4289614080
2.0410721 -0.8505466 -0.25633422 4289483520
2.0607054 -0.85864413 -0.24854797 4289614080
2.0740435 -0.86412132 -0.23956469 4289614080
2.0683823 -0.86169374 -0.228092 4289614080
2.0323923 -0.8466506 -0.21325822 4289483520
2.0385959 -0.84916008 -0.20275995 4289483520
2.0713747 -0.86272216 -0.19445656 4289614080
2.0562866 -0.85637534 -0.18136901 4289614080
2.023329 -0.84259897 -0.16679098 4289483520
2.0501747 -0.85369134 -0.15697256 4289483520
2.0649095 -0.85974658 -0.14581724 4289614080
2.0629365 -0.85885489 -0.1332556 4289614080
2.056808 -0.85623586 -0.12033337 4289483520
2.0420995 -0.85005093 -0.10691135 4289483520
2.0521493 -0.85415739 -0.094691277 4289483520
2.0481451 -0.85242242 -0.08168979 4289483520
2.0199964 -0.84065413 -0.067849353 4289352960
2.0463643 -0.85154104 -0.055761188 4289483520
2.0490992 -0.85260677 -0.042794321 4289483520
2.0606282 -0.85732603 -0.029873451 4289614080
2.0520556 -0.85369366 -0.016618554 4289483520
2.0741487 -0.86280018 -0.003500459 4289614080
2.0852923 -0.86735731 0.0098472573 4289614080
2.0816102 -0.86575621 0.023155719 4289614080
2.1187553 -0.88111031 0.037116032 4289744640
2.1269219 -0.88442844 0.050807752 4289744640
2.1294723 -0.88541412 0.064374886 4289744640
2.0543902 -0.85416776 0.075046629 4289483520
2.108314 -0.87648332 0.09024515 4289744640
2.1207414 -0.88156921 0.10397226 4289744640
2.1128628 -0.87822574 0.11661278 4289744640
1.9948429 -0.82916903 0.12225159 4289352960
2.102355 -0.8737188 0.14155939 4289744640
2.0929518 -0.86974388 0.15340495 4289744640
2.0654149 -0.85824507 0.16352989 4289614080
1.9920005 -0.82771331 0.16924472 4289352960
2.137763 -0.88811707 0.19384603 4289875200
2.1450059 -0.89104742 0.20651494 4289875200
2.1354239 -0.88699812 0.21731891 4289875200
2.0810602 -0.86437535 0.22297019 4289614080
1.8671443 -0.7755847 0.20983183 4288830720
2.1420202 -0.88951015 0.25177339 4289875200
2.1319699 -0.88526779 0.261253 4289875200
2.1336057 -0.88587135 0.27183035 4289875200
2.081588 -0.86423028 0.27501935 4289744640
1.9389007 -0.80500489 0.26500669 4289222400
2.1324666 -0.88517427 0.30091128 4289875200
2.1317134 -0.88478696 0.30987525 4289875200
2.1328454 -0.88518083 0.31876186 4289875200
2.1084976 -0.8750152 0.32338196 4289744640
2.0937214 -0.86881751 0.32895049 4289744640
2.020704 -0.83848864 0.32466781 4289483520
2.113903 -0.87703019 0.34679511 4289875200
2.1154985 -0.87761581 0.35380217 4289875200
2.1124055 -0.87625903 0.35961136 4289875200
2.1083772 -0.87451488 0.364824 4289875200
2.1113486 -0.87566996 0.37082162 4289875200
2.1060874 -0.87341517 0.37493613 4289875200
2.1022322 -0.87174296 0.37884322 4289744640
2.0845807 -0.86435825 0.37977701 4289744640
2.0723476 -0.85921806 0.38119829 4289744640
2.0891845 -0.86611325 0.38752839 4289744640
2.0746963 -0.86003995 0.38759702 4289744640
2.0698128 -0.857943 0.38898164 4289744640
2.0695512 -0.85775918 0.39077297 4289744640
2.0648098 -0.85572129 0.39125538 4289614080
2.0737922 -0.8593626 0.39388058 4289744640
2.0737462 -0.85926735 0.39433071 4289744640
2.0878522 -0.86502707 0.39700958 4289744640
2.0843124 -0.86348563 0.39586499 4289744640
2.0799351 -0.86159784 0.39409846 4289744640
2.087323 -0.8645764 0.39409611 4289744640
2.103771 -0.87130159 0.39532274 4289875200
2.0991602 -0.86931646 0.39211622 4289744640
2.1169112 -0.87657833 0.39261082 4289875200
2.1188126 -0.87728524 0.38967758 4289875200
2.1093049 -0.8732751 0.38420272 4289875200
2.1167438 -0.87627107 0.38136962 4289875200
2.1129019 -0.87460339 0.37605163 4289875200
2.1132841 -0.87468159 0.37105542 4289875200
2.1004889 -0.86931372 0.36334497 4289744640
2.0925889 -0.86596948 0.35611567 4289744640
2.1159048 -0.87552446 0.35374254 4289875200
2.1321166 -0.88214225 0.34965065 4289875200
2.1245837 -0.87894905 0.34123263 4289875200
2.1167836 -0.87564576 0.33243251 4289875200
2.0998008 -0.86811 0.27279618 4289744640
2.132586 -0.88156289 0.26685432 4289875200
2.1372645 -0.88341153 0.25691089 4289875200
2.1092587 -0.87176996 0.24286355 4289744640
2.0629294 -0.85256857 0.22681333 4289614080
2.0537698 -0.84870875 0.2148923 4289614080
2.0828958 -0.86064678 0.20663583 4289614080
2.089323 -0.86321753 0.19569995 4289614080
2.0745878 -0.85705733 0.18260819 4289614080
2.1012318 -0.86796719 0.17289534 4289744640
2.1130443 -0.87275738 0.16154638 4289744640
2.0978274 -0.86639923 0.14796823 4289744640
2.0935724 -0.86456257 0.1351181 4289614080
2.1208563 -0.87573111 0.12402206 4289744640
2.1261194 -0.87781811 0.11129937 4289744640
2.100101 -0.86700857 0.096938126 4289744640
2.0835044 -0.86008483 0.08317171 4289614080
2.0884197 -0.86202931 0.070250459 4289614080
2.0907004 -0.86288744 0.057117194 4289614080
2.0638332 -0.85173339 0.043272819 4289614080
2.0539322 -0.84757262 0.029974004 4289483520
2.0519183 -0.84666234 0.016834527 4289483520
2.0633311 -0.85128385 0.0037292647 4289614080
2.0354941 -0.83973557 -0.0093587581 4289483520
2.0458183 -0.84390843 -0.022490194 4289483520
2.0540123 -0.84720314 -0.035694376 4289483520
2.0550356 -0.84754413 -0.048797961 4289483520
2.0493443 -0.84511989 -0.061663516 4289483520
2.0710411 -0.85397351 -0.075379997 4289614080
2.0863993 -0.86021572 -0.0890209 4289614080
2.0751216 -0.85549128 -0.10146534 4289614080
2.0656629 -0.85151649 -0.11376117 4289614080
2.0736496 -0.85472316 -0.12688029 4289614080
2.0894783 -0.86115664 -0.14048457 4289614080
2.0760758 -0.85555971 -0.15199798 4289614080
2.073699 -0.85450071 -0.1640563 4289614080
2.0827694 -0.85815185 -0.17687689 4289614080
2.1079803 -0.86844265 -0.1910667 4289744640
2.1007814 -0.8653993 -0.20222627 4289744640
2.0438859 -0.84191507 -0.2080456 4289483520
2.0753751 -0.85478687 -0.22245519 4289614080
2.0806043 -0.85685694 -0.23401336 4289614080
2.0861187 -0.85904396 -0.24540149 4289614080
2.0910666 -0.8609978 -0.25650507 4289744640
2.0318477 -0.8365702 -0.25921404 4289483520
2.1014755 -0.86511546 -0.27805907 4289744640
2.1086679 -0.86799103 -0.28872204 4289744640
2.1082473 -0.86773705 -0.29805383 4289744640
2.0978119 -0.86336744 -0.30559266 4289744640
2.0877874 -0.85916758 -0.31276092 4289744640
2.0657265 -0.85002285 -0.31764936 4289614080
2.0830913 -0.85707849 -0.32820168 4289744640
2.0821183 -0.85659939 -0.33556238 4289744640
2.0917819 -0.86048985 -0.34428006 4289744640
2.0942588 -0.86142784 -0.35146618 4289744640
2.0892034 -0.85927212 -0.35698196 4289744640
2.0865889 -0.85811943 -0.36248147 4289744640
2.0865796 -0.85803688 -0.36800817 4289744640
2.0861256 -0.85777175 -0.3730315 4289744640
2.064908 -0.84898221 -0.37387237 4289614080
2.0552852 -0.84495437 -0.37630785 4289614080
2.0506313 -0.84296703 -0.37918687 4289614080
2.0385568 -0.83793455 -0.38022962 4289614080
2.0255234 -0.83250946 -0.38061485 4289483520
2.0065236 -0.82463706 -0.37939897 4289483520
2.0062501 -0.82445037 -0.38125071 4289483520
2.0151567 -0.82803053 -0.38440457 4289483520
2.0150213 -0.82790047 -0.3853963 4289483520
2.005846 -0.82406223 -0.38421139 4289483520
2.0290573 -0.83350962 -0.3887648 4289483520
2.0209358 -0.83010411 -0.38687927 4289483520
2.028234 -0.83302325 -0.38748544 4289483520
2.0614641 -0.84657627 -0.3925584 4289614080
2.066303 -0.84848541 -0.39175668 4289614080
2.0716872 -0.85061789 -0.39059228 4289744640
2.0733578 -0.85122764 -0.38826728 4289744640
2.0792606 -0.85357243 -0.38627082 4289744640
2.0857201 -0.85614508 -0.3839094 4289744640
2.0876091 -0.85684419 -0.38024935 4289744640
2.0936415 -0.85924149 -0.37688571 4289744640
2.0917037 -0.85837239 -0.37164745 4289744640
2.0788081 -0.8530134 -0.36407611 4289744640
2.0637548 -0.8467716 -0.35578319 4289614080
2.0534949 -0.84249479 -0.34797758 4289614080
2.0511389 -0.84145659 -0.3411468 4289614080
2.061702 -0.84571069 -0.33604157 4289614080
2.0818722 -0.85389906 -0.33200926 4289744640
2.1012309 -0.8617537 -0.3273285 4289744640
2.0742195 -0.85061818 -0.31510651 4289614080
2.0479071 -0.83977097 -0.30284509 4289614080
2.0527351 -0.84167576 -0.29491988 4289614080
2.066849 -0.84738201 -0.28791174 4289614080
2.0929692 -0.85800248 -0.28206891 4289744640
2.0634921 -0.84586328 -0.26846111 4289614080
2.0459914 -0.83862835 -0.25632975 4289483520
2.0632389 -0.8456158 -0.24825175 4289614080
2.0882444 -0.85577697 -0.2406169 4289614080
2.0954649 -0.85865897 -0.23050977 4289744640
2.0547926 -0.84194481 -0.21507901 4289483520
2.0564106 -0.84253556 -0.20403072 4289614080
2.0763643 -0.85062724 -0.19445202 4289614080
2.08338 -0.85342526 -0.18330428 4289614080
2.0503521 -0.83984429 -0.16859967 4289483520
2.068038 -0.8470068 -0.15795061 4289614080
2.0781946 -0.85108906 -0.14639531 4289614080
2.0863831 -0.85436594 -0.13443534 4289614080
2.0654569 -0.84573776 -0.12054335 4289614080
2.0608838 -0.84379703 -0.10762638 4289483520
2.0663371 -0.84595561 -0.095109344 4289614080
2.0706503 -0.84764779 -0.082378745 4289614080
2.0341101 -0.83264101 -0.068151869 4289483520
2.0605426 -0.84337443 -0.056005269 4289483520
2.0725398 -0.84820682 -0.04316964 4289614080
2.07477 -0.84904701 -0.029998925 4289614080
2.0699518 -0.84700722 -0.016714832 4289614080
2.092098 -0.85598463 -0.0035139294 4289614080
2.0986395 -0.8585853 0.0098934621 4289614080
2.0955083 -0.8572343 0.02326145 4289614080
2.1188834 -0.86671054 0.037032552 4289744640
2.1380129 -0.8744511 0.050956417 4289875200
2.1321387 -0.87197876 0.064304948 4289744640
2.0947812 -0.85664988 0.076352239 4289614080
2.1222219 -0.86778295 0.090629421 4289744640
2.1267326 -0.86955184 0.10402085 4289744640
2.1244249 -0.86853665 0.11697595 4289744640
2.0665393 -0.84483272 0.12636229 4289614080
2.1079459 -0.86166376 0.14160031 4289744640
2.0605476 -0.84224492 0.15066424 4289483520
2.0727134 -0.847139 0.16371943 4289614080
1.9527608 -0.79811555 0.16550799 4289222400
2.1391356 -0.87410027 0.19350962 4289875200
2.1603451 -0.88268036 0.20750003 4289875200
2.1576726 -0.8815152 0.21906492 4289875200
2.1055493 -0.86017644 0.22506179 4289744640
1.9075458 -0.77933335 0.21387 4288961280
2.1473513 -0.87708062 0.25180018 4289875200
2.1489301 -0.87764996 0.26270729 4289875200
2.1244838 -0.86760545 0.2700223 4289875200
2.0278993 -0.82814574 0.26727939 4289483520
1.9876511 -0.81166375 0.27103108 4289352960
2.1400189 -0.87371653 0.30125904 4289875200
2.1390185 -0.87323368 0.31019777 4289875200
2.1365972 -0.87217146 0.31856269 4289875200
2.1079919 -0.86043656 0.32253441 4289744640
2.0393159 -0.83237183 0.31963223 4289483520
1.9818611 -0.80888474 0.31766313 4289352960
2.1274872 -0.86815751 0.34819421 4289875200
2.1284857 -0.86848897 0.35512811 4289875200
2.1216643 -0.86563408 0.36032856 4289875200
2.1002734 -0.85684395 0.36255535 4289744640
2.1052511 -0.85879672 0.36886951 4289744640
2.092797 -0.8536486 0.37168145 4289744640
2.0770955 -0.84717858 0.3734192 4289744640
2.0938556 -0.85392958 0.38055959 4289744640
2.036366 -0.83044356 0.37368384 4289483520
2.0486879 -0.83538729 0.37910742 4289614080
2.044642 -0.83366591 0.3810696 4289614080
2.0616522 -0.84051681 0.38652489 4289614080
2.0696027 -0.84367841 0.38985261 4289614080
2.0657625 -0.84203994 0.39050439 4289614080
2.0610821 -0.8400597 0.39053357 4289614080
2.0610359 -0.83996552 0.39097989 4289614080
2.0519397 -0.8361885 0.38924858 4289614080
2.0474768 -0.83429718 0.38793984 4289614080
2.0917864 -0.85224921 0.39540237 4289744640
2.0920329 -0.85227239 0.39404637 4289744640
2.0795746 -0.8471272 0.38984394 4289744640
2.0986459 -0.85480726 0.39108783 4289744640
2.0980508 -0.8544873 0.38818562 4289744640
2.1101897 -0.85934561 0.38716808 4289875200
2.114886 -0.86117661 0.3843042 4289875200
2.1163647 -0.86169869 0.38039497 4289875200
2.1212916 -0.86362249 0.37664852 4289875200
2.1220667 -0.86385798 0.37171316 4289875200
2.1141086 -0.86054331 0.36483365 4289875200
2.1013622 -0.85528296 0.35676026 4289744640
2.1278975 -0.86598766 0.35490403 4289875200
2.1430657 -0.87207097 0.35061303 4289875200
2.14308 -0.87199557 0.3433885 4289875200
2.1368692 -0.86939073 0.33479291 4289875200
2.1246524 -0.86390305 0.27537447 4289875200
2.1424727 -0.87105656 0.26745775 4289875200
2.1530056 -0.87525016 0.2581926 4289875200
2.1265519 -0.86442876 0.24427782 4289744640
2.0945916 -0.85137433 0.22975504 4289744640
2.1085296 -0.85695028 0.22011024 4289744640
2.1196048 -0.86136317 0.2097872 4289744640
2.1053801 -0.8555091 0.19674081 4289744640
2.0907066 -0.84947395 0.18359534 4289614080
2.1158812 -0.85960609 0.17369254 4289744640
2.1117315 -0.8578406 0.16106468 4289744640
2.1107631 -0.85736579 0.14853235 4289744640
2.1078215 -0.85609066 0.13572039 4289744640
2.1308968 -0.86536658 0.12431821 4289744640
2.1363044 -0.86747646 0.11157209 4289744640
2.1246772 -0.86267889 0.097848371 4289744640
2.0977385 -0.85167438 0.083547436 4289614080
2.0980356 -0.85171312 0.070411675 4289614080
2.100322 -0.85255808 0.05724927 4289614080
2.0956292 -0.85057414 0.043846752 4289614080
2.0764403 -0.84271568 0.030239793 4289614080
2.0836902 -0.84557253 0.017066712 4289614080
2.0682535 -0.83923638 0.0037338124 4289614080
2.0413916 -0.82827246 -0.0093587367 4289483520
2.0683072 -0.83909667 -0.022673422 4289614080
2.0811527 -0.84421939 -0.036068533 4289614080
2.0729096 -0.84079945 -0.049096644 4289614080
2.0672023 -0.83840722 -0.06204417 4289614080
2.0905778 -0.84779269 -0.075900748 4289614080
2.1043403 -0.85328388 -0.089563958 4289744640
2.0985882 -0.85087299 -0.10235789 4289614080
2.088176 -0.84657598 -0.11471692 4289614080
2.0931766 -0.84851897 -0.12776087 4289614080
2.0944583 -0.84895641 -0.14047997 4289614080
2.0939715 -0.84867799 -0.15293446 4289614080
2.0832632 -0.8442632 -0.16441488 4289614080
2.1099119 -0.85496569 -0.1787432 4289744640
2.1213164 -0.85949832 -0.19181076 4289744640
2.1094794 -0.85462731 -0.20257494 4289744640
2.0662911 -0.8370747 -0.20981497 4289614080
2.0941565 -0.84826618 -0.22392493 4289744640
2.1123006 -0.85552377 -0.23699866 4289744640
2.1085982 -0.85394502 -0.24744493 4289744640
2.100652 -0.85065067 -0.25706226 4289744640
2.0449724 -0.82805651 -0.26026073 4289483520
2.1193626 -0.85805392 -0.27974981 4289744640
2.1182866 -0.85753775 -0.28934368 4289744640
2.1261363 -0.86062974 -0.29985908 4289875200
2.1184289 -0.85743332 -0.30785197 4289744640
2.1105995 -0.8541882 -0.31541526 4289744640
2.0972636 -0.84871864 -0.32171693 4289744640
2.1018109 -0.85047638 -0.3303543 4289744640
2.1090827 -0.85333472 -0.33908689 4289744640
2.1050086 -0.85160887 -0.34562641 4289744640
2.1084037 -0.85290074 -0.35299155 4289744640
2.1061592 -0.85191464 -0.3590152 4289744640
2.1052849 -0.85148221 -0.36485067 4289744640
2.1043551 -0.85102755 -0.37025213 4289744640
2.0956609 -0.84743786 -0.37384084 4289744640
2.0963414 -0.84763414 -0.37864634 4289744640
2.0857732 -0.8432892 -0.3809675 4289744640
2.0683036 -0.83615911 -0.38153702 4289614080
2.0561972 -0.83119535 -0.38259971 4289614080
2.0522666 -0.82953256 -0.38471058 4289614080
2.0519176 -0.82931578 -0.38703793 4289614080
2.0329399 -0.8215816 -0.3853915 4289483520
2.0235989 -0.81773752 -0.38509357 4289483520
2.0325949 -0.8212927 -0.38782516 4289483520
2.023397 -0.81750739 -0.3866438 4289483520
2.051229 -0.82866085 -0.39206848 4289614080
2.0476549 -0.82714427 -0.3910501 4289614080
2.0458384 -0.82633704 -0.38991177 4289614080
2.0754945 -0.8382228 -0.39428475 4289744640
2.0794322 -0.83973545 -0.39330336 4289744640
2.0811753 -0.84036314 -0.39144486 4289744640
2.0910757 -0.84427959 -0.39064702 4289744640
2.1024799 -0.84880197 -0.38964605 4289744640
2.0989008 -0.84728372 -0.38541213 4289744640
2.1099429 -0.8516593 -0.38339463 4289744640
2.0986109 -0.84701657 -0.37688109 4289744640
2.096668 -0.8461588 -0.37164283 4289744640
2.1011384 -0.84788555 -0.36710322 4289744640
2.0814762 -0.83988839 -0.35797837 4289744640
2.0757792 -0.83751929 -0.35090861 4289614080
2.0688407 -0.83465064 -0.34326619 4289614080
2.0910327 -0.84351712 -0.34000009 4289744640
2.1005762 -0.84728748 -0.33418864 4289744640
2.1098874 -0.85096377 -0.32789302 4289744640
2.0951259 -0.84494501 -0.31751788 4289744640
2.073983 -0.83635765 -0.30596173 4289614080
2.0750747 -0.83672476 -0.2974121 4289614080
2.0938313 -0.84420401 -0.29096645 4289744640
2.1062808 -0.84914315 -0.28318346 4289744640
2.0904889 -0.84271282 -0.27131641 4289614080
2.0729582 -0.83558393 -0.25908035 4289614080
2.0797875 -0.83826077 -0.24964188 4289614080
2.1023533 -0.84727025 -0.24166161 4289744640
2.0958157 -0.8445667 -0.2300005 4289744640
2.0725894 -0.83514869 -0.21641935 4289614080
2.0880749 -0.8413077 -0.20666771 4289614080
2.0905261 -0.84222198 -0.19530748 4289614080
2.0966375 -0.84460849 -0.18402708 4289614080
2.0552087 -0.82787228 -0.16859514 4289483520
2.0905201 -0.84200406 -0.15927948 4289614080
2.0970035 -0.84453982 -0.14736173 4289614080
2.099659 -0.84553581 -0.13496363 4289614080
2.0888767 -0.84112841 -0.12161118 4289614080
2.0787375 -0.83698028 -0.10829334 4289614080
2.0842066 -0.83910805 -0.095696352 4289614080
2.0885327 -0.84077591 -0.082885109 4289614080
2.0519085 -0.82598293 -0.068577081 4289483520
2.0830429 -0.83842677 -0.056472976 4289614080
2.0950708 -0.8431896 -0.043525856 4289614080
2.0973074 -0.84401697 -0.030243251 4289614080
2.0841279 -0.83864957 -0.01678223 4289614080
2.101687 -0.84563357 -0.0035157341 4289614080
2.1212339 -0.85341507 0.0099860076 4289744640
2.1037223 -0.84630787 0.02330306 4289614080
2.13904 -0.86042291 0.037305377 4289744640
2.1434603 -0.8621254 0.050970551 4289875200
2.1429515 -0.86184794 0.064484775 4289875200
2.0777593 -0.8355943 0.075552233 4289614080
2.1589584 -0.86812925 0.091993235 4289875200
2.1540976 -0.86610377 0.10512084 4289875200
2.1587195 -0.86788577 0.11859549 4289875200
2.1109133 -0.84862 0.12878503 4289744640
2.1299858 -0.85620385 0.14275195 4289744640
2.138509 -0.85955197 0.15601681 4289875200
2.130398 -0.85622329 0.16789511 4289744640
2.1523113 -0.86494428 0.18203871 4289875200
2.2286084 -0.89548683 0.20114975 4290136320
2.2364819 -0.89856946 0.21432503 4290136320
2.2380464 -0.89912015 0.22670849 4290136320
2.2296629 -0.89567977 0.23779348 4290136320
2.2490494 -0.9033795 0.25163582 4290266880
2.2104197 -0.88780707 0.25859979 4290136320
2.1923552 -0.88048542 0.26739588 4290005760
2.1773674 -0.87439877 0.2761046 4290005760
2.2145319 -0.88922626 0.29122537 4290136320
2.208461 -0.88671505 0.30047145 4290136320
2.1546066 -0.86504602 0.30260459 4289875200
2.1371133 -0.85795784 0.30919552 4289875200
2.1393042 -0.85876131 0.31821972 4289875200
2.0809395 -0.8352921 0.31764585 4289614080
