# .PCD v0.7 - Point Cloud Data file format
VERSION 0.7
FIELDS x y z rgba
SIZE 4 4 4 4
TYPE F F F U
COUNT 1 1 1 1
WIDTH 1104
HEIGHT 1
VIEWPOINT 0 0 0 1 0 0 0
POINTS 1104
DATA ascii
3.4737871 0.21183094 0.38893312 4293792000
3.4666038 0.21150224 0.37189907 4293792000
3.4372592 0.20982027 0.35224834 4293661440
3.4289856 0.20942335 0.3345477 4293661440
3.451745 0.21092221 0.31943101 4293661440
3.4548995 0.21122392 0.302017 4293792000
3.4248204 0.20949295 0.28150624 4293661440
3.4291122 0.2098636 0.26364568 4293661440
3.4576213 0.21171741 0.24718156 4293661440
3.443913 0.21098663 0.22735031 4293661440
3.4220104 0.20975271 0.20692654 4293661440
3.4403777 0.21098702 0.1887309 4293661440
3.4532435 0.21188493 0.16985221 4293661440
3.4612272 0.21248393 0.15043034 4293661440
3.4163141 0.20983447 0.12875997 4293530880
3.4396195 0.21137439 0.10964507 4293661440
3.4378471 0.21137388 0.089487083 4293661440
3.4405489 0.21164848 0.069343328 4293661440
3.4048412 0.20955926 0.048545238 4293530880
3.424895 0.21090153 0.02858175 4293530880
3.4304898 0.21135423 0.0083150063 4293661440
3.388298 0.20886163 -0.011859788 4293400320
3.4113717 0.21039152 -0.032136973 4293530880
3.4119625 0.21053556 -0.052307885 4293530880
3.4383104 0.21226978 -0.072976112 4293661440
3.4070089 0.21044476 -0.092313603 4293530880
3.431803 0.21208449 -0.11303247 4293661440
3.4337234 0.21231145 -0.13303182 4293661440
3.452738 0.21359603 -0.15367027 4293661440
3.4028337 0.21061613 -0.17089926 4293530880
3.4169853 0.21159978 -0.19095476 4293530880
3.4447541 0.21342802 -0.21179935 4293661440
3.4434309 0.21345463 -0.23077285 4293661440
3.4101489 0.21149907 -0.2471637 4293530880
3.4434764 0.21367466 -0.26810974 4293661440
3.4708622 0.21548346 -0.28862375 4293792000
3.4774046 0.21599931 -0.30726665 4293792000
3.4610779 0.21509433 -0.3235012 4293792000
3.439605 0.21386832 -0.33870682 4293661440
3.4627955 0.21541947 -0.35794181 4293792000
3.4712877 0.21605726 -0.37541449 4293792000
3.4621263 0.21559621 -0.39055812 4293792000
3.4400661 0.21433096 -0.4036682 4293661440
3.4735115 0.2165243 -0.42288712 4293792000
3.4727466 0.21658614 -0.43761054 4293792000
3.4774714 0.21699049 -0.45254961 4293922560
3.4913096 0.2179641 -0.46823859 4293922560
3.4814854 0.21746056 -0.48024172 4293922560
3.4417298 0.21508589 -0.48738772 4293792000
3.4391801 0.21503502 -0.49909312 4293792000
3.44508 0.21551257 -0.51146621 4293792000
3.4523571 0.21607669 -0.52350157 4293792000
3.4455855 0.21576154 -0.53280926 4293792000
3.456032 0.21652469 -0.54417622 4293792000
3.4490204 0.21619418 -0.55217838 4293792000
3.450197 0.21637675 -0.5608384 4293792000
3.4421332 0.21597959 -0.56733209 4293792000
3.4474347 0.21642098 -0.57536381 4293792000
3.4438946 0.21630737 -0.58125615 4293792000
3.4322109 0.21568178 -0.58507162 4293792000
3.4362917 0.21604659 -0.59087914 4293792000
3.4222636 0.21527256 -0.59287173 4293792000
3.4081461 0.21449201 -0.59412313 4293661440
3.4125478 0.21487667 -0.59789699 4293661440
3.4170649 0.21526887 -0.60099858 4293792000
3.4030242 0.21449167 -0.60012919 4293661440
3.4166248 0.21545666 -0.6034286 4293792000
3.3979108 0.21438372 -0.60031652 4293661440
3.4154048 0.21559519 -0.60289454 4293792000
3.4337969 0.21686448 -0.60491574 4293792000
3.4399028 0.2173586 -0.60405433 4293792000
3.4311078 0.21691108 -0.59987271 4293792000
3.4414237 0.21767178 -0.59832758 4293792000
3.4392719 0.21764418 -0.59390819 4293792000
3.4536254 0.21866143 -0.59162855 4293792000
3.4505489 0.21857549 -0.58565843 4293792000
3.4449377 0.2183287 -0.57859111 4293792000
3.4606481 0.21943353 -0.57441133 4293922560
3.4457345 0.21859658 -0.56448323 4293792000
3.4394708 0.21830769 -0.55536532 4293792000
3.4311166 0.21788566 -0.54530394 4293792000
3.4301989 0.21793559 -0.53581905 4293792000
3.421912 0.21751702 -0.524593 4293661440
3.4601135 0.22005448 -0.51979786 4293792000
3.4578381 0.22001885 -0.5082165 4293792000
3.4561446 0.2200201 -0.49615312 4293792000
3.4319606 0.21858878 -0.48038813 4293661440
3.4231262 0.21813409 -0.46634546 4293661440
3.429204 0.21862955 -0.45381507 4293661440
3.4492781 0.22001818 -0.44251913 4293792000
3.4484358 0.22007322 -0.42796332 4293792000
3.4143224 0.21800387 -0.40894863 4293661440
3.4130981 0.21803337 -0.39356801 4293661440
3.4388645 0.21978784 -0.3807469 4293661440
3.4432173 0.22017464 -0.36499172 4293661440
3.4391654 0.22002403 -0.34793895 4293661440
3.3831542 0.21654738 -0.32554036 4293530880
3.4208379 0.21906734 -0.31188414 4293661440
3.4142687 0.21875435 -0.2936928 4293530880
3.4224815 0.21938851 -0.27644065 4293661440
3.3881822 0.21729673 -0.25559121 4293530880
3.4108596 0.21885872 -0.23882014 4293530880
3.428679 0.22011027 -0.22122711 4293661440
3.4336009 0.22053455 -0.20243533 4293661440
3.43893 0.22098532 -0.1833898 4293661440
3.407959 0.21910262 -0.1623553 4293530880
3.4269216 0.22042987 -0.14359081 4293661440
3.4298468 0.22072622 -0.12387297 4293661440
3.4007072 0.21895824 -0.10301578 4293530880
3.4183979 0.22020511 -0.083531886 4293530880
3.430599 0.2210993 -0.063648202 4293661440
3.4373989 0.22164598 -0.043483637 4293661440
3.4243057 0.22090974 -0.023057777 4293530880
3.4383459 0.22192398 -0.0027839788 4293661440
3.4464486 0.22255568 0.01762889 4293661440
3.4095876 0.22028294 0.03762266 4293530880
3.4561973 0.22340326 0.058554143 4293661440
3.4710541 0.2244731 0.079247437 4293792000
3.4671509 0.22433005 0.099491559 4293792000
3.3947465 0.21975248 0.11721735 4293530880
3.462085 0.22422072 0.13960958 4293661440
3.4740407 0.22510463 0.16007648 4293792000
3.4390826 0.22294797 0.17807767 4293661440
3.2625756 0.21160835 0.18736008 4293008640
3.4587851 0.22444348 0.21794178 4293661440
3.4722803 0.22542873 0.2379431 4293792000
3.4585774 0.22464822 0.25582081 4293792000
3.2716379 0.21260898 0.2595284 4293139200
3.4871118 0.22672167 0.29500777 4293792000
3.4903309 0.2270411 0.31335914 4293792000
3.4818611 0.22659999 0.33028948 4293792000
3.4201319 0.22269055 0.34145266 4293661440
3.1962233 0.20821232 0.33464974 4292878080
3.4907954 0.22751182 0.3820706 4293922560
3.4711168 0.22633879 0.39597896 4293792000
3.4519243 0.22519623 0.40932325 4293792000
3.4114497 0.22266339 0.41942248 4293661440
3.3454783 0.21846302 0.42546025 4293400320
3.4804177 0.22738451 0.45684215 4293922560
3.4769681 0.22726882 0.47008085 4293922560
3.4731672 0.22712997 0.48271185 4293922560
3.456614 0.2261565 0.49294794 4293792000
3.4336298 0.22476105 0.50156605 4293792000
3.3591075 0.2199889 0.50175774 4293530880
3.4731557 0.22756752 0.52965331 4293922560
3.4675133 0.22730723 0.53902847 4293922560
3.4633906 0.22714624 0.54799181 4293922560
3.4709346 0.22775054 0.55817759 4293922560
3.4641945 0.22741757 0.56542486 4293922560
3.4531343 0.22680044 0.57127172 4293792000
3.4436278 0.2262847 0.57666945 4293792000
3.4340172 0.22576153 0.58134294 4293792000
3.4478421 0.22677921 0.58931237 4293792000
3.4383156 0.22626111 0.5926128 4293792000
3.4474323 0.22696979 0.59843254 4293792000
3.4419129 0.22671501 0.60101825 4293792000
3.4213057 0.2254656 0.60024399 4293792000
3.4258525 0.22587332 0.6031664 4293792000
3.4059498 0.22466858 0.60107261 4293661440
3.4205627 0.22574042 0.60436088 4293792000
3.4357576 0.22685161 0.60704714 4293792000
3.431941 0.22670789 0.60566401 4293792000
3.4447999 0.22766602 0.60651004 4293792000
3.4264805 0.22656342 0.60116261 4293792000
3.4492824 0.22817995 0.60231888 4293792000
3.4533203 0.22855604 0.59947145 4293922560
3.4628601 0.22929668 0.59686291 4293922560
3.4563041 0.22897163 0.59078133 4293922560
3.4669909 0.229789 0.58695054 4293922560
3.4651928 0.22977917 0.58030885 4293922560
3.4651313 0.22988443 0.57328725 4293922560
3.4652405 0.23000102 0.56562889 4293922560
3.4714694 0.23052399 0.55829942 4293922560
3.4517119 0.22932091 0.54618186 4293792000
3.4387093 0.22856556 0.53459078 4293792000
3.4546835 0.22973636 0.52687854 4293792000
3.4706163 0.2309054 0.51845843 4293922560
3.4646425 0.23061727 0.5061422 4293792000
3.4261131 0.22875051 0.4145278 4293661440
3.4476554 0.23029761 0.40186745 4293792000
3.4601946 0.2312444 0.38755557 4293792000
3.4659047 0.23173538 0.37196258 4293792000
3.4210896 0.22884694 0.35072196 4293661440
3.4326725 0.22973007 0.33503231 4293661440
3.4504576 0.23102921 0.31943101 4293661440
3.4430773 0.23064372 0.3010959 4293661440
3.4234183 0.22943483 0.28149608 4293661440
3.4169745 0.22911081 0.26281065 4293661440
3.4324436 0.23025633 0.24547337 4293661440
3.4452631 0.23122503 0.2275245 4293661440
3.4107709 0.22901776 0.20632409 4293530880
3.4440715 0.23136242 0.18900426 4293661440
3.445215 0.23154797 0.1695208 4293661440
3.449168 0.23192249 0.14996241 4293661440
3.4005752 0.22876242 0.12821482 4293530880
3.4220243 0.23031333 0.10912511 4293530880
3.4259882 0.23068823 0.089211866 4293661440
3.4291582 0.2310099 0.069139712 4293661440
3.3836966 0.22805409 0.048261888 4293400320
3.4220152 0.23074469 0.02856845 4293530880
3.413439 0.23027413 0.0082767894 4293530880
3.3769226 0.22791727 -0.011824419 4293400320
3.4011087 0.22965699 -0.032052353 4293530880
3.413321 0.23058933 -0.052348424 4293530880
3.4211419 0.23122565 -0.072639085 4293530880
3.385654 0.22893396 -0.091769576 4293400320
3.4141998 0.23097195 -0.11249509 4293530880
3.4324281 0.23231344 -0.13303182 4293661440
3.4403472 0.23295799 -0.15317661 4293661440
3.3915842 0.22976311 -0.17039862 4293530880
3.4156945 0.23150426 -0.19095476 4293530880
3.4218976 0.23203269 -0.2104736 4293661440
3.4231369 0.23222475 -0.22949956 4293661440
3.40587 0.23116086 -0.24694699 4293530880
3.4395378 0.2335545 -0.26790446 4293661440
3.461942 0.23518507 -0.28799105 4293792000
3.4621735 0.23531006 -0.30603674 4293792000
3.4519057 0.23472115 -0.32276621 4293792000
3.4356747 0.23372592 -0.33844814 4293661440
3.4531419 0.23502319 -0.35707942 4293792000
3.4618332 0.23572397 -0.37453416 4293792000
3.4478455 0.23488034 -0.38909489 4293792000
3.4387589 0.23436986 -0.4036682 4293661440
3.4596679 0.23590411 -0.42136189 4293792000
3.4631073 0.23624796 -0.43656194 4293792000
3.4774842 0.23733847 -0.45272356 4293922560
3.4824758 0.23778905 -0.46723169 4293922560
3.4700592 0.23705076 -0.47884795 4293792000
3.4265883 0.23418927 -0.48542848 4293661440
3.430321 0.23455265 -0.49799734 4293792000
3.4450989 0.23567185 -0.51166415 4293792000
3.4533582 0.23634586 -0.5238533 4293792000
3.4541299 0.2365077 -0.53433454 4293792000
3.447232 0.23614419 -0.54299802 4293792000
3.4724534 0.23798153 -0.55614251 4293922560
3.4488778 0.23647465 -0.5608384 4293792000
3.4358943 0.23569287 -0.56652051 4293792000
3.442179 0.23623262 -0.57470661 4293792000
3.4327381 0.23569307 -0.57959509 4293792000
3.4171419 0.23473008 -0.58272606 4293792000
3.4216936 0.23515075 -0.58859462 4293792000
3.4297988 0.23581603 -0.59440506 4293792000
3.4117529 0.23468298 -0.59498012 4293661440
3.411238 0.23475523 -0.59789699 4293661440
3.4108396 0.23483548 -0.60013413 4293661440
3.4105597 0.23492385 -0.60168922 4293661440
3.3966444 0.23407257 -0.60013044 4293661440
3.4015164 0.2345157 -0.60118479 4293661440
3.4140906 0.23549038 -0.60289454 4293792000
3.4187193 0.23591755 -0.60249156 4293792000
3.4327815 0.23699631 -0.60303605 4293792000
3.4435446 0.23784809 -0.60227919 4293792000
3.4450116 0.23805816 -0.59918237 4293792000
3.4379456 0.23767841 -0.59390819 4293792000
3.4482825 0.23850189 -0.59094131 4293792000
3.4451971 0.23839723 -0.5849759 4293792000
3.4436071 0.23839591 -0.57859111 4293792000
3.4406111 0.23829712 -0.57130629 4293792000
3.4329333 0.2378737 -0.56260359 4293792000
3.4315963 0.23788939 -0.55430824 4293792000
3.4212182 0.23727794 -0.54394126 4293661440
3.4121108 0.23675402 -0.53320003 4293661440
3.4214871 0.2375126 -0.52473104 4293661440
3.4462979 0.23934372 -0.51792312 4293792000
3.4531384 0.2399278 -0.50772256 4293792000
3.4334252 0.23866647 -0.49308285 4293792000
3.4270825 0.23833376 -0.47989154 4293661440
3.4031386 0.23677604 -0.46380252 4293661440
3.4192688 0.23800626 -0.45267612 4293661440
3.433095 0.23907703 -0.44061419 4293661440
3.4395268 0.23963352 -0.42702371 4293792000
3.4050667 0.23734015 -0.40799874 4293661440
3.4029737 0.23730169 -0.39255327 4293530880
3.4335594 0.23954293 -0.38030761 4293661440
3.4329476 0.23960863 -0.3640449 4293661440
3.4427876 0.24040413 -0.34844121 4293661440
3.3768699 0.23590781 -0.32506242 4293530880
3.40381 0.23789728 -0.31045276 4293530880
3.4056304 0.23813204 -0.29306412 4293530880
3.4152656 0.23891358 -0.27596557 4293661440
3.3818848 0.2366852 -0.25521585 4293530880
3.4121583 0.23891164 -0.23900446 4293530880
3.416039 0.23929121 -0.22049776 4293530880
3.4183161 0.23955864 -0.20161305 4293530880
3.4236383 0.24003971 -0.1826458 4293661440
3.4092646 0.23913956 -0.16248113 4293530880
3.4148183 0.23963691 -0.14313973 4293530880
3.4280026 0.24067037 -0.12385491 4293661440
3.3854146 0.23778728 -0.10259275 4293400320
3.4114757 0.23972547 -0.083395444 4293530880
3.4279549 0.24099168 -0.063624114 4293661440
3.4231696 0.24076335 -0.043320641 4293530880
3.4129853 0.24015482 -0.022990583 4293530880
3.4230292 0.24096961 -0.0027726667 4293530880
3.4351182 0.2419291 0.017577846 4293661440
3.4042566 0.23986304 0.037578616 4293530880
3.4530828 0.24341235 0.058524411 4293661440
3.4647009 0.24434072 0.079133548 4293792000
3.4761832 0.24526022 0.099790052 4293792000
3.3834393 0.23882356 0.11687298 4293400320
3.4574893 0.24415961 0.13947925 4293661440
3.4739668 0.2454329 0.16013627 4293792000
3.4427063 0.24333306 0.17833568 4293661440
3.2612875 0.2306132 0.18736008 4293008640
3.4574187 0.24459127 0.21794178 4293661440
3.4659319 0.24530296 0.23760198 4293792000
3.4383087 0.24345647 0.25442219 4293661440
3.2464783 0.22997603 0.25763446 4293008640
3.480762 0.24668226 0.29458717 4293792000
3.4974825 0.24797767 0.31412557 4293922560
3.4755166 0.24653 0.32981831 4293792000
3.4227469 0.24289492 0.34184921 4293661440
3.2865877 0.23333617 0.34424755 4293139200
3.4844527 0.24749391 0.38152772 4293922560
3.4709475 0.24664426 0.39611685 4293792000
3.4406481 0.24459983 0.40814817 4293792000
3.4001939 0.24183126 0.41820475 4293530880
3.339201 0.2375987 0.42483079 4293400320
3.4830761 0.24794602 0.4573729 4293922560
3.4755847 0.24752249 0.47008085 4293922560
3.4668448 0.24700952 0.482025 4293792000
3.4453623 0.24558771 0.49153909 4293792000
3.4233787 0.24412878 0.50026786 4293661440
3.4153628 0.24366501 0.51036417 4293661440
3.4659314 0.24738219 0.52876246 4293922560
3.4744496 0.24809989 0.54032224 4293922560
3.453141 0.24668735 0.54658824 4293792000
3.4606853 0.24733557 0.55675161 4293922560
3.4480436 0.24654095 0.56301355 4293792000
3.4517543 0.24691527 0.57127172 4293792000
3.442251 0.24634415 0.57666945 4293792000
3.4326437 0.245765 0.58134294 4293792000
3.4366298 0.24615891 0.58763111 4293792000
3.433007 0.24600783 0.5919348 4293792000
3.4273782 0.24571268 0.59518981 4293792000
3.4155059 0.2449694 0.59664619 4293792000
3.410109 0.24469002 0.59851962 4293661440
3.4146545 0.245124 0.60143608 4293792000
3.4094946 0.24486126 0.60193974 4293661440
3.4442084 0.24746308 0.60878307 4293792000
3.4392891 0.24721824 0.60791522 4293792000
3.4344912 0.24698181 0.60635775 4293792000
3.438503 0.2473789 0.60564488 4293792000
3.4251025 0.24652296 0.60116261 4293792000
3.4380682 0.24756475 0.60060233 4293792000
3.45193 0.24867192 0.59947145 4293922560
3.4584172 0.24924845 0.59633732 4293922560
3.4499955 0.24875043 0.58994067 4293792000
3.4508412 0.2489204 0.58445203 4293792000
3.4637952 0.24996419 0.58030885 4293922560
3.4588127 0.24971387 0.57247287 4293922560
3.4530163 0.24940443 0.56386113 4293792000
3.4562802 0.24974933 0.55608118 4293792000
3.4404655 0.24871519 0.5446223 4293792000
3.4323914 0.2482399 0.53382438 4293792000
3.4577222 0.25018111 0.52755529 4293792000
3.4579556 0.2503072 0.51677614 4293792000
3.4575188 0.25038478 0.50530607 4293792000
3.4098694 0.24762926 0.41273004 4293661440
3.4323854 0.2493728 0.40025008 4293661440
3.457206 0.25128525 0.38737825 4293792000
3.4639039 0.25188148 0.37189907 4293792000
3.424659 0.24913593 0.35123074 4293661440
3.4173784 0.24871419 0.33367538 4293661440
3.4401147 0.25047758 0.31860319 4293661440
3.4382935 0.25045356 0.30080009 4293661440
3.3943143 0.24735722 0.27921674 4293530880
3.4164896 0.24908112 0.26288053 4293661440
3.4326322 0.25036642 0.24558702 4293661440
3.4412208 0.25110152 0.22735031 4293661440
3.3994234 0.24815899 0.20572162 4293530880
3.4227481 0.2499698 0.1879108 4293661440
3.4316134 0.25072566 0.16892055 4293661440
3.4395845 0.25141665 0.14960688 4293661440
3.408654 0.24926347 0.128572 4293530880
3.4179833 0.25005361 0.10904085 4293530880
3.4211929 0.25039649 0.089123473 4293530880
3.4189036 0.25033692 0.068961188 4293530880
3.3921959 0.24848849 0.048402946 4293530880
3.3982701 0.24904077 0.028381849 4293530880
3.4188182 0.25065461 0.0082932329 4293530880
3.3716719 0.24730453 -0.011810877 4293400320
3.399713 0.24946867 -0.032052353 4293530880
3.4003029 0.24961933 -0.052170187 4293530880
3.4057775 0.25012881 -0.072342575 4293530880
3.3742933 0.24792311 -0.091499239 4293400320
3.406466 0.25039455 -0.11228643 4293530880
3.4197049 0.25147572 -0.13259323 4293530880
3.4339499 0.25263172 -0.15295471 4293661440
3.3792348 0.24871312 -0.16984808 4293400320
3.4069684 0.25086194 -0.1905454 4293530880
3.4271019 0.25245267 -0.21088058 4293661440
3.4168282 0.25180379 -0.22917107 4293530880
3.3885536 0.24982713 -0.24579282 4293530880
3.43081 0.25305092 -0.26733497 4293661440
3.445605 0.254251 -0.28675038 4293661440
3.4418685 0.25408402 -0.3043676 4293661440
3.4415429 0.25416869 -0.32193026 4293661440
3.4261131 0.25313738 -0.33764577 4293661440
3.4351976 0.25391707 -0.35537082 4293661440
3.4514773 0.25522944 -0.3735683 4293792000
3.4419603 0.25463441 -0.38859159 4293661440
3.4126725 0.25257552 -0.40077195 4293661440
3.4519429 0.25559101 -0.42059526 4293792000
3.4616723 0.25642073 -0.43656194 4293792000
3.4671419 0.25693539 -0.45156434 4293792000
3.4671071 0.25704235 -0.46536276 4293792000
3.4592924 0.25657228 -0.4775604 4293792000
3.4211302 0.25384986 -0.48485655 4293661440
3.433831 0.25490075 -0.49871403 4293792000
3.4397213 0.25544667 -0.51107788 4293792000
3.4381185 0.25543624 -0.52175838 4293792000
3.4396806 0.25566095 -0.53232068 4293792000
3.440872 0.25585818 -0.54222178 4293792000
3.44245 0.25608429 -0.55156684 4293792000
3.4423039 0.25618216 -0.56000262 4293792000
3.4443028 0.25643975 -0.56814367 4293792000
3.4329605 0.25570372 -0.57340652 4293792000
3.4313066 0.25568891 -0.57959509 4293792000
3.4206316 0.25500152 -0.58356464 4293792000
3.4015913 0.25368953 -0.58538091 4293661440
3.392287 0.25310281 -0.58814961 4293661440
3.4103277 0.25455657 -0.59498012 4293661440
3.4049008 0.25425905 -0.59703577 4293661440
3.3869743 0.25302741 -0.59618431 4293661440
3.4002938 0.25412989 -0.60012919 4293661440
3.4001331 0.25422528 -0.60099834 4293661440
3.3902719 0.25359505 -0.59944832 4293661440
3.4028399 0.25464267 -0.60115951 4293661440
3.4123762 0.25546408 -0.60162574 4293792000
3.4313424 0.2569924 -0.60303605 4293792000
3.4283473 0.25687638 -0.59987271 4293792000
3.4337409 0.25738898 -0.59747273 4293792000
3.4321389 0.25737733 -0.59315407 4293792000
3.437005 0.25785083 -0.58925611 4293792000
3.429985 0.25743252 -0.58263773 4293792000
3.4421599 0.25845504 -0.57859111 4293792000
3.4365628 0.25814337 -0.57087409 4293792000
3.4265685 0.25750089 -0.56179684 4293792000
3.4203072 0.2571384 -0.55271733 4293792000
3.4162426 0.25694075 -0.54337901 4293661440
3.4106734 0.25662965 -0.53320003 4293661440
3.4151165 0.25707188 -0.5239749 4293661440
3.4310389 0.2583788 -0.51584738 4293792000
3.446749 0.25967076 -0.50699693 4293792000
3.4319763 0.25866628 -0.49308285 4293792000
3.4157598 0.25755197 -0.47850806 4293661440
3.3829279 0.25518328 -0.46124285 4293530880
3.4138699 0.25762519 -0.45215237 4293661440
3.4250669 0.25857839 -0.43976974 4293661440
3.4331243 0.25929514 -0.42640916 4293661440
3.384814 0.25575334 -0.40574369 4293530880
3.3905137 0.25629109 -0.39128155 4293530880
3.4083185 0.25774467 -0.37767181 4293661440
3.4199939 0.25873566 -0.36282495 4293661440
3.4264472 0.25933212 -0.34693444 4293661440
3.3606272 0.2544567 -0.32363605 4293400320
3.3910897 0.25687039 -0.30942383 4293530880
3.4041853 0.25796992 -0.29306412 4293530880
3.3999009 0.25775266 -0.27484071 4293530880
3.3793309 0.25629997 -0.25513148 4293530880
3.4033968 0.25823277 -0.2384921 4293530880
3.414587 0.2591897 -0.22049776 4293530880
3.4168622 0.2594704 -0.20161305 4293530880
3.4122245 0.25922602 -0.18211438 4293530880
3.3912306 0.25773826 -0.16169047 4293530880
3.4133639 0.25952828 -0.14313973 4293530880
3.4180737 0.25999439 -0.12354881 4293530880
3.3876581 0.25778788 -0.10270452 4293530880
3.4106159 0.25964266 -0.083409995 4293530880
3.4192269 0.26040623 -0.063489199 4293530880
3.4167235 0.26032352 -0.043257527 4293530880
3.4115283 0.26003549 -0.022990583 4293530880
3.4315381 0.26166913 -0.0027807467 4293661440
3.4391358 0.26235718 0.017605927 4293661440
3.4028013 0.25969288 0.037578616 4293530880
3.4433899 0.26289931 0.0583851 4293661440
3.4582345 0.26414195 0.079019658 4293661440
3.4593182 0.26433402 0.099348441 4293661440
3.3819904 0.25853214 0.11687298 4293400320
3.4410639 0.26315665 0.13887613 4293661440
3.4485731 0.2638399 0.15903386 4293661440
3.4362514 0.26300579 0.17807767 4293661440
3.2549112 0.24922912 0.18707401 4293008640
3.455935 0.26473075 0.21794178 4293661440
3.4554913 0.26480597 0.23698798 4293792000
3.4368317 0.26348463 0.25442219 4293661440
3.255023 0.24964912 0.2584236 4293008640
3.474298 0.26657656 0.29416656 4293792000
3.481082 0.26720709 0.31278709 4293792000
3.4789844 0.267156 0.33028948 4293792000
3.4123442 0.26214644 0.34095699 4293661440
3.2762475 0.25179464 0.34331232 4293139200
3.4690752 0.26672396 0.38000771 4293792000
3.4694514 0.26686254 0.39611685 4293792000
3.4490659 0.26540351 0.40932325 4293792000
3.3888311 0.26087558 0.41698703 4293530880
3.3288579 0.25636399 0.42369774 4293400320
3.4667432 0.26709244 0.45542485 4293792000
3.4642029 0.26700619 0.46874386 4293792000
3.4604089 0.26682314 0.48133811 4293792000
3.4300537 0.26459092 0.48956668 4293792000
3.4218981 0.26406994 0.50026786 4293661440
3.3425102 0.25804916 0.49969384 4293400320
3.4564688 0.26695624 0.52754718 4293792000
3.4547768 0.26693475 0.53749561 4293792000
3.4467211 0.26642126 0.54580843 4293792000
3.4493411 0.26673278 0.5551672 4293792000
3.4416282 0.26624516 0.56220984 4293792000
3.4414039 0.26633653 0.56980586 4293792000
3.4269898 0.26532933 0.57436204 4293792000
3.4272211 0.26545554 0.58067667 4293792000
3.4351373 0.26617727 0.58763111 4293792000
3.4216897 0.26524338 0.59023988 4293792000
3.4445536 0.26712462 0.59843254 4293792000
3.4041984 0.2641027 0.5949297 4293661440
3.4184463 0.26531607 0.60024399 4293792000
3.4033487 0.26425189 0.59970576 4293661440
3.4031007 0.26434019 0.60107261 4293661440
3.4289622 0.26645738 0.60635233 4293792000
3.4289539 0.26656508 0.60635263 4293792000
3.4241569 0.26630041 0.60479689 4293792000
3.4370034 0.26740813 0.60564488 4293792000
3.4137874 0.26570976 0.59943819 4293792000
3.4365675 0.26759145 0.60060233 4293792000
3.4317579 0.26732543 0.59622866 4293792000
3.436372 0.26779345 0.59279501 4293792000
3.4435737 0.26846352 0.58910006 4293792000
3.4454002 0.26871482 0.58378577 4293792000
3.44753 0.26898989 0.57783663 4293792000
3.4484463 0.26917037 0.57100695 4293792000
3.4436293 0.26890323 0.56257457 4293792000
3.4449229 0.26911312 0.55449677 4293792000
3.4251711 0.26767841 0.54243898 4293792000
3.4358127 0.26861864 0.53459078 4293792000
3.4364936 0.2687805 0.52454644 4293792000
3.4613688 0.27083549 0.51751328 4293792000
3.4510686 0.27013862 0.50458485 4293792000
3.3985486 0.26672095 0.4115409 4293530880
3.4259231 0.26897761 0.39967248 4293661440
3.4507296 0.2710343 0.38682291 4293792000
3.4425526 0.27050087 0.3697696 4293661440
3.4261281 0.26931861 0.35153636 4293661440
3.4109104 0.2682302 0.33319077 4293661440
3.438597 0.27051616 0.31860319 4293661440
3.4302247 0.26996592 0.30022666 4293661440
3.400641 0.26774511 0.27986073 4293530880
3.3951871 0.26742303 0.26135686 4293530880
3.42555 0.26992288 0.24518868 4293661440
3.4323874 0.27057013 0.22686702 4293661440
3.3979199 0.26796052 0.20572162 4293530880
3.4212334 0.26990718 0.1879108 4293661440
3.4283433 0.27057648 0.1688343 4293661440
3.4263122 0.27052447 0.14909562 4293661440
3.3926978 0.26797768 0.12802686 4293530880
3.4065046 0.26917595 0.10872284 4293530880
3.4097104 0.26953706 0.088863753 4293530880
3.4112835 0.26976922 0.068838023 4293530880
3.3857932 0.26786047 0.048333038 4293530880
3.3951697 0.2687096 0.028368549 4293530880
3.4015522 0.26932228 0.0082550161 4293530880
3.3600814 0.26614499 -0.011775509 4293400320
3.377471 0.26762915 -0.031856816 4293400320
3.391464 0.26884517 -0.052057724 4293530880
3.4078398 0.27025101 -0.072418593 4293530880
3.3727915 0.26757824 -0.091499239 4293400320
3.4049494 0.27023709 -0.11228643 4293530880
3.4231622 0.2717908 -0.13278642 4293661440
3.4264479 0.27215999 -0.15268859 4293661440
3.3677723 0.2676059 -0.16934745 4293400320
3.4014676 0.2703909 -0.19032264 4293530880
3.4166181 0.27170327 -0.21032932 4293530880
3.4191582 0.27201337 -0.22942975 4293661440
3.3820693 0.26916966 -0.24543206 4293530880
3.418746 0.27219674 -0.26651397 4293661440
3.4377563 0.273819 -0.28622511 4293661440
3.4443879 0.27445611 -0.30472663 4293661440
3.4280066 0.27325919 -0.32080752 4293661440
3.4039485 0.27144903 -0.33561161 4293530880
3.431329 0.27374101 -0.35512957 4293661440
3.4332848 0.27400556 -0.37176573 4293661440
3.4349687 0.27424857 -0.38797605 4293661440
3.4111431 0.27245417 -0.40077195 4293661440
3.4378829 0.27469862 -0.41907004 4293792000
3.4485979 0.27566382 -0.43510827 4293792000
3.4530866 0.27613181 -0.44993567 4293792000
3.4606106 0.27684286 -0.46469942 4293792000
3.4488516 0.2760112 -0.47633293 4293792000
3.4195931 0.27377778 -0.48485655 4293661440
3.4241951 0.27425447 -0.49753821 4293661440
3.4283144 0.2746928 -0.50961214 4293792000
3.4428356 0.27596518 -0.52270943 4293792000
3.4292665 0.27498594 -0.53094792 4293792000
3.4254513 0.27478832 -0.54003489 4293792000
3.4408996 0.27613637 -0.55156684 4293792000
3.4309134 0.27544346 -0.55840123 4293792000
3.4275756 0.27528384 -0.56563944 4293792000
3.4166639 0.27451551 -0.57094198 4293792000
3.4101992 0.27410394 -0.57628977 4293661440
3.4190879 0.27492651 -0.58356464 4293792000
3.3902311 0.27271333 -0.58368951 4293661440
3.3770039 0.27175611 -0.58576441 4293661440
3.3901284 0.27291945 -0.59172344 4293661440
3.3896155 0.27298534 -0.59462428 4293661440
3.3854427 0.27275634 -0.59618431 4293661440
3.3763285 0.27212879 -0.59616917 4293661440
3.388778 0.27323937 -0.59926248 4293661440
3.3838286 0.27294728 -0.59858012 4293661440
3.4012985 0.27446401 -0.60115951 4293661440
3.4059212 0.27494472 -0.60075992 4293661440
3.4199691 0.27618688 -0.60130984 4293792000
3.4267924 0.27684629 -0.59987271 4293792000
3.4272728 0.27699345 -0.59661794 4293792000
3.4305811 0.27736932 -0.59315407 4293792000
3.4216897 0.27675861 -0.58689684 4293792000
3.4254754 0.27717313 -0.58213609 4293792000
3.4320445 0.2778132 -0.57715309 4293792000
3.4261503 0.27744445 -0.56940329 4293792000
3.42501 0.2774604 -0.56179684 4293792000
3.4236712 0.27746022 -0.55351281 4293792000
3.4048433 0.27604204 -0.54181248 4293661440
3.3816671 0.27427 -0.52890623 4293530880
3.398782 0.27576557 -0.52170634 4293661440
3.4294751 0.27836436 -0.51584738 4293792000
3.4287584 0.27841461 -0.50458068 4293792000
3.4165981 0.27753523 -0.49109736 4293661440
3.4012828 0.27639872 -0.4766975 4293661440
3.3912599 0.27569148 -0.46259004 4293530880
3.3962033 0.27620074 -0.45001802 4293661440
3.4162352 0.27793792 -0.43883625 4293661440
3.4252689 0.27878118 -0.42562798 4293661440
3.3713939 0.27450293 -0.40431985 4293530880
3.3830252 0.27555695 -0.390596 4293530880
3.4044304 0.27740812 -0.37741366 4293661440
3.4184284 0.27865687 -0.36282495 4293661440
3.4145544 0.27844903 -0.34588864 4293661440
3.3629329 0.27434579 -0.32400656 4293400320
3.3845725 0.27621818 -0.30897078 4293530880
3.4010389 0.27766958 -0.29292756 4293530880
3.3870056 0.27663097 -0.27392393 4293530880
3.3688354 0.27525347 -0.25445586 4293400320
3.3829436 0.27651319 -0.23716773 4293530880
3.4030728 0.2782661 -0.21985519 4293530880
3.4013634 0.27823392 -0.20079076 4293530880
3.4016988 0.27836895 -0.1816361 4293530880
3.3823535 0.27689284 -0.1613414 4293530880
3.392874 0.27786139 -0.14234595 4293530880
3.4015608 0.27868038 -0.12300853 4293530880
3.3811178 0.27711248 -0.10255343 4293400320
3.3984871 0.27864352 -0.083151668 4293530880
3.4022951 0.27906334 -0.063203923 4293530880
3.4090824 0.27972788 -0.043180685 4293530880
3.3944113 0.27863142 -0.022885781 4293530880
3.4134142 0.28029925 -0.0027673366 4293530880
3.4221776 0.2811271 0.0175272 4293530880
3.4047253 0.2798011 0.037617229 4293530880
3.4260962 0.28166571 0.058118712 4293661440
3.4453225 0.28335533 0.078761011 4293661440
3.4441988 0.28337184 0.09895996 4293661440
3.3714623 0.27749407 0.11656305 4293400320
3.4377208 0.28305632 0.1388054 4293661440
3.4367218 0.28308278 0.15856071 4293661440
3.4396372 0.28343171 0.17833568 4293661440
3.2444491 0.26745051 0.1865591 4293008640
3.454334 0.28486127 0.21794178 4293661440
3.4489183 0.28452376 0.23664686 4293661440
3.4352384 0.28350386 0.25442219 4293661440
3.2435782 0.2677891 0.25763446 4293008640
3.4669669 0.28634167 0.2936821 4293792000
3.4754956 0.28715602 0.31243017 4293792000
3.4505677 0.28520554 0.32774386 4293792000
3.400842 0.28120303 0.33996564 4293530880
3.2598567 0.26964861 0.3417536 4293139200
3.4575553 0.28611118 0.37892196 4293792000
3.4529848 0.28584221 0.39442027 4293792000
3.4375644 0.28467441 0.40814817 4293792000
3.3971453 0.28143466 0.41820475 4293530880
3.3273079 0.27575424 0.42369774 4293400320
3.4709713 0.2877703 0.45619279 4293922560
3.4724648 0.28800395 0.47008085 4293922560
3.4587955 0.28697968 0.48133811 4293792000
3.4333873 0.28498012 0.49027112 4293792000
3.4203017 0.28400216 0.50026786 4293661440
3.34095 0.27751893 0.49969384 4293400320
3.4548547 0.28708982 0.52754718 4293792000
3.4482391 0.28664917 0.53672916 4293792000
3.4431291 0.28633329 0.54549456 4293792000
3.4428086 0.28641555 0.55437499 4293792000
3.4360843 0.28596485 0.56156683 4293792000
3.4397936 0.28638235 0.56980586 4293792000
3.4293175 0.28561863 0.57502133 4293792000
3.4256163 0.28541875 0.58067667 4293792000
3.4110856 0.28431594 0.58379018 4293661440
3.4200864 0.28517437 0.59023988 4293792000
3.4291918 0.28604209 0.59604317 4293792000
3.4236803 0.28569067 0.59861511 4293792000
3.4021184 0.28399903 0.59765738 4293661440
3.3978255 0.28374815 0.59901363 4293661440
3.40641 0.28457281 0.60193974 4293661440
3.4013739 0.28425971 0.60175651 4293661440
3.4224355 0.28612813 0.60548449 4293792000
3.4078259 0.28501454 0.6021955 4293661440
3.4255724 0.28660712 0.60391456 4293792000
3.4072735 0.28518391 0.59857595 4293661440
3.4162974 0.28604728 0.59734088 4293792000
3.4301422 0.28731501 0.59622866 4293792000
3.4308252 0.28748074 0.59211701 4293792000
3.441951 0.28852195 0.58910006 4293792000
3.4437761 0.28878388 0.58378577 4293792000
3.4459043 0.28907135 0.57783663 4293792000
3.4517355 0.28966972 0.57182139 4293792000
3.4420042 0.28896195 0.56257457 4293792000
3.4295218 0.28802255 0.55227852 4293792000
3.4274907 0.28796041 0.54306281 4293792000
3.4154799 0.28705937 0.53167832 4293661440
3.4304378 0.28842506 0.52386963 4293792000
3.4512665 0.2902855 0.51624697 4293792000
3.4494362 0.29024068 0.50458485 4293792000
3.3969371 0.28651708 0.4115409 4293530880
3.4143999 0.28809804 0.39851722 4293661440
3.4490919 0.29113439 0.38682291 4293792000
3.440918 0.2905533 0.3697696 4293661440
3.4106231 0.28810307 0.35011175 4293661440
3.4092896 0.28809831 0.33319077 4293661440
3.4181104 0.28895184 0.31685561 4293661440
3.4196594 0.28919101 0.29944435 4293661440
3.3881025 0.28662953 0.27896157 4293530880
3.3935714 0.28719956 0.26135686 4293530880
3.4122322 0.28888679 0.24435176 4293530880
3.4251881 0.29009205 0.22649905 4293661440
3.3963788 0.28775954 0.20572633 4293530880
3.4188101 0.28976822 0.18786722 4293661440
3.4316847 0.29096803 0.16907948 4293661440
3.4296553 0.29090446 0.14931232 4293661440
3.3761432 0.28647238 0.12746297 4293400320
3.3985538 0.2884815 0.10852089 4293530880
3.3957751 0.28835312 0.088542856 4293530880
3.4036798 0.28913203 0.068717413 4293530880
3.3638399 0.28585419 0.048042607 4293400320
3.3845792 0.28772369 0.028293585 4293530880
3.3949435 0.28871217 0.00824292 4293530880
3.3624594 0.28605607 -0.011789483 4293400320
3.3758543 0.28730246 -0.031856816 4293400320
3.3848588 0.28817588 -0.051981226 4293530880
3.4062073 0.2901012 -0.072418593 4293530880
3.3572309 0.28603622 -0.091120765 4293400320
3.3883793 0.28879729 -0.11179359 4293530880
3.4065859 0.29045686 -0.13220683 4293530880
3.4248042 0.29211858 -0.15268859 4293661440
3.3522241 0.28603396 -0.16864656 4293400320
3.3932719 0.28964379 -0.18995526 4293530880
3.4026945 0.29055575 -0.20957282 4293530880
3.4026031 0.29065564 -0.22842865 4293530880
3.3755612 0.28845251 -0.24507758 4293530880
3.4121351 0.29168585 -0.26612657 4293661440
3.4345171 0.29370785 -0.28609303 4293661440
3.4274352 0.29321069 -0.3033728 4293661440
3.4243848 0.2930581 -0.32062292 4293661440
3.3999736 0.2910766 -0.33538121 4293530880
3.4142182 0.29240415 -0.35352898 4293661440
3.4253345 0.29346457 -0.37108368 4293661440
3.4135883 0.29256624 -0.3857471 4293661440
3.4004917 0.29155138 -0.39971328 4293661440
3.4289491 0.29409981 -0.41818282 4293661440
3.4297814 0.29427972 -0.43294317 4293661440
3.4425271 0.29548225 -0.44877645 4293792000
3.4451134 0.29581329 -0.46284202 4293792000
3.4466326 0.29605281 -0.47625661 4293792000
3.3991959 0.29208577 -0.48219758 4293661440
3.4087346 0.29301327 -0.49553141 4293661440
3.4141939 0.29359061 -0.5077588 4293661440
3.4273779 0.2948328 -0.5206145 4293792000
3.4239643 0.29464749 -0.53038377 4293792000
3.4237921 0.29474103 -0.54003489 4293792000
3.4214466 0.29464743 -0.54871446 4293792000
3.419416 0.29458076 -0.55679977 4293792000
3.4219811 0.29491004 -0.56499016 4293792000
3.4150066 0.29441705 -0.57094198 4293792000
3.4124742 0.29430673 -0.57695419 4293792000
3.3977845 0.29314736 -0.58021027 4293661440
3.3984041 0.29330841 -0.58538091 4293661440
3.3841989 0.29218948 -0.58729774 4293661440
3.3884807 0.29266641 -0.59172344 4293661440
3.3753607 0.29164004 -0.5924117 4293661440
3.3749647 0.29171264 -0.59462833 4293661440
3.3599677 0.29052275 -0.5935691 4293530880
3.3822229 0.29255411 -0.59839451 4293661440
3.3733506 0.29189345 -0.59701735 4293661440
3.4045475 0.29470065 -0.60202706 4293661440
3.3993554 0.29435882 -0.59989417 4293661440
3.4045634 0.29491755 -0.59889317 4293661440
3.4009726 0.29471415 -0.59564334 4293661440
3.4049747 0.29516873 -0.59302562 4293661440
3.4190888 0.29650047 -0.5914557 4293792000
3.4156015 0.29630616 -0.58613873 4293792000
3.4090683 0.29584733 -0.57963097 4293661440
3.4116993 0.29618362 -0.57401216 4293661440
3.4146473 0.29654762 -0.56776905 4293792000
3.4109035 0.29633045 -0.55975664 4293661440
3.4072433 0.29612032 -0.55112642 4293661440
3.3894022 0.29467705 -0.53961933 4293661440
3.3849337 0.29439571 -0.52967638 4293661440
3.3971176 0.29556289 -0.52170634 4293661440
3.4041498 0.29628247 -0.51228899 4293661440
3.4247611 0.29818481 -0.50423956 4293792000
3.4214804 0.29800749 -0.4920404 4293661440
3.4022553 0.29644069 -0.47706777 4293661440
3.3746665 0.29414368 -0.46055254 4293530880
3.3937492 0.29591441 -0.44991368 4293661440
3.4112422 0.29754767 -0.4384101 4293661440
3.4097972 0.29752958 -0.42391369 4293661440
3.37378 0.29449362 -0.40480492 4293530880
3.3705618 0.29431939 -0.38934842 4293530880
3.4011753 0.29710025 -0.3772383 4293661440
3.4159951 0.29850292 -0.36274511 4293661440
3.4115844 0.29822546 -0.34575793 4293661440
3.3563194 0.29350072 -0.32352862 4293400320
3.3666844 0.29451367 -0.30748925 4293400320
3.3854678 0.29626399 -0.29173017 4293530880
3.3853364 0.29635966 -0.27392393 4293530880
3.3622077 0.29444137 -0.2540805 4293400320
3.3812752 0.29621825 -0.23716773 4293530880
3.3858888 0.29672959 -0.218853 4293530880
3.3976991 0.29787216 -0.20067351 4293530880
3.3950455 0.29774702 -0.18137038 4293530880
3.3717275 0.29580876 -0.160914 4293400320
3.3888531 0.2974185 -0.14224754 4293530880
3.39938 0.29845002 -0.12299047 4293530880
3.3637168 0.29542542 -0.10207611 4293400320
3.3868475 0.29756415 -0.082907885 4293530880
3.3993154 0.29876718 -0.063179836 4293530880
3.397434 0.29870939 -0.043054458 4293530880
3.397711 0.2988413 -0.022919379 4293530880
3.4117234 0.30018175 -0.0027673366 4293530880
3.4254622 0.30149904 0.017552722 4293661440
3.398057 0.29919448 0.037562177 4293530880
3.424397 0.30162209 0.058118712 4293661440
3.4436131 0.30342367 0.078761011 4293661440
3.4424894 0.30343366 0.09895996 4293661440
3.3812077 0.2981391 0.11695805 4293530880
3.4320319 0.30272922 0.13864458 4293661440
3.44397 0.30389127 0.1589741 4293661440
3.4279795 0.30258882 0.17781965 4293661440
3.2328908 0.28547063 0.18598697 4293008640
3.4436684 0.30419174 0.21737698 4293661440
3.447202 0.30461302 0.23664686 4293661440
3.4331365 0.30347881 0.25439313 4293661440
3.2379909 0.28633106 0.25731882 4293008640
3.4652398 0.30653608 0.2936821 4293792000
3.4688029 0.30696112 0.311984 4293792000
3.4607601 0.30635896 0.32887593 4293792000
3.3941901 0.30057341 0.33946997 4293530880
3.161773 0.28009176 0.33163622 4292747520
3.4607809 0.30668953 0.37946483 4293792000
3.451261 0.30595517 0.39442027 4293792000
3.4318907 0.30434665 0.40767813 4293661440
3.3905046 0.30078381 0.41759589 4293530880
3.320704 0.29469669 0.42306826 4293400320
3.454421 0.30667281 0.4542447 4293792000
3.4564731 0.30696443 0.46815017 4293792000
3.4337749 0.30505738 0.47809538 4293792000
3.4129319 0.30331373 0.48759428 4293661440
3.3988757 0.30217215 0.49738312 4293661440
3.3343503 0.29654121 0.49895671 4293400320
3.4481997 0.30677563 0.52679497 4293792000
3.4415889 0.30629644 0.53596276 4293792000
3.4414024 0.30638883 0.54549456 4293792000
3.4459989 0.30690715 0.5551672 4293792000
3.4245288 0.30510345 0.55995929 4293792000
3.4331529 0.3059805 0.56899148 4293792000
3.4275954 0.3055937 0.57502133 4293792000
3.4042525 0.30362034 0.57734537 4293661440
3.4180565 0.30495971 0.58527738 4293792000
3.4085505 0.30421954 0.58854491 4293661440
3.4176528 0.30514017 0.59433645 4293792000
3.4170516 0.30519468 0.59775686 4293792000
3.3866704 0.30258843 0.59524322 4293661440
3.3912096 0.30310139 0.59814847 4293661440
3.3909612 0.30318657 0.59951174 4293661440
3.4207201 0.30595565 0.60548425 4293792000
3.405997 0.30474663 0.60288018 4293661440
3.3972793 0.3040742 0.60063469 4293661440
3.4150155 0.30576983 0.60235727 4293792000
3.3967242 0.30423966 0.59702402 4293661440
3.414573 0.30594647 0.59734088 4293792000
3.4185963 0.30641523 0.59452194 4293792000
3.4379263 0.30825669 0.59364247 4293792000
3.4264662 0.30733764 0.58674628 4293792000
3.4371247 0.30840254 0.58295292 4293792000
3.4392498 0.30870211 0.57701254 4293792000
3.4361546 0.30853313 0.56952834 4293792000
3.4353471 0.3085694 0.5617708 4293792000
3.4277856 0.30799878 0.55227852 4293792000
3.4306738 0.30836692 0.54384255 4293792000
3.4088283 0.30651131 0.53091192 4293661440
3.4247606 0.30805233 0.52326787 4293792000
3.4406509 0.30959061 0.51492018 4293792000
3.4396021 0.30960518 0.50340164 4293792000
3.39521 0.30630347 0.4115409 4293530880
3.4126635 0.30798614 0.39851722 4293661440
3.4374392 0.31033099 0.3857123 4293661440
3.4352057 0.31023812 0.3693437 4293661440
3.3989787 0.3070741 0.34909418 4293530880
3.3926845 0.30661291 0.33173689 4293530880
3.4302528 0.31011677 0.31814331 4293661440
3.4218853 0.30946866 0.29979205 4293661440
3.381412 0.30591545 0.27855271 4293530880
3.3868754 0.306517 0.26097426 4293530880
3.410491 0.30876225 0.24435176 4293530880
3.4135022 0.30914298 0.22584155 4293661440
3.3847034 0.30664206 0.20512386 4293530880
3.4021473 0.30833015 0.18704714 4293530880
3.4240329 0.31042206 0.16878872 4293661440
3.4255586 0.31066889 0.14921023 4293661440
3.3744946 0.30614468 0.1274659 4293400320
3.395226 0.30813307 0.10847011 4293530880
3.4089711 0.30948848 0.08893244 4293530880
3.3969591 0.30850554 0.068616852 4293530880
3.3710797 0.30626199 0.048170671 4293400320
3.3900566 0.30809343 0.0283539 4293530880
3.3908579 0.30827364 0.0082372213 4293530880
3.3497844 0.30464566 -0.011751065 4293400320
3.3667984 0.30629963 -0.03178766 4293400320
3.3775494 0.3073847 -0.0518956 4293400320
3.3892245 0.30855459 -0.072094522 4293530880
3.3584974 0.30586359 -0.091201961 4293400320
3.3816626 0.30808038 -0.11162931 4293530880
3.3942909 0.30933839 -0.13179737 4293530880
3.4081209 0.31070673 -0.15202293 4293530880
3.355474 0.30601338 -0.16889687 4293400320
3.3915269 0.30940878 -0.18995526 4293530880
3.3919978 0.3095592 -0.20902155 4293530880
3.3998618 0.31038457 -0.22836213 4293530880
3.3638909 0.30720723 -0.24435607 4293400320
3.4086316 0.31140119 -0.26599032 4293530880
3.4228234 0.3128061 -0.28526592 4293661440
3.4207089 0.31272122 -0.30293354 4293661440
3.3988223 0.31082803 -0.31839368 4293530880
3.3958905 0.31066748 -0.33515131 4293530880
3.4107144 0.31213167 -0.35334849 4293661440
3.4087152 0.31205672 -0.36947393 4293661440
3.4107134 0.31234768 -0.38562137 4293661440
3.3993342 0.31141329 -0.39978373 4293661440
3.4060712 0.31213835 -0.41560742 4293661440
3.4224789 0.31375042 -0.43224478 4293661440
3.438421 0.31532082 -0.44847307 4293792000
3.4361029 0.31521708 -0.46187037 4293792000
3.434984 0.31522328 -0.47489274 4293792000
3.3925064 0.31143266 -0.48149785 4293661440
3.4051986 0.31270567 -0.49527386 4293661440
3.4061649 0.3129023 -0.50682724 4293661440
3.4183598 0.31413087 -0.51951385 4293661440
3.415988 0.31402114 -0.52942264 4293661440
3.4082446 0.31341729 -0.53786153 4293661440
3.4138489 0.31404081 -0.5477801 4293661440
3.4137099 0.31413618 -0.55615926 4293661440
3.4103789 0.31393772 -0.56336707 4293661440
3.404393 0.31349453 -0.56946325 4293661440
3.4018641 0.31336945 -0.57545924 4293661440
3.4009273 0.31339088 -0.58104885 4293661440
3.3770092 0.31129384 -0.58199811 4293661440
3.363796 0.31018245 -0.58406073 4293530880
3.3631732 0.31023157 -0.58760971 4293530880
3.3686998 0.31084809 -0.59155047 4293530880
3.354573 0.30965084 -0.5913434 4293530880
3.358218 0.31009367 -0.5935691 4293530880
3.3755577 0.31180176 -0.59752661 4293661440
3.3715928 0.31154236 -0.59701735 4293661440
3.3890436 0.31326222 -0.59959805 4293661440
3.3926792 0.31370577 -0.59902835 4293661440
3.3978834 0.31429464 -0.59803003 4293661440
3.4037154 0.31494194 -0.59643495 4293661440
3.4149826 0.31609267 -0.5950793 4293792000
3.4035656 0.31514376 -0.58907801 4293661440
3.4084175 0.31570101 -0.58521163 4293661440
3.4013996 0.31515875 -0.57862949 4293661440
3.4000955 0.31514564 -0.57235909 4293661440
3.403038 0.31552622 -0.56613481 4293661440
3.3979602 0.31516308 -0.55792445 4293661440
3.3867824 0.31423363 -0.54810369 4293661440
3.3764062 0.31337789 -0.53783184 4293530880
3.3672976 0.31263918 -0.52719277 4293530880
3.3757381 0.31352982 -0.51869482 4293530880
3.4000463 0.31589523 -0.51193976 4293661440
3.4125261 0.31716287 -0.5027017 4293661440
3.4043133 0.31650743 -0.4898285 4293661440
3.3853815 0.31485456 -0.47495085 4293530880
3.3659925 0.31315798 -0.45960999 4293530880
3.3797712 0.31454697 -0.44829592 4293530880
3.3956239 0.31612995 -0.43663216 4293661440
3.3991127 0.31656247 -0.42280746 4293661440
3.3670638 0.31368443 -0.40421149 4293530880
3.3598876 0.31312233 -0.38831952 4293530880
3.3894901 0.31598854 -0.37614006 4293530880
3.4042964 0.31747675 -0.36169311 4293661440
3.4008732 0.31726527 -0.34485388 4293530880
3.3436534 0.31203324 -0.32247749 4293400320
3.3738356 0.31495678 -0.30830473 4293530880
3.3787241 0.31552023 -0.29130253 4293530880
3.3835521 0.31607831 -0.27392393 4293530880
3.3445528 0.31254113 -0.25287968 4293400320
3.3779061 0.31576496 -0.23705643 4293530880
3.37516 0.31561524 -0.21827468 4293530880
3.3810833 0.31627625 -0.19979759 4293530880
3.3911777 0.31732801 -0.18125945 4293530880
3.3683589 0.31529948 -0.16083819 4293400320
3.3847244 0.31693867 -0.14214934 4293530880
3.3976612 0.31825772 -0.12299328 4293530880
3.3569624 0.31455186 -0.10192504 4293400320
3.3843009 0.31722078 -0.082889386 4293530880
3.3935351 0.31819388 -0.063105792 4293530880
3.3906581 0.31803158 -0.042991344 4293530880
3.3909342 0.31816491 -0.022885781 4293530880
3.4041829 0.31951591 -0.0027626834 4293530880
3.4225285 0.32134628 0.017546983 4293661440
3.3872962 0.31814563 0.03746308 4293530880
3.4266334 0.32194892 0.058187518 4293661440
3.4467638 0.32394949 0.078874901 4293661440
3.430711 0.32254949 0.098673724 4293661440
3.3580501 0.31582445 0.11621869 4293400320
3.425236 0.32225186 0.13844353 4293661440
3.4331899 0.323109 0.15856071 4293661440
3.4172099 0.32171336 0.17735521 4293661440
3.2311728 0.30430129 0.18598697 4293008640
3.4351218 0.32361743 0.21695283 4293661440
3.4390013 0.32409191 0.23620951 4293661440
3.4263456 0.32300782 0.2540251 4293661440
3.2263429 0.30425546 0.25652969 4293008640
3.4584348 0.32625216 0.2932615 4293792000
3.4669557 0.32716587 0.311984 4293792000
3.4351292 0.32427138 0.3266142 4293661440
3.402288 0.32127905 0.34046131 4293530880
3.1650383 0.29897583 0.33215579 4292747520
3.4539869 0.32637995 0.37892196 4293792000
3.4353545 0.32472819 0.39281198 4293661440
3.4201727 0.32340154 0.40650308 4293661440
3.3798013 0.31969127 0.41649994 4293530880
3.3139925 0.31357154 0.4224388 4293269760
3.4436917 0.32595289 0.45307586 4293792000
3.4501274 0.32667142 0.46754056 4293792000
3.4414115 0.32595524 0.47941491 4293792000
3.4061787 0.32272613 0.48688984 4293661440
3.4019833 0.32243645 0.4981043 4293661440
3.3227196 0.31502923 0.49748245 4293400320
3.4316678 0.32546747 0.52455008 4293792000
3.4352605 0.32591709 0.53526384 4293792000
3.4317045 0.32568851 0.54424894 4293792000
3.4303911 0.3256726 0.55294901 4293792000
3.4177804 0.32458371 0.55915552 4293792000
3.4214897 0.32504445 0.56736273 4293792000
3.41201 0.32425204 0.57271391 4293792000
3.3984995 0.3230758 0.57667911 4293661440
3.411315 0.32440224 0.58443671 4293792000
3.3929846 0.32276666 0.58617198 4293661440
3.406008 0.32411352 0.59262973 4293661440
3.4152153 0.32509795 0.59775686 4293792000
3.3897529 0.32278162 0.59610546 4293661440
3.3795812 0.32192019 0.59641814 4293661440
3.4141083 0.32531726 0.60392898 4293792000
3.4090757 0.32494581 0.60374802 4293792000
3.4041636 0.3245855 0.60288018 4293661440
3.4042735 0.3247039 0.6021955 4293661440
3.4131761 0.32566124 0.60235727 4293792000
3.3948941 0.32402453 0.59702402 4293661440
3.4078288 0.32536712 0.59648263 4293792000
3.4128294 0.32595274 0.59383923 4293792000
3.423219 0.32705358 0.5914219 4293792000
3.4246173 0.32729572 0.58674628 4293792000
3.41662 0.32663974 0.57978815 4293792000
3.4236469 0.32742009 0.57470512 4293792000
3.4245539 0.32761538 0.56791234 4293792000
3.4226868 0.32754526 0.5600031 4293792000
3.4259329 0.32796451 0.55227852 4293792000
3.4150534 0.32703128 0.54165918 4293661440
3.4020662 0.32589549 0.53014547 4293661440
3.4229076 0.32800049 0.52326787 4293792000
3.4387887 0.3296313 0.51492018 4293792000
3.4288745 0.32878968 0.50210345 4293792000
3.3933678 0.32607949 0.4115409 4293530880
3.4019125 0.3270084 0.39747751 4293661440
3.4355729 0.33035296 0.3857123 4293661440
3.4405067 0.33093646 0.37011471 4293792000
3.4110813 0.32821423 0.35052764 4293661440
3.3868775 0.32599273 0.33134919 4293530880
3.4184761 0.32914254 0.31722352 4293661440
3.4061413 0.32806289 0.2985751 4293661440
3.3845327 0.32608899 0.27896157 4293530880
3.3859384 0.32633176 0.26104414 4293530880
3.4036701 0.32814863 0.24399588 4293530880
3.411643 0.32902551 0.22584155 4293661440
3.3729239 0.3253983 0.2045214 4293400320
3.3971097 0.32783931 0.18687202 4293530880
3.4131489 0.3294954 0.16834395 4293530880
3.4236903 0.33062163 0.14921023 4293661440
3.3676803 0.32531959 0.12727796 4293400320
3.3834245 0.32694775 0.1081521 4293530880
3.3971598 0.32838276 0.088672712 4293530880
3.3941953 0.32820383 0.068598486 4293530880
3.365257 0.32551232 0.048113752 4293400320
3.3692932 0.32600957 0.028195644 4293400320
3.3750694 0.3266755 0.0082033519 4293400320
3.3429759 0.32367516 -0.011733597 4293400320
3.3510225 0.32456049 -0.031656027 4293400320
3.3707249 0.32657567 -0.051819097 4293400320
