# .PCD v0.7 - Point Cloud Data file format
VERSION 0.7
FIELDS x y z rgba
SIZE 4 4 4 4
TYPE F F F U
COUNT 1 1 1 1
WIDTH 1101
HEIGHT 1
VIEWPOINT 0 0 0 1 0 0 0
POINTS 1101
DATA ascii
1.7695427 -1.5769776 0.25381094 4290005760
1.747062 -1.5568448 0.23936486 4289875200
1.7728746 -1.5797471 0.23124526 4290005760
1.7646075 -1.5722811 0.21831115 4290005760
1.7530478 -1.5618825 0.20486425 4289875200
1.7274994 -1.5390227 0.18981545 4289875200
1.7479472 -1.5571412 0.17964609 4289875200
1.7532549 -1.5617706 0.16754103 4289875200
1.744166 -1.5535761 0.15390605 4289875200
1.7273672 -1.5385156 0.13961466 4289744640
1.5757517 -1.4033873 0.11553755 4289091840
1.4700814 -1.309193 0.096643105 4288569600
1.4640211 -1.3037134 0.085040376 4288569600
1.4606715 -1.3006485 0.073575824 4288569600
1.4573505 -1.2976092 0.062085371 4288569600
1.4695128 -1.3083556 0.05111881 4288569600
1.459604 -1.2994512 0.039312676 4288569600
1.4520179 -1.2926158 0.027664918 4288569600
1.4477438 -1.2887293 0.016144622 4288569600
1.4467806 -1.2877904 0.0046858755 4288569600
1.4223925 -1.2660023 -0.0066524767 4288439040
1.4420712 -1.2834362 -0.018151743 4288439040
1.4494758 -1.2899446 -0.029690437 4288569600
1.4550637 -1.2948357 -0.041261725 4288569600
1.4397371 -1.2811158 -0.052118555 4288439040
1.4547623 -1.2944037 -0.064014249 4288569600
1.4591765 -1.2982491 -0.075524658 4288569600
1.4698664 -1.3076773 -0.087394044 4288569600
1.4440742 -1.2846498 -0.096884377 4288569600
1.4564358 -1.2955648 -0.10872528 4288569600
1.4651459 -1.3032304 -0.12033339 4288569600
1.4681995 -1.3058639 -0.13143295 4288569600
1.4520386 -1.2914082 -0.14057314 4288569600
1.4682775 -1.305768 -0.15269454 4288569600
1.4790326 -1.3152496 -0.16427042 4288700160
1.4787556 -1.3149201 -0.1745141 4288700160
1.4732469 -1.3099388 -0.18390815 4288700160
1.4629941 -1.3007401 -0.19240037 4288569600
1.4764471 -1.3126181 -0.2038161 4288700160
1.4843129 -1.3195276 -0.21437189 4288700160
1.4714485 -1.3080088 -0.22166488 4288700160
1.4665083 -1.3035346 -0.2297938 4288700160
1.4773206 -1.3130623 -0.24016711 4288700160
1.4869785 -1.3215629 -0.25020126 4288700160
1.4899567 -1.3241259 -0.25890079 4288700160
1.4878194 -1.322143 -0.26642391 4288700160
1.4798167 -1.3149481 -0.2725426 4288700160
1.4541472 -1.2920568 -0.27493143 4288569600
1.4730655 -1.3087834 -0.28539997 4288700160
1.4724019 -1.3081111 -0.29183421 4288700160
1.4754561 -1.3107415 -0.29868117 4288700160
1.4750283 -1.3102787 -0.30449164 4288700160
1.4751074 -1.310266 -0.31005502 4288700160
1.4740201 -1.3092173 -0.31501225 4288700160
1.4738657 -1.3089974 -0.3198005 4288700160
1.4760507 -1.310855 -0.32473224 4288700160
1.4741555 -1.3090891 -0.32839099 4288700160
1.4669926 -1.3026458 -0.33047155 4288700160
1.4690682 -1.3044063 -0.3342354 4288700160
1.4503767 -1.2877284 -0.33285263 4288569600
1.4574745 -1.2939483 -0.33697504 4288700160
1.4604872 -1.2965411 -0.33977589 4288700160
1.4522817 -1.289175 -0.33956432 4288569600
1.4521557 -1.2889817 -0.34083489 4288569600
1.4520801 -1.288833 -0.34171808 4288569600
1.4520555 -1.2887294 -0.34221298 4288569600
1.4601098 -1.2957959 -0.34421164 4288700160
1.4598974 -1.2955254 -0.34385887 4288700160
1.4710221 -1.305315 -0.34576836 4288700160
1.4612046 -1.2965214 -0.34235266 4288700160
1.4694828 -1.3037841 -0.34277499 4288700160
1.473138 -1.3069444 -0.34170488 4288700160
1.473142 -1.3068652 -0.33938396 4288700160
1.4739238 -1.307476 -0.3368448 4288700160
1.47014 -1.3040371 -0.33287629 4288700160
1.4775625 -1.3105379 -0.33104822 4288700160
1.4799057 -1.3125333 -0.32767373 4288700160
1.4701219 -1.3037734 -0.32125628 4288700160
1.4633223 -1.2976611 -0.31516883 4288700160
1.4604371 -1.2950205 -0.30959156 4288700160
1.4454403 -1.2816412 -0.3011544 4288569600
1.4461123 -1.282156 -0.29568744 4288569600
1.4630213 -1.2970657 -0.29312918 4288700160
1.469512 -1.3027377 -0.28805041 4288700160
1.4776725 -1.3098892 -0.2829048 4288700160
1.4580479 -1.2924111 -0.2721743 4288569600
1.4474015 -1.2828929 -0.2629579 4288569600
1.4575809 -1.2918336 -0.25722769 4288569600
1.4706084 -1.3032972 -0.2515865 4288700160
1.4751256 -1.3072177 -0.24411075 4288700160
1.4599679 -1.2937036 -0.23316754 4288569600
1.4450945 -1.2804428 -0.22218503 4288569600
1.4635849 -1.2967445 -0.21605976 4288569600
1.4707065 -1.3029718 -0.20785777 4288700160
1.4718282 -1.303883 -0.19852528 4288700160
1.4387065 -1.2744601 -0.18456571 4288439040
1.4463477 -1.2811478 -0.17579895 4288569600
1.456113 -1.2897161 -0.16697849 4288569600
1.4659334 -1.2983321 -0.15784539 4288569600
1.4451394 -1.2798345 -0.1453225 4288569600
1.4594589 -1.2924342 -0.13621655 4288569600
1.4696245 -1.3013541 -0.12639675 4288569600
1.460573 -1.293257 -0.11477962 4288569600
1.4554313 -1.2886229 -0.10345122 4288569600
1.451059 -1.2846704 -0.092137478 4288569600
1.4517359 -1.2851882 -0.081073001 4288569600
1.4513943 -1.2848046 -0.069861911 4288569600
1.4260181 -1.262261 -0.057570472 4288439040
1.4424998 -1.2767693 -0.046975642 4288439040
1.4548905 -1.2876549 -0.035971686 4288569600
1.4621195 -1.2939709 -0.024647914 4288569600
1.4528953 -1.2857262 -0.013036699 4288569600
1.4658221 -1.2970836 -0.0015815143 4288569600
1.4760255 -1.3060297 0.010060267 4288569600
1.4682144 -1.299036 0.021586722 4288569600
1.4745988 -1.304602 0.033286612 4288569600
1.5224105 -1.3468168 0.046310481 4288830720
1.7312868 -1.5315044 0.066190131 4289744640
1.6212645 -1.4340874 0.074582368 4289352960
1.7622038 -1.5586563 0.094671324 4289875200
1.7710296 -1.5663635 0.10871521 4290005760
1.7594254 -1.5560019 0.12136588 4289875200
1.6519082 -1.4608233 0.12637126 4289483520
1.7773504 -1.5716554 0.14918426 4290005760
1.7906413 -1.5833079 0.16345078 4290005760
1.7676481 -1.5628781 0.17415714 4290005760
1.6496419 -1.4584497 0.17430244 4289483520
1.8031144 -1.5940341 0.20317586 4290136320
1.8135536 -1.6031611 0.21685748 4290136320
1.8113029 -1.6010703 0.22883883 4290136320
1.783682 -1.5765554 0.23716328 4290005760
1.6092856 -1.4223204 0.22439644 4289222400
1.8070521 -1.5970095 0.2633943 4290136320
1.8083206 -1.5980294 0.27471468 4290136320
1.7922493 -1.5837266 0.283005 4290136320
1.769006 -1.5630888 0.28961408 4290005760
1.7169536 -1.5169994 0.29075289 4289744640
1.8063684 -1.5958998 0.31571326 4290136320
1.8009392 -1.5910025 0.32419753 4290136320
1.7878907 -1.5793751 0.33084843 4290136320
1.7684475 -1.5621006 0.33578035 4290005760
1.7517105 -1.5472186 0.3406724 4290005760
1.712098 -1.5121347 0.34047547 4289744640
1.686445 -1.4893835 0.34238422 4289614080
1.6284319 -1.4380581 0.33699566 4289352960
1.6314911 -1.4406685 0.3436414 4289352960
1.5785562 -1.3938367 0.33792573 4289222400
1.5883616 -1.4024059 0.34509948 4289222400
1.5952413 -1.408391 0.35128939 4289222400
1.5977226 -1.4104923 0.35613 4289222400
1.5943335 -1.4074113 0.35924658 4289222400
1.5939494 -1.4069831 0.36261293 4289222400
1.5965699 -1.409207 0.36624426 4289222400
1.5169715 -1.3388649 0.3504625 4288961280
1.5064098 -1.3294591 0.35007626 4288830720
1.5062414 -1.3292263 0.35168132 4288830720
1.5061246 -1.3290391 0.35288665 4288830720
1.5163989 -1.3380206 0.35611892 4288961280
1.5890245 -1.4020143 0.37360212 4289222400
1.5853761 -1.3987067 0.37273416 4289222400
1.5928613 -1.4052215 0.37404513 4289222400
1.599665 -1.4111344 0.37475219 4289352960
1.5998776 -1.4112326 0.37347254 4289352960
1.5861075 -1.3989975 0.36850691 4289222400
1.5864261 -1.3991899 0.3663986 4289222400
1.586797 -1.3994284 0.36387348 4289222400
1.5768677 -1.3905835 0.35858038 4289222400
1.6333181 -1.4402739 0.36786044 4289483520
1.6301514 -1.4373904 0.36317033 4289352960
1.6805933 -1.4817739 0.3698732 4289614080
1.7178583 -1.5145344 0.37300122 4289744640
1.7259619 -1.5215825 0.36922985 4289875200
1.7540038 -1.5462059 0.36917487 4290005760
1.7853417 -1.5737315 0.36917585 4290136320
1.8053581 -1.5912746 0.36621705 4290136320
1.8150828 -1.5997448 0.36063161 4290266880
1.8048592 -1.5906334 0.35067481 4290136320
1.7773581 -1.5658048 0.28595418 4290005760
1.7894499 -1.5763576 0.27735385 4290136320
1.8049046 -1.5898712 0.26880011 4290136320
1.7891226 -1.5758696 0.25529975 4290005760
1.7658597 -1.5552809 0.24069557 4290005760
1.7879905 -1.5746728 0.23201628 4290005760
1.7832342 -1.5703846 0.21947902 4290005760
1.768066 -1.5569284 0.20555398 4290005760
1.7513735 -1.5421315 0.19144556 4289875200
1.7621952 -1.5515621 0.18017468 4289875200
1.7664629 -1.5552212 0.16792987 4290005760
1.7711394 -1.5592396 0.15547636 4290005760
1.7287973 -1.5218669 0.13900484 4289744640
1.6120402 -1.4189953 0.11758325 4289222400
1.4893578 -1.3109213 0.097399391 4288700160
1.4790719 -1.3017852 0.085464641 4288700160
1.4719558 -1.2954401 0.07375402 4288569600
1.4761212 -1.2990236 0.062551908 4288569600
1.478108 -1.3006898 0.051142842 4288569600
1.4738858 -1.296892 0.039481875 4288569600
1.4587474 -1.2834904 0.027638214 4288569600
1.4604204 -1.284881 0.016189439 4288569600
1.4357965 -1.2631367 0.0046130354 4288439040
1.4342947 -1.2617357 -0.0066877473 4288439040
1.4461817 -1.2721119 -0.018124849 4288439040
1.4531928 -1.2781982 -0.029629305 4288569600
1.4645483 -1.2881047 -0.041333783 4288569600
1.4471568 -1.2727277 -0.052134946 4288439040
1.465818 -1.2890581 -0.064187177 4288569600
1.4704472 -1.2930471 -0.075735517 4288569600
1.4811908 -1.302412 -0.087634183 4288700160
1.4582645 -1.2821716 -0.097353339 4288569600
1.4639387 -1.2870791 -0.10874413 4288569600
1.4764413 -1.297989 -0.12065902 4288569600
1.4727643 -1.2946745 -0.13118562 4288569600
1.4679536 -1.2903637 -0.14140555 4288569600
1.4795833 -1.3005041 -0.15310217 4288700160
1.486842 -1.3068014 -0.16431229 4288700160
1.4963988 -1.3151177 -0.17571242 4288700160
1.4914671 -1.3107004 -0.18524979 4288700160
1.478002 -1.298785 -0.19339925 4288700160
1.4840479 -1.3040153 -0.20383696 4288700160
1.4977332 -1.315957 -0.21522337 4288700160
1.4864879 -1.3059937 -0.2228045 4288700160
1.4777871 -1.2982671 -0.23039594 4288700160
1.4886527 -1.30773 -0.24079072 4288700160
1.5011767 -1.3186482 -0.25131747 4288830720
1.5050745 -1.3219883 -0.26020902 4288830720
1.5052086 -1.3220223 -0.26817784 4288830720
1.4985958 -1.316131 -0.27460775 4288830720
1.4720446 -1.2927306 -0.2769092 4288700160
1.4732072 -1.2936697 -0.2839846 4288700160
1.4836928 -1.3027948 -0.29258469 4288700160
1.4830457 -1.3021442 -0.29869816 4288700160
1.4892994 -1.3075521 -0.30588076 4288700160
1.4901181 -1.3081881 -0.3116231 4288700160
1.495701 -1.313006 -0.31802499 4288830720
1.4814454 -1.3004094 -0.31981441 4288700160
1.4873493 -1.3055091 -0.32555687 4288700160
1.4891496 -1.3070065 -0.33004615 4288700160
1.4782416 -1.2973504 -0.3313131 4288700160
1.4795856 -1.2984477 -0.33491626 4288700160
1.4740669 -1.2935226 -0.33656776 4288700160
1.475337 -1.2945552 -0.3393679 4288700160
1.4679956 -1.2880318 -0.3397823 4288700160
1.46345 -1.283962 -0.34043071 4288700160
1.4596207 -1.2805213 -0.3408387 4288569600
1.466948 -1.2868679 -0.34345394 4288700160
1.4749918 -1.2938422 -0.34584191 4288700160
1.4676148 -1.2872896 -0.34421131 4288700160
1.478507 -1.2967614 -0.34645954 4288700160
1.4770923 -1.2954384 -0.34541652 4288700160
1.4798229 -1.2977509 -0.34493706 4288700160
1.4805759 -1.298329 -0.3435902 4288700160
1.4836719 -1.3009615 -0.34238052 4288700160
1.4891675 -1.3056976 -0.34131196 4288700160
1.4918743 -1.307988 -0.33919242 4288830720
1.4851083 -1.3019735 -0.33453307 4288700160
1.4962791 -1.3116837 -0.33351266 4288830720
1.4875097 -1.3039135 -0.32765681 4288700160
1.4813862 -1.2984633 -0.32204437 4288700160
1.4819773 -1.2988993 -0.31753471 4288700160
1.4753678 -1.2930243 -0.31113586 4288700160
1.4632695 -1.2823399 -0.30328697 4288569600
1.4602323 -1.2795972 -0.29702291 4288569600
1.4737037 -1.2913203 -0.2937327 4288700160
1.4845021 -1.3006998 -0.28947183 4288700160
1.492708 -1.3078068 -0.28429112 4288700160
1.475966 -1.2930566 -0.2740778 4288700160
1.4615433 -1.2803402 -0.26413548 4288569600
1.4687953 -1.2866116 -0.25784543 4288569600
1.4856219 -1.3012686 -0.25281727 4288700160
1.4827005 -1.2986273 -0.2440698 4288700160
1.4741873 -1.2910892 -0.23419319 4288700160
1.4629774 -1.2811904 -0.22374158 4288569600
1.4710991 -1.2882214 -0.21601377 4288569600
1.4887311 -1.3035789 -0.20928229 4288700160
1.4831265 -1.2985889 -0.19897772 4288700160
1.4573257 -1.2759174 -0.18594891 4288569600
1.4680609 -1.2852348 -0.17747432 4288569600
1.4785796 -1.2943615 -0.16863446 4288700160
1.4772065 -1.2930776 -0.15819101 4288569600
1.4543226 -1.2729653 -0.14544258 4288569600
1.4707007 -1.2872195 -0.13650623 4288569600
1.4846741 -1.2993672 -0.12697849 4288700160
1.471822 -1.2880375 -0.11501163 4288569600
1.4696606 -1.2860645 -0.10386664 4288569600
1.4652673 -1.2821387 -0.092500955 4288569600
1.4734682 -1.289233 -0.081801318 4288569600
1.4673575 -1.283805 -0.070203625 4288569600
1.4051771 -1.2293248 -0.056375191 4288308480
1.4442195 -1.263401 -0.046724483 4288439040
1.4742371 -1.2895787 -0.036194555 4288569600
1.4733776 -1.2887452 -0.024640681 4288569600
1.4678692 -1.2838457 -0.013033059 4288569600
1.4770982 -1.2918357 -0.0015135987 4288569600
1.4835893 -1.2974304 0.010133134 4288569600
1.4870284 -1.3003556 0.021825431 4288700160
1.4896805 -1.3025922 0.033529758 4288700160
1.5477761 -1.3533057 0.046919458 4288961280
1.7405261 -1.5217412 0.066291511 4289744640
1.6370924 -1.4312184 0.075008981 4289352960
1.7845731 -1.5600536 0.09547431 4290005760
1.7906278 -1.5652474 0.10944826 4290005760
1.7581201 -1.5367337 0.12074624 4289875200
1.6784062 -1.4669647 0.1278283 4289483520
1.8082416 -1.5803436 0.15109417 4290136320
1.8012997 -1.5741767 0.16367552 4290005760
1.7842046 -1.5591383 0.17498092 4290005760
1.6730974 -1.4619539 0.17596219 4289483520
1.8235967 -1.5933592 0.2045256 4290136320
1.8370838 -1.6050417 0.21864042 4290266880
1.8205698 -1.5905128 0.22892441 4290136320
1.7812134 -1.556031 0.23571213 4290005760
1.625008 -1.4194832 0.22550957 4289352960
1.8162949 -1.5864762 0.26347548 4290136320
1.8287941 -1.5972927 0.27649131 4290266880
1.8126345 -1.5830781 0.2848452 4290136320
1.7885185 -1.5619173 0.29139355 4290005760
1.7361943 -1.5161263 0.29258597 4289875200
1.8230729 -1.5918919 0.3170839 4290266880
1.8190954 -1.588318 0.32586971 4290136320
1.8112079 -1.5813308 0.3335253 4290136320
1.781217 -1.5550478 0.336548 4290005760
1.7718468 -1.5467693 0.34289631 4290005760
1.7312812 -1.5112609 0.34259576 4289875200
1.6987891 -1.4828039 0.34318903 4289614080
1.6404775 -1.4318154 0.33781022 4289352960
1.6509925 -1.4409015 0.34602636 4289483520
1.5866239 -1.3846362 0.33796683 4289222400
1.5964792 -1.3931484 0.34513795 4289222400
1.6033939 -1.3990937 0.35132506 4289222400
1.6029148 -1.398587 0.35550332 4289222400
1.6054531 -1.4007128 0.35994235 4289222400
1.6020949 -1.3976942 0.36263916 4289222400
1.6047286 -1.3999032 0.36626723 4289222400
1.5180405 -1.324196 0.34894499 4288830720
1.5141076 -1.3206815 0.35009152 4288830720
1.5176499 -1.3236873 0.35255551 4288830720
1.5212437 -1.3267375 0.35462561 4288830720
1.5137562 -1.3201237 0.35369614 4288830720
1.5241361 -1.3290915 0.35652587 4288961280
1.5934772 -1.3894709 0.37273231 4289222400
1.6039698 -1.3985316 0.37473321 4289222400
1.6041272 -1.3985801 0.37387758 4289222400
1.6013705 -1.396088 0.37190732 4289222400
1.5942123 -1.3897593 0.36848989 4289222400
1.604931 -1.3990146 0.36876699 4289222400
1.5986198 -1.3934249 0.36469615 4289222400
1.5916133 -1.3872296 0.36006492 4289222400
1.6416639 -1.4307623 0.36782688 4289483520
1.6459169 -1.434378 0.36478081 4289483520
1.6928997 -1.4752288 0.37064469 4289614080
1.7039621 -1.4847746 0.36805567 4289744640
1.7347807 -1.511533 0.36917737 4289875200
1.7666895 -1.5392379 0.36989689 4290005760
1.8019258 -1.569838 0.37064776 4290136320
1.8179899 -1.5837327 0.36683661 4290266880
1.8273393 -1.5917765 0.36114836 4290266880
1.8252726 -1.5898753 0.35276121 4290266880
1.7969818 -1.564494 0.28763211 4290136320
1.8132076 -1.5785204 0.27959943 4290136320
1.8179337 -1.5825344 0.2693578 4290136320
1.8095717 -1.5751553 0.25690046 4290136320
1.7816921 -1.550789 0.24161626 4290005760
1.7971827 -1.5641726 0.23202258 4290005760
1.8008597 -1.5672735 0.22052251 4290005760
1.780912 -1.5498149 0.20599774 4290005760
1.7528685 -1.5253136 0.1906396 4289875200
1.7825351 -1.5510305 0.18133456 4290005760
1.7860764 -1.5540134 0.16894005 4290005760
1.7810599 -1.5495503 0.15556319 4290005760
1.7557551 -1.5274378 0.14046738 4289875200
1.6196263 -1.4089217 0.11754956 4289222400
1.5063174 -1.3102707 0.098022051 4288700160
1.5009933 -1.3055565 0.08630643 4288700160
1.4870578 -1.2933536 0.074149527 4288700160
1.487475 -1.2936343 0.062731899 4288700160
1.4922216 -1.29768 0.051389754 4288700160
1.4814564 -1.2882365 0.039505504 4288569600
1.4730308 -1.2808286 0.027791033 4288569600
1.4747127 -1.2822096 0.016290482 4288569600
1.423949 -1.237994 0.0045780637 4288308480
1.445434 -1.2565933 -0.0066771661 4288439040
1.4617275 -1.2706777 -0.018196488 4288569600
1.47122 -1.2788483 -0.029812656 4288569600
1.4768642 -1.283673 -0.041436236 4288569600
1.4651502 -1.2734107 -0.052480519 4288569600
1.4763616 -1.2830734 -0.064284332 4288569600
1.481768 -1.2876902 -0.075893357 4288569600
1.4963361 -1.3002677 -0.08804138 4288700160
1.4770595 -1.2834355 -0.09806738 4288569600
1.4865279 -1.2915808 -0.10982005 4288700160
1.4867666 -1.2917062 -0.12084348 4288700160
1.4946357 -1.2984605 -0.13241424 4288700160
1.4830183 -1.2882861 -0.14208725 4288569600
1.4939519 -1.2977017 -0.15375887 4288700160
1.4982353 -1.3013399 -0.16468468 4288700160
1.5120485 -1.3132545 -0.17660154 4288700160
1.4921911 -1.2959255 -0.18435177 4288700160
1.4961069 -1.2992438 -0.19472693 4288700160
1.4991745 -1.3018252 -0.20482136 4288700160
1.5071168 -1.3086389 -0.215424 4288700160
1.5083723 -1.3096459 -0.22488852 4288700160
1.4836742 -1.28812 -0.23009193 4288700160
1.5067855 -1.3081021 -0.2424383 4288700160
1.5172843 -1.3171331 -0.25267643 4288830720
1.5165404 -1.3164037 -0.26081261 4288830720
1.5098835 -1.3105422 -0.26759815 4288830720
1.5062832 -1.3073342 -0.27456906 4288830720
1.4833342 -1.2873347 -0.27757177 4288700160
1.488238 -1.2915084 -0.28538182 4288700160
1.5017619 -1.303162 -0.29460135 4288700160
1.5048404 -1.3057505 -0.30150709 4288830720
1.5006689 -1.3020482 -0.30661061 4288700160
1.5044745 -1.3052672 -0.31298894 4288830720
1.4996401 -1.3009903 -0.31720632 4288700160
1.5039531 -1.3046494 -0.32298926 4288830720
1.5016823 -1.3025968 -0.32699153 4288830720
1.5005084 -1.3014959 -0.33084342 4288830720
1.4932675 -1.2951332 -0.33295208 4288700160
1.4871682 -1.2897613 -0.33489633 4288700160
1.4890665 -1.2913256 -0.33824149 4288700160
1.4903411 -1.2923489 -0.34105623 4288700160
1.4792384 -1.2826397 -0.34062648 4288700160
1.4746681 -1.2785958 -0.34128162 4288700160
1.474539 -1.2784027 -0.34255993 4288700160
1.4811585 -1.2840602 -0.34500897 4288700160
1.4929632 -1.2942119 -0.34826994 4288700160
1.4825711 -1.2851217 -0.3459484 4288700160
1.4897977 -1.2913039 -0.34733069 4288700160
1.4973156 -1.2977378 -0.34836915 4288830720
1.4950351 -1.2956789 -0.34671816 4288700160
1.4994837 -1.2994518 -0.34621933 4288830720
1.4978735 -1.2979741 -0.34391439 4288830720
1.4994605 -1.2992667 -0.34194142 4288830720
1.4995071 -1.2992246 -0.33921573 4288830720
1.4964314 -1.2964774 -0.33539483 4288700160
1.5039326 -1.3028936 -0.33354309 4288830720
1.5064948 -1.3050305 -0.33018428 4288830720
1.5031347 -1.3020371 -0.32514751 4288830720
1.489555 -1.2901922 -0.31757569 4288700160
1.4791781 -1.2811228 -0.310397 4288700160
1.4744842 -1.2769765 -0.30410492 4288700160
1.4789048 -1.2807237 -0.29934293 4288700160
1.4887118 -1.2891345 -0.29527098 4288700160
1.499732 -1.298595 -0.29101464 4288700160
1.5070709 -1.3048668 -0.28563139 4288830720
1.4872512 -1.2876245 -0.27483639 4288700160
1.4727561 -1.2749941 -0.26487896 4288569600
1.4905403 -1.2903082 -0.26040733 4288700160
1.4932108 -1.2925379 -0.25289565 4288700160
1.496863 -1.2956171 -0.2452312 4288700160
1.4814497 -1.2821946 -0.23423603 4288700160
1.470449 -1.2725927 -0.22382951 4288569600
1.492892 -1.2919339 -0.21819285 4288700160
1.4963334 -1.2948298 -0.20937885 4288700160
1.4982235 -1.2963831 -0.20008212 4288700160
1.4647667 -1.2673532 -0.18605013 4288569600
1.4823347 -1.282472 -0.17839529 4288569600
1.4823611 -1.2824134 -0.16831587 4288569600
1.4915329 -1.290266 -0.15902659 4288700160
1.4692891 -1.2709432 -0.14630702 4288569600
1.4849993 -1.284451 -0.13725151 4288569600
1.4884795 -1.2873795 -0.12677869 4288700160
1.4936819 -1.291797 -0.11625149 4288700160
1.4881165 -1.2869021 -0.10476348 4288569600
1.4803029 -1.2800637 -0.093103997 4288569600
1.4769427 -1.277077 -0.081708319 4288569600
1.4820751 -1.2814335 -0.070680872 4288569600
1.4429513 -1.247527 -0.057728425 4288439040
1.4651937 -1.2666765 -0.047298044 4288569600
1.4817634 -1.2809198 -0.036333658 4288569600
1.4816535 -1.2807435 -0.024793981 4288569600
1.4890341 -1.2870417 -0.013296799 4288569600
1.4990144 -1.2955858 -0.0016735507 4288700160
1.4991812 -1.2956477 0.010041105 4288700160
1.4984035 -1.2948934 0.021733208 4288700160
1.5104165 -1.3051919 0.033674281 4288700160
1.5725564 -1.3588023 0.047272123 4288961280
1.7569771 -1.5180587 0.066402853 4289875200
1.6598204 -1.4340227 0.075498067 4289352960
1.8022001 -1.5569345 0.095747218 4290005760
1.8111107 -1.564533 0.10995672 4290005760
1.7746555 -1.5329437 0.12108552 4289875200
1.6907549 -1.4603779 0.12794632 4289483520
1.8174758 -1.5697324 0.15091413 4290136320
1.8218244 -1.5733883 0.16452001 4290136320
1.8114312 -1.5643131 0.17657138 4290136320
1.6959772 -1.4645165 0.17729786 4289614080
1.8434683 -1.5917774 0.20552698 4290266880
1.8464655 -1.5942641 0.21846536 4290266880
1.8449382 -1.5928442 0.23063731 4290266880
1.7970884 -1.5514343 0.23643905 4290005760
1.6476107 -1.4222991 0.2273353 4289352960
1.8473926 -1.5946594 0.26646081 4290266880
1.8396271 -1.5878556 0.2765559 4290266880
1.8324149 -1.5815299 0.28633469 4290266880
1.8089217 -1.5611541 0.29307032 4290136320
1.7593284 -1.5182571 0.29483628 4289875200
1.8428897 -1.5902675 0.31875786 4290266880
1.8367007 -1.5848262 0.32721281 4290266880
1.8103236 -1.5619671 0.33153659 4290136320
1.8008028 -1.5536538 0.33839357 4290136320
1.7371491 -1.4986409 0.3343567 4289744640
1.7543457 -1.5133803 0.34528366 4289875200
1.7074573 -1.4728386 0.34308377 4289614080
1.6563302 -1.4286461 0.33924654 4289483520
1.651935 -1.4247645 0.3443757 4289483520
1.5977077 -1.377907 0.33851829 4289222400
1.6083586 -1.3870045 0.34586462 4289222400
1.6115702 -1.3896859 0.35125369 4289222400
1.6140755 -1.3917577 0.35609731 4289222400
1.6069165 -1.3854969 0.35838434 4289222400
1.5330907 -1.3217596 0.34521008 4288961280
1.5260491 -1.3156052 0.34649965 4288830720
1.6021694 -1.3811406 0.36637726 4289222400
1.5218213 -1.3117937 0.35006097 4288830720
1.5216497 -1.3115624 0.35166934 4288830720
1.5252607 -1.3145913 0.35374317 4288830720
1.521464 -1.3112358 0.35368574 4288830720
1.521451 -1.3111413 0.35409161 4288830720
1.6015879 -1.3801132 0.37273601 4289222400
1.6054177 -1.3833255 0.37318358 4289222400
1.6055737 -1.3833719 0.3723391 4289222400
1.6125019 -1.3892531 0.37262356 4289222400
1.6097845 -1.3868238 0.37024051 4289222400
1.6101063 -1.387013 0.36812627 4289222400
1.6104811 -1.3872477 0.36559328 4289222400
1.599704 -1.3778769 0.36012211 4289222400
1.6462719 -1.4178972 0.36706102 4289352960
1.6542807 -1.4247046 0.36485612 4289483520
1.7052389 -1.4684976 0.37154493 4289614080
1.7163575 -1.4779786 0.36895424 4289744640
1.7540667 -1.5103546 0.37150085 4289875200
1.7623031 -1.5173502 0.36722881 4289875200
1.8178148 -1.5650465 0.37215409 4290136320
1.8399466 -1.5840003 0.36952913 4290266880
1.8403629 -1.5842581 0.36203155 4290266880
1.8412863 -1.5849521 0.35421404 4290266880
1.8165777 -1.5630918 0.28931004 4290136320
1.8366553 -1.5802673 0.28179383 4290266880
1.8423622 -1.5850768 0.27160683 4290266880
1.8224626 -1.5678567 0.257431 4290136320
1.7982147 -1.546898 0.24263141 4290005760
1.8168048 -1.5627906 0.23337638 4290136320
1.82126 -1.5665233 0.2218983 4290136320
1.7929085 -1.5420394 0.20634085 4290005760
1.7760478 -1.5274408 0.19218673 4289875200
1.7983214 -1.5464982 0.18201712 4290005760
1.8026391 -1.550113 0.16964491 4290005760
1.8035865 -1.5508289 0.15673326 4290005760
1.764601 -1.5172106 0.14045902 4289875200
1.649743 -1.4183651 0.11912663 4289352960
1.5225061 -1.3088901 0.098570317 4288700160
1.5047661 -1.2935569 0.086080521 4288700160
1.490759 -1.2814344 0.073951751 4288569600
1.5055785 -1.2940907 0.063166603 4288700160
1.5035274 -1.2922457 0.051508393 4288700160
1.4964993 -1.2861235 0.039694816 4288700160
1.4900373 -1.2804885 0.027958551 4288569600
1.4838527 -1.2750926 0.016296243 4288569600
1.4629985 -1.2570925 0.004666518 4288439040
1.4659981 -1.2595898 -0.0067524086 4288439040
1.4766707 -1.2686791 -0.018305309 4288569600
1.4862101 -1.2767937 -0.029981133 4288569600
1.4938871 -1.2833074 -0.041720141 4288569600
1.4801073 -1.2713891 -0.052767366 4288569600
1.5019878 -1.2901022 -0.06509003 4288700160
1.5036273 -1.2914284 -0.076645218 4288700160
1.5000761 -1.2882963 -0.08783783 4288700160
1.4844912 -1.2748308 -0.09808591 4288569600
1.4940068 -1.2829208 -0.10983909 4288700160
1.5018187 -1.289547 -0.1214754 4288700160
1.5089673 -1.2956029 -0.13303472 4288700160
1.4972885 -1.2854937 -0.14275657 4288700160
1.5128129 -1.2987396 -0.15494137 4288700160
1.5163566 -1.3016992 -0.16586326 4288700160
1.515873 -1.3012012 -0.17618324 4288700160
1.5140495 -1.2995534 -0.18613739 4288700160
1.5036293 -1.2905275 -0.19474784 4288700160
1.510486 -1.29633 -0.20535545 4288700160
1.518466 -1.3030957 -0.21598163 4288830720
1.5197253 -1.3040935 -0.22546892 4288830720
1.5062072 -1.2924113 -0.23243886 4288700160
1.5075784 -1.2935055 -0.24137333 4288700160
1.52491 -1.308293 -0.25269696 4288830720
1.5273664 -1.3103172 -0.26138127 4288830720
1.5287552 -1.3114253 -0.26960805 4288830720
1.5243789 -1.307588 -0.27649781 4288830720
1.4945451 -1.2819154 -0.27829009 4288700160
1.5099883 -1.2950792 -0.28812346 4288700160
1.513061 -1.2976321 -0.29535195 4288830720
1.5161529 -1.3002011 -0.30227244 4288830720
1.5157095 -1.2997383 -0.30815229 4288830720
1.5157812 -1.2997171 -0.31378087 4288830720
1.5146688 -1.2986808 -0.31879899 4288830720
1.5145042 -1.298457 -0.32364386 4288830720
1.5092241 -1.2938478 -0.32700464 4288830720
1.5117884 -1.2959639 -0.33167708 4288830720
1.5075046 -1.2922094 -0.33445811 4288830720
1.5058635 -1.2907207 -0.33742207 4288830720
1.5002851 -1.2858576 -0.33909607 4288700160
1.5008168 -1.2862314 -0.34174541 4288700160
1.4971385 -1.2829975 -0.3430326 4288700160
1.5006961 -1.2859644 -0.34557551 4288700160
1.4924128 -1.278785 -0.34498423 4288700160
1.4923337 -1.278636 -0.34587818 4288700160
1.4967185 -1.2823113 -0.34740311 4288700160
1.5004838 -1.2854555 -0.34837908 4288700160
1.5002676 -1.2851886 -0.34802285 4288700160
1.5085713 -1.2922198 -0.34923157 4288830720
1.502539 -1.2869707 -0.34671322 4288700160
1.5100025 -1.2932812 -0.34690028 4288830720
1.5099741 -1.2931746 -0.34495312 4288830720
1.5069858 -1.2905333 -0.34193149 4288830720
1.5145195 -1.2969024 -0.34088928 4288830720
1.5106813 -1.2935334 -0.33688456 4288830720
1.5114795 -1.2941347 -0.33352789 4288830720
1.5140544 -1.2962568 -0.33016723 4288830720
1.5031801 -1.2868651 -0.32351521 4288700160
1.5037789 -1.2872958 -0.31898704 4288700160
1.4978544 -1.2821425 -0.31272459 4288700160
1.4893885 -1.2748148 -0.30562133 4288700160
1.4863245 -1.2721114 -0.29931709 4288700160
1.4999372 -1.2836804 -0.29598445 4288700160
1.5110142 -1.2930782 -0.29171029 4288700160
1.5117869 -1.2936573 -0.28506312 4288700160
1.4964132 -1.2804203 -0.27511585 4288700160
1.4839078 -1.2696391 -0.26551756 4288569600
1.4942496 -1.2784064 -0.25971541 4288700160
1.5112518 -1.2928704 -0.25463441 4288700160
1.5090595 -1.2909127 -0.24595444 4288700160
1.4964242 -1.2800225 -0.23538038 4288700160
1.4853719 -1.2704878 -0.22492877 4288569600
1.507931 -1.2897013 -0.21924469 4288700160
1.518195 -1.2983973 -0.21132937 4288700160
1.5095155 -1.2908922 -0.20053433 4288700160
1.4789186 -1.2646462 -0.18685982 4288569600
1.4973342 -1.2803124 -0.17924856 4288700160
1.4966066 -1.2796087 -0.16903117 4288700160
1.4952202 -1.278342 -0.15856852 4288700160
1.4834739 -1.2682189 -0.14692563 4288569600
1.496232 -1.2790445 -0.13754094 4288700160
1.5103505 -1.2910314 -0.12793891 4288700160
1.5011655 -1.2830986 -0.11618924 4288700160
1.492535 -1.2756406 -0.10448758 4288569600
1.4915148 -1.2746876 -0.093277201 4288569600
1.4919358 -1.2749664 -0.082060821 4288569600
1.4898323 -1.2730876 -0.070630111 4288569600
1.4870112 -1.2705963 -0.059127145 4288569600
1.4872884 -1.2707522 -0.047703523 4288569600
1.501229 -1.2825816 -0.036557477 4288700160
1.4951556 -1.2773116 -0.024824634 4288569600
1.5002893 -1.2816157 -0.013258914 4288700160
1.5141208 -1.2933489 -0.0016089864 4288700160
1.5142877 -1.2934092 0.010165401 4288700160
1.5165466 -1.2952563 0.021961087 4288700160
1.5217755 -1.2996395 0.033833552 4288700160
1.5971396 -1.3639158 0.047851115 4289091840
1.75914 -1.5021644 0.066240974 4289744640
1.6681226 -1.4243522 0.075581029 4289352960
1.8180525 -1.5522734 0.096199244 4290005760
1.8270051 -1.559818 0.11046066 4290136320
1.7759339 -1.516119 0.12065805 4289875200
1.6483337 -1.407097 0.12419719 4289352960
1.8295981 -1.5617336 0.15125516 4290136320
1.8377607 -1.5686014 0.16522372 4290136320
1.8166922 -1.5505201 0.17629187 4290005760
1.7150692 -1.463693 0.17848483 4289614080
1.8602602 -1.5875027 0.20645662 4290266880
1.8625107 -1.589322 0.21935599 4290266880
1.8640778 -1.5905581 0.23195823 4290266880
1.8212061 -1.5538781 0.23850454 4290136320
1.6626509 -1.4185064 0.22834519 4289352960
1.8604017 -1.5871184 0.26708582 4290266880
1.8563745 -1.5835819 0.27776709 4290266880
1.8453441 -1.5740722 0.28700024 4290266880
1.8247517 -1.556408 0.2942414 4290136320
1.7681136 -1.5080031 0.29490742 4289875200
1.8596359 -1.5859604 0.32012892 4290266880
1.8496414 -1.5773364 0.3279511 4290266880
1.820329 -1.5522406 0.33177933 4290136320
1.8011521 -1.5357902 0.3368412 4290005760
1.7608811 -1.5013567 0.33730033 4289875200
1.7706298 -1.5095726 0.34681472 4289875200
1.6577657 -1.413259 0.33149552 4289352960
1.6570774 -1.4125824 0.33776209 4289352960
1.6639389 -1.4183412 0.34520093 4289483520
1.6094394 -1.3717984 0.33935171 4289222400
1.6201417 -1.3808328 0.34670699 4289222400
1.6263717 -1.3860543 0.35275528 4289352960
1.6221309 -1.3823521 0.35613 4289222400
1.6186886 -1.3793309 0.35924658 4289222400
1.5302371 -1.3038758 0.34288129 4288830720
1.529914 -1.3035176 0.34567392 4288830720
1.5296397 -1.303201 0.3480731 4288830720
1.5151672 -1.2907888 0.34681484 4288830720
1.5187455 -1.2937548 0.34926715 4288830720
1.5253744 -1.299319 0.35202149 4288830720
1.5215591 -1.2959865 0.3519567 4288830720
1.5290434 -1.3022785 0.35409337 4288830720
1.6058315 -1.3675915 0.37186605 4289222400
1.5291792 -1.3022283 0.35369143 4288830720
1.6135859 -1.3740206 0.37232974 4289222400
1.6175487 -1.3773073 0.37192056 4289222400
1.6178176 -1.3774487 0.37022343 4289222400
1.6143899 -1.3744427 0.36725196 4289222400
1.6147658 -1.3746752 0.36472097 4289222400
1.6076869 -1.3685617 0.36009353 4289222400
1.6657499 -1.4178983 0.36952609 4289483520
1.6625358 -1.4150723 0.36481848 4289483520
1.7062347 -1.4521743 0.3698732 4289614080
1.7249222 -1.4679857 0.36890683 4289744640
1.7368997 -1.4780852 0.36598647 4289744640
1.7891512 -1.5224538 0.37091443 4290005760
1.820483 -1.5490165 0.37078664 4290136320
1.8574758 -1.5803924 0.3711285 4290266880
1.8599269 -1.5823772 0.36399013 4290266880
1.8542417 -1.5774399 0.3548578 4290266880
1.8259521 -1.5527352 0.2893573 4290136320
1.8530742 -1.5756987 0.28289962 4290266880
1.8591372 -1.5807536 0.27271748 4290266880
1.8421717 -1.5662287 0.25892162 4290136320
1.8140181 -1.5421941 0.24354722 4290005760
1.8402871 -1.5644273 0.23521794 4290136320
1.8324342 -1.5576524 0.22215025 4290136320
1.7274843 -1.4683467 0.19782342 4289614080
1.6914325 -1.4376113 0.18212101 4289483520
1.807301 -1.5359946 0.18201712 4290005760
1.8222809 -1.5486271 0.17064135 4290005760
1.820195 -1.546756 0.15739074 4290005760
1.7772139 -1.5101357 0.14076026 4289875200
1.6689318 -1.4180359 0.11991362 4289352960
1.5383244 -1.3069798 0.09909974 4288830720
1.5160841 -1.2880021 0.086297214 4288700160
1.5088618 -1.2817848 0.074478045 4288700160
1.5237572 -1.2943561 0.06361182 4288700160
1.5189208 -1.2901655 0.051777348 4288700160
1.510066 -1.2825627 0.039855786 4288700160
1.505896 -1.2789396 0.028115824 4288700160
1.5116093 -1.28371 0.016518656 4288700160
1.5112476 -1.2833211 0.0047964873 4288700160
1.4744414 -1.2519864 -0.0067575858 4288569600
1.4947088 -1.2691151 -0.018436942 4288569600
1.4974349 -1.2713487 -0.030057633 4288569600
1.5120088 -1.2836405 -0.042016651 4288700160
1.4955649 -1.2695994 -0.053053834 4288569600
1.5058655 -1.2782623 -0.064934224 4288700160
1.5187441 -1.2891123 -0.07703162 4288700160
1.5248451 -1.2942084 -0.088845156 4288700160
1.4957008 -1.2693914 -0.098336227 4288569600
1.51592 -1.2864695 -0.11089721 4288700160
1.5199609 -1.2898165 -0.12233292 4288700160
1.526912 -1.2956327 -0.133949 4288700160
1.5123578 -1.2832012 -0.14347808 4288700160
1.5241551 -1.2931286 -0.15532875 4288700160
1.5383537 -1.3050919 -0.1674348 4288830720
1.5374079 -1.3042065 -0.17779997 4288830720
1.5293547 -1.2972922 -0.1870866 4288830720
1.5187123 -1.2881826 -0.19572595 4288700160
1.5248405 -1.2932982 -0.20627907 4288700160
1.5366478 -1.3032296 -0.21748407 4288830720
1.5310869 -1.2984308 -0.22602834 4288830720
1.5146666 -1.2844237 -0.2325855 4288700160
1.5294747 -1.2968984 -0.24366517 4288830720
1.5355335 -1.301953 -0.25319612 4288830720
1.5387566 -1.3046026 -0.2620253 4288830720
1.539394 -1.3050599 -0.27013874 4288830720
1.539528 -1.3050903 -0.27786168 4288830720
1.5125628 -1.2821497 -0.28024933 4288700160
1.517508 -1.2862598 -0.28812346 4288700160
1.5205956 -1.2887948 -0.29535195 4288830720
1.5274738 -1.294542 -0.3030206 4288830720
1.5338119 -1.2998307 -0.31028765 4288830720
1.5308645 -1.2972503 -0.31533331 4288830720
1.5289899 -1.2955793 -0.32021904 4288830720
1.525809 -1.2928016 -0.32444456 4288830720
1.5280296 -1.2946006 -0.32943937 4288830720
1.5298501 -1.2960604 -0.33397734 4288830720
1.5225319 -1.2897784 -0.33611917 4288830720
1.5171192 -1.2851113 -0.33826068 4288830720
1.5182803 -1.2860129 -0.34146404 4288830720
1.5158045 -1.2838341 -0.34344912 4288830720
1.5121062 -1.2806202 -0.34474665 4288830720
1.5074872 -1.2766269 -0.34542069 4288700160
1.5073544 -1.2764332 -0.34671313 4288700160
1.507274 -1.2762839 -0.34761158 4288700160
1.5072465 -1.2761792 -0.34811503 4288700160
1.5079477 -1.2766916 -0.34837908 4288700160
1.5152464 -1.2827892 -0.34975785 4288830720
1.5190814 -1.2859539 -0.34992421 4288830720
1.5212888 -1.2877406 -0.34930253 4288830720
1.5250311 -1.2908261 -0.34861919 4288830720
1.5241581 -1.2900051 -0.34647053 4288830720
1.5298327 -1.2947254 -0.34539795 4288830720
1.5250595 -1.2906035 -0.34156334 4288830720
1.5294816 -1.2942634 -0.33938971 4288830720
1.5257697 -1.2910401 -0.33501568 4288830720
1.5245935 -1.2899625 -0.33082092 4288830720
1.5219536 -1.2876469 -0.32593545 4288830720
1.5150222 -1.2817008 -0.3197825 4288700160
1.5032341 -1.2716473 -0.31229565 4288700160
1.4998081 -1.2686682 -0.30623743 4288700160
1.5042771 -1.2723674 -0.3014344 4288700160
1.5141865 -1.2806675 -0.29731885 4288700160
1.5327108 -1.2962524 -0.29443592 4288830720
1.5268569 -1.2912194 -0.28648129 4288830720
1.5106541 -1.2774357 -0.27636099 4288700160
1.5018729 -1.2699292 -0.26740363 4288700160
1.5160565 -1.2818407 -0.26220316 4288700160
1.5225461 -1.2872456 -0.25526941 4288700160
1.5195866 -1.2846617 -0.24644609 4288700160
1.5076479 -1.2744875 -0.23597382 4288700160
1.5003359 -1.2682254 -0.22607198 4288700160
1.5260471 -1.2898768 -0.22078224 4288700160
1.5295316 -1.2927396 -0.21185538 4288830720
1.5276495 -1.2910668 -0.20194067 4288700160
1.490063 -1.2592208 -0.18733776 4288569600
1.5085716 -1.2747808 -0.17970161 4288700160
1.5078416 -1.2740828 -0.16945882 4288700160
1.5140634 -1.2792585 -0.15977369 4288700160
1.4984548 -1.2659899 -0.14767632 4288569600
1.5074688 -1.2735243 -0.13788944 4288700160
1.5216583 -1.2854298 -0.1282602 4288700160
1.5131377 -1.2781504 -0.11653752 4288700160
1.5068077 -1.2727225 -0.10496587 4288700160
1.5019686 -1.2685542 -0.093467154 4288569600
1.5023921 -1.268831 -0.08222793 4288569600
1.4959253 -1.2632891 -0.070568845 4288569600
1.5004508 -1.2670301 -0.059367001 4288569600
1.513182 -1.2776994 -0.048294459 4288700160
1.5115178 -1.2762127 -0.036626335 4288700160
1.5140326 -1.2782545 -0.025013978 4288700160
1.5194639 -1.2827582 -0.013362094 4288700160
1.5216304 -1.2845054 -0.0016089864 4288700160
1.5282191 -1.2899851 0.010208295 4288700160
1.5278879 -1.2896234 0.02201614 4288700160
1.5379945 -1.2980711 0.034025423 4288830720
1.6135299 -1.3617364 0.048103657 4289091840
1.7648064 -1.4893111 0.066126481 4289744640
1.7054174 -1.4391013 0.076889612 4289483520
1.8337393 -1.5472859 0.096550636 4290136320
1.8459777 -1.5575132 0.11105721 4290136320
1.7497429 -1.4762226 0.11829226 4289744640
1.5573025 -1.3137808 0.11675952 4288830720
1.8276594 -1.5417627 0.15034972 4290005760
1.8544945 -1.5643002 0.16590595 4290136320
1.830485 -1.5439494 0.17675439 4290136320
1.7349983 -1.4633164 0.17966852 4289614080
1.8763335 -1.5824192 0.20721371 4290266880
1.8858795 -1.5903685 0.22101319 4290397440
1.8839681 -1.5886555 0.23327756 4290266880
1.7896216 -1.5090015 0.2332129 4289875200
1.6891364 -1.4241821 0.23083913 4289483520
1.8764572 -1.5820192 0.26806298 4290266880
1.8762044 -1.5817053 0.27935058 4290266880
1.86891 -1.5754554 0.28923288 4290266880
1.8451724 -1.5553459 0.29606795 4290136320
1.7950745 -1.5130205 0.2979289 4290005760
1.8723013 -1.5780125 0.32072109 4290266880
1.8659191 -1.572533 0.32920715 4290266880
1.8407032 -1.5511831 0.33383989 4290136320
1.8176401 -1.5316498 0.33825004 4290136320
1.7801925 -1.4999987 0.33931968 4289875200
1.7756128 -1.4960444 0.34607762 4289875200
1.6697519 -1.4067615 0.33224773 4289483520
1.6690581 -1.4060873 0.33852851 4289483520
1.6112117 -1.3572685 0.33261594 4289222400
1.6174043 -1.3623983 0.33935171 4289222400
1.6281593 -1.3713701 0.34670699 4289222400
1.6276277 -1.3708348 0.35128939 4289222400
1.6195953 -1.3639828 0.35382259 4289222400
1.5457226 -1.301686 0.34136376 4288830720
1.5302674 -1.2885888 0.34120005 4288830720
1.6078663 -1.353846 0.36149839 4289222400
1.5266541 -1.2853822 0.34568369 4288830720
1.5226619 -1.2819391 0.34681484 4288830720
1.5111866 -1.2721969 0.34581834 4288700160
1.595731 -1.3432852 0.36644581 4289091840
1.5079873 -1.2693416 0.34710076 4288700160
1.5185221 -1.2781278 0.34992641 4288830720
1.5185623 -1.2780801 0.34992659 4288830720
1.6101041 -1.3550388 0.37057662 4289222400
1.5368892 -1.2933397 0.35288745 4288830720
1.618009 -1.3615177 0.37019613 4289222400
1.6258155 -1.3679996 0.37022343 4289222400
1.6291559 -1.3707228 0.36878803 4289222400
1.6227474 -1.3652438 0.36472097 4289222400
1.608844 -1.3534604 0.35858038 4289222400
1.666437 -1.4018217 0.36786044 4289483520
1.6669781 -1.4021875 0.36399442 4289483520
1.6675663 -1.4025929 0.35971317 4289483520
1.7372224 -1.4610876 0.36971059 4289744640
1.7636178 -1.4831927 0.36978912 4289875200
1.8055508 -1.5183613 0.37247398 4290005760
1.8304476 -1.5391998 0.37098333 4290136320
1.8669505 -1.5697945 0.37118784 4290266880
1.8771087 -1.5782353 0.36554688 4290397440
1.8777918 -1.5787089 0.35759839 4290397440
1.8455824 -1.5510434 0.29103523 4290136320
1.8728433 -1.5738533 0.28451636 4290266880
1.8789413 -1.578877 0.27427113 4290266880
1.8618975 -1.5644553 0.2604104 4290266880
1.834372 -1.5412288 0.24507111 4290136320
1.8471253 -1.5518451 0.23493245 4290136320
1.8528892 -1.5565882 0.22352599 4290136320
1.6509109 -1.3868203 0.18812457 4289222400
1.6261958 -1.3659717 0.17423457 4289222400
1.8173257 -1.5264196 0.18212438 4290005760
1.8379225 -1.5436209 0.17125638 4290136320
1.8376228 -1.5432707 0.15811193 4290136320
1.7897795 -1.5029953 0.1410531 4289875200
1.6664368 -1.399327 0.11913963 4289352960
1.5507116 -1.3020681 0.099400043 4288830720
1.5304277 -1.2849545 0.086678006 4288700160
1.5138317 -1.2709395 0.074347779 4288700160
1.5281894 -1.2829115 0.063473977 4288700160
1.5315498 -1.2856506 0.051941007 4288700160
1.5243839 -1.2795535 0.040024821 4288700160
1.5133008 -1.2701695 0.028103266 4288700160
1.5209565 -1.2765138 0.016526198 4288700160
1.5100749 -1.2673001 0.0047554886 4288569600
1.4878955 -1.2486069 -0.00680013 4288569600
1.5071095 -1.2646502 -0.018514 4288569600
1.5155189 -1.2716255 -0.03028754 4288700160
1.5156108 -1.2716216 -0.041927036 4288700160
1.5067443 -1.2641016 -0.053205732 4288569600
1.5207254 -1.2757498 -0.06527172 4288700160
1.5223794 -1.277056 -0.076856337 4288700160
1.5399915 -1.2917476 -0.089307532 4288830720
1.5068218 -1.2638441 -0.098601647 4288569600
1.5271926 -1.2808484 -0.11119494 4288700160
1.5274276 -1.2809637 -0.12235256 4288700160
1.5420575 -1.2931505 -0.13463655 4288830720
1.5304856 -1.2833645 -0.1445085 4288700160
1.5423362 -1.2932192 -0.15643413 4288830720
1.5459083 -1.2961316 -0.16745575 4288830720
1.5518277 -1.3010114 -0.17861181 4288830720
1.5399162 -1.2909428 -0.18747929 4288830720
1.5292196 -1.2818938 -0.19613826 4288700160
1.5468109 -1.2965573 -0.20825024 4288830720
1.5480012 -1.2974722 -0.21804196 4288830720
1.543663 -1.2937536 -0.22679292 4288830720
1.5259072 -1.2787907 -0.2331879 4288700160
1.5369813 -1.2879893 -0.24368593 4288830720
1.5582792 -1.3057535 -0.25571263 4288830720
1.560554 -1.3075763 -0.26445985 4288961280
1.5545453 -1.3024584 -0.27148554 4288830720
1.5501194 -1.2986674 -0.27842686 4288830720
1.523779 -1.2765183 -0.28096786 4288700160
1.5325396 -1.2837754 -0.28957528 4288830720
1.5386717 -1.2888299 -0.2974219 4288830720
1.5379987 -1.2881839 -0.3036364 4288830720
1.5375472 -1.2877235 -0.30954161 4288830720
1.5451895 -1.2940416 -0.31674641 4288830720
1.5440599 -1.293013 -0.32181194 4288830720
1.5408603 -1.2902513 -0.32606015 4288830720
1.5423322 -1.2914014 -0.33091348 4288830720
1.5449154 -1.2934818 -0.33563271 4288830720
1.5337783 -1.2840753 -0.33696091 4288830720
1.5354648 -1.285405 -0.3406907 4288830720
1.5295035 -1.2803329 -0.34231871 4288830720
1.5270144 -1.2781677 -0.34430873 4288830720
1.5195196 -1.2718132 -0.34475315 4288830720
1.5178993 -1.2703758 -0.3461149 4288700160
1.5177653 -1.2701827 -0.34740859 4288700160
1.5214605 -1.2731938 -0.34917414 4288830720
1.5258877 -1.2768171 -0.35070243 4288830720
1.5263706 -1.2771397 -0.35091487 4288830720
1.5324268 -1.2821251 -0.35199633 4288830720
1.534081 -1.2834271 -0.35165235 4288830720
1.5325224 -1.2820414 -0.35016063 4288830720
1.5400615 -1.2882659 -0.3503314 4288830720
1.5459871 -1.2931403 -0.34971038 4288830720
1.5403538 -1.2883461 -0.34606725 4288830720
1.5438749 -1.2912086 -0.34407932 4288830720
1.5475653 -1.2942126 -0.34171423 4288830720
1.540812 -1.2884825 -0.33665344 4288830720
1.5358483 -1.2842497 -0.33162093 4288830720
1.536225 -1.2844827 -0.32736862 4288830720
1.5338064 -1.2823787 -0.32214808 4288830720
1.5212076 -1.2717638 -0.3144663 4288700160
1.5122796 -1.2642192 -0.30725431 4288700160
1.5116466 -1.2636093 -0.30140835 4288700160
1.532986 -1.2813655 -0.29951453 4288830720
1.5432557 -1.289867 -0.29498604 4288830720
1.5449699 -1.2912173 -0.28843442 4288830720
1.5294528 -1.2781672 -0.2784023 4288830720
1.5130308 -1.2643626 -0.26804179 4288700160
1.5234817 -1.2730147 -0.26216561 4288700160
1.5376142 -1.2847418 -0.25649959 4288830720
1.538452 -1.2853596 -0.24824812 4288830720
1.5150306 -1.2657105 -0.23593098 4288700160
1.5107319 -1.2620387 -0.22648476 4288700160
1.537333 -1.2841787 -0.22128426 4288830720
1.5446523 -1.2902104 -0.21285827 4288830720
1.5389464 -1.2853622 -0.20239225 4288830720
1.5049973 -1.2569269 -0.18824239 4288569600
1.5197777 -1.2691901 -0.18010126 4288700160
1.529752 -1.2774382 -0.17102849 4288700160
1.5321847 -1.279388 -0.16084149 4288700160
1.5126767 -1.2630179 -0.14829409 4288700160
1.5255659 -1.2736984 -0.13880548 4288700160
1.5329338 -1.2797682 -0.12851991 4288700160
1.5305568 -1.2777022 -0.11724234 4288700160
1.5287443 -1.2761077 -0.10591146 4288700160
1.520818 -1.2694101 -0.094114438 4288700160
1.5212461 -1.2696863 -0.082788348 4288700160
1.5226225 -1.270754 -0.071411245 4288700160
1.4802786 -1.2353356 -0.05821725 4288439040
1.5184321 -1.267095 -0.048156902 4288700160
1.5267994 -1.2739959 -0.036746021 4288700160
1.5191278 -1.2675136 -0.024904964 4288700160
1.5296893 -1.2762443 -0.01331422 4288700160
1.535978 -1.2814091 -0.0015429094 4288700160
1.5438242 -1.2878727 0.010336716 4288700160
1.539193 -1.2839273 0.022145823 4288700160
1.5562582 -1.2980795 0.034337971 4288830720
1.6405488 -1.3682991 0.048751757 4289222400
1.7619121 -1.4694283 0.065783717 4289744640
1.7175846 -1.4323678 0.077146389 4289483520
1.853438 -1.5455631 0.097204901 4290136320
1.8596622 -1.5506543 0.11142843 4290136320
1.7766948 -1.4813784 0.11961811 4289744640
1.5396005 -1.2836112 0.11494698 4288700160
1.8327483 -1.5279198 0.15012538 4290005760
1.8712095 -1.5598843 0.16667897 4290266880
1.8501433 -1.5422245 0.17787406 4290136320
1.7580146 -1.4653351 0.18125181 4289744640
1.8893163 -1.5746769 0.20772362 4290266880
1.9027323 -1.5857571 0.22199439 4290397440
1.8862879 -1.5719519 0.23251778 4290266880
1.8128762 -1.5106772 0.23517875 4290005760
1.7011961 -1.4175231 0.23143464 4289483520
1.9005476 -1.5835319 0.27026987 4290397440
1.8831314 -1.5689204 0.27910197 4290266880
1.8677185 -1.5559798 0.28772408 4290266880
1.8416096 -1.5341308 0.29413772 4290136320
1.8076384 -1.5057353 0.29863039 4290005760
1.876334 -1.5628577 0.31992492 4290266880
1.8705356 -1.5579286 0.32849053 4290266880
1.8391384 -1.5316807 0.33200437 4290136320
1.789696 -1.4904087 0.33149648 4289875200
1.8109221 -1.5079888 0.34356305 4290005760
1.7411736 -1.4498153 0.3377746 4289744640
1.6885269 -1.4058883 0.33440518 4289483520
1.6847872 -1.4026849 0.34010983 4289483520
1.6258965 -1.3535686 0.33406359 4289222400
1.6290811 -1.3561331 0.34018531 4289222400
1.6360941 -1.361884 0.34674564 4289222400
1.631768 -1.3581963 0.3505106 4289222400
1.6350689 -1.3608568 0.35550332 4289222400
1.6194665 -1.3477849 0.35594445 4289222400
1.5346936 -1.2771519 0.34055218 4288830720
1.5267935 -1.2704964 0.34162748 4288830720
1.5227321 -1.2670358 0.34314185 4288700160
1.5156929 -1.261098 0.34356838 4288700160
1.5079494 -1.2545749 0.34341586 4288700160
1.5154021 -1.2606949 0.34631988 4288700160
1.5115498 -1.2574097 0.3462387 4288700160
1.5183505 -1.2629863 0.34819189 4288700160
1.5221763 -1.2660878 0.34905672 4288700160
1.5260562 -1.2692337 0.34952393 4288830720
1.5443782 -1.2843902 0.35287854 4288830720
1.62968 -1.3552454 0.37104514 4289222400
1.6337379 -1.3585331 0.37020636 4289222400
1.6302758 -1.3555676 0.36723104 4289222400
1.6306548 -1.3557961 0.36469615 4289222400
1.6310859 -1.3560679 0.36174604 4289222400
1.6201937 -1.3469262 0.35588562 4289222400
1.6788933 -1.3956361 0.36478081 4289483520
1.6832794 -1.3991927 0.36130011 4289483520
1.7021351 -1.4147756 0.36044046 4289483520
1.7278818 -1.436084 0.36048815 4289614080
1.7942399 -1.4911405 0.36828831 4290005760
1.8364435 -1.5261171 0.3703306 4290136320
1.8753749 -1.5583702 0.3709859 4290266880
1.8773621 -1.5599219 0.36375013 4290266880
1.8910052 -1.5711576 0.35829026 4290397440
1.8577719 -1.5428032 0.29152676 4290136320
1.8804954 -1.5615743 0.28428504 4290266880
1.8871968 -1.5670391 0.27413353 4290266880
1.8710327 -1.5535178 0.26041409 4290266880
1.854087 -1.5393494 0.2465007 4290136320
1.8561867 -1.5409942 0.23493885 4290136320
1.860884 -1.544795 0.22340249 4290136320
1.6399342 -1.3612887 0.18596987 4289222400
1.6573955 -1.3756952 0.17672041 4289222400
1.8374442 -1.5250443 0.18325421 4290005760
1.8538435 -1.5385571 0.17191094 4290136320
1.8573837 -1.5413966 0.15904807 4290136320
1.8131502 -1.5045922 0.14221463 4290005760
1.6673884 -1.3835473 0.1186431 4289352960
1.5690755 -1.3018872 0.10010394 4288830720
1.5494636 -1.2855327 0.08734668 4288830720
1.5358653 -1.2741691 0.075081825 4288700160
1.5481898 -1.2843115 0.064012475 4288830720
1.5443705 -1.2810613 0.052143112 4288700160
1.5418919 -1.2789235 0.040311173 4288700160
1.5276442 -1.2670248 0.028256502 4288700160
1.526897 -1.266324 0.016536368 4288700160
1.5304514 -1.2691907 0.0048240446 4288700160
1.5092555 -1.2515332 -0.0068353643 4288569600
