# .PCD v0.7 - Point Cloud Data file format
VERSION 0.7
FIELDS x y z rgba
SIZE 4 4 4 4
TYPE F F F U
COUNT 1 1 1 1
WIDTH 1102
HEIGHT 1
VIEWPOINT 0 0 0 1 0 0 0
POINTS 1102
DATA ascii
3.2550788 0.26602453 -0.57791579 4293139200
3.2630856 0.26678148 -0.57749891 4293139200
3.2671547 0.26721698 -0.5757035 4293139200
3.2809329 0.26844656 -0.57493705 4293269760
3.2869828 0.2690447 -0.572124 4293269760
3.2841544 0.26891652 -0.56709421 4293269760
3.2967207 0.27004841 -0.56405622 4293269760
3.2843697 0.26914024 -0.55609274 4293269760
3.2916861 0.26984257 -0.55083287 4293269760
3.2887452 0.26970452 -0.54320824 4293269760
3.2870719 0.26967013 -0.5351783 4293269760
3.2785351 0.26907256 -0.52543843 4293269760
3.276269 0.26898891 -0.5161317 4293139200
3.2575254 0.26755244 -0.50369185 4293139200
3.2586114 0.26774302 -0.49380371 4293139200
3.2859805 0.27009273 -0.48725635 4293269760
3.3079455 0.27199996 -0.47918767 4293269760
3.2975171 0.27124533 -0.46583113 4293269760
3.2686853 0.26897648 -0.44948584 4293139200
3.2286303 0.26578239 -0.43135032 4293008640
3.1748433 0.26145551 -0.41126373 4292747520
3.0143688 0.24834119 -0.37773514 4292225280
2.8553884 0.23533992 -0.34533611 4291703040
2.7118278 0.22359934 -0.31575778 4291180800
2.5279422 0.20852593 -0.28259754 4290528000
2.5764916 0.21260725 -0.27587461 4290789120
2.5629058 0.21156603 -0.26199135 4290658560
2.4652643 0.20358771 -0.23972294 4290397440
2.4376521 0.20138426 -0.224672 4290266880
2.4712288 0.20423213 -0.21502355 4290397440
2.4395361 0.20168996 -0.19941042 4290266880
2.3593771 0.19514047 -0.18018022 4290005760
2.3513665 0.19455074 -0.1667888 4290005760
2.3947029 0.1982071 -0.156702 4290136320
2.3806131 0.19711493 -0.14248703 4290005760
2.3538139 0.19497 -0.12757872 4290005760
2.3442454 0.19425003 -0.11368629 4289875200
2.2970684 0.19041444 -0.09814588 4289744640
2.2975988 0.1905289 -0.084844805 4289744640
2.1977537 0.18232341 -0.068247691 4289483520
2.2356746 0.18553516 -0.056330606 4289483520
2.3121052 0.19194357 -0.044683754 4289744640
2.2958283 0.19066381 -0.030770939 4289744640
2.3099263 0.19190447 -0.017271318 4289744640
2.3788252 0.19769673 -0.00371705 4290005760
2.379302 0.19780926 0.010411885 4290005760
2.3369408 0.19436188 0.024126027 4289875200
2.4042175 0.20002642 0.039000936 4290136320
2.4689372 0.20548245 0.054571792 4290397440
2.4485886 0.20386527 0.068530351 4290266880
2.3848622 0.19863674 0.080741592 4290005760
2.484333 0.20699139 0.09845864 4290397440
2.5202887 0.21006221 0.11438474 4290528000
2.5116103 0.20941649 0.1283517 4290528000
2.3751006 0.19811586 0.1349256 4290005760
2.5670435 0.21419264 0.1600305 4290658560
2.5899987 0.21618615 0.175758 4290789120
2.536643 0.21181376 0.18600935 4290528000
2.4670112 0.20607957 0.19421031 4290397440
2.9303279 0.24484286 0.24577409 4291964160
3.2776098 0.27394208 0.29166192 4293139200
3.3414555 0.27937806 0.31431037 4293269760
3.3446558 0.2797485 0.33128244 4293400320
3.2958083 0.27576676 0.34253979 4293139200
3.350678 0.28045851 0.36414814 4293400320
3.3344162 0.27920103 0.37784797 4293269760
3.3438485 0.28009367 0.39398429 4293400320
3.3264501 0.27873993 0.40649825 4293269760
3.3010108 0.27671152 0.41739094 4293269760
3.3398356 0.28006759 0.43594411 4293400320
3.3532476 0.28129551 0.45091262 4293400320
3.3391359 0.28021589 0.46168321 4293400320
3.3492107 0.28116482 0.47523704 4293400320
3.3489521 0.28124714 0.48682234 4293400320
3.3232276 0.27919129 0.49407753 4293400320
3.3282051 0.2797128 0.50523812 4293400320
3.3368857 0.28054586 0.51641619 4293400320
3.3279226 0.27989647 0.52427888 4293400320
3.3305695 0.28022289 0.53333664 4293400320
3.3335261 0.28057563 0.54183811 4293400320
3.3355954 0.28085402 0.54957676 4293400320
3.3390021 0.28124523 0.55690539 4293400320
3.3360283 0.28109944 0.56252497 4293400320
3.3361993 0.2812185 0.56800932 4293400320
3.3220389 0.28012988 0.57037795 4293400320
3.3400116 0.28174958 0.57757419 4293400320
3.3287272 0.28090298 0.57906359 4293400320
3.3233488 0.28055409 0.58087957 4293400320
3.3279018 0.2810432 0.5837397 4293400320
3.3227525 0.28071353 0.58421838 4293400320
3.3177195 0.28039348 0.58402646 4293400320
3.3333166 0.28181642 0.58676308 4293400320
3.3196816 0.28076953 0.58368611 4293400320
3.3195174 0.28086093 0.58228397 4293400320
3.3178055 0.28082156 0.57992727 4293400320
3.3349607 0.28237879 0.58016002 4293400320
3.3221958 0.28140435 0.57452559 4293400320
3.3284657 0.28204119 0.57150036 4293400320
3.3378839 0.28294531 0.56832188 4293400320
3.3219388 0.28170052 0.56018889 4293400320
3.3255429 0.2821123 0.55470306 4293400320
3.3266101 0.28230926 0.54813886 4293400320
3.3242342 0.28221425 0.5403735 4293400320
3.3146791 0.28150985 0.53084505 4293269760
3.3080356 0.28105214 0.52120417 4293269760
3.3241432 0.2825267 0.51450026 4293400320
3.3425593 0.28419858 0.50745761 4293400320
3.3313086 0.28334981 0.4953258 4293400320
3.3292193 0.28327951 0.4840214 4293400320
3.2780571 0.27961287 0.3942084 4293139200
3.2740533 0.27937773 0.37920621 4293139200
3.0082431 0.2568067 0.33485743 4292225280
2.751163 0.23496358 0.29351568 4291311360
2.6072099 0.22276245 0.26572305 4290789120
2.5785408 0.2203986 0.25012153 4290789120
2.5658388 0.2193972 0.23598142 4290658560
2.5353682 0.21687624 0.22017913 4290528000
2.5076511 0.21458879 0.20467019 4290528000
2.5151939 0.21531576 0.19188739 4290528000
2.4923103 0.21343955 0.17667928 4290397440
2.4132607 0.2067537 0.15789752 4290136320
2.448736 0.20987055 0.1465736 4290266880
2.4654839 0.21138532 0.13369116 4290397440
2.420176 0.2075828 0.11751018 4290136320
2.2830217 0.19590265 0.09785983 4289744640
2.3645685 0.20297153 0.087599799 4290005760
2.372211 0.20370458 0.074050769 4290005760
2.3286884 0.20004639 0.059075128 4289875200
2.1388004 0.18381728 0.041815661 4289222400
2.306339 0.1982789 0.031301178 4289744640
2.2814887 0.19621888 0.017457778 4289744640
2.2511003 0.19368118 0.0038831765 4289614080
2.2696946 0.19535391 -0.0095844977 4289614080
2.2695811 0.1954184 -0.023059068 4289614080
2.2368164 0.1926728 -0.035957556 4289614080
2.2581019 0.1945786 -0.04966462 4289614080
2.3504345 0.20260501 -0.065609381 4289875200
2.3778765 0.20504633 -0.080327429 4290005760
2.3686976 0.20433293 -0.0938031 4290005760
2.4095445 0.20793247 -0.10938103 4290136320
2.4238515 0.20924535 -0.12393612 4290136320
2.4469717 0.21131967 -0.13902918 4290266880
2.4325252 0.21015251 -0.15186213 4290266880
2.3914406 0.20668396 -0.16254103 4290136320
2.5307438 0.21879649 -0.18597032 4290528000
2.5585029 0.2212781 -0.2018382 4290658560
2.5388329 0.21966097 -0.21375945 4290658560
2.5740395 0.22278868 -0.23018457 4290789120
2.5155625 0.21781309 -0.23780429 4290528000
2.8322699 0.24530706 -0.28216895 4291572480
2.9763746 0.25787666 -0.31122285 4292094720
3.1838253 0.27594247 -0.34829411 4292878080
3.2456698 0.28140482 -0.37026092 4293008640
3.1560187 0.27373901 -0.37434167 4292747520
3.3211215 0.28815842 -0.40867507 4293269760
3.3309884 0.2891221 -0.42414743 4293400320
3.3263679 0.28882906 -0.43731776 4293269760
3.3129456 0.28777158 -0.44876447 4293269760
3.2985213 0.28662607 -0.45946208 4293269760
3.2921133 0.286176 -0.47068357 4293269760
3.2987528 0.28685939 -0.48324466 4293269760
3.2839417 0.28567815 -0.49207947 4293269760
3.3008142 0.2872515 -0.50512159 4293269760
3.29883 0.28718519 -0.51474154 4293269760
3.2865264 0.28622049 -0.52211785 4293269760
3.2948444 0.2870504 -0.53216904 4293269760
3.2948315 0.28715512 -0.54028213 4293269760
3.2852528 0.28642619 -0.54617906 4293269760
3.2695136 0.28515956 -0.55036491 4293139200
3.2515781 0.28370029 -0.553478 4293139200
3.2468839 0.28339481 -0.55816895 4293139200
3.2308812 0.28210211 -0.56023234 4293139200
3.234097 0.28248593 -0.56496722 4293139200
3.172287 0.2771914 -0.55759376 4292878080
3.1865175 0.27853557 -0.56291825 4292878080
3.1763306 0.27774668 -0.56326854 4292878080
3.1760652 0.27782443 -0.56471986 4292878080
3.1759126 0.27791184 -0.56553316 4292878080
3.2233222 0.28216016 -0.5741815 4293008640
3.2233968 0.28226876 -0.57370985 4293008640
3.2436647 0.28414512 -0.57616574 4293139200
3.2477422 0.28460467 -0.57505769 4293139200
3.2606366 0.28583688 -0.57483321 4293139200
3.2744067 0.28714648 -0.57407135 4293269760
3.2814336 0.28786561 -0.57143527 4293269760
3.278605 0.28772074 -0.56641078 4293269760
3.2901816 0.2888394 -0.56321025 4293269760
3.2915854 0.28906584 -0.5575909 4293269760
3.2851453 0.28860354 -0.55000484 4293269760
3.2831864 0.28853431 -0.54255342 4293269760
3.2854447 0.28883544 -0.53517503 4293269760
3.2818298 0.28862032 -0.52622598 4293269760
3.274646 0.28809109 -0.51612842 4293139200
3.2559114 0.28654534 -0.50368857 4293139200
3.2609355 0.28708881 -0.49439958 4293139200
3.2843509 0.28925124 -0.48725301 4293269760
3.3112338 0.29172033 -0.47990105 4293269760
3.2909489 0.29003644 -0.46512845 4293269760
3.257194 0.28716436 -0.44812009 4293139200
3.1662285 0.2792474 -0.42319065 4292747520
2.9713678 0.26216394 -0.3849934 4292094720
2.8296449 0.24975532 -0.35466361 4291572480
2.6754467 0.23623714 -0.32363153 4291050240
2.605226 0.23012169 -0.30343097 4290919680
2.4930265 0.22029527 -0.27880892 4290528000
2.5514386 0.22553159 -0.27331045 4290658560
2.5378473 0.22440934 -0.25954112 4290658560
2.4352853 0.21542218 -0.23690397 4290266880
2.4027135 0.21261716 -0.22153662 4290136320
2.4322884 0.21530703 -0.21171267 4290266880
2.4184639 0.21415864 -0.19777034 4290136320
2.3254249 0.2059979 -0.1776499 4289875200
2.3313148 0.20659086 -0.16543286 4289875200
2.3646829 0.20961799 -0.15479156 4290005760
2.3466125 0.20808947 -0.14049567 4289875200
2.3188212 0.20569821 -0.12571721 4289875200
2.3092473 0.20492047 -0.11201703 4289744640
2.2720358 0.20169079 -0.097103968 4289614080
2.2775373 0.20224857 -0.084128894 4289744640
2.17276 0.19301862 -0.067483336 4289352960
2.2841921 0.20297904 -0.057620265 4289744640
2.3054769 0.20493951 -0.044571262 4289744640
2.2996583 0.20449318 -0.030839413 4289744640
2.3087687 0.20537336 -0.017268965 4289744640
2.3636878 0.21032695 -0.0036817642 4290005760
2.3830893 0.21212494 0.010432133 4290005760
2.3307884 0.20754465 0.024081049 4289875200
2.4129703 0.21493043 0.039157033 4290136320
2.4676979 0.21987689 0.054574307 4290397440
2.4612987 0.21938258 0.068912044 4290266880
2.3836641 0.21254122 0.080744021 4290005760
2.4781082 0.22103158 0.098267823 4290397440
2.5239971 0.22519879 0.11460929 4290528000
2.5143263 0.22441371 0.12855454 4290528000
2.4717269 0.22069025 0.14040445 4290397440
2.5707226 0.2296012 0.16033922 4290658560
2.5837257 0.23084101 0.17542721 4290789120
2.5353656 0.22660138 0.18601194 4290528000
2.4518657 0.21921946 0.19312952 4290266880
2.8112342 0.25141162 0.23599117 4291572480
3.0500913 0.27285206 0.27170101 4292355840
3.3033752 0.29559746 0.3109116 4293269760
3.3241346 0.29755637 0.32943141 4293269760
3.3090072 0.29630494 0.3440789 4293269760
3.3489866 0.29998609 0.36415157 4293400320
3.3416405 0.29943153 0.37885559 4293400320
3.3410475 0.29948157 0.39385736 4293400320
3.3198254 0.29768294 0.40590045 4293269760
3.2944009 0.29550633 0.41677248 4293269760
3.3332078 0.29908845 0.4353058 4293400320
3.3466151 0.30039442 0.45025519 4293400320
3.3473139 0.30056086 0.46304512 4293400320
3.3376524 0.29979745 0.47384685 4293400320
3.3383842 0.29996678 0.48554134 4293400320
3.3313975 0.29944295 0.49553996 4293400320
3.3215942 0.29866564 0.50449693 4293400320
3.3351941 0.2999917 0.51641959 4293400320
3.3213148 0.29884756 0.5235101 4293400320
3.3368258 0.30034658 0.53460771 4293400320
3.3318346 0.30000168 0.54184151 4293400320
3.3361242 0.30049208 0.54994494 4293400320
3.3274806 0.29981819 0.55527586 4293400320
3.3195989 0.29921252 0.56005269 4293400320
3.3256655 0.2998634 0.5665133 4293400320
3.3203499 0.29948872 0.5703814 4293400320
3.3284969 0.30032787 0.57588607 4293400320
3.3172193 0.29941538 0.57736564 4293400320
3.316751 0.29947773 0.58002836 4293400320
3.3163955 0.29955035 0.58202797 4293400320
3.3259656 0.30051941 0.58508134 4293400320
3.3160291 0.29972705 0.58402991 4293400320
3.3267124 0.30079752 0.58590597 4293400320
3.3268192 0.30091274 0.58523673 4293400320
3.3227301 0.30064863 0.58314496 4293400320
3.3259254 0.30104333 0.58163995 4293400320
3.3234444 0.30092469 0.57846206 4293400320
3.3266449 0.30132037 0.57558805 4293400320
3.3218567 0.30099294 0.57066393 4293400320
3.3312685 0.30195165 0.56749225 4293400320
3.3251522 0.30150393 0.56101757 4293400320
3.3199122 0.30113542 0.55405331 4293400320
3.3285437 0.30202457 0.54873914 4293400320
3.3186004 0.30122936 0.53974003 4293400320
3.3129823 0.30082616 0.53084844 4293269760
3.3151972 0.30113378 0.52259749 4293400320
3.3372056 0.3032392 0.5167802 4293400320
3.3457704 0.3041248 0.50820571 4293400320
3.3296008 0.30276331 0.49532926 4293400320
3.3225834 0.30223286 0.48331127 4293400320
3.2526388 0.29655451 0.39137203 4293008640
3.0912611 0.28195035 0.35834238 4292486400
2.8367548 0.2588439 0.31605595 4291703040
2.6509948 0.24199177 0.28305441 4291050240
2.575676 0.23520535 0.26267183 4290789120
2.5821693 0.23588204 0.25060117 4290789120
2.5694757 0.23480716 0.23643632 4290658560
2.5380301 0.23201858 0.22052333 4290658560
2.5152917 0.23002365 0.20539489 4290528000
2.5138965 0.22997829 0.19189002 4290528000
2.4959912 0.22842315 0.17703007 4290397440
2.402077 0.21991371 0.15725788 4290136320
2.4434948 0.22378249 0.14634131 4290266880
2.4592378 0.22530366 0.13342805 4290266880
2.4149466 0.22132817 0.11732271 4290136320
2.2818413 0.20921367 0.097862214 4289744640
2.3760011 0.21791741 0.088060759 4290005760
2.3709836 0.21753532 0.074053243 4290005760
2.3364427 0.21444543 0.059297465 4289875200
2.1526275 0.19765887 0.042096503 4289222400
2.3001657 0.21126944 0.031240135 4289744640
2.274178 0.20895907 0.01741837 4289744640
2.2170718 0.20378916 0.0038564748 4289483520
2.2545767 0.20730749 -0.009511672 4289614080
2.2494845 0.20691349 -0.022848817 4289614080
2.2117598 0.203519 -0.035551094 4289483520
2.2290547 0.20518215 -0.049026161 4289483520
2.3293061 0.21447861 -0.065035485 4289875200
2.3487756 0.21634685 -0.079361901 4289875200
2.3346322 0.21512172 -0.092474766 4289875200
2.3844182 0.21978354 -0.10827653 4290005760
2.3947461 0.22081324 -0.12248876 4290136320
2.4128919 0.22256412 -0.13713813 4290136320
2.4074078 0.22213751 -0.15035269 4290136320
2.3663528 0.21842979 -0.16089989 4290005760
2.500627 0.23089589 -0.18383077 4290528000
2.528383 0.23353948 -0.19954418 4290528000
2.5136964 0.23226614 -0.21173489 4290528000
2.5389771 0.23468326 -0.22714286 4290658560
2.4755895 0.22890954 -0.23411939 4290397440
2.6806574 0.24794418 -0.26711315 4291050240
2.7747076 0.25672749 -0.29017365 4291441920
2.938318 0.27195066 -0.32147661 4291964160
3.1439998 0.29107705 -0.35879669 4292747520
3.0795205 0.28521135 -0.36541751 4292486400
3.3144445 0.30706313 -0.40806082 4293269760
3.3094919 0.30671215 -0.42161769 4293269760
3.3196921 0.30776474 -0.43666261 4293269760
3.3151596 0.30745235 -0.44929776 4293269760
3.3017263 0.30631432 -0.46014816 4293269760
3.2903898 0.30536979 -0.47068012 4293269760
3.287173 0.30517784 -0.48179254 4293269760
3.2920687 0.30573854 -0.49355695 4293269760
3.2853045 0.30521685 -0.50300187 4293269760
3.3010359 0.30678403 -0.51535428 4293269760
3.294637 0.30629593 -0.52368206 4293269760
3.2793539 0.30498153 -0.52993536 4293269760
3.2783632 0.30499494 -0.53785378 4293269760
3.2835281 0.30558071 -0.5461756 4293269760
3.262887 0.30376562 -0.54953235 4293139200
3.2498698 0.30265871 -0.55347455 4293139200
3.2451775 0.30232593 -0.55816555 4293139200
3.2492657 0.30281052 -0.56372231 4293139200
3.2323961 0.30134264 -0.56496382 4293139200
3.1804249 0.29660201 -0.55931962 4292878080
3.1799378 0.29665801 -0.56204611 4292878080
3.1697562 0.29580969 -0.56239313 4292878080
3.1694908 0.29588577 -0.56384224 4292878080
3.169338 0.2959722 -0.56465429 4292878080
3.2304459 0.30177784 -0.57575446 4293139200
3.2118945 0.30014768 -0.57195628 4293008640
3.2419541 0.30305764 -0.57616228 4293139200
3.2460287 0.30354095 -0.57505429 4293139200
3.2589159 0.30484822 -0.57482976 4293139200
3.2677743 0.30577946 -0.57320553 4293269760
3.2836242 0.30736515 -0.57211721 4293269760
3.2857032 0.30766302 -0.56793761 4293269760
3.2933497 0.30848211 -0.56404936 4293269760
3.2810102 0.30742994 -0.55608594 4293269760
3.2932279 0.30867732 -0.55165076 4293269760
3.2928932 0.30874908 -0.5444473 4293269760
3.2787924 0.30753031 -0.53436846 4293269760
3.2800925 0.30775467 -0.52622247 4293269760
3.2591426 0.30589196 -0.51394719 4293139200
3.2502506 0.30515921 -0.50307411 4293139200
3.2641294 0.30656314 -0.49514505 4293139200
3.2776854 0.30793753 -0.4865163 4293139200
3.3006098 0.31019258 -0.47860745 4293269760
3.2754016 0.3079266 -0.46316674 4293139200
3.2107966 0.30195618 -0.44194645 4293008640
2.9781141 0.28017932 -0.39816323 4292094720
2.8208401 0.26548007 -0.36560163 4291572480
2.6888988 0.25315431 -0.33712053 4291180800
2.5738244 0.24240769 -0.31144163 4290789120
2.4904172 0.23463511 -0.29014048 4290528000
2.4679546 0.23259662 -0.27613378 4290397440
2.5164244 0.23723875 -0.26967892 4290528000
2.4939094 0.23519462 -0.25515315 4290528000
2.4852145 0.23445182 -0.24192216 4290397440
2.3736761 0.22401071 -0.21895406 4290005760
2.4022303 0.22677715 -0.2091853 4290136320
2.3893924 0.22563966 -0.19547513 4290136320
2.3092954 0.21815288 -0.17649837 4289875200
2.296308 0.21699756 -0.16300826 4289744640
2.3346124 0.22068587 -0.15288107 4289875200
2.3215098 0.21951957 -0.13904668 4289875200
2.2937253 0.21696486 -0.12440244 4289744640
2.2841492 0.21612984 -0.11083796 4289744640
2.3089941 0.21854948 -0.098763891 4289744640
2.2424951 0.21232925 -0.08284957 4289614080
2.1437368 0.20305218 -0.066591911 4289222400
2.2728646 0.21534152 -0.057354659 4289744640
2.3131864 0.21922936 -0.044748936 4289875200
2.2984276 0.21790215 -0.030836949 4289744640
2.2985733 0.21798632 -0.017192174 4289744640
2.3524666 0.22316501 -0.0036557687 4290005760
2.3818126 0.2260195 0.010434688 4290005760
2.2492063 0.2135151 0.02331914 4289614080
2.3967457 0.22758214 0.038929131 4290136320
2.4574168 0.23341371 0.0543858 4290266880
2.450027 0.23278737 0.068643823 4290266880
2.3863649 0.22681646 0.080878176 4290005760
2.4817519 0.2359513 0.098463841 4290397440
2.5176692 0.23944059 0.11439002 4290528000
2.5129759 0.23907161 0.12855724 4290528000
2.3726301 0.22580291 0.13493058 4290005760
2.5643728 0.24411471 0.16003588 4290658560
2.5922694 0.24684785 0.17609689 4290789120
2.5429382 0.24223188 0.18666336 4290658560
2.4644418 0.23483598 0.19421548 4290397440
2.7292442 0.26013285 0.22929467 4291311360
2.8840811 0.27496898 0.25716785 4291833600
3.1938765 0.30458322 0.30084008 4292878080
3.3005354 0.31485012 0.32728648 4293269760
3.2697475 0.31201556 0.34020764 4293139200
3.3471816 0.31950346 0.36415517 4293400320
3.3348925 0.31843397 0.37830129 4293400320
3.3403571 0.31905854 0.39399132 4293400320
3.3130932 0.31655824 0.40530279 4293269760
3.2975616 0.31517705 0.41739789 4293269760
3.3314085 0.31851327 0.43530941 4293400320
3.3448076 0.3198972 0.45025879 4293400320
3.3405743 0.31959611 0.4623695 4293400320
3.3407776 0.3197192 0.47454727 4293400320
3.3365793 0.31942129 0.48554495 4293400320
3.324672 0.31838539 0.49481404 4293400320
3.3247192 0.3184934 0.50524509 4293400320
3.3284698 0.3189562 0.5156644 4293400320
3.3342695 0.31961563 0.52583021 4293400320
3.3310866 0.31941471 0.53398365 4293400320
3.3300297 0.31941754 0.54184508 4293400320
3.3232541 0.318872 0.54813159 4293400320
3.3305871 0.31967959 0.5560959 4293400320
3.3227079 0.31902796 0.5608815 4293400320
3.318954 0.31877202 0.56568384 4293400320
3.3224735 0.31921431 0.5710569 4293400320
3.3217847 0.31925279 0.57504392 4293400320
3.3154182 0.31874576 0.57736921 4293400320
3.3149495 0.31880537 0.58003199 4293400320
3.3145936 0.31887591 0.58203155 4293400320
3.314352 0.31895754 0.58336586 4293400320
3.3093233 0.31857872 0.58317292 4293400320
3.3200002 0.31971127 0.58504903 4293400320
3.311281 0.3189773 0.58283359 4293400320
3.325825 0.32048324 0.58400613 4293400320
3.319211 0.31995195 0.58078891 4293400320
3.3265386 0.32076395 0.57931638 4293400320
3.3248324 0.32070565 0.57559168 4293400320
3.3251677 0.32084423 0.57154423 4293400320
3.3255265 0.32098523 0.56682944 4293400320
3.3233385 0.32088065 0.56102121 4293400320
3.3220291 0.32086083 0.55471009 4293400320
3.3280056 0.32154459 0.54895276 4293400320
3.3256326 0.3214224 0.54117674 4293400320
3.2974105 0.31880245 0.52865511 4293269760
3.3084688 0.31997758 0.52182889 4293269760
3.3206246 0.32125962 0.51450735 4293400320
3.33902 0.3231461 0.50746471 4293400320
3.3244288 0.32184225 0.49483633 4293400320
3.3126845 0.32081315 0.48214415 4293269760
3.1778378 0.30842793 0.38263381 4292878080
2.8996079 0.28153518 0.3364467 4291833600
2.7522135 0.26732343 0.30687132 4291311360
2.6318755 0.25572917 0.28118452 4290919680
2.5742617 0.25021929 0.26267463 4290789120
2.5757968 0.25045261 0.25012702 4290789120
2.5581512 0.24882182 0.23553467 4290658560
2.5366349 0.24681361 0.2205261 4290658560
2.5139086 0.24468638 0.20539765 4290528000
2.5125136 0.24463302 0.19189276 4290528000
2.4995821 0.24345687 0.17738099 4290528000
2.3957884 0.23343395 0.15693945 4290136320
2.4371815 0.23754375 0.14605042 4290266880
2.4578831 0.23964055 0.13343075 4290266880
2.4136157 0.23540722 0.11732536 4290136320
2.2756112 0.22203289 0.097655699 4289744640
2.3746908 0.23176987 0.088063367 4290005760
2.3647015 0.23087345 0.073904522 4290005760
2.3261986 0.22719388 0.059080113 4289875200
2.1365125 0.20875357 0.041820239 4289222400
2.2988956 0.22468069 0.031242659 4289744640
2.2756255 0.22248322 0.017439317 4289744640
2.1392117 0.20922814 0.0037910324 4289222400
2.219492 0.21714589 -0.0093381321 4289483520
2.2193799 0.21720797 -0.022529088 4289483520
2.1916292 0.21456651 -0.035228752 4289352960
2.1989663 0.21535654 -0.04836493 4289483520
2.2951872 0.22484706 -0.064090088 4289744640
2.3236032 0.22770485 -0.07853388 4289875200
2.3094726 0.2263972 -0.091507956 4289875200
2.3403471 0.22949818 -0.1062996 4289875200
2.3596261 0.23146465 -0.12073174 4290005760
2.3966501 0.2351722 -0.13627708 4290136320
2.3822341 0.23383702 -0.14884315 4290005760
2.332274 0.22901361 -0.15864421 4289875200
2.4654937 0.24216478 -0.18132272 4290397440
2.5031688 0.24594446 -0.19764516 4290528000
2.4835417 0.24409896 -0.20928904 4290397440
2.4949439 0.24530049 -0.22329666 4290528000
2.4217031 0.23818451 -0.22911261 4290266880
2.5698617 0.25282881 -0.256145 4290789120
2.6778324 0.2635307 -0.280139 4291050240
2.7714407 0.2728267 -0.30329269 4291441920
2.8134382 0.27704999 -0.32107866 4291572480
2.8668706 0.28240159 -0.34026033 4291703040
3.2955694 0.32470918 -0.40595117 4293269760
3.3036997 0.32561743 -0.42110881 4293269760
3.3178425 0.32711855 -0.43665895 4293269760
3.3133118 0.32677987 -0.44929409 4293269760
3.2998853 0.32556367 -0.46014449 4293269760
3.2885547 0.32455325 -0.47067648 4293269760
3.2853391 0.32434264 -0.4817889 4293269760
3.2853105 0.32444626 -0.49281284 4293269760
3.2874053 0.32475942 -0.50360286 4293269760
3.2854264 0.32467031 -0.51319396 4293269760
3.2829678 0.32453355 -0.52211076 4293269760
3.2912755 0.32546049 -0.53216195 4293269760
3.286351 0.32507977 -0.53946674 4293269760
3.2767832 0.32423943 -0.54535282 4293269760
3.2659686 0.32327497 -0.55035788 4293139200
3.2480512 0.32160684 -0.55347091 4293139200
3.238457 0.32076135 -0.55731577 4293139200
3.2425435 0.32126978 -0.56286544 4293139200
3.2305853 0.32018912 -0.56496024 4293139200
3.2397821 0.32120362 -0.57010257 4293139200
3.1634555 0.31374192 -0.55943614 4292878080
3.172878 0.31477705 -0.56326163 4292878080
3.1677132 0.31436583 -0.56383872 4292878080
3.1675596 0.31445137 -0.56465077 4292878080
3.2247138 0.32022414 -0.57505023 4293139200
3.2497418 0.32281107 -0.57903558 4293139200
3.2401333 0.32195988 -0.5761587 4293139200
3.244205 0.32246688 -0.57505065 4293139200
3.2570841 0.32384923 -0.57482612 4293139200
3.2708383 0.3253192 -0.57406425 4293269760
3.2729542 0.32563272 -0.57057142 4293269760
3.2838547 0.32681999 -0.56793398 4293269760
3.2767837 0.32621971 -0.56151783 4293269760
3.2742574 0.3260712 -0.55524814 4293269760
3.2864661 0.32738942 -0.55082244 4293269760
3.282202 0.32706773 -0.54297781 4293269760
3.2818556 0.32713595 -0.53516787 4293269760
3.2782435 0.32687858 -0.52621883 4293269760
3.2599044 0.32515284 -0.51435494 4293139200
3.2523508 0.32450131 -0.50368148 4293139200
3.2538371 0.32475087 -0.49385485 4293139200
3.2758355 0.32704705 -0.48651263 4293139200
3.2758589 0.32715121 -0.47527236 4293139200
3.2291625 0.32259086 -0.45686153 4293008640
3.0551133 0.30530885 -0.42067686 4292486400
2.8567424 0.28558621 -0.38208577 4291703040
2.6859751 0.26860967 -0.34824115 4291180800
2.5522664 0.25532699 -0.32008833 4290658560
2.5447092 0.25465018 -0.30807281 4290658560
2.4563928 0.24589503 -0.28631467 4290397440
2.4339256 0.2437229 -0.27245635 4290266880
2.4813614 0.24854559 -0.26604733 4290397440
2.458842 0.24636748 -0.251683 4290397440
2.3751707 0.23806377 -0.23126581 4290005760
2.3386436 0.23447762 -0.21581857 4289875200
2.3820345 0.23889768 -0.20752846 4290136320
2.3642368 0.23718686 -0.19350739 4290005760
2.2752459 0.22833636 -0.17396793 4289744640
2.2662225 0.22750115 -0.1609398 4289614080
2.3144226 0.23240665 -0.15162842 4289875200
2.2963545 0.2306643 -0.13759762 4289744640
2.2685778 0.2279461 -0.12308761 4289614080
2.2540307 0.22655477 -0.10941371 4289614080
2.283824 0.22961664 -0.09772177 4289744640
2.2272997 0.22400679 -0.082321286 4289483520
2.2370684 0.22505689 -0.069608398 4289614080
2.2702949 0.22846612 -0.057318851 4289614080
2.292984 0.23081757 -0.044365719 4289744640
2.2821956 0.22980236 -0.030621966 4289744640
2.3022385 0.23188925 -0.017230872 4289744640
2.3650558 0.23828335 -0.0036859559 4290005760
2.3615508 0.23800276 0.01036959 4290005760
2.2389696 0.22572753 0.023236409 4289614080
2.400353 0.24205695 0.039008662 4290136320
2.4599938 0.24814159 0.054473527 4290266880
2.4486289 0.24707104 0.06864658 4290266880
2.3760529 0.23982662 0.080584764 4290005760
2.4703927 0.24941652 0.098079912 4290397440
2.5162311 0.25411785 0.11439285 4290528000
2.4976285 0.2523171 0.12785912 4290397440
2.371274 0.23963518 0.13493326 4290005760
2.5629067 0.25906357 0.16003877 4290658560
2.5907869 0.26195905 0.17609981 4290789120
2.5275905 0.25565156 0.18565714 4290528000
2.4491441 0.24779852 0.19313493 4290266880
2.6590598 0.26910186 0.22358181 4291050240
2.7904065 0.28247029 0.24902797 4291441920
2.9665043 0.3003751 0.27973634 4292094720
3.2432821 0.32848153 0.32183287 4293008640
3.2540181 0.32966843 0.33877793 4293008640
3.3314142 0.33760741 0.36266032 4293269760
3.3353045 0.33810425 0.37856734 4293400320
3.3384411 0.33852503 0.39399511 4293400320
3.321069 0.33686709 0.40650898 4293269760
3.2956691 0.3343941 0.41740161 4293269760
3.3393624 0.3389281 0.43659666 4293400320
3.3340113 0.33848858 0.44907299 4293400320
3.3337269 0.33856305 0.46169403 4293400320
3.3388577 0.33918744 0.47455105 4293400320
3.3346615 0.33886498 0.48554873 4293400320
3.3178391 0.33725971 0.49408829 4293400320
3.3316607 0.33876756 0.50658917 4293400320
3.3413048 0.33985174 0.51794463 4293400320
3.322521 0.33804598 0.52428967 4293400320
3.3242559 0.33832625 0.53320277 4293400320
3.3281116 0.33882254 0.5418489 4293400320
3.3213394 0.33823749 0.54813534 4293400320
3.3198342 0.33818838 0.55463004 4293400320
3.3256984 0.33888978 0.56171054 4293400320
3.3219447 0.33861193 0.56652063 4293400320
3.3205569 0.33857504 0.57106066 4293400320
3.3296731 0.33960894 0.57673925 4293400320
3.3135045 0.33806533 0.57737297 4293400320
3.3179364 0.33862206 0.58089036 4293400320
3.3126791 0.33819062 0.5820353 4293400320
3.3271375 0.33977118 0.58594829 4293400320
3.3123105 0.33836299 0.58403724 4293400320
3.3180807 0.33905745 0.58505279 4293400320
3.318186 0.33917373 0.58438456 4293400320
3.3190005 0.33936259 0.58315235 4293400320
3.3172901 0.33929357 0.58079273 4293400320
3.3157902 0.33924609 0.57778895 4293400320
3.3229072 0.34008005 0.57559544 4293400320
3.3330481 0.34122398 0.57322782 4293400320
3.3235993 0.34036374 0.5668332 4293400320
3.326318 0.34074873 0.56185025 4293400320
3.3161771 0.33981705 0.5540607 4293400320
3.3172393 0.34003252 0.54750431 4293400320
3.3148642 0.33989596 0.53974742 4293400320
3.2954967 0.33801755 0.52865887 4293269760
3.3065481 0.33925712 0.5218327 4293269760
3.3147631 0.34020662 0.51390404 4293400320
3.3469172 0.34361303 0.50895774 4293400320
3.3274174 0.34172004 0.49556965 4293400320
3.3156817 0.34062305 0.48286152 4293269760
2.9828033 0.30707327 0.35949564 4292094720
2.7853177 0.286847 0.32346129 4291441920
2.6879311 0.2769126 0.29993093 4291180800
2.6164911 0.26964381 0.27971831 4290919680
2.5638523 0.26430717 0.26177552 4290658560
2.5742936 0.26546708 0.25012997 4290789120
2.5616112 0.26424423 0.23598984 4290658560
2.5262337 0.26068056 0.21976048 4290528000
2.5084739 0.25893173 0.20507959 4290528000
2.5110452 0.25927946 0.19189565 4290528000
2.488198 0.25700396 0.17668745 4290397440
2.3943875 0.24740082 0.1569422 4290136320
2.4307907 0.25123906 0.14575967 4290266880
2.456445 0.25396928 0.13343357 4290266880
2.4122028 0.24947827 0.11732813 4290136320
2.2842169 0.23632765 0.098076351 4289744640
2.3683295 0.24510053 0.087885812 4290005760
2.3682871 0.24517418 0.07405857 4290005760
2.3337848 0.24168229 0.05930271 4289875200
2.1402323 0.22172599 0.041915577 4289222400
2.3025203 0.23859921 0.031308766 4289744640
2.2742903 0.23575142 0.017441936 4289744640
2.204298 0.22857511 0.0038523655 4289483520
2.1943171 0.22761343 -0.0092148529 4289483520
2.2711673 0.23565273 -0.023110427 4289744640
2.1664729 0.22487077 -0.034822159 4289352960
2.1738083 0.22570315 -0.047817223 4289352960
2.2699759 0.23575385 -0.063401766 4289614080
2.2934089 0.23826104 -0.077533834 4289744640
2.2842617 0.23738688 -0.090541087 4289744640
2.3151236 0.24066764 -0.10519499 4289875200
2.3443305 0.24377851 -0.12000664 4289875200
2.3624694 0.24574094 -0.13438591 4290005760
2.3570068 0.24525081 -0.14733356 4290005760
2.2971611 0.23910461 -0.15632021 4289744640
2.445194 0.25458005 -0.1799199 4290266880
2.4630239 0.25651589 -0.19456092 4290397440
2.4533355 0.25558832 -0.20684311 4290266880
2.4597902 0.25634104 -0.22025484 4290397440
2.3925493 0.2494179 -0.22646621 4290136320
2.5396435 0.26482275 -0.25326115 4290658560
2.5759676 0.26869196 -0.26957715 4290789120
2.5611136 0.26722771 -0.28031525 4290658560
2.6108158 0.27249512 -0.29801202 4290919680
2.7154043 0.28349176 -0.3223865 4291311360
3.2303917 0.33732337 -0.39812341 4293008640
3.2720954 0.34178233 -0.41730902 4293139200
3.3033578 0.3451536 -0.43500012 4293269760
3.3022652 0.34514716 -0.44805309 4293269760
3.2841413 0.34336099 -0.45820996 4293269760
3.2816849 0.34321111 -0.46996534 4293269760
3.2833934 0.34349641 -0.48178509 4293269760
3.2922168 0.34452581 -0.49414185 4293269760
3.2854571 0.34392545 -0.50359905 4293269760
3.2834787 0.34382489 -0.51319015 4293269760
3.285027 0.34409323 -0.52274626 4293269760
3.2853956 0.34423804 -0.5315209 4293269760
3.2696791 0.34269786 -0.53703809 4293269760
3.2748384 0.34334394 -0.545349 4293269760
3.2689333 0.34283051 -0.55118316 4293269760
3.2363174 0.33951613 -0.55179095 4293139200
3.2414339 0.34015673 -0.55815816 4293139200
3.2156568 0.33755657 -0.55851501 4293008640
3.2149484 0.3375853 -0.56255013 4293008640
3.2241418 0.33865327 -0.56767797 4293139200
3.1664708 0.33270067 -0.56030124 4292878080
3.17099 0.33327651 -0.56325793 4292878080
3.1570148 0.33190927 -0.56226134 4292878080
3.2365434 0.34036824 -0.57732069 4293139200
3.2267098 0.33943737 -0.57574713 4293139200
3.2228661 0.33913565 -0.57457417 4293139200
3.2333062 0.34033611 -0.57528156 4293139200
3.2422709 0.34138188 -0.5750469 4293139200
3.255142 0.34283924 -0.57482231 4293139200
3.268887 0.34438932 -0.57406044 4293269760
3.2759001 0.34523109 -0.57142437 4293269760
3.2769947 0.34544963 -0.56707996 4293269760
3.2797287 0.34584087 -0.56235665 4293269760
3.2821076 0.34619471 -0.5569126 4293269760
3.2845027 0.34655035 -0.55081856 4293269760
3.2802408 0.34620374 -0.542974 4293269760
3.2798939 0.34626985 -0.535164 4293269760
3.2664638 0.344955 -0.52463329 4293139200
3.2592862 0.34429929 -0.51456195 4293139200
3.2375431 0.34210485 -0.50167859 4293139200
3.2430406 0.34278646 -0.49250299 4293139200
3.2574961 0.34441486 -0.48406723 4293139200
3.2206988 0.34062678 -0.46752065 4293008640
3.0537903 0.32308003 -0.43222168 4292486400
2.8972561 0.30661997 -0.39909643 4291833600
2.7192879 0.2878826 -0.3638415 4291311360
2.5494041 0.26998964 -0.33065024 4290658560
2.5221207 0.26718053 -0.31647667 4290658560
2.5145524 0.26645717 -0.30458367 4290528000
2.5059817 0.26562709 -0.29230082 4290528000
2.4835539 0.26332831 -0.27821007 4290397440
2.4521861 0.26008067 -0.26305607 4290397440
2.4435153 0.25923705 -0.25025237 4290266880
2.4209504 0.25691959 -0.23589522 4290266880
2.313473 0.24559426 -0.21360444 4289875200
2.3518732 0.24973956 -0.20500095 4290005760
2.329118 0.24739683 -0.1907208 4289875200
2.3350492 0.24809799 -0.17869131 4289875200
2.2321262 0.2372403 -0.15858635 4289614080
2.2842536 0.24284574 -0.14971779 4289744640
2.2751195 0.24194525 -0.13638957 4289744640
2.243381 0.23864177 -0.12177271 4289614080
2.2288353 0.2371641 -0.10823452 4289483520
2.258604 0.240398 -0.096679583 4289614080
2.1921711 0.23340045 -0.081041858 4289483520
2.2322109 0.23772791 -0.069493689 4289614080
2.2589846 0.24064584 -0.057057045 4289614080
2.2916 0.24418734 -0.044363022 4289744640
2.2907605 0.24416801 -0.030760868 4289744640
2.3008482 0.24531268 -0.017228162 4289744640
2.3546777 0.25111893 -0.0036620747 4290005760
2.3650956 0.25230134 0.010390213 4290005760
2.2326446 0.23825201 0.023191672 4289614080
2.3939304 0.25552115 0.038934652 4290136320
2.4585061 0.26248321 0.054476425 4290266880
2.4431715 0.26092204 0.06854111 4290266880
2.374615 0.2536791 0.080587566 4290005760
2.4688973 0.26381829 0.098082826 4290397440
2.5097408 0.26825598 0.11417383 4290528000
2.5060465 0.26793817 0.12836276 4290528000
2.3698373 0.2534593 0.13493605 4290005760
2.5563912 0.2734732 0.15973569 4290658560
2.5792952 0.27600056 0.17543596 4290789120
2.5310166 0.27091604 0.18602052 4290528000
2.4526153 0.26260597 0.19352473 4290266880
2.6397626 0.28270894 0.22211105 4290919680
2.7164114 0.29099497 0.24262932 4291180800
2.8334656 0.30361229 0.26745039 4291572480
3.0983164 0.33206695 0.30773222 4292486400
3.2169588 0.34487349 0.33515009 4293008640
3.3195045 0.35596231 0.36159381 4293269760
3.3243847 0.35658783 0.37756705 4293269760
3.3176475 0.35596797 0.3917954 4293269760
3.3141141 0.35569143 0.40591168 4293269760
3.2887316 0.3530705 0.41678366 4293269760
3.3185954 0.35637736 0.43416196 4293269760
3.3408523 0.35886952 0.45026654 4293400320
3.3316975 0.35799 0.46169797 4293400320
3.3269787 0.35758653 0.47316134 4293400320
3.3277097 0.35776845 0.48483908 4293400320
3.3108993 0.35606521 0.49336269 4293269760
3.3207815 0.35723075 0.50525284 4293400320
3.3294401 0.35826546 0.51643091 4293400320
3.3254063 0.35793546 0.52506578 4293400320
3.3231332 0.35779479 0.53335142 4293400320
3.3260808 0.35821605 0.54185283 4293400320
3.3094997 0.35653505 0.54652566 4293400320
3.3217309 0.35795611 0.55528718 4293400320
3.318764 0.35774085 0.56088924 4293400320
3.3248169 0.3584975 0.56735766 4293400320
3.3097064 0.35697344 0.56955278 4293400320
3.3139188 0.35753199 0.57437497 4293400320
3.3114781 0.35737342 0.5773769 4293400320
3.3159068 0.35795593 0.58089429 4293400320
3.310652 0.35749385 0.58203924 4293400320
3.3153069 0.35810131 0.58423311 4293400320
3.3014681 0.35671225 0.58249217 4293400320
3.3209455 0.35892105 0.58591729 4293400320
3.3073385 0.35755661 0.58284128 4293400320
3.3120692 0.35817334 0.5822987 4293400320
3.3250523 0.35968268 0.58250594 4293400320
3.3176758 0.35899127 0.57847345 4293400320
3.3110702 0.35838294 0.57390779 4293400320
3.3212025 0.35958543 0.57155198 4293400320
3.3117566 0.35866967 0.56517106 4293400320
3.3193731 0.35960075 0.56102896 4293400320
3.3229682 0.36009693 0.55553436 4293400320
3.3102958 0.35883117 0.54670143 4293400320
3.3079197 0.35868049 0.53895515 4293400320
3.3032897 0.35828546 0.53023207 4293269760
3.300586 0.35809916 0.5212189 4293269760
3.3127244 0.35952258 0.51390803 4293400320
3.3399425 0.36258301 0.50821716 4293400320
3.3149476 0.3599788 0.4940275 4293400320
3.3087206 0.35941052 0.4821519 4293269760
2.8581998 0.31110415 0.3447839 4291703040
2.722955 0.29648271 0.31646487 4291311360
2.6687648 0.29067415 0.29799351 4291050240
2.6198184 0.28543296 0.2802462 4290919680
2.5711706 0.28022116 0.26268068 4290789120
2.5727031 0.28047258 0.25013307 4290789120
2.5600278 0.27917597 0.23599291 4290658560
2.5246716 0.27540639 0.2197635 4290528000
2.5019679 0.27301407 0.20468141 4290528000
2.5144484 0.27445766 0.19227359 4290528000
2.4866581 0.27150863 0.17669044 4290397440
2.392905 0.26135927 0.15694508 4290136320
2.4292855 0.26540965 0.14576259 4290266880
2.4459891 0.26731384 0.13295826 4290266880
2.4057434 0.26299855 0.11709353 4290136320
2.2728689 0.24855973 0.097661048 4289744640
2.3718283 0.25945073 0.088068947 4290005760
2.3668182 0.25898138 0.074061416 4290005760
2.3233929 0.25431052 0.059085585 4289875200
2.1299589 0.23322661 0.041750956 4289222400
2.3060606 0.25256756 0.03137501 4289744640
2.2728779 0.24901164 0.017444674 4289744640
2.1830475 0.2392509 0.0038373431 4289352960
2.2325647 0.2447466 -0.0094126062 4289614080
2.2359598 0.24519244 -0.022735812 4289614080
2.1363025 0.23434462 -0.034331333 4289222400
2.1625183 0.23728923 -0.047587458 4289352960
2.2447164 0.24637456 -0.062713385 4289614080
2.2681389 0.24901807 -0.076705694 4289614080
2.2540359 0.24754563 -0.089373283 4289614080
2.2948151 0.252096 -0.10431987 4289744640
2.3140819 0.25428715 -0.1185075 4289875200
2.3421419 0.25744528 -0.1332958 4289875200
2.3178394 0.25485283 -0.14494492 4289875200
2.2580445 0.24835841 -0.15372309 4289614080
2.414921 0.26567736 -0.17778015 4290136320
2.4426601 0.26880708 -0.19305679 4290266880
2.4191189 0.26629832 -0.20406017 4290266880
2.4255838 0.26708928 -0.21730235 4290266880
2.3574102 0.25966626 -0.22325325 4290005760
2.5004723 0.27549326 -0.24948318 4290528000
2.470856 0.27231407 -0.2586697 4290397440
2.5269063 0.2785694 -0.27672035 4290658560
2.4520807 0.27040759 -0.2799677 4290397440
2.5409541 0.28028357 -0.30175808 4290658560
3.0180199 0.33296436 -0.37207496 4292355840
3.1748524 0.35035941 -0.40511042 4292878080
3.2464221 0.35835865 -0.4277401 4293139200
3.2810495 0.36228588 -0.44544032 4293269760
3.2713552 0.36132291 -0.45670295 4293139200
3.2796292 0.36234316 -0.46996135 4293269760
3.2813363 0.36263853 -0.4817811 4293269760
3.2763915 0.36219904 -0.4920646 4293269760
3.2833974 0.36307979 -0.50359511 4293269760
3.2814198 0.36296779 -0.51318616 4293269760
3.2927828 0.36433071 -0.52430987 4293269760
3.2833343 0.36339226 -0.53151697 4293269760
3.2774353 0.36284584 -0.53865069 4293269760
3.2727823 0.3624368 -0.54534501 4293269760
3.2619793 0.36134648 -0.55035013 4293139200
3.2293849 0.35784212 -0.55094892 4293139200
3.234499 0.35851258 -0.55730808 4293139200
3.2434762 0.35961127 -0.56371099 4293139200
3.2227182 0.35741472 -0.56426501 4293139200
3.2221138 0.35745105 -0.56767404 4293139200
3.1644783 0.35116249 -0.56029743 4292878080
3.1641011 0.35122183 -0.5623821 4292878080
3.1638346 0.3512933 -0.56383115 4292878080
3.1636801 0.35137704 -0.5646432 4292878080
3.2158704 0.35727236 -0.57416683 4293008640
3.2296424 0.35890412 -0.57614535 4293139200
3.2361612 0.3597309 -0.57615095 4293139200
3.2304399 0.35919774 -0.57330161 4293139200
3.2442796 0.36083841 -0.57325774 4293139200
3.2717199 0.36399198 -0.57491881 4293269760
3.2689371 0.36378583 -0.57056361 4293269760
3.2710087 0.36411938 -0.56639582 4293269760
3.2727597 0.36441725 -0.56151003 4293269760
3.2839544 0.36576629 -0.55757588 4293269760
3.2726254 0.36460805 -0.54916519 4293269760
3.284395 0.36602157 -0.54400426 4293269760
3.2778206 0.36539203 -0.53516001 4293269760
3.2742116 0.36509243 -0.52621096 4293269760
3.2532978 0.36286351 -0.5139358 4293139200
3.220762 0.35933736 -0.49938336 4293008640
3.210438 0.35828629 -0.4878422 4293008640
3.1752665 0.35446247 -0.47210494 4292878080
3.0227101 0.33753705 -0.43896052 4292355840
2.8764942 0.32130978 -0.40729302 4291833600
2.7434542 0.30654451 -0.37806439 4291311360
2.6276121 0.29369164 -0.35174295 4290919680
2.5241337 0.28221276 -0.32756266 4290658560
2.4968548 0.27924249 -0.31348714 4290528000
2.4892786 0.27847281 -0.30169556 4290528000
2.4807007 0.2775906 -0.28951743 4290397440
2.4582744 0.27515897 -0.27553463 4290397440
2.4308665 0.27216861 -0.26091853 4290266880
2.4083502 0.26972386 -0.24678206 4290136320
2.395674 0.26837912 -0.23356149 4290136320
2.2882531 0.25642559 -0.21139024 4289744640
2.3266177 0.26079255 -0.20290868 4289875200
2.3088183 0.25887004 -0.1891623 4289875200
2.3048286 0.25849384 -0.17646706 4289875200
2.2019596 0.24703436 -0.15651779 4289483520
2.2540429 0.25294125 -0.14780712 4289614080
2.2359765 0.25098422 -0.13409665 4289614080
2.2092071 0.24804981 -0.11996567 4289483520
2.2135196 0.24860135 -0.10754548 4289483520
2.2283728 0.2503362 -0.095420778 4289483520
2.2100177 0.24834365 -0.081766866 4289483520
2.2218482 0.24973983 -0.069205195 4289483520
2.262511 0.25437543 -0.057183828 4289614080
2.290138 0.25754881 -0.044360202 4289744640
2.2843304 0.25696608 -0.030687261 4289744640
2.2894425 0.25761062 -0.017142788 4289744640
2.3482058 0.26428866 -0.0036474625 4290005760
2.3675601 0.26653749 0.010407403 4290005760
2.2361867 0.25182852 0.023241801 4289614080
2.3973689 0.270037 0.039014447 4290136320
2.4479933 0.27580932 0.054288268 4290266880
2.4455831 0.27561274 0.068652481 4290266880
2.3681307 0.2669636 0.080425978 4290005760
2.4673181 0.27821112 0.098085865 4290397440
2.5130985 0.28344595 0.11439892 4290528000
2.494518 0.28142831 0.12786514 4290397440
2.3732808 0.26783422 0.13521738 4290005760
2.550787 0.2879276 0.15949395 4290658560
2.587558 0.29215425 0.17610607 4290789120
2.5145283 0.28399217 0.18494244 4290528000
2.4411361 0.27578476 0.19275393 4290266880
2.6331191 0.29753676 0.22170134 4290919680
2.6882238 0.30384126 0.24028951 4291180800
2.720782 0.30760208 0.25706527 4291311360
2.8856328 0.32631448 0.28694043 4291833600
3.1008489 0.35073006 0.32334071 4292616960
3.2995212 0.37328848 0.35966352 4293269760
3.314992 0.37513989 0.37675098 4293269760
3.3243995 0.37630641 0.39284334 4293269760
3.3021207 0.37388808 0.4047133 4293269760
3.291548 0.37279344 0.41740957 4293269760
3.3253314 0.37672022 0.43532124 4293400320
3.3387043 0.37833774 0.45027068 4293400320
3.3197105 0.37628961 0.46034357 4293400320
3.3248384 0.37697375 0.47316545 4293400320
3.3255684 0.3771598 0.48484319 4293400320
3.308768 0.37535858 0.49336681 4293269760
3.3137307 0.37602443 0.50451231 4293400320
3.3184569 0.37666392 0.51506913 4293400320
3.3134472 0.3761991 0.52352554 4293400320
3.3160853 0.37660214 0.5325709 4293400320
3.3190322 0.37704054 0.54106081 4293400320
3.312269 0.37637654 0.54733658 4293400320
3.3195884 0.37731197 0.5552913 4293400320
3.316623 0.3770794 0.56089336 4293400320
3.3177729 0.37731448 0.56652874 4293400320
3.3163855 0.37726134 0.5710687 4293400320
3.3156962 0.37728766 0.57505572 4293400320
3.3093393 0.37666938 0.57738101 4293400320
3.3088698 0.3767207 0.58004379 4293400320
3.3085127 0.37678495 0.58204335 4293400320
3.3131638 0.3774195 0.58423722 4293400320
3.3032484 0.37639567 0.58318472 4293400320
3.3099887 0.37726864 0.5843724 4293400320
3.3100927 0.37738603 0.58370495 4293400320
3.3197143 0.37858829 0.58401805 4293400320
3.3043001 0.37693715 0.57926244 4293400320
3.3116112 0.3778767 0.577797 4293400320
3.3138218 0.37823504 0.57475775 4293400320
3.3090415 0.37779602 0.56983948 4293400320
3.319407 0.37908545 0.5668413 4293400320
3.3123217 0.37838346 0.56020784 4293400320
3.3070905 0.37789285 0.55325228 4293400320
3.3081486 0.37812048 0.54670554 4293400320
3.3057735 0.37795603 0.53895926 4293400320
3.2962396 0.37697339 0.52945155 4293269760
3.2935352 0.37677103 0.52045077 4293269760
3.3056629 0.37826481 0.51315331 4293269760
3.3302627 0.38118622 0.50708282 4293400320
3.31338 0.37936279 0.49411869 4293400320
3.3008697 0.37803879 0.48132867 4293269760
2.7710872 0.31798652 0.33456191 4291441920
2.6656878 0.3059881 0.31005877 4291050240
2.6444654 0.30364078 0.29549435 4291050240
2.6181107 0.30070308 0.28024948 4290919680
2.5605977 0.2941868 0.26178181 4290658560
2.5670691 0.29501429 0.2497547 4290789120
2.5583575 0.29409823 0.23599611 4290658560
2.5180748 0.28955424 0.21933968 4290528000
2.5092468 0.28862274 0.2054067 4290528000
2.5028996 0.28797594 0.19152687 4290528000
2.4899888 0.28657395 0.17704178 4290397440
2.3873758 0.27485269 0.15669121 4290136320
2.4326563 0.2801418 0.1460592 4290266880
2.4533181 0.28260043 0.1334396 4290266880
2.4041698 0.27702326 0.11709654 4290136320
2.2664189 0.26123917 0.097454868 4289614080
2.3653121 0.27270633 0.087891631 4290005760
2.3702338 0.27335185 0.074215725 4290005760
2.3169057 0.26728377 0.058966309 4289875200
2.1375029 0.24667639 0.041920841 4289222400
2.2946162 0.26486689 0.031250954 4289744640
2.2713883 0.26226339 0.017447531 4289744640
2.1776426 0.25152105 0.0038365477 4289352960
2.2210133 0.25659946 -0.009358746 4289483520
2.2309866 0.25782469 -0.022694396 4289614080
2.201148 0.25445253 -0.035451412 4289483520
2.1233597 0.24553892 -0.046721637 4289222400
2.2382777 0.25888926 -0.062567718 4289614080
2.2378581 0.25891501 -0.075705536 4289614080
2.2287333 0.25793415 -0.088406287 4289614080
2.2734606 0.26318118 -0.10339876 4289744640
2.2837913 0.26445171 -0.1170083 4289744640
2.3068826 0.26719964 -0.1313473 4289875200
2.2974784 0.26618737 -0.14374912 4289744640
2.2278185 0.25819743 -0.15174037 4289614080
2.3855934 0.27654535 -0.17571402 4290136320
2.4034228 0.27868992 -0.19005147 4290136320
2.3789232 0.27593008 -0.20077172 4290136320
2.3952947 0.27790651 -0.21470733 4290136320
2.3133342 0.2684817 -0.21919054 4289875200
2.4790559 0.28778005 -0.24749327 4290397440
2.5064695 0.29104236 -0.26259273 4290528000
2.5015416 0.290553 -0.27410495 4290528000
2.416908 0.28081036 -0.27610874 4290266880
2.3683431 0.27525041 -0.28133354 4290136320
2.8377762 0.32985479 -0.34998661 4291703040
2.955631 0.34364113 -0.37727442 4292094720
3.1195238 0.36278561 -0.41122714 4292616960
3.2348945 0.37629992 -0.43943927 4293008640
3.2406785 0.37707838 -0.4527016 4293139200
3.2774625 0.38146293 -0.4699572 4293269760
3.2791677 0.38176835 -0.48177695 4293269760
3.2791371 0.38187176 -0.49280089 4293269760
3.2861354 0.38279334 -0.50434667 4293269760
3.2929893 0.38369837 -0.5153386 4293269760
3.2807941 0.3823849 -0.5227381 4293269760
3.2762582 0.3819629 -0.5307163 4293269760
3.2752655 0.38195345 -0.53864652 4293269760
3.2666955 0.38106042 -0.54468554 4293269760
3.2647161 0.38093525 -0.55117506 4293269760
3.232141 0.37724105 -0.55178291 4293139200
3.2372499 0.37794137 -0.55815011 4293139200
3.2364323 0.37795019 -0.56285357 4293139200
3.2205811 0.37620384 -0.56426096 4293139200
3.1628654 0.36956778 -0.55757535 4292878080
3.1574879 0.36904112 -0.55942464 4292878080
3.1668911 0.37024084 -0.56325006 4292878080
3.176403 0.37145379 -0.56644988 4292878080
3.1566896 0.36925074 -0.56376368 4292878080
3.2186236 0.37659341 -0.57503849 4293139200
3.2186952 0.37670428 -0.57456613 4293139200
3.2340105 0.37859842 -0.57614684 4293139200
3.2380726 0.37917647 -0.57503879 4293139200
3.2558167 0.38135621 -0.57568121 4293139200
3.2695434 0.38306656 -0.57491463 4293269760
3.2755687 0.38387564 -0.57210159 4293269760
3.2727466 0.3836484 -0.5670718 4293269760
3.2754757 0.38407138 -0.56234843 4293269760
3.2778504 0.38445285 -0.55690438 4293269760
3.2802413 0.38483623 -0.5508104 4293269760
3.2733872 0.38413537 -0.54253429 4293269760
3.2609315 0.38277683 -0.53274673 4293139200
3.2582994 0.38257006 -0.52399248 4293139200
3.2364118 0.38010296 -0.51159847 4293139200
3.1921091 0.37500274 -0.49525443 4292878080
3.1111257 0.36559206 -0.47301653 4292616960
2.9517541 0.34696826 -0.43905467 4292094720
2.8262551 0.33231437 -0.41060215 4291703040
2.743679 0.32269722 -0.38867253 4291441920
2.6245053 0.30877247 -0.36184409 4290919680
2.5260587 0.29727754 -0.33831167 4290658560
2.4850197 0.29252875 -0.32267576 4290528000
2.471535 0.29101917 -0.31049752 4290397440
