# .PCD v0.7 - Point Cloud Data file format
VERSION 0.7
FIELDS x y z rgba
SIZE 4 4 4 4
TYPE F F F U
COUNT 1 1 1 1
WIDTH 1102
HEIGHT 1
VIEWPOINT 0 0 0 1 0 0 0
POINTS 1102
DATA ascii
2.4185336 0.50915277 -0.15470926 4290397440
2.4348655 0.51267582 -0.16950832 4290397440
2.5100937 0.52858382 -0.18873984 4290658560
2.5373428 0.53440708 -0.20472798 4290789120
2.5830421 0.54411292 -0.22238126 4290919680
2.5958061 0.54689318 -0.23727238 4291050240
2.616555 0.55135435 -0.25281203 4291050240
3.0442662 0.64146185 -0.30969781 4292616960
3.1828911 0.67075175 -0.33970782 4293008640
3.2215362 0.67900348 -0.35955441 4293139200
3.2232823 0.67948836 -0.37508383 4293139200
3.1773875 0.66994011 -0.38445124 4293008640
3.2620225 0.68788189 -0.40935543 4293400320
3.2611918 0.68782455 -0.42345622 4293400320
3.2688792 0.68956161 -0.43822011 4293400320
3.2670577 0.68929499 -0.45124456 4293400320
3.2576613 0.68743134 -0.46267286 4293400320
3.2408144 0.6839959 -0.47242299 4293269760
3.2382853 0.68357772 -0.48365521 4293269760
3.2424369 0.68456781 -0.49534327 4293269760
3.2383385 0.68381768 -0.5052101 4293269760
3.2383082 0.68392509 -0.51512361 4293269760
3.2365212 0.68366134 -0.52416503 4293269760
3.241282 0.68477875 -0.53367531 4293269760
3.2244277 0.68133402 -0.53898609 4293269760
3.2319942 0.68304271 -0.54773486 4293269760
3.2255726 0.68179822 -0.55348694 4293269760
3.2115407 0.67894578 -0.55725449 4293269760
3.1983585 0.67627144 -0.5604763 4293139200
3.1986549 0.67644268 -0.56538922 4293139200
3.1733899 0.67121339 -0.56509674 4293139200
3.181459 0.67302513 -0.57005978 4293139200
3.1761425 0.67200828 -0.57196701 4293139200
3.1204736 0.66034794 -0.56409997 4292878080
3.1754768 0.67207897 -0.57556897 4293139200
3.1801283 0.67316735 -0.57727087 4293139200
3.1714067 0.67142767 -0.57587451 4293139200
3.1911869 0.67571485 -0.57897925 4293139200
3.1989198 0.67745447 -0.5792191 4293269760
3.1857195 0.67476553 -0.57500011 4293139200
3.2210207 0.6823377 -0.57884568 4293269760
3.2320213 0.68476909 -0.57761377 4293269760
3.23507 0.68551761 -0.57427591 4293269760
3.2268324 0.68387669 -0.56827688 4293269760
3.2356019 0.68583542 -0.56461209 4293269760
3.233602 0.68551385 -0.55840492 4293269760
3.2376471 0.68647188 -0.55259246 4293269760
3.2310848 0.68518293 -0.54433942 4293269760
3.2257485 0.68415272 -0.53569406 4293269760
3.2221839 0.68349719 -0.52675021 4293269760
3.2122662 0.68149471 -0.5162015 4293269760
3.2067056 0.68041462 -0.50580728 4293139200
3.2068994 0.6805535 -0.49576011 4293139200
3.2327337 0.68612766 -0.48902676 4293269760
3.2531028 0.69054419 -0.48075572 4293400320
3.2349944 0.68680215 -0.46625036 4293269760
3.2101047 0.68162036 -0.45040342 4293139200
3.1879439 0.6770156 -0.43461636 4293139200
3.1862888 0.67675936 -0.42123291 4293139200
3.1397092 0.66697073 -0.4016459 4292878080
2.9577789 0.62845689 -0.36529952 4292225280
2.8297014 0.60136151 -0.33658609 4291833600
2.6702712 0.56760317 -0.30510116 4291311360
2.6040461 0.55362213 -0.284996 4291050240
2.521276 0.53612411 -0.26349351 4290789120
2.5088615 0.53356117 -0.24952719 4290658560
2.4817891 0.52788424 -0.23403241 4290658560
2.4410083 0.51929379 -0.21734382 4290397440
2.4882574 0.52940166 -0.20822133 4290658560
2.4235721 0.51572978 -0.18960266 4290397440
2.410862 0.51309854 -0.17527004 4290397440
2.4443281 0.52027994 -0.16399057 4290397440
2.4314957 0.51762229 -0.1493127 4290397440
2.3579597 0.50205934 -0.13124046 4290136320
2.3909502 0.50914067 -0.11919418 4290266880
2.3681114 0.50435233 -0.10417789 4290136320
2.302788 0.49052757 -0.087699793 4290005760
2.2748837 0.48465782 -0.073108673 4289875200
2.3176656 0.49382311 -0.060628202 4290005760
2.3379796 0.49821067 -0.047118448 4290136320
2.2659736 0.48295546 -0.032005306 4289875200
2.2664771 0.48312679 -0.018321261 4289875200
2.3306203 0.49684301 -0.0047495482 4290005760
2.3491931 0.50086254 0.0094209341 4290136320
2.2807031 0.486348 0.022935413 4289875200
2.3689373 0.50519961 0.038101323 4290136320
2.4092374 0.51384866 0.05323058 4290266880
2.4039373 0.51278824 0.067506596 4290266880
2.3413825 0.49953189 0.079700537 4290136320
2.4377406 0.52012604 0.09739472 4290397440
2.4693851 0.52693772 0.11315728 4290528000
2.4657414 0.52623165 0.12734525 4290528000
2.3366399 0.49878779 0.13416179 4290136320
2.5286295 0.53977704 0.15957519 4290789120
2.6707892 0.57015473 0.18356627 4291180800
2.9499521 0.62975067 0.21910326 4292225280
3.1941385 0.68190461 0.25468716 4293008640
3.2650566 0.6971209 0.27790606 4293269760
3.2817647 0.70077896 0.29667631 4293400320
3.281307 0.70077634 0.31365108 4293400320
3.2812061 0.70085013 0.33030611 4293400320
3.2227156 0.68846506 0.34042856 4293139200
3.2811971 0.70103967 0.36250451 4293400320
3.2630661 0.69726598 0.37591469 4293269760
3.2642672 0.69761837 0.39104548 4293400320
3.2540534 0.69553405 0.40432781 4293269760
3.2269325 0.68983936 0.41489044 4293269760
3.2637293 0.69779348 0.43322787 4293400320
3.2799375 0.70135278 0.44855976 4293400320
3.274749 0.70034266 0.46050078 4293400320
3.2732465 0.70012015 0.47240669 4293400320
3.272208 0.69999713 0.48382792 4293400320
3.2317493 0.69145006 0.48872909 4293269760
3.2684808 0.69939941 0.50471038 4293400320
3.2679098 0.69937736 0.51446849 4293400320
3.2704248 0.70001549 0.52412117 4293400320
3.2597172 0.69782686 0.53102684 4293400320
3.2616584 0.6983431 0.53934985 4293400320
3.2668247 0.69954979 0.5475933 4293400320
3.2488458 0.69580591 0.5512954 4293400320
3.2604978 0.69840115 0.55936104 4293400320
3.2644279 0.69934517 0.56547594 4293400320
3.2501552 0.69639432 0.56776255 4293400320
3.2629611 0.69923913 0.57410383 4293400320
3.2406924 0.69457644 0.57359654 4293400320
3.240222 0.6945802 0.57624549 4293400320
3.2350454 0.69357657 0.57737577 4293400320
3.2482827 0.69651705 0.58111167 4293400320
3.2433312 0.6955626 0.58091575 4293400320
3.252466 0.69762629 0.58255488 4293400320
3.252558 0.69775337 0.58188868 4293400320
3.2566018 0.69872797 0.58124113 4293400320
3.2482495 0.69704628 0.57770157 4293400320
3.2539806 0.69838369 0.5759846 4293400320
3.2621427 0.70024323 0.57400626 4293400320
3.2560527 0.69904763 0.56884617 4293400320
3.2578881 0.69955188 0.56440622 4293400320
3.2585375 0.69980234 0.55909485 4293400320
3.2526112 0.69864255 0.55201095 4293400320
3.2575855 0.69982195 0.5461303 4293400320
3.2547591 0.69932801 0.53830111 4293400320
3.2492392 0.69825613 0.52941889 4293400320
3.2374711 0.69584292 0.5189479 4293269760
3.2519255 0.6990599 0.51206386 4293400320
3.2748432 0.7040959 0.50580794 4293400320
3.2684271 0.70283335 0.49439165 4293400320
3.2538364 0.69981456 0.48123884 4293400320
3.2123008 0.69141567 0.39282095 4293139200
3.258127 0.70138603 0.3836937 4293269760
3.27863 0.70591402 0.37085086 4293400320
3.2364259 0.69695562 0.35061014 4293269760
3.1369512 0.67567348 0.32446602 4292878080
2.7570469 0.59404379 0.271377 4291572480
2.5920045 0.55862653 0.24185678 4291050240
2.4911582 0.53701532 0.21942101 4290658560
2.4563115 0.52960539 0.20325753 4290528000
2.4598024 0.5304479 0.19020128 4290528000
2.4690392 0.53252816 0.17730673 4290528000
2.4108663 0.52008975 0.1596566 4290397440
2.3799257 0.5135138 0.14412895 4290266880
2.4061038 0.51924294 0.13191804 4290266880
2.406774 0.51947701 0.11801085 4290266880
2.2961111 0.49571428 0.099168845 4289875200
2.3243666 0.50189131 0.086679794 4290005760
2.3418903 0.50575662 0.073423982 4290136320
2.292876 0.49527404 0.058194954 4289875200
2.1930337 0.47382471 0.04250655 4289614080
2.3231306 0.5019725 0.031016963 4290005760
2.3267002 0.50282973 0.017008459 4290005760
2.2709475 0.49088523 0.0028655375 4289875200
2.3687274 0.5120753 -0.011358409 4290136320
2.3637137 0.5110817 -0.025633402 4290136320
2.3445661 0.50703591 -0.039584007 4290136320
2.3543468 0.50923592 -0.053929303 4290136320
2.4380801 0.52740967 -0.070480064 4290397440
2.4561782 0.53141057 -0.085666649 4290528000
2.4503794 0.53024948 -0.10000291 4290528000
2.3784208 0.51479053 -0.11107271 4290266880
2.5011661 0.54140949 -0.13142213 4290658560
2.4678104 0.53429198 -0.14394639 4290528000
2.4301944 0.52625072 -0.15566106 4290397440
2.4455252 0.52965635 -0.17047495 4290528000
2.5391755 0.55000269 -0.19117808 4290789120
2.5576079 0.55408418 -0.20663369 4290919680
2.6120055 0.56594843 -0.22516902 4291050240
2.7325008 0.59212011 -0.25009555 4291441920
2.914432 0.6315974 -0.28196499 4292094720
3.1828163 0.68980271 -0.32421443 4293008640
3.2287841 0.69987202 -0.34505209 4293269760
3.2405961 0.70254797 -0.36214855 4293269760
3.220701 0.6983574 -0.37526613 4293139200
3.173475 0.68824458 -0.38447142 4293008640
3.2628553 0.70772457 -0.40998527 4293400320
3.2562733 0.70641643 -0.42335904 4293400320
3.2648518 0.70839322 -0.43823966 4293400320
3.2543154 0.70622677 -0.45005807 4293400320
3.2449348 0.70430976 -0.46145222 4293269760
3.2416573 0.70371509 -0.47314635 4293269760
3.2342932 0.70223349 -0.48367167 4293269760
3.2336063 0.70219928 -0.49461964 4293269760
3.2343452 0.70247394 -0.50522459 4293269760
3.2343144 0.70258123 -0.51513696 4293269760
3.2373552 0.70335466 -0.52495962 4293269760
3.2372835 0.70345229 -0.5336861 4293269760
3.2300937 0.70200419 -0.54060936 4293269760
3.2280061 0.70166296 -0.54774266 4293269760
3.2264109 0.70142794 -0.55432093 4293269760
3.20276 0.69640219 -0.55642217 4293269760
3.1895952 0.69365215 -0.55963415 4293139200
3.1898921 0.69382536 -0.56453812 4293139200
3.1781368 0.69137925 -0.56664026 4293139200
3.1823437 0.69240081 -0.57091999 4293139200
3.1818447 0.69239926 -0.57369679 4293139200
3.171833 0.69032925 -0.57408458 4293139200
3.1115377 0.67732531 -0.56466895 4292878080
3.171391 0.69044381 -0.57638472 4293139200
3.1761494 0.69158322 -0.57743418 4293139200
3.1920567 0.69514757 -0.57983613 4293139200
3.1826096 0.69319659 -0.57695931 4293139200
3.1865962 0.69416744 -0.57584751 4293139200
3.2035692 0.69796407 -0.57639694 4293269760
3.2232168 0.70234346 -0.57672501 4293269760
3.2272232 0.70331877 -0.57356095 4293269760
3.2266984 0.70330733 -0.56892252 4293269760
3.2219734 0.70238078 -0.56289315 4293269760
3.2247903 0.70309591 -0.55753285 4293269760
3.22401 0.70302725 -0.55090344 4293269760
3.2222729 0.70274955 -0.54348111 4293269760
3.2169409 0.70168817 -0.5348441 4293269760
3.2278509 0.7041651 -0.52827781 4293269760
3.208297 0.70000315 -0.51614726 4293269760
3.2027431 0.69889098 -0.50575 4293139200
3.1990721 0.6981886 -0.49510172 4293139200
3.2287385 0.70475388 -0.48896277 4293269760
3.2490823 0.7092877 -0.48068815 4293400320
3.2406704 0.70755124 -0.46757588 4293269760
3.2109764 0.70117182 -0.45101029 4293139200
3.1936872 0.69749635 -0.43586257 4293139200
3.2000241 0.69897401 -0.4234935 4293139200
3.2243917 0.70438612 -0.41290715 4293269760
3.1439381 0.68692386 -0.38868928 4292878080
2.9629629 0.64751619 -0.35279325 4292355840
2.7796502 0.6075874 -0.31791425 4291703040
2.6289957 0.57477754 -0.28800631 4291180800
2.5512006 0.55786771 -0.26687473 4290919680
2.5242312 0.55205238 -0.25128883 4290789120
2.5069287 0.54834658 -0.23661666 4290658560
2.4652374 0.53931218 -0.21969317 4290528000
2.5134127 0.54990804 -0.21050356 4290658560
2.443948 0.53480268 -0.19135059 4290528000
2.4361343 0.53316545 -0.17724246 4290397440
2.4695687 0.54054254 -0.16580203 4290528000
2.461637 0.53887951 -0.15126257 4290528000
2.3638148 0.51756489 -0.13164192 4290136320
2.4016449 0.52590346 -0.11978555 4290266880
2.3837173 0.52205169 -0.10490377 4290266880
2.3321457 0.51084101 -0.088838875 4290005760
2.3003755 0.5039584 -0.073930331 4290005760
2.3284595 0.51016718 -0.060893543 4290005760
2.3248489 0.50944334 -0.046816655 4290005760
2.2914848 0.50220889 -0.032313854 4289875200
2.24473 0.49204215 -0.018073158 4289744640
2.3243113 0.50952345 -0.0046448749 4290005760
2.3325949 0.51140261 0.0094657363 4290005760
2.2729812 0.49841791 0.02298329 4289875200
2.3747795 0.52077121 0.038343471 4290266880
2.4023461 0.52687514 0.053247903 4290266880
2.4048493 0.52749157 0.067719467 4290266880
2.3287027 0.51088101 0.079469226 4290005760
2.4434874 0.53609258 0.097850561 4290397440
2.4663067 0.54116172 0.1132636 4290528000
2.4577887 0.53936553 0.12719937 4290528000
2.3386016 0.51331586 0.13454188 4290136320
2.5907931 0.56865782 0.16380543 4290919680
2.7860603 0.61153609 0.191833 4291703040
3.1741207 0.69669288 0.23615725 4293008640
3.2086532 0.70435601 0.25629696 4293139200
3.2707126 0.71805787 0.27887049 4293400320
3.2776647 0.71967721 0.29681104 4293400320
3.2772064 0.71967173 0.31378421 4293400320
3.2771046 0.71974468 0.33043745 4293400320
3.2235446 0.70808864 0.34106907 4293139200
3.2770939 0.71993375 0.36263177 4293400320
3.2774265 0.72010291 0.37816471 4293400320
3.2601836 0.71641469 0.39116731 4293400320
3.2653975 0.71765566 0.40636322 4293400320
3.2228942 0.70842052 0.41500551 4293269760
3.2635186 0.71743709 0.43385586 4293400320
3.2719593 0.71938831 0.44814068 4293400320
3.2754874 0.72026139 0.46128884 4293400320
3.2652795 0.71811771 0.47195184 4293400320
3.2594104 0.71692699 0.48264092 4293400320
3.236398 0.71196932 0.49013999 4293269760
3.2643874 0.71821922 0.50480264 4293400320
3.2734702 0.72031569 0.51607716 4293400320
3.2615039 0.71778595 0.52343148 4293400320
3.2643151 0.71850491 0.53252107 4293400320
3.2571602 0.71703303 0.53935635 4293400320
3.2723711 0.72047997 0.54928005 4293400320
3.249594 0.71557271 0.55217844 4293400320
3.2477453 0.71526849 0.55793345 4293400320
3.2603393 0.71814227 0.56553137 4293400320
3.2460849 0.71510935 0.56781262 4293400320
3.2502124 0.71612161 0.57262385 4293400320
3.2404835 0.71408463 0.57431751 4293400320
3.2400136 0.71408588 0.57696414 4293400320
3.2444644 0.71517098 0.57980907 4293400320
3.2442162 0.71522218 0.58113438 4293400320
3.2306132 0.71233267 0.57938135 4293400320
3.2532048 0.71741545 0.58342797 4293400320
3.248487 0.71648383 0.58189404 4293400320
3.252526 0.71748191 0.58124053 4293400320
3.2546711 0.71806335 0.57956076 4293400320
3.2595317 0.719244 0.577676 4293400320
3.2676857 0.72115147 0.57568169 4293400320
3.2572048 0.71895146 0.56973463 4293400320
3.2586269 0.71937603 0.56520957 4293400320
3.2640927 0.72069305 0.56071073 4293400320
3.2523963 0.7182253 0.5526219 4293400320
3.2535112 0.71858352 0.54608083 4293400320
3.2458687 0.71701002 0.53744805 4293400320
3.2413185 0.71611893 0.52872854 4293400320
3.233211 0.71444279 0.51884639 4293269760
3.2478588 0.71778989 0.51198995 4293400320
3.2755756 0.724024 0.50647318 4293400320
3.25951 0.7205922 0.49357447 4293400320
3.2632973 0.7215445 0.48314822 4293400320
3.2149565 0.71183509 0.39366508 4293139200
3.2587898 0.72164798 0.38428038 4293400320
3.2647109 0.72307688 0.36976907 4293400320
3.2322652 0.71601713 0.35062709 4293269760
3.1834321 0.70532876 0.32970938 4293008640
2.9651644 0.65713376 0.29222792 4292355840
2.6691079 0.5917021 0.24937762 4291311360
2.5149148 0.55765975 0.22181144 4290789120
2.4531503 0.54407489 0.20327416 4290528000
2.4566364 0.54493809 0.19021876 4290528000
2.4609909 0.5459941 0.17697553 4290528000
2.3892505 0.53019053 0.15845011 4290266880
2.3866069 0.52969384 0.14473818 4290266880
2.4078796 0.53449786 0.13220555 4290397440
2.3939219 0.53149378 0.11755443 4290266880
2.2833986 0.50707877 0.098769218 4289875200
2.3301523 0.51753211 0.087029003 4290005760
2.330586 0.51771569 0.073187903 4290005760
2.2573442 0.50155616 0.057393756 4289875200
2.2048478 0.48999387 0.042812612 4289614080
2.3435636 0.52085811 0.031353656 4290136320
2.3373671 0.51957101 0.017133716 4290136320
2.2816861 0.50729895 0.0029081837 4289875200
2.3793392 0.52906531 -0.011396631 4290266880
2.3889735 0.53129411 -0.025913633 4290266880
2.3600869 0.52496845 -0.039869152 4290136320
2.374732 0.5283103 -0.054437548 4290266880
2.4671357 0.54892844 -0.071381703 4290528000
2.4813015 0.55216873 -0.08662305 4290528000
2.4755034 0.5509733 -0.10112648 4290528000
2.3948538 0.53313947 -0.11195234 4290266880
2.4605229 0.54782838 -0.12941693 4290528000
2.4831412 0.55294973 -0.14499299 4290658560
2.4543352 0.54663634 -0.15737601 4290528000
2.4891136 0.55446357 -0.17370296 4290658560
2.5641277 0.57124436 -0.19326922 4290919680
2.6519825 0.59088761 -0.2144987 4291180800
2.7996755 0.6238535 -0.24162224 4291703040
2.9845879 0.6651144 -0.27348202 4292355840
3.1148121 0.6942144 -0.30169749 4292878080
3.2169299 0.71706587 -0.32806468 4293139200
3.2334175 0.72085589 -0.34594494 4293269760
3.236408 0.72164071 -0.36209908 4293269760
3.2301157 0.7203576 -0.37680101 4293269760
3.1866708 0.71079624 -0.38652149 4293139200
3.2638254 0.72810501 -0.41058883 4293400320
3.2578046 0.72688168 -0.42405772 4293400320
3.2567589 0.72676665 -0.43767115 4293400320
3.2588117 0.72734189 -0.4512158 4293400320
3.2359037 0.72235119 -0.46071726 4293269760
3.2278011 0.72066027 -0.47168848 4293269760
3.2213485 0.71933639 -0.48231521 4293269760
3.2429357 0.72426689 -0.49664512 4293400320
3.2349827 0.72260755 -0.50593603 4293269760
3.2301273 0.72163832 -0.51509511 4293269760
3.2379832 0.72350544 -0.52570146 4293400320
3.2330911 0.72252697 -0.53364676 4293269760
3.2259097 0.72103655 -0.54057151 4293269760
3.223824 0.72068304 -0.54770643 4293269760
3.2087696 0.71743256 -0.55197108 4293269760
3.1937978 0.71419901 -0.55555272 4293139200
3.1989269 0.71545446 -0.5619688 4293269760
3.1761391 0.71047223 -0.56280529 4293139200
3.1605546 0.70709765 -0.56421077 4293139200
3.173409 0.71007764 -0.57003176 4293139200
3.1642604 0.70813954 -0.57124507 4293139200
3.1725214 0.71009254 -0.5749346 4293139200
3.1074982 0.69565916 -0.56465089 4292878080
3.1816857 0.71235329 -0.57899112 4293139200
3.172024 0.71029741 -0.57742053 4293139200
3.1879094 0.7139554 -0.57982486 4293139200
3.1784737 0.71194857 -0.57695061 4293139200
3.2042851 0.71782786 -0.57979101 4293269760
3.2176652 0.72092617 -0.57968295 4293269760
3.2190249 0.72133428 -0.57672429 4293269760
3.2230251 0.72233307 -0.57356304 4293269760
3.2224998 0.72231835 -0.56892747 4293269760
3.2234762 0.72263944 -0.56389737 4293269760
3.2254031 0.7231729 -0.55837643 4293269760
3.2294366 0.7241779 -0.55256391 4293269760
3.2228899 0.72281241 -0.54431093 4293269760
3.2175658 0.72171998 -0.53566563 4293269760
3.2091913 0.71994323 -0.52593231 4293269760
3.2041154 0.71890473 -0.51617318 4293269760
3.1898882 0.71581429 -0.50440663 4293139200
3.1987598 0.71790069 -0.49573183 4293139200
3.2245274 0.72377539 -0.48899823 4293269760
3.2448437 0.72842884 -0.48072702 4293400320
3.231611 0.72555923 -0.46691981 4293269760
3.2106524 0.72095555 -0.45159879 4293269760
3.1943543 0.71739566 -0.436571 4293139200
3.2045553 0.71977967 -0.42469841 4293139200
3.2201812 0.72338116 -0.41296127 4293269760
3.1991558 0.71875811 -0.39609021 4293139200
3.1131604 0.6995514 -0.37122107 4292878080
2.8854549 0.64852899 -0.33050478 4292094720
2.7725646 0.62326932 -0.30419061 4291703040
2.6404455 0.59368533 -0.27662998 4291180800
2.5578344 0.57521099 -0.25502509 4290919680
2.5269694 0.5683533 -0.23887944 4290789120
2.4853427 0.55907637 -0.22183511 4290658560
2.4679444 0.55523968 -0.20702605 4290528000
2.4641006 0.55444723 -0.19324493 4290528000
2.465065 0.55473483 -0.17964838 4290528000
2.4897051 0.56034315 -0.16744129 4290658560
2.4200673 0.54476243 -0.14896856 4290397440
2.3889756 0.53784251 -0.13328691 4290266880
2.3844926 0.53690284 -0.11915461 4290266880
2.4039936 0.54135567 -0.1060076 4290266880
2.3573694 0.5309394 -0.089990705 4290136320
2.3295469 0.52474904 -0.075040109 4290005760
2.363451 0.53244144 -0.061966576 4290136320
2.3452187 0.52840704 -0.047365304 4290136320
2.3119004 0.52097726 -0.032721117 4290005760
2.265208 0.51053619 -0.018338116 4289875200
2.3285277 0.52485043 -0.0047371183 4290005760
2.3263996 0.52443755 0.0093754902 4290005760
2.2797642 0.51400572 0.023004318 4289875200
2.3716741 0.53476238 0.038263049 4290266880
2.4089584 0.54322475 0.053381298 4290397440
2.401705 0.54165983 0.067637302 4290266880
2.335408 0.52679682 0.079721235 4290136320
2.4451668 0.55158615 0.097961545 4290528000
2.4591839 0.55481356 0.11300042 4290528000
2.4497039 0.55274791 0.12686361 4290528000
2.325804 0.5248993 0.13390267 4290005760
2.6728244 0.60317075 0.16911249 4291311360
3.0081728 0.67883152 0.20727107 4292486400
3.2341905 0.72986656 0.24082686 4293269760
3.2326488 0.72961211 0.25844172 4293269760
3.2664373 0.737324 0.27876359 4293400320
3.2782388 0.74007988 0.29714522 4293400320
3.2826352 0.74116659 0.31460994 4293400320
3.2679665 0.73795348 0.32984573 4293400320
3.2096267 0.72488791 0.33994374 4293139200
3.2631106 0.73704904 0.36146033 4293400320
3.2634475 0.73722094 0.37695023 4293400320
3.270453 0.73889822 0.39281818 4293400320
3.2427282 0.73273724 0.40398285 4293269760
3.2235179 0.72849697 0.41554222 4293269760
3.2689228 0.73884416 0.43505746 4293400320
3.2676783 0.73866099 0.44805896 4293400320
3.2712011 0.7395547 0.46121037 4293400320
3.2696986 0.73931414 0.47313386 4293400320
3.2686594 0.73917842 0.48457184 4293400320
3.2273357 0.72994208 0.48934239 4293269760
3.2562542 0.73657489 0.50414252 4293400320
3.2547212 0.73632842 0.5137372 4293400320
3.2620487 0.73808497 0.52415013 4293400320
3.2552207 0.7366426 0.53168446 4293400320
3.2528901 0.73621714 0.5393104 4293400320
3.2536414 0.73648876 0.54681408 4293400320
3.2501423 0.73579979 0.55295992 4293400320
3.2521412 0.73635453 0.55938995 4293400320
3.2512515 0.73625654 0.56467044 4293400320
3.2514372 0.73640227 0.56947386 4293400320
3.23296 0.73232579 0.57031941 4293400320
3.2323816 0.73229909 0.57362527 4293400320
3.235755 0.73316723 0.57695895 4293400320
3.2450023 0.73536581 0.58066845 4293400320
3.2399487 0.73432785 0.5811404 4293400320
3.2446158 0.7354911 0.5826683 4293400320
3.2349856 0.73341739 0.58094484 4293400320
3.2490129 0.73670191 0.58277839 4293400320
3.2578492 0.73881197 0.5829879 4293400320
3.2503819 0.73722941 0.57959622 4293400320
3.2508085 0.73743558 0.57693273 4293400320
3.2537642 0.73821539 0.57403517 4293400320
3.2481003 0.73704231 0.56894708 4293400320
3.2591338 0.73965448 0.56610394 4293400320
3.2549736 0.73882318 0.55995035 4293400320
3.262532 0.74064934 0.55514765 4293400320
3.257874 0.73970592 0.54761386 4293400320
3.246392 0.73721474 0.53832996 4293400320
3.2370327 0.73520482 0.52881891 4293400320
3.2327886 0.73435533 0.51956147 4293269760
3.2522366 0.73888278 0.51346111 4293400320
3.2712407 0.74331123 0.50658298 4293400320
3.2600186 0.74087983 0.49442062 4293400320
3.2541504 0.73966372 0.48255461 4293400320
3.2184572 0.7325334 0.39462879 4293269760
3.2544827 0.74084264 0.38429588 4293400320
3.2652414 0.74340862 0.37033451 4293400320
3.2328401 0.73615867 0.3511703 4293269760
3.2073569 0.73048049 0.33264184 4293139200
3.1741967 0.72305393 0.3132363 4293008640
2.7881999 0.63533068 0.26085088 4291703040
2.5673409 0.58516538 0.22674452 4290919680
2.4547632 0.55963331 0.20369349 4290528000
2.4485233 0.55830407 0.18986003 4290528000
2.4577329 0.56049263 0.176994 4290528000
2.3948438 0.54626125 0.15904932 4290266880
2.3737133 0.54153752 0.14416781 4290266880
2.4046903 0.54868406 0.13222614 4290397440
2.3775964 0.54260051 0.11693037 4290266880
2.2852437 0.52164233 0.099000812 4289875200
2.3195457 0.52954715 0.086771011 4290005760
2.3298726 0.5319888 0.073285624 4290136320
2.2865164 0.52219063 0.058232836 4289875200
2.2253199 0.50832069 0.043288823 4289744640
2.3438973 0.53545141 0.031425323 4290136320
2.3625407 0.53979295 0.017365551 4290136320
2.3157079 0.52919638 0.0029792772 4290005760
2.4044564 0.54953676 -0.01150559 4290266880
2.4140759 0.55182314 -0.026193058 4290397440
2.3852246 0.54532808 -0.040319227 4290266880
2.3998466 0.54875654 -0.055057228 4290266880
2.4215891 0.55381215 -0.07012216 4290397440
2.5101616 0.57413286 -0.087715 4290658560
2.421859 0.55405629 -0.099030294 4290397440
2.4335513 0.55681872 -0.11388072 4290397440
2.4942529 0.57078105 -0.13133174 4290658560
2.5032032 0.57292026 -0.14632365 4290658560
2.4890215 0.56977248 -0.15977754 4290658560
2.5091505 0.5744676 -0.1752978 4290658560
2.6495616 0.60666752 -0.19993773 4291180800
2.8281879 0.64761728 -0.22901756 4291833600
2.9710681 0.68040395 -0.2567144 4292355840
3.1736877 0.72686762 -0.29115194 4293008640
3.1760032 0.72751522 -0.30798605 4293008640
3.216536 0.7369085 -0.32841152 4293139200
3.2378471 0.74190503 -0.3468301 4293269760
3.2359834 0.74159783 -0.36248365 4293269760
3.2306654 0.74049926 -0.37731722 4293269760
3.1700001 0.72672594 -0.38496283 4293008640
3.2688177 0.74947375 -0.41171473 4293400320
3.2583082 0.74718565 -0.42463896 4293400320
3.2562943 0.74684268 -0.43814293 4293400320
3.2506142 0.74565911 -0.45063233 4293400320
3.2326493 0.74165952 -0.46082011 4293269760
3.2331567 0.74189216 -0.47305435 4293269760
3.2218847 0.73942411 -0.4829931 4293269760
3.2299442 0.74138713 -0.49527049 4293269760
3.2354951 0.74277496 -0.50664717 4293269760
3.2258275 0.74067247 -0.51505309 4293269760
3.2336721 0.7425859 -0.52566057 4293400320
3.2287858 0.74157864 -0.5336073 4293269760
3.2168038 0.73894238 -0.53972667 4293269760
3.2151012 0.73866391 -0.54691678 4293269760
3.208339 0.73722357 -0.5525986 4293269760
3.1895416 0.73301929 -0.55551988 4293139200
3.1898596 0.73320222 -0.56109297 4293269760
3.1815083 0.73139381 -0.56448001 4293139200
3.1649814 0.72770673 -0.56572819 4293139200
3.1691761 0.72877771 -0.57000667 4293139200
3.1638782 0.72766769 -0.5719161 4293139200
3.108422 0.71503228 -0.56405205 4292878080
3.1680088 0.72882926 -0.57639533 4293139200
3.1678419 0.72889644 -0.57722658 4293139200
3.1543541 0.72590101 -0.57495832 4293139200
3.1788533 0.73163736 -0.57893974 4293139200
3.1742268 0.7306779 -0.57694173 4293139200
3.1734023 0.73059195 -0.57496578 4293139200
3.2085648 0.73878229 -0.57881367 4293269760
3.2195206 0.74140614 -0.57758439 4293269760
3.2187145 0.74132425 -0.57356501 4293269760
3.2181888 0.7413063 -0.56893229 4293269760
3.2230804 0.74253452 -0.56459129 4293269760
3.2245352 0.74297148 -0.55898494 4293269760
3.2155011 0.74099368 -0.55093086 4293269760
3.2272282 0.74379432 -0.54579097 4293269760
3.2132561 0.74067813 -0.5356853 4293269760
3.2097032 0.7399599 -0.52674454 4293269760
3.2046351 0.7388919 -0.51697534 4293269760
3.1942806 0.73660553 -0.50580782 4293139200
3.1975577 0.73745847 -0.49624267 4293139200
3.2202036 0.74277377 -0.48903355 4293269760
3.2356696 0.74643552 -0.48005033 4293269760
3.2272758 0.74459898 -0.4669615 4293269760
3.1928291 0.7367565 -0.44973961 4293139200
3.1900678 0.73621571 -0.43661839 4293139200
3.2050862 0.73977369 -0.42539036 4293139200
3.2206931 0.74346781 -0.41363612 4293269760
3.1987302 0.73849845 -0.39662665 4293139200
3.1602781 0.72972429 -0.37740552 4293008640
3.0717435 0.70939487 -0.35237777 4292747520
2.8839207 0.66615409 -0.31689417 4292094720
2.7702215 0.64000452 -0.29067802 4291703040
2.5873713 0.59789085 -0.25837541 4291050240
2.5555925 0.59063196 -0.2419702 4290919680
2.5101531 0.5802179 -0.22441205 4290789120
2.5063858 0.57942086 -0.21059713 4290658560
2.5035355 0.57883519 -0.19666736 4290658560
2.4850771 0.57464516 -0.18141697 4290658560
2.5096927 0.58040118 -0.16908169 4290658560
2.4362657 0.56351435 -0.1502362 4290397440
2.4188426 0.55955952 -0.13520552 4290397440
2.3997772 0.55522424 -0.1201508 4290266880
2.4289911 0.56204253 -0.10732803 4290397440
2.3775675 0.55022901 -0.090957597 4290266880
2.3410225 0.54185104 -0.07558465 4290136320
2.3836493 0.55177015 -0.062656842 4290266880
2.3654447 0.54762965 -0.047915328 4290136320
2.2535572 0.52182966 -0.032006867 4289875200
2.2806737 0.52816349 -0.018564433 4289875200
2.3487804 0.54397774 -0.0048645241 4290136320
2.3341396 0.54065847 0.0093403645 4290136320
2.2019787 0.51015544 0.022182338 4289614080
2.3597188 0.54670841 0.038042247 4290136320
2.3959799 0.55516487 0.05308447 4290266880
2.4033463 0.55693752 0.0676919 4290397440
2.332269 0.54055744 0.07964126 4290136320
2.4370129 0.56486648 0.097683161 4290397440
2.4646382 0.57133061 0.11331793 4290528000
2.3808522 0.5520044 0.12338997 4290266880
2.4319732 0.56390864 0.14010684 4290397440
2.8066094 0.65072918 0.17770542 4291703040
3.2004809 0.74202615 0.22069021 4293139200
3.2570512 0.75522095 0.24274386 4293269760
3.2098656 0.74438453 0.25686115 4293139200
3.262048 0.75656676 0.27865681 4293400320
3.2825673 0.76141572 0.297831 4293400320
3.2786222 0.76059693 0.31454384 4293400320
3.2559035 0.75542718 0.32896948 4293400320
3.2101581 0.744919 0.34035861 4293139200
3.2635677 0.75739461 0.36189899 4293400320
3.2687414 0.75869018 0.37797296 4293400320
3.2612188 0.75704241 0.39214379 4293400320
3.2462027 0.75365674 0.40486914 4293269760
3.2143507 0.74636555 0.41483259 4293269760
3.2548664 0.75585991 0.4336867 4293400320
3.2719734 0.75992632 0.44916925 4293400320
3.2624593 0.75781727 0.46051979 4293400320
3.2604768 0.75745583 0.47236094 4293400320
3.2594402 0.75731421 0.48378584 4293400320
3.2229919 0.74895322 0.4892759 4293269760
3.2518706 0.75575614 0.5040794 4293400320
3.2599661 0.75773585 0.51519841 4293400320
3.2615047 0.75819385 0.52471399 4293400320
3.2561831 0.75705928 0.53250796 4293400320
3.2485065 0.75537783 0.53926456 4293400320
3.2492557 0.75565368 0.5467729 4293400320
3.2457602 0.75494391 0.55292356 4293400320
3.239109 0.75350112 0.55787069 4293400320
3.2564688 0.75763863 0.56631279 4293400320
3.2470489 0.75555331 0.56945264 4293400320
3.2285953 0.75136781 0.57030356 4293400320
3.2280161 0.75133741 0.57361472 4293400320
3.2361815 0.75334096 0.57780987 4293400320
3.2406168 0.75447798 0.58066893 4293400320
3.2355683 0.75341004 0.58114654 4293400320
3.2306333 0.75236863 0.58095634 4293400320
3.2354057 0.75358599 0.58182442 4293400320
3.2350211 0.75360423 0.58108002 4293400320
3.2438433 0.75576562 0.58129948 4293400320
3.2393591 0.75483096 0.57845062 4293400320
3.2412267 0.75537509 0.57605499 4293400320
3.2493536 0.75737739 0.57408285 4293400320
3.2532966 0.75840634 0.57068354 4293400320
3.2499115 0.75772941 0.56532949 4293400320
3.2553594 0.75911033 0.56084329 4293400320
3.2484953 0.75762385 0.55358428 4293400320
3.2534502 0.75889117 0.54769254 4293400320
3.2419825 0.75633228 0.53841448 4293400320
3.2326343 0.7542671 0.52890933 4293400320
3.2295675 0.75366604 0.51984662 4293269760
3.2430019 0.75691229 0.51280385 4293400320
3.261977 0.7614519 0.50594664 4293400320
3.2507665 0.75895375 0.49380505 4293400320
3.2514541 0.75923038 0.48293293 4293400320
3.2141862 0.75106597 0.39464316 4293269760
3.245326 0.75845343 0.38373822 4293269760
3.2657466 0.76334071 0.37089652 4293400320
3.2382321 0.75703591 0.35223445 4293269760
3.2030981 0.74894971 0.33265275 4293139200
3.2213552 0.75333327 0.31831697 4293269760
3.0805755 0.72056192 0.2885592 4292747520
2.6554945 0.62134725 0.23483662 4291180800
2.4736755 0.57895362 0.20553824 4290658560
2.4501243 0.5735411 0.19024082 4290528000
2.4544663 0.57464802 0.17699763 4290528000
2.3916605 0.56005472 0.15905203 4290266880
2.3754175 0.55634606 0.14446464 4290266880
2.396631 0.56139731 0.13196006 4290266880
2.3841603 0.55857027 0.11740836 4290266880
2.2919326 0.53708154 0.099421009 4290005760
2.3112872 0.54169726 0.086576335 4290005760
2.3365047 0.54768676 0.073588766 4290136320
2.3068345 0.54082984 0.058822975 4290005760
2.2544832 0.52866048 0.043907356 4289875200
2.3592751 0.55328405 0.031667035 4290136320
2.3876302 0.56001419 0.017565068 4290266880
2.3320968 0.54709667 0.002996258 4290136320
2.3638873 0.55463284 -0.011330727 4290136320
2.4293578 0.57006294 -0.026403671 4290397440
2.4102776 0.56568354 -0.040808063 4290397440
2.4287694 0.57010913 -0.055807058 4290397440
2.4465845 0.57437736 -0.070952803 4290528000
2.4694715 0.57983613 -0.086417295 4290528000
2.5156164 0.59075058 -0.1030191 4290789120
2.4536469 0.57631135 -0.11498807 4290528000
2.5093989 0.58948213 -0.13231984 4290658560
2.5319388 0.5948649 -0.1482164 4290789120
2.5041611 0.58844215 -0.16097914 4290658560
2.5388253 0.59667158 -0.17762409 4290789120
2.8179042 0.66227442 -0.21294774 4291833600
2.9592195 0.69555593 -0.2399703 4292355840
3.1658041 0.74417317 -0.2739307 4293008640
3.206975 0.75395989 -0.29462007 4293139200
3.1717603 0.74580824 -0.30800614 4293008640
3.2316122 0.75998628 -0.33041316 4293269760
3.243202 0.76282918 -0.34788942 4293269760
3.227787 0.75932682 -0.36206996 4293269760
3.2263463 0.75910729 -0.3773376 4293269760
3.183013 0.74904007 -0.38708067 4293139200
3.2599585 0.76724666 -0.41116878 4293400320
3.253052 0.765742 -0.42454138 4293400320
3.2519379 0.76559865 -0.43816203 4293400320
3.2414412 0.76324803 -0.44998124 4293400320
3.2244666 0.75937229 -0.4602873 4293269760
3.2288291 0.76051521 -0.47307128 4293269760
3.2127559 0.75684911 -0.48228624 4293269760
3.2342842 0.76203102 -0.49661592 4293400320
3.2263513 0.7602793 -0.50590688 4293269760
3.2311256 0.76151806 -0.51660365 4293400320
3.2197273 0.75894874 -0.52410746 4293269760
3.2208276 0.75932151 -0.53301644 4293269760
3.2124944 0.75747198 -0.53973562 4293269760
3.2059922 0.75605279 -0.5461064 4293269760
3.2136247 0.75796276 -0.55425727 4293269760
3.1900654 0.75252283 -0.55636066 4293269760
3.1855848 0.75157708 -0.56109524 4293269760
3.1724489 0.74859041 -0.56362855 4293139200
3.1569035 0.74503434 -0.56504029 4293139200
3.1601346 0.74590367 -0.56913996 4293139200
3.1644294 0.74702352 -0.57277793 4293139200
3.1640401 0.74703842 -0.57490599 4293139200
3.1637614 0.7470789 -0.57638532 4293139200
3.1731777 0.74940592 -0.5789625 4293139200
3.1635406 0.74723756 -0.57739192 4293139200
3.1793823 0.75108039 -0.57979614 4293139200
3.1822813 0.75186914 -0.57916218 4293269760
3.2005038 0.75627458 -0.58063143 4293269760
3.1956351 0.75522947 -0.57723027 4293269760
3.2104096 0.75882131 -0.57669526 4293269760
3.2096035 0.75873446 -0.57267869 4293269760
3.2186682 0.76097822 -0.56974721 4293269760
3.2139611 0.75996917 -0.56371325 4293269760
3.2240489 0.76245427 -0.55961132 4293400320
3.2159879 0.76065171 -0.5517115 4293269760
3.2180979 0.76125145 -0.54493219 4293269760
3.208946 0.75918937 -0.5356366 4293269760
3.2102025 0.75958627 -0.52748227 4293269760
3.195529 0.75621724 -0.51614428 4293269760
3.1813388 0.75296104 -0.5043779 4293139200
3.1949966 0.75628811 -0.49645051 4293269760
3.2206962 0.76246327 -0.489701 4293269760
3.2313278 0.76507574 -0.47998247 4293269760
3.2277632 0.76433057 -0.4675886 4293269760
3.2043126 0.75888026 -0.45189008 4293269760
3.1761401 0.75231099 -0.43522042 4293139200
3.2104349 0.76052129 -0.42659307 4293269760
3.2211971 0.76316404 -0.41417378 4293269760
3.213757 0.76149881 -0.39893964 4293269760
3.1743994 0.75227726 -0.37951374 4293139200
3.155988 0.74801207 -0.36243922 4293008640
3.0767801 0.72935021 -0.33845231 4292747520
2.9138954 0.6908682 -0.30607846 4292225280
2.7375913 0.64919817 -0.2736614 4291572480
2.5851023 0.61315864 -0.24501114 4291050240
2.5397382 0.60248727 -0.22727957 4290789120
2.5224121 0.59845591 -0.2121442 4290789120
2.5273349 0.59969527 -0.19871755 4290789120
2.5147347 0.59678221 -0.18374141 4290789120
2.5344737 0.60153294 -0.17089066 4290789120
2.4698961 0.58629835 -0.1524258 4290528000
2.447649 0.58109516 -0.13690966 4290528000
2.4198711 0.57457918 -0.12122885 4290397440
2.4539111 0.5827201 -0.10848156 4290528000
2.4025624 0.57061267 -0.091944702 4290397440
2.3699613 0.56294876 -0.07652951 4290266880
2.4086442 0.57219225 -0.063303612 4290397440
2.3894939 0.56771767 -0.04837181 4290266880
2.3572419 0.56013334 -0.033435598 4290136320
2.3058126 0.54799646 -0.018700279 4290005760
2.3344505 0.55485851 -0.0047418936 4290136320
2.3480449 0.55815148 0.0095070126 4290136320
2.2457054 0.53392494 0.022744861 4289744640
2.3565316 0.56029999 0.038143605 4290136320
2.4063611 0.57219839 0.053489171 4290397440
2.4000983 0.57077974 0.067795865 4290397440
2.324254 0.55283564 0.07957641 4290005760
2.4385786 0.58005661 0.097983643 4290528000
2.4525571 0.58344686 0.11302264 4290528000
2.4528184 0.58357918 0.12738928 4290528000
2.5634108 0.60992712 0.14797375 4290919680
3.0614159 0.72834522 0.19420575 4292616960
3.2378886 0.77037477 0.22370698 4293269760
3.2439072 0.77189869 0.24223098 4293269760
3.214247 0.76494145 0.25769547 4293139200
3.2615063 0.77627057 0.27912462 4293400320
3.2781186 0.78031534 0.29796672 4293400320
3.2689366 0.77822721 0.31417465 4293400320
3.2639906 0.77714628 0.33036473 4293400320
3.2009659 0.76225024 0.33997276 4293139200
3.2678459 0.77825493 0.36299244 4293400320
3.2643065 0.77750915 0.37809837 4293400320
3.2616246 0.77696753 0.39284775 4293400320
3.241797 0.77234566 0.40498859 4293269760
3.2099874 0.764871 0.41494811 4293269760
3.2600949 0.77689499 0.43508703 4293400320
3.2675307 0.77876318 0.44928065 4293400320
3.2580292 0.77659929 0.46062756 4293400320
3.2560487 0.7762264 0.47246519 4293400320
3.2550132 0.77607882 0.48388639 4293400320
3.2234256 0.76865417 0.49010253 4293269760
3.2513008 0.77539372 0.50476879 4293400320
3.260345 0.77764881 0.51604736 4293400320
3.2570739 0.77697033 0.52479851 4293400320
3.2517595 0.77580518 0.53258795 4293400320
3.2493062 0.77532208 0.54020572 4293400320
3.254441 0.77664822 0.54845995 4293400320
3.2461488 0.77477401 0.5538072 4293400320
3.2433429 0.77420795 0.55941933 4293400320
3.2386324 0.77318805 0.56403482 4293400320
3.2330496 0.77196032 0.56782067 4293400320
3.2280443 0.77087051 0.57102638 4293400320
3.2322578 0.77198029 0.57518828 4293400320
3.2317863 0.77197295 0.57784432 4293400320
3.2314246 0.77199239 0.57983881 4293400320
3.2311747 0.77203894 0.58116978 4293400320
3.2358277 0.77325648 0.58269769 4293400320
3.2310128 0.77221447 0.5818361 4293400320
3.2440431 0.77543354 0.58349657 4293400320
3.2442307 0.77558726 0.58215839 4293400320
3.244545 0.77577168 0.58015662 4293400320
3.2372055 0.77412838 0.57611006 4293400320
3.2497368 0.77723241 0.57491183 4293400320
3.2392943 0.7748484 0.56897652 4293400320
3.2502964 0.77758908 0.56613344 4293400320
3.2509425 0.77785575 0.56080651 4293400320
3.2488854 0.77747679 0.55435932 4293400320
3.2403982 0.77556086 0.54618859 4293400320
3.2375841 0.77500147 0.53835934 4293400320
3.2368932 0.77495009 0.53026313 4293400320
3.2201715 0.77106476 0.51897192 4293269760
3.2386026 0.7755881 0.5127303 4293400320
3.2623603 0.78138763 0.5066126 4293400320
3.2511673 0.77882582 0.49445018 4293400320
3.2374179 0.77565187 0.48141104 4293400320
3.2068572 0.76909065 0.39430156 4293269760
3.2456844 0.7785117 0.38432443 4293400320
3.2660785 0.78351873 0.37146053 4293400320
3.2337682 0.77589571 0.35224923 4293269760
3.2035196 0.76876479 0.33316994 4293139200
3.2200508 0.77284729 0.31864178 4293269760
3.2161241 0.77202582 0.30167109 4293269760
2.7967091 0.67156029 0.24766071 4291703040
2.5373437 0.60945332 0.21112233 4290789120
2.4554703 0.58990723 0.19092941 4290528000
2.455929 0.59010971 0.17735848 4290528000
2.3932109 0.5751515 0.15938546 4290266880
2.3769915 0.57134897 0.14477047 4290266880
2.4020607 0.57745665 0.13245183 4290397440
2.3891304 0.57444304 0.11782575 4290266880
2.3072255 0.55486614 0.10023119 4290005760
2.3401608 0.56286353 0.08778622 4290136320
2.3663208 0.56923604 0.074638195 4290266880
2.3269758 0.5598737 0.059426859 4290136320
2.2708106 0.54646689 0.04429492 4289875200
2.3842089 0.57380462 0.032054227 4290266880
2.4028029 0.57836443 0.017710488 4290397440
2.3560967 0.56722808 0.003039662 4290136320
2.3888147 0.57518411 -0.01145748 4290266880
2.4493315 0.5898273 -0.026648212 4290528000
2.4390244 0.58744156 -0.041343175 4290528000
2.4487381 0.58987087 -0.056334246 4290528000
2.476243 0.5965811 -0.071903244 4290658560
2.4806297 0.5977307 -0.086917579 4290658560
2.4667699 0.59448946 -0.10114492 4290528000
2.4871571 0.59949005 -0.11671066 4290658560
2.5486467 0.61438686 -0.13456607 4290919680
2.561435 0.61756235 -0.15014072 4290919680
2.5375652 0.61191118 -0.16334264 4290789120
2.686003 0.64775759 -0.18817516 4291311360
2.9620836 0.71436214 -0.22414483 4292355840
3.14937 0.75959492 -0.25573513 4293008640
3.2200243 0.77673799 -0.27899536 4293269760
3.2264657 0.77841103 -0.29680762 4293269760
3.2038686 0.77308506 -0.31154189 4293139200
3.227133 0.778813 -0.33039838 4293269760
3.2435408 0.78288913 -0.34839392 4293269760
3.2320094 0.78022891 -0.36303222 4293269760
3.2218726 0.7779038 -0.37732282 4293269760
3.1785986 0.76758432 -0.3870661 4293139200
3.2637775 0.78825134 -0.41220734 4293400320
3.2485392 0.78469431 -0.42452651 4293400320
3.247426 0.78454459 -0.43814716 4293400320
3.2456131 0.78422558 -0.45117161 4293400320
3.2276101 0.77999759 -0.4613615 4293269760
3.2195358 0.77816516 -0.4723506 4293269760
3.2179141 0.77788991 -0.48371729 4293269760
3.2211411 0.77878505 -0.49527085 4293269760
3.2218711 0.77907681 -0.5058921 4293269760
3.2170334 0.77802312 -0.51505125 4293269760
3.2152548 0.77770782 -0.52409273 4293269760
3.2247796 0.78012335 -0.53439796 4293400320
3.2128272 0.77734834 -0.54052776 4293269760
3.210748 0.77695858 -0.54766268 4293269760
3.2129927 0.77761352 -0.5549047 4293269760
3.1904225 0.772268 -0.55718273 4293269760
3.1859462 0.77129602 -0.56192541 4293269760
3.1824043 0.77054924 -0.56616962 4293269760
3.1525135 0.76342803 -0.56502587 4293139200
3.165313 0.76663232 -0.57085186 4293139200
3.1648138 0.76661915 -0.57363081 4293139200
3.1596384 0.76547372 -0.57489151 4293139200
3.1641445 0.7666707 -0.57724369 4293139200
3.1639771 0.76673615 -0.57807386 4293139200
3.1543529 0.76451159 -0.5765031 4293139200
3.1749568 0.76960504 -0.57978153 4293139200
3.182636 0.77156943 -0.58001953 4293269760
3.1960475 0.77492213 -0.58061677 4293269760
3.1998 0.77593547 -0.57877368 4293269760
3.1963646 0.77520716 -0.57495868 4293269760
3.2099204 0.77859503 -0.57351929 4293269760
3.2093954 0.77857107 -0.56888372 4293269760
3.214273 0.77985585 -0.56453973 4293269760
3.2122834 0.77947593 -0.55833262 4293269760
3.2210915 0.78171307 -0.55334336 4293400320
3.2184069 0.78116369 -0.54573035 4293269760
3.2140651 0.78021181 -0.53722513 4293269760
3.2057266 0.77828991 -0.52746755 4293269760
3.1910729 0.77483535 -0.51612961 4293269760
3.1855462 0.77359331 -0.50573552 4293139200
3.1857357 0.77373737 -0.49568835 4293139200
3.2162032 0.78122765 -0.48968622 4293269760
3.2354755 0.78600258 -0.48125514 4293400320
3.2184477 0.78196818 -0.46687585 4293269760
3.1975729 0.77699852 -0.45155516 4293269760
3.176523 0.77198476 -0.43586671 4293139200
3.2098083 0.78016138 -0.42709127 4293269760
3.2166998 0.78193074 -0.414159 4293269760
3.1996224 0.77787918 -0.39772564 4293139200
3.1782572 0.77278489 -0.38049176 4293139200
3.1804049 0.77340055 -0.36573976 4293139200
3.194916 0.7770195 -0.35192585 4293139200
3.0971978 0.75337076 -0.3257764 4292878080
2.8914764 0.70347148 -0.28943852 4292094720
2.6834545 0.65300083 -0.2546787 4291311360
2.5642614 0.62410825 -0.22978429 4290919680
2.5508451 0.62092131 -0.21482508 4290919680
2.5567427 0.62242895 -0.20130059 4290919680
2.5296338 0.61591148 -0.18507788 4290789120
2.5541995 0.62195808 -0.17245106 4290919680
2.48487 0.60517055 -0.15355408 4290658560
2.4772129 0.60337943 -0.13874763 4290658560
2.4349251 0.59316361 -0.12214369 4290528000
2.4825125 0.60481066 -0.1098901 4290658560
2.4273584 0.59146184 -0.093014352 4290397440
2.3948078 0.58361012 -0.077431053 4290266880
2.4237275 0.59071672 -0.063779429 4290397440
2.4055774 0.58636802 -0.048756011 4290397440
2.3037157 0.56164038 -0.03270771 4290005760
2.3210435 0.56592464 -0.018841056 4290005760
2.3593578 0.57531971 -0.0047907764 4290136320
2.293865 0.55943841 0.0093157804 4290005760
2.2843361 0.55718303 0.023175007 4289875200
2.3668306 0.57734144 0.03837363 4290266880
2.4029891 0.58621711 0.053500228 4290397440
2.3918786 0.58357882 0.06767001 4290266880
2.3297358 0.56850553 0.079885803 4290136320
2.4351602 0.59426254 0.097994857 4290528000
2.457854 0.59986299 0.1134361 4290528000
2.4925296 0.60838544 0.12963997 4290658560
2.7748656 0.67728245 0.16039321 4291703040
3.2064571 0.78258437 0.20369236 4293139200
3.2430408 0.79159695 0.22439164 4293269760
3.2442019 0.79197365 0.24260774 4293269760
3.2232835 0.78696579 0.25879642 4293269760
3.2569304 0.79526627 0.27913961 4293400320
3.2735186 0.7994076 0.2979818 4293400320
3.2691853 0.79844582 0.31465468 4293400320
3.2594092 0.79615599 0.33037972 4293400320
3.2109678 0.78443033 0.34152761 4293269760
3.254565 0.79516518 0.36204147 4293400320
3.2548959 0.79534209 0.37755406 4293400320
3.2570441 0.79596293 0.39286274 4293400320
3.2468877 0.79358011 0.40620884 4293400320
3.2102978 0.78474247 0.41558614 4293269760
3.2555149 0.79588115 0.43510202 4293400320
3.2691123 0.79930013 0.45014486 4293400320
3.2573004 0.79651362 0.46118709 4293400320
3.2514725 0.79518872 0.47248018 4293400320
3.2456307 0.79386044 0.48318636 4293400320
3.2102454 0.78531295 0.48880163 4293269760
3.2467294 0.79432815 0.50478375 4293400320
3.2461593 0.79428905 0.5145418 4293400320
3.2524931 0.79593819 0.52481347 4293400320
3.2423892 0.79356933 0.53181684 4293400320
3.252955 0.79625446 0.54158807 4293400320
3.245069 0.79442847 0.54766667 4293400320
3.241581 0.79367805 0.55382216 4293400320
3.2387784 0.79309559 0.55943429 4293400320
3.2340739 0.79204822 0.56404972 4293400320
3.2380733 0.7931307 0.56951821 4293400320
3.2234995 0.78966892 0.57104129 4293400320
3.2229209 0.78963202 0.57435107 4293400320
3.2272351 0.79079312 0.57785916 4293400320
3.2364421 0.79315293 0.58157176 4293400320
3.2314069 0.79202688 0.58204561 4293400320
3.226485 0.79092872 0.58185065 4293400320
3.2130656 0.78774971 0.57943743 4293400320
3.2394714 0.79432505 0.58351153 4293400320
3.2310612 0.79237378 0.58062971 4293400320
3.2351868 0.79349381 0.57931548 4293400320
3.2326417 0.79298013 0.57612497 4293400320
3.2499406 0.79733008 0.57577401 4293400320
3.2443001 0.79605907 0.57067412 4293400320
3.245712 0.79651707 0.5661484 4293400320
3.2424502 0.79582983 0.56014723 4293400320
3.2443018 0.79639673 0.55437428 4293400320
3.2396595 0.79537165 0.54685014 4293400320
3.2368503 0.79479641 0.53901237 4293400320
3.2236924 0.79168272 0.52886313 4293400320
3.2156258 0.78981775 0.51898676 4293269760
3.2340305 0.79444844 0.51274526 4293400320
3.2542019 0.79951459 0.50607574 4293400320
3.2465758 0.79775947 0.49446517 4293400320
3.247263 0.7980451 0.48357108 4293400320
3.2062335 0.78850031 0.39479065 4293269760
3.2459724 0.79838258 0.38490987 4293400320
3.2566874 0.80113596 0.37092462 4293400320
3.2244196 0.79332638 0.35173529 4293269760
3.1893795 0.78483331 0.33217594 4293139200
3.2211151 0.79275459 0.31920311 4293269760
3.2300012 0.7950601 0.30340436 4293269760
3.0765584 0.75744629 0.27279758 4292747520
2.6149607 0.64402747 0.21788061 4291180800
2.4651134 0.60726398 0.19195078 4290658560
2.4524925 0.60425186 0.17736232 4290528000
2.3801715 0.58654833 0.15874335 4290266880
2.3736644 0.58503705 0.14477254 4290266880
2.3986981 0.5912891 0.13245305 4290397440
2.3814139 0.58712512 0.11761076 4290266880
2.2625721 0.55795383 0.098433591 4289875200
2.294791 0.56597435 0.086208418 4290005760
2.3606088 0.58227277 0.074560553 4290266880
2.347012 0.57901335 0.060017206 4290136320
2.2860734 0.56408906 0.04464959 4290005760
2.4129064 0.5954299 0.032477781 4290397440
2.4314754 0.60009849 0.01793847 4290397440
2.3722124 0.58558351 0.0030567516 4290266880
2.4039125 0.59348917 -0.011554774 4290397440
2.4740517 0.61087507 -0.026965287 4290658560
2.4589019 0.60723352 -0.041749239 4290528000
2.4783051 0.61211312 -0.057106502 4290658560
2.4960606 0.61658764 -0.072592497 4290658560
2.5091689 0.61991698 -0.088054247 4290789120
2.4865899 0.61444104 -0.10211398 4290658560
2.5020926 0.61836171 -0.11758997 4290658560
2.5683377 0.63480854 -0.13581087 4290919680
2.5946698 0.64140683 -0.15231834 4291050240
2.6548254 0.6563583 -0.17115086 4291311360
2.8117268 0.69520551 -0.19728103 4291833600
3.1198788 0.77142119 -0.23644081 4292878080
3.2140701 0.7948066 -0.2613773 4293269760
3.2333012 0.79967898 -0.28056028 4293269760
3.2306321 0.79914111 -0.29762954 4293269760
3.1896985 0.78914624 -0.31062058 4293139200
3.2264585 0.79835182 -0.33081493 4293269760
3.2244952 0.7979871 -0.34685627 4293269760
3.2322874 0.80003393 -0.36359534 4293269760
3.2125161 0.79526496 -0.37677729 4293269760
3.1779811 0.78684276 -0.38755599 4293139200
3.2456942 0.80370981 -0.410521 4293400320
3.249676 0.80481452 -0.42529318 4293400320
3.2476656 0.8044365 -0.43881622 4293400320
3.2410424 0.80291641 -0.45118985 4293400320
3.2269096 0.79953676 -0.46192947 4293269760
3.2166905 0.79712451 -0.47261557 4293269760
3.2133803 0.79642153 -0.48373309 4293269760
3.2166021 0.79733539 -0.49528569 4293269760
3.2125328 0.79644322 -0.50515157 4293269760
3.2172947 0.79773784 -0.51583272 4293269760
