# .PCD v0.7 - Point Cloud Data file format
VERSION 0.7
FIELDS x y z rgba
SIZE 4 4 4 4
TYPE F F F U
COUNT 1 1 1 1
WIDTH 1130
HEIGHT 1
VIEWPOINT 0 0 0 1 0 0 0
POINTS 1130
DATA ascii
1.5055904 1.5064873 0.35473594 4289222400
1.4955306 1.4965218 0.35624534 4289222400
1.4931015 1.4941818 0.35912228 4289222400
1.4812206 1.4823958 0.35928023 4289222400
1.4808717 1.4821354 0.36178595 4289222400
1.4770868 1.4784414 0.36302376 4289091840
1.4838034 1.485245 0.3664152 4289222400
1.4905682 1.4920985 0.36940262 4289222400
1.4834514 1.4850756 0.36852339 4289222400
1.486835 1.488551 0.36981267 4289222400
1.4867878 1.4885973 0.3698166 4289222400
1.4763451 1.4782495 0.3668074 4289091840
1.4913555 1.4933544 0.3696757 4289222400
1.4879805 1.4900753 0.3675541 4289222400
1.4908177 1.4930097 0.36653286 4289222400
1.509297 1.5115902 0.36889154 4289352960
1.5130304 1.5154245 0.3671864 4289352960
1.5171751 1.5196713 0.3651363 4289352960
1.516772 1.51937 0.361559 4289352960
1.5153867 1.5180867 0.3573302 4289352960
1.5167072 1.5195112 0.35332158 4289352960
1.5109085 1.5138133 0.34726012 4289352960
1.500075 1.5030771 0.33969447 4289222400
1.4987097 1.5018154 0.33391702 4289222400
1.5085343 1.5117531 0.33020872 4289352960
1.5253961 1.5287361 0.32754838 4289352960
1.5266327 1.5300823 0.32108524 4289352960
1.5197129 1.5232649 0.31256682 4289352960
1.4991302 1.5027903 0.25511634 4289222400
1.527806 1.5316117 0.25043601 4289352960
1.5379412 1.5418739 0.24219553 4289352960
1.5131645 1.5171801 0.22829348 4289222400
1.4900925 1.49419 0.21471205 4289091840
1.5057691 1.5100029 0.20651032 4289222400
1.5131009 1.5174605 0.196775 4289222400
1.4925791 1.497021 0.18330199 4289091840
1.4951961 1.4997568 0.17258975 4289222400
1.5160156 1.5207285 0.16360681 4289222400
1.5228959 1.5277386 0.15273286 4289352960
1.5222131 1.5271721 0.14088577 4289352960
1.5083253 1.5133744 0.12777753 4289222400
1.5275204 1.5327268 0.11727978 4289352960
1.5257807 1.5311023 0.10491105 4289352960
1.3797114 1.3848237 0.083726592 4288569600
1.3611702 1.3663472 0.071493298 4288569600
1.4586055 1.4641234 0.064598784 4288961280
2.0246301 2.0316672 0.072821036 4291703040
2.1162572 2.1236877 0.058521703 4292094720
2.1155064 2.1231012 0.040857453 4292094720
2.1244366 2.1322217 0.023263223 4292094720
2.1138732 2.1217957 0.0054427944 4292094720
2.093601 2.1016314 -0.012152818 4291964160
2.107847 2.1160839 -0.029891795 4292094720
2.1178393 2.1262722 -0.047744025 4292094720
2.1123862 2.1209683 -0.065236829 4292094720
2.1000383 2.1087465 -0.082301252 4292094720
2.1128426 2.1217573 -0.1002709 4292094720
2.1195116 2.1286142 -0.11800456 4292094720
2.1100688 2.1193049 -0.13469373 4292094720
2.095144 2.1044927 -0.15069243 4291964160
2.103292 2.112833 -0.16813602 4292094720
2.1100981 2.1198277 -0.18541199 4292094720
2.0870042 2.0968113 -0.1997342 4291964160
2.10145 2.1114738 -0.21736619 4292094720
2.119483 2.1297393 -0.23538379 4292225280
2.1201363 2.1305583 -0.25135848 4292225280
2.0997503 2.1102529 -0.26442042 4292094720
1.9858577 1.9960517 -0.26444504 4291572480
2.1054924 2.1163397 -0.29530221 4292094720
2.1058152 2.1168239 -0.30995211 4292094720
2.1033838 2.1145413 -0.32384154 4292094720
2.0723395 2.0835185 -0.33274743 4291964160
1.9151142 1.9257416 -0.31981266 4291180800
2.1208525 2.1325636 -0.36739898 4292225280
2.1196127 2.1314757 -0.3800022 4292225280
2.1209354 2.1329618 -0.39264029 4292225280
2.1051779 2.1172848 -0.40159565 4292094720
2.061733 2.0737827 -0.4044944 4291964160
2.0919065 2.1042552 -0.421298 4292094720
2.0838187 2.0962782 -0.43003786 4292094720
2.0900676 2.1027091 -0.44123703 4292094720
2.0885587 2.1013417 -0.45031956 4292094720
2.0898538 2.1027923 -0.45949137 4292094720
2.0780621 2.0910857 -0.46521929 4292094720
2.0740817 2.0872297 -0.47209978 4292094720
2.0582004 2.0714066 -0.47565928 4291964160
2.0528834 2.0662026 -0.48103902 4291964160
2.0184784 2.0317469 -0.47893107 4291833600
1.9714184 1.9845591 -0.47304031 4291572480
1.9840089 1.9973549 -0.48081392 4291572480
2.0001271 2.0136995 -0.48894826 4291703040
1.9996291 2.0133317 -0.4924868 4291703040
2.0096147 2.0235085 -0.4980478 4291703040
2.0092487 2.0232723 -0.50047886 4291703040
2.0152009 2.0293908 -0.50390488 4291833600
2.0219162 2.0362773 -0.50694388 4291833600
2.0182898 2.032758 -0.5068022 4291833600
2.0084889 2.0230238 -0.50451648 4291703040
2.0015368 2.0161543 -0.50235736 4291703040
1.9918791 2.0065601 -0.49893907 4291703040
1.9753492 1.9900471 -0.49323532 4291572480
1.9686049 1.9833802 -0.48941886 4291572480
2.0082374 2.0233912 -0.49651012 4291703040
2.0570819 2.0726793 -0.50516415 4291964160
2.0655262 2.0813026 -0.50321466 4292094720
2.0753794 2.0913444 -0.50098491 4292094720
2.0817738 2.0979035 -0.49730068 4292094720
2.0812967 2.0975444 -0.49138436 4292094720
2.0860775 2.102478 -0.48612693 4292094720
2.0801876 2.0966663 -0.47782707 4292094720
2.071213 2.0877466 -0.4683198 4292094720
2.0715237 2.0881758 -0.46040362 4292094720
2.0649238 2.0816443 -0.45044941 4291964160
2.0727787 2.0896695 -0.44312453 4292094720
2.0879359 2.1050498 -0.43675017 4292094720
2.1007195 2.1180398 -0.42925018 4292225280
2.0962157 2.1136165 -0.41769189 4292094720
2.0775151 2.0948899 -0.40295395 4292094720
2.066875 2.0842807 -0.3894814 4291964160
2.0765224 2.0941093 -0.37939546 4291964160
2.0862563 2.1040254 -0.36878598 4292094720
2.081727 2.09957 -0.35521248 4292094720
2.0709651 2.0888331 -0.34027457 4291964160
2.076659 2.0946772 -0.32769212 4291964160
2.0974355 2.1157205 -0.31694952 4292094720
2.0984247 2.1168237 -0.30272052 4292094720
2.0688956 2.0871682 -0.28395498 4291964160
2.0698185 2.088202 -0.26925638 4291964160
2.0878975 2.106528 -0.25635538 4292094720
2.0887575 2.1074982 -0.24092089 4292094720
2.0650496 2.0837023 -0.22256206 4291964160
2.0775371 2.0963924 -0.20794576 4291964160
2.0973086 2.1164269 -0.19358292 4292094720
2.0920386 2.1112158 -0.17658572 4292094720
2.0970273 2.1163471 -0.16026559 4292094720
2.0833595 2.1026676 -0.14241633 4291964160
2.0969186 2.1164403 -0.12627615 4292094720
2.1033299 2.1230063 -0.10940672 4292094720
2.0829806 2.1025863 -0.091141991 4291964160
2.1014643 2.1213269 -0.074496187 4292094720
2.1115971 2.1316466 -0.057236604 4292094720
2.117059 2.1372566 -0.039659325 4292094720
2.07567 2.0956113 -0.021460343 4291964160
1.6827798 1.6994096 -0.0032196203 4290005760
1.3933803 1.4075643 0.0090837181 4288700160
1.2496368 1.2626258 0.018667126 4288047360
1.3843033 1.3985406 0.032259848 4288700160
1.5293939 1.5449849 0.048397232 4289352960
1.5348281 1.5505409 0.061341684 4289352960
1.526327 1.5420374 0.073639371 4289352960
1.51653 1.5322256 0.085643508 4289222400
1.5266718 1.5425323 0.098678485 4289352960
1.5240796 1.5399905 0.11084686 4289352960
1.5083295 1.5241702 0.12179274 4289222400
1.517854 1.5338559 0.13458999 4289352960
1.5244517 1.5405889 0.14710788 4289352960
1.5124619 1.5285623 0.15763403 4289222400
1.4991564 1.5152068 0.16765642 4289222400
1.5275209 1.5439125 0.18225479 4289352960
1.5170171 1.5333856 0.19215921 4289352960
1.4924119 1.5086223 0.19981404 4289222400
1.4045523 1.4199982 0.19799832 4288830720
1.3111283 1.3257476 0.19391496 4288308480
1.5084549 1.5250471 0.23320659 4289222400
1.5234265 1.5402415 0.24552637 4289352960
1.5231092 1.5399996 0.25520778 4289352960
1.509112 1.5259444 0.26222572 4289352960
1.4856744 1.5023544 0.2670835 4289222400
1.5242373 1.5413781 0.28284857 4289352960
1.5250795 1.5423096 0.29153386 4289352960
1.5178481 1.5350875 0.29831323 4289352960
1.5102607 1.5275054 0.30460516 4289352960
1.4732352 1.4901869 0.30440083 4289091840
1.4351327 1.451777 0.30326554 4288961280
1.4691087 1.4861803 0.3169595 4289091840
1.4816302 1.4989127 0.32587105 4289222400
1.4667397 1.4839511 0.32838166 4289091840
1.432507 1.4494454 0.32600504 4288961280
1.445119 1.4622713 0.33381066 4288961280
1.3920295 1.4087063 0.32595369 4288830720
1.3977808 1.4145994 0.33132142 4288830720
1.3973244 1.4142203 0.33484969 4288830720
1.3941355 1.41108 0.33732501 4288830720
1.3937634 1.4107873 0.34007847 4288830720
1.4389669 1.4565641 0.35361415 4288961280
1.4490687 1.4668634 0.35821787 4289091840
1.445359 1.4632021 0.35900339 4289091840
1.4451629 1.4630934 0.36023447 4289091840
1.4450167 1.4630359 0.36105481 4289091840
1.4414579 1.4595284 0.36059865 4288961280
1.3820618 1.3995593 0.34577185 4288700160
1.392455 1.410158 0.34796613 4288830720
1.3925081 1.4103019 0.3471691 4288830720
1.3926092 1.410495 0.34597623 4288830720
1.3927575 1.4107367 0.34438872 4288830720
1.3860242 1.4040182 0.34070811 4288700160
1.4359442 1.4546094 0.35045367 4288961280
1.4327714 1.4514965 0.34677202 4288961280
1.4666445 1.485864 0.35156429 4289091840
1.4531627 1.4723235 0.34456968 4289091840
1.4580736 1.4773932 0.34154823 4289091840
1.4769666 1.4966128 0.34132555 4289222400
1.4809395 1.5007368 0.3371909 4289222400
1.4865305 1.5064999 0.33299881 4289222400
1.5035515 1.523833 0.33089 4289352960
1.5155969 1.5361329 0.32718834 4289352960
1.5259317 1.5467038 0.32264456 4289352960
1.5158725 1.5366307 0.31342578 4289352960
1.4650902 1.4864947 0.25086558 4289091840
1.4982619 1.5202184 0.24711229 4289222400
1.5129944 1.5352615 0.23974127 4289352960
1.5098917 1.5322323 0.22920528 4289352960
1.4797318 1.5017798 0.21453895 4289091840
1.5006112 1.523057 0.20707771 4289222400
1.5125631 1.5352881 0.19792479 4289352960
1.4983804 1.5210272 0.18515645 4289222400
1.4774954 1.4999696 0.17161375 4289091840
1.5033352 1.5262841 0.16325548 4289222400
1.5050898 1.5281806 0.15189812 4289222400
1.5044034 1.5276024 0.14011857 4289222400
1.4858737 1.5089287 0.12667742 4289091840
1.5051016 1.528547 0.11629929 4289222400
1.4965316 1.5199733 0.10356618 4289222400
1.3393396 1.360638 0.081811756 4288439040
1.3290709 1.3503268 0.070271701 4288439040
1.5180818 1.5421921 0.067670025 4289352960
2.0050027 2.0363545 0.072610505 4291703040
2.0929108 2.1257143 0.058289483 4292094720
2.0854948 2.118355 0.04058646 4291964160
2.0919142 2.1250358 0.023112178 4292094720
2.0880313 2.1212614 0.005475549 4292094720
2.0605631 2.0935466 -0.011965806 4291964160
2.0817411 2.1152086 -0.029631635 4291964160
2.0885153 2.1222513 -0.047297906 4292094720
2.0827475 2.1165612 -0.06464012 4291964160
2.0704763 2.1042676 -0.081562825 4291964160
2.0894306 2.1236784 -0.099688083 4292094720
2.0898383 2.1242583 -0.11698383 4292094720
2.0699432 2.1042187 -0.13285889 4291964160
2.0715818 2.1060467 -0.14982671 4291964160
2.0799479 2.1147079 -0.16720283 4291964160
2.0805011 2.1154339 -0.18384396 4291964160
2.0575533 2.0922847 -0.19803436 4291964160
2.0684197 2.1034861 -0.2151711 4291964160
2.0898483 2.1254206 -0.23342341 4292094720
2.0933006 2.1290915 -0.24960525 4292094720
2.0800202 2.1157587 -0.26344836 4292094720
1.9465805 1.9803075 -0.26071602 4291441920
2.0794623 2.1155136 -0.29334503 4292094720
2.0790918 2.1152971 -0.30780017 4292094720
2.0738933 2.110172 -0.3211641 4292094720
2.0458329 2.0818045 -0.330412 4291964160
1.8867818 1.9202583 -0.31692746 4291180800
2.0904992 2.1275289 -0.36426637 4292094720
2.0900578 2.1272376 -0.37690681 4292094720
2.0885999 2.1259117 -0.38893154 4292094720
2.0785069 2.1158032 -0.39884675 4292094720
2.0290818 2.06569 -0.40044084 4291833600
2.0688 2.1062376 -0.41910961 4292094720
2.0642889 2.1018004 -0.42853153 4292094720
2.0635142 2.1011631 -0.43821651 4292094720
2.0661788 2.1040232 -0.44814134 4292094720
2.0619195 2.0998385 -0.45604742 4292094720
2.0516689 2.0895562 -0.46204764 4291964160
2.0448794 2.0827935 -0.4682304 4291964160
2.0387855 2.0767365 -0.47398725 4291964160
1.9869093 2.0240855 -0.46836847 4291703040
1.9993076 2.0368421 -0.47722402 4291703040
1.9559896 1.9928901 -0.47215316 4291572480
1.9657404 2.0029495 -0.47924796 4291572480
1.9879769 2.0257189 -0.48890033 4291703040
1.9943851 2.0323768 -0.49415234 4291703040
1.9267449 1.9636462 -0.4803955 4291441920
1.9263928 1.9634155 -0.48274422 4291441920
1.9323179 1.9695755 -0.48610786 4291441920
1.9286494 1.9659661 -0.48649511 4291441920
1.9319495 1.9694517 -0.48807034 4291441920
1.9962792 2.0350904 -0.50449497 4291703040
1.989368 2.0281787 -0.50234026 4291703040
1.9728686 2.0114987 -0.49718839 4291703040
1.9598871 1.9983991 -0.49236089 4291572480
1.9469719 1.9853643 -0.4869999 4291572480
1.9932621 2.0326414 -0.4958249 4291703040
2.0131838 2.0530589 -0.49741837 4291833600
2.0372775 2.0777285 -0.49938303 4291964160
2.0496428 2.0904498 -0.49781844 4291964160
2.0574248 2.0985012 -0.49451572 4292094720
2.0651767 2.1065216 -0.49059123 4292094720
2.056643 2.0979452 -0.48223606 4292094720
2.0543902 2.0957682 -0.47483 4291964160
2.0516889 2.0931327 -0.46679017 4291964160
2.0457666 2.087213 -0.45751348 4291964160
2.0426612 2.084163 -0.44837725 4291964160
2.0366132 2.0781121 -0.4381212 4291964160
2.0648296 2.1069896 -0.43462959 4292094720
2.0747571 2.117224 -0.42661536 4292094720
2.0730474 2.1155939 -0.41568452 4292094720
2.0551484 2.0974565 -0.40114132 4291964160
2.0341558 2.0761619 -0.38575286 4291833600
2.0499837 2.0924101 -0.37693596 4291964160
2.0596507 2.1023765 -0.36641413 4291964160
2.0586171 2.1014307 -0.35352713 4291964160
2.0353961 2.0778558 -0.33658963 4291833600
2.0507851 2.0936568 -0.32570812 4291964160
2.0671647 2.1104691 -0.31441146 4291964160
2.0716217 2.1151211 -0.3008126 4292094720
2.0430486 2.0860803 -0.28225636 4291833600
2.0404739 2.0835574 -0.26720089 4291833600
2.0549483 2.0984263 -0.25399682 4291964160
2.0557942 2.0993924 -0.23871739 4291964160
2.0392022 2.0825667 -0.22127195 4291833600
2.0516086 2.0953264 -0.20676289 4291964160
2.0677626 2.1119111 -0.19218463 4291964160
2.0729997 2.1173568 -0.17621495 4291964160
2.0785842 2.1231575 -0.1599979 4292094720
2.057379 2.101619 -0.14167207 4291964160
2.0638599 2.1083336 -0.12522048 4291964160
2.0746067 2.1194024 -0.10875182 4291964160
2.0534968 2.0979571 -0.090581492 4291964160
2.0718658 2.116806 -0.074080393 4291964160
2.0819352 2.1271849 -0.056965284 4292094720
2.0905855 2.1361158 -0.039593678 4292094720
2.0573509 2.1022892 -0.021591363 4291964160
1.6830187 1.7202331 -0.0033986201 4290136320
1.3645931 1.3952185 0.008824802 4288569600
1.287716 1.3167932 0.019222977 4288177920
1.3828603 1.4140022 0.032290109 4288700160
1.5172242 1.5512671 0.048160881 4289352960
1.5149817 1.5490509 0.060775146 4289352960
1.5065894 1.5405544 0.072988756 4289222400
1.4974992 1.5313445 0.084943995 4289222400
1.5103775 1.5445701 0.098078907 4289352960
1.5050086 1.5391606 0.10998745 4289222400
1.4882685 1.5221364 0.12076864 4289222400
1.503832 1.5381069 0.13402109 4289222400
1.5048337 1.5392045 0.14596415 4289222400
1.4993119 1.5336385 0.15708086 4289222400
1.4859341 1.5200468 0.1670586 4289222400
1.5069438 1.5415856 0.18076552 4289352960
1.5008041 1.5353886 0.19113593 4289222400
1.3966899 1.4290875 0.18804303 4288830720
1.3476559 1.3790563 0.19103801 4288569600
1.2697772 1.299546 0.18885173 4288177920
1.3674264 1.3993981 0.2126226 4288700160
1.4925592 1.5273473 0.24190921 4289222400
1.4975034 1.5324782 0.2523399 4289222400
1.4950622 1.530062 0.26126152 4289222400
1.4759132 1.5105689 0.26684368 4289222400
1.5089973 1.5444646 0.28162867 4289352960
1.5047573 1.5402114 0.28931019 4289352960
1.4941875 1.5294878 0.29536736 4289222400
1.4953063 1.5307131 0.30334356 4289352960
1.4730513 1.5080427 0.30613557 4289222400
1.3505077 1.3828329 0.28708273 4288569600
1.4401002 1.474515 0.31253496 4289091840
1.4287353 1.462975 0.31610763 4288961280
1.4308553 1.4652243 0.32225487 4288961280
1.4002939 1.4340527 0.320577 4288830720
1.4135276 1.4476681 0.32846919 4288961280
1.3635287 1.3966134 0.32119858 4288700160
1.3664926 1.3997252 0.32585892 4288700160
1.3694922 1.4028747 0.33016479 4288700160
1.3690839 1.4025391 0.33327234 4288700160
1.3618275 1.3951987 0.33431062 4288700160
1.3615059 1.3949527 0.33664188 4288700160
1.4202466 1.4551358 0.35324362 4288961280
1.3609964 1.3945998 0.34014973 4288700160
1.3676952 1.4015398 0.34304655 4288700160
1.3606714 1.3944387 0.34210655 4288700160
1.3605797 1.3944317 0.34250048 4288700160
1.3674188 1.4015187 0.34423396 4288700160
1.357097 1.3910432 0.34125349 4288700160
1.3702263 1.4045708 0.34375438 4288700160
1.3606867 1.3948961 0.34017512 4288700160
1.3608303 1.3951339 0.33862153 4288700160
1.4069453 1.4424366 0.34802297 4288961280
1.4037429 1.4392531 0.34477618 4288830720
1.4339081 1.4702353 0.34925178 4288961280
1.4211516 1.4572717 0.34285021 4288961280
1.4294297 1.4658473 0.34112242 4288961280
1.4387001 1.4754411 0.33918509 4289091840
1.4510328 1.4881734 0.33750814 4289091840
1.4607729 1.4982526 0.33476472 4289091840
1.4639684 1.5016302 0.33009055 4289222400
1.4805347 1.518706 0.32796684 4289222400
1.4959526 1.5346084 0.3250801 4289352960
1.503455 1.5424039 0.32000309 4289352960
1.4969066 1.5358045 0.31156975 4289352960
1.3706566 1.4065642 0.2360903 4288700160
1.4695584 1.5080217 0.24379554 4289091840
1.5015979 1.5409704 0.23932117 4289352960
1.4909654 1.5301886 0.22765215 4289222400
1.4665565 1.5052845 0.21386679 4289091840
1.4888302 1.528231 0.20664717 4289222400
1.4941596 1.5338107 0.19665511 4289222400
1.4793577 1.5187523 0.18386984 4289222400
1.4592836 1.498286 0.17048419 4289091840
1.4780095 1.5176026 0.16143949 4289222400
1.4867116 1.5266434 0.15091416 4289222400
1.482542 1.522485 0.13888362 4289222400
1.4703857 1.5101347 0.12608193 4289091840
1.4901979 1.5305737 0.11581207 4289222400
1.4768753 1.5170263 0.10279518 4289091840
1.2912097 1.3266737 0.079332359 4288308480
1.2914543 1.3270282 0.068678454 4288308480
1.4863529 1.5271057 0.066635095 4289222400
2.0004814 2.0547831 0.072852381 4291703040
2.0578811 2.1138477 0.057633515 4291964160
2.0567856 2.1128888 0.040244862 4291964160
2.0659583 2.1224687 0.022940857 4291964160
2.0655859 2.1222529 0.005429347 4291964160
2.0424612 2.0986814 -0.011949815 4291833600
2.04264 2.0990293 -0.029263567 4291833600
2.0597878 2.1167991 -0.046940234 4291964160
2.054054 2.1110778 -0.064142972 4291964160
2.0418556 2.098717 -0.080926642 4291833600
2.0669789 2.124681 -0.099215604 4291964160
2.0682356 2.1261375 -0.116474 4291964160
2.0545647 2.1122622 -0.13266581 4291964160
2.0429678 2.1005147 -0.14864351 4291833600
2.0478082 2.1056502 -0.16560419 4291964160
2.0584178 2.116713 -0.18297912 4291964160
2.0384343 2.0963454 -0.19736423 4291833600
2.0426817 2.1008716 -0.21375877 4291964160
2.0604639 2.1193056 -0.23150961 4291964160
2.0654433 2.1245854 -0.24774601 4291964160
2.0583451 2.1174529 -0.26224944 4291964160
1.9222038 1.9776886 -0.25897667 4291311360
2.0571041 2.1164997 -0.29190874 4291964160
2.0505521 2.109925 -0.3053703 4291964160
2.04811 2.1075733 -0.31904525 4291964160
2.0209103 2.0797672 -0.32831356 4291833600
1.8593168 1.9137747 -0.31415638 4291050240
2.0681007 2.1286018 -0.3624869 4292094720
2.0614958 2.1219673 -0.37394506 4292094720
2.0600007 2.1205862 -0.38586265 4292094720
2.049974 2.110429 -0.3956838 4291964160
2.0105081 2.0699899 -0.39910522 4291833600
2.0372345 2.0976317 -0.41513696 4291964160
2.0465002 2.1073146 -0.42732903 4291964160
2.0452895 2.10622 -0.43689001 4291964160
2.0465343 2.1076508 -0.44647795 4291964160
2.0446086 2.1058183 -0.45486227 4291964160
2.0302386 2.0911794 -0.45989206 4291964160
2.0174832 2.0781994 -0.46465352 4291833600
2.0095367 2.0701649 -0.46991155 4291833600
1.9296199 1.9880556 -0.45751595 4291441920
1.9426508 2.0016038 -0.46640113 4291572480
1.9612231 2.0208571 -0.47616577 4291572480
1.980528 2.0408661 -0.48565334 4291703040
1.92273 1.9814994 -0.47560027 4291441920
1.9352925 1.9945647 -0.48229179 4291572480
1.9383045 1.997797 -0.48607069 4291572480
1.9509877 2.010987 -0.4917284 4291572480
1.9506984 2.010819 -0.49356005 4291572480
1.9539076 2.0142529 -0.49570251 4291572480
1.9475821 2.0078664 -0.49484786 4291572480
1.9440707 2.0043762 -0.49412724 4291572480
1.9275962 1.9875321 -0.489539 4291441920
1.9173636 1.9771147 -0.48597214 4291441920
1.9746737 2.0362742 -0.49890986 4291703040
1.9556607 2.0168107 -0.49196392 4291572480
1.9325933 1.9931664 -0.4834775 4291441920
1.9752578 2.0372446 -0.49082601 4291703040
1.998564 2.0613799 -0.492677 4291833600
2.0285716 2.0924225 -0.49549291 4291964160
2.0355518 2.0997376 -0.49202535 4291964160
2.0351257 2.0994196 -0.4861812 4291964160
2.0417528 2.10637 -0.48143941 4291964160
2.0324473 2.0968981 -0.47239652 4291964160
2.0263193 2.0906992 -0.46360084 4291964160
2.0213044 2.0856462 -0.45456818 4291964160
2.0168433 2.0811627 -0.44517624 4291833600
2.0214462 2.0860219 -0.43727279 4291964160
2.0336561 2.0987234 -0.43043759 4291964160
2.053165 2.1189508 -0.42450398 4292094720
2.0445657 2.1101973 -0.4122265 4291964160
2.0298243 2.0951087 -0.39836687 4291964160
2.0165284 2.0815079 -0.38449377 4291833600
2.0247152 2.0900595 -0.37430927 4291833600
2.0367405 2.1025698 -0.3642939 4291964160
2.032994 2.098814 -0.35100088 4291964160
2.0205135 2.0860486 -0.33591107 4291833600
2.0254431 2.0912392 -0.32338834 4291833600
2.0455692 2.1121051 -0.31276393 4291964160
2.0430706 2.1096334 -0.29821533 4291964160
2.0174246 2.0832818 -0.28015804 4291833600
2.0183232 2.0843122 -0.26565358 4291833600
2.029156 2.0955913 -0.25207826 4291833600
2.0370133 2.1038013 -0.23771803 4291964160
2.0145648 2.0807407 -0.21967363 4291833600
2.0289848 2.0957217 -0.20547047 4291833600
2.0454297 2.1127932 -0.19100741 4291964160
2.0440316 2.1114523 -0.17455205 4291964160
2.0429778 2.110466 -0.15795688 4291964160
2.0288377 2.0959735 -0.14030276 4291833600
2.0387521 2.1063066 -0.1241959 4291833600
2.049433 2.1174314 -0.10783215 4291964160
2.0214863 2.0886848 -0.089462928 4291833600
2.0530155 2.1213307 -0.07360287 4291964160
2.0567095 2.1252446 -0.056368507 4291964160
2.0590465 2.1277578 -0.038986187 4291964160
2.0354667 2.1035142 -0.021250362 4291833600
1.6391083 1.6943859 -0.0031346611 4290005760
1.3574669 1.4036661 0.0089884792 4288569600
1.2418039 1.2843027 0.018798385 4288047360
1.3581814 1.4045367 0.032061808 4288569600
1.4934095 1.5442486 0.047860388 4289222400
1.5034509 1.5546916 0.060842745 4289352960
1.4908489 1.5417506 0.072825268 4289222400
1.4838052 1.5345492 0.084834717 4289222400
1.4896607 1.5406704 0.097476274 4289222400
1.4896127 1.5406945 0.10967422 4289222400
1.4770423 1.5277838 0.12073076 4289222400
1.4819509 1.5329279 0.13301751 4289222400
1.4933597 1.5447879 0.14587012 4289222400
1.4843528 1.5355579 0.15659332 4289222400
1.4636832 1.5142778 0.16568758 4289091840
1.4939206 1.5455935 0.18041871 4289222400
1.4854565 1.5369239 0.19045275 4289222400
1.4606936 1.5114121 0.19794735 4289091840
1.3346301 1.3812178 0.1904422 4288569600
1.3025687 1.3481542 0.19498487 4288308480
1.4768434 1.5283294 0.2310929 4289222400
1.4791253 1.5307652 0.24128458 4289222400
1.481782 1.5335892 0.25129932 4289222400
1.469208 1.5206712 0.25839192 4289222400
1.4518572 1.5028147 0.26417074 4289091840
1.4884681 1.5407389 0.27956128 4289222400
1.4925327 1.5450218 0.288771 4289352960
1.4804037 1.5325639 0.29448217 4289222400
1.4741635 1.526194 0.30092904 4289222400
1.4323841 1.483078 0.29954958 4289091840
1.3816781 1.4307278 0.29551575 4288830720
1.4618912 1.5137516 0.31921381 4289222400
1.4638031 1.515812 0.32584429 4289222400
1.4557961 1.5076157 0.32987106 4289091840
1.4569285 1.5088713 0.33555636 4289222400
1.4539233 1.5058484 0.33989552 4289091840
1.4424646 1.4940819 0.34182039 4289091840
1.4460766 1.4979042 0.34688726 4289091840
1.4390876 1.4907612 0.34900343 4289091840
1.4333714 1.4849348 0.35098881 4289091840
1.4329879 1.4846257 0.35385361 4289091840
1.4326496 1.4843642 0.35631427 4289091840
1.4228778 1.4743423 0.35600019 4288961280
1.4260584 1.4777231 0.35849345 4289091840
1.4197036 1.4712373 0.35817105 4288961280
1.4257187 1.4775531 0.36054176 4289091840
1.4344141 1.4866449 0.36317205 4289091840
1.4343679 1.4866904 0.36316869 4289091840
1.4247907 1.4768713 0.36033231 4289091840
1.4335471 1.4860301 0.36169934 4289091840
1.4309124 1.4833983 0.3597694 4289091840
1.4464593 1.4995906 0.36196509 4289091840
1.4445374 1.497699 0.35935643 4289091840
1.4499329 1.5033847 0.35813731 4289091840
1.4518989 1.5055208 0.35563964 4289091840
1.4604036 1.5144291 0.35430118 4289222400
1.4632378 1.5174668 0.35114819 4289222400
1.4568088 1.5109116 0.34537759 4289222400
1.458246 1.512504 0.34108078 4289222400
1.451254 1.505366 0.3344388 4289091840
1.4545269 1.5088613 0.32978237 4289091840
1.4632689 1.518024 0.32593516 4289222400
1.483459 1.5390499 0.32413685 4289352960
1.4782392 1.5337507 0.31635991 4289222400
1.4670618 1.522278 0.30702257 4289222400
1.4359169 1.4912876 0.24886392 4289091840
1.4655153 1.5220982 0.2446565 4289222400
1.4858415 1.5432961 0.23830727 4289222400
1.4702131 1.5271999 0.22590649 4289222400
1.4492263 1.5055426 0.21268056 4289091840
1.4697927 1.5269947 0.20530207 4289222400
1.4802393 1.5379502 0.19606303 4289222400
1.4605104 1.5175954 0.18268684 4289091840
1.4398644 1.4962863 0.16929322 4289091840
1.4653883 1.5228908 0.16108783 4289091840
1.4740347 1.5319823 0.15059078 4289222400
1.463658 1.5213299 0.13800271 4289091840
1.4587449 1.5163475 0.12589653 4289091840
1.4723121 1.53055 0.11517143 4289222400
1.4257686 1.4823462 0.099900052 4288961280
1.3130026 1.365375 0.081200466 4288439040
1.3019112 1.3539644 0.069696188 4288308480
1.5199087 1.5804555 0.068597585 4289352960
1.9977731 2.0768688 0.073262028 4291703040
2.0347176 2.1154037 0.057400253 4291964160
2.0336275 2.1144371 0.040101811 4291833600
2.0364146 2.1174984 0.022818331 4291964160
2.033356 2.1144869 0.0054443832 4291833600
2.0140231 2.0945663 -0.0117898 4291833600
2.0195677 2.100492 -0.029045042 4291833600
2.0331428 2.114763 -0.04655125 4291833600
2.0281394 2.1097293 -0.063656718 4291833600
2.0127046 2.0938535 -0.080195703 4291833600
2.0347517 2.1169322 -0.098202452 4291964160
2.0353119 2.1176801 -0.11525812 4291964160
2.022434 2.1044583 -0.13132836 4291833600
2.0136731 2.0955145 -0.14734812 4291833600
2.0254097 2.1078799 -0.1647356 4291833600
2.0221193 2.1046221 -0.18079358 4291833600
1.9998429 2.0816209 -0.19475564 4291703040
2.0168679 2.0994866 -0.21229316 4291833600
2.0373089 2.1209075 -0.23025379 4291964160
2.0388081 2.1226299 -0.24599415 4291964160
2.025547 2.1089985 -0.25959837 4291964160
1.8971596 1.9756035 -0.25712001 4291311360
2.0298522 2.1137986 -0.28975615 4291964160
2.0309274 2.1150777 -0.3042523 4291964160
2.0291922 2.1134317 -0.31798843 4291964160
1.9952788 2.0783012 -0.32609192 4291833600
1.8381355 1.9149255 -0.31244224 4291050240
2.0464013 2.1318159 -0.36084074 4292094720
2.0393598 2.1246455 -0.37215841 4291964160
2.0434763 2.1290867 -0.38507703 4292094720
2.0310709 2.1163297 -0.39440453 4291964160
1.9586442 2.0410852 -0.3911649 4291572480
2.0263963 2.1117706 -0.41543105 4291964160
2.0390301 2.125077 -0.42835313 4292094720
2.0277476 2.1134815 -0.43577588 4291964160
2.0365844 2.1228342 -0.44701126 4292094720
2.0223227 2.1081321 -0.45264694 4291964160
2.0127842 2.0983462 -0.45872104 4291964160
1.968226 2.052083 -0.45608169 4291703040
1.9252219 2.0074313 -0.45295557 4291441920
1.9504206 2.0338187 -0.46527845 4291572480
1.9660894 2.050281 -0.47492117 4291703040
1.9119111 1.993975 -0.46704799 4291441920
1.9311064 2.0141091 -0.47645041 4291572480
1.9435261 2.0271847 -0.4837023 4291572480
1.9628233 2.0474277 -0.49216574 4291703040
1.8968648 1.9788258 -0.47861922 4291441920
1.8992444 1.9814348 -0.48165095 4291441920
1.892825 1.9748724 -0.48188722 4291311360
1.8987453 1.9811698 -0.48469928 4291441920
1.9647757 2.0501249 -0.50231379 4291703040
1.8889722 1.9712327 -0.48311296 4291311360
1.9415017 2.0261188 -0.49613905 4291572480
1.9354223 2.019906 -0.49360639 4291572480
1.9219118 2.0059433 -0.48861688 4291572480
1.9728017 2.0591285 -0.49937865 4291703040
1.9601088 2.0460169 -0.49343088 4291703040
1.9338378 2.018743 -0.48355335 4291572480
1.9701699 2.0567532 -0.48873341 4291703040
1.9933985 2.0811005 -0.48997134 4291833600
2.0200686 2.1090391 -0.49136525 4291964160
2.026269 2.115628 -0.48712644 4291964160
2.0309305 2.1206117 -0.48192206 4292094720
2.0299327 2.1196909 -0.47480732 4291964160
2.021112 2.1106076 -0.46535158 4291964160
2.018482 2.1079812 -0.45682797 4291964160
2.0043237 2.0933256 -0.44524118 4291833600
1.9975967 2.086421 -0.43488377 4291833600
2.0143266 2.1039917 -0.42908615 4291964160
2.0280693 2.1184461 -0.42201751 4291964160
2.016006 2.1059701 -0.40909538 4291964160
2.0072689 2.0969634 -0.39649373 4291833600
1.9970953 2.0864553 -0.38326451 4291833600
2.0059133 2.095768 -0.37325284 4291833600
2.0123656 2.1026118 -0.36229128 4291833600
2.0038302 2.0938101 -0.34824035 4291833600
1.9948545 2.0845473 -0.33383477 4291833600
1.9997462 2.0897598 -0.321403 4291833600
2.0080492 2.0985341 -0.30907357 4291833600
2.0234437 2.114712 -0.29732937 4291964160
1.9883155 2.0781391 -0.27797663 4291703040
1.9935129 2.0836692 -0.26416793 4291703040
2.0034037 2.0941002 -0.2505796 4291833600
2.0112064 2.102351 -0.23632303 4291833600
1.9916507 2.082031 -0.2186847 4291703040
2.0032175 2.0942123 -0.20428595 4291833600
2.0098934 2.1012864 -0.18902294 4291833600
2.0181615 2.1100235 -0.1735854 4291833600
2.0205629 2.112633 -0.15736938 4291833600
1.9996011 2.090838 -0.1393154 4291703040
2.0156677 2.1077216 -0.12373197 4291833600
2.0235159 2.1160209 -0.10731213 4291833600
2.0029488 2.0946341 -0.08937595 4291833600
2.0270722 2.1199374 -0.073310442 4291833600
2.0300508 2.1231496 -0.056171436 4291964160
2.0392859 2.1328998 -0.03904257 4291964160
2.0151012 2.1077292 -0.021357836 4291833600
1.6524935 1.7289089 -0.0033394534 4290005760
1.3185191 1.3799756 0.0086642336 4288439040
1.2133116 1.2700899 0.018369358 4287916800
1.3662946 1.4300377 0.032320477 4288700160
1.4794945 1.5484201 0.047568798 4289222400
1.4837036 1.552893 0.060277361 4289222400
1.4754134 1.5443013 0.072380349 4289222400
1.4641854 1.5326376 0.084096998 4289091840
1.4722557 1.5411472 0.096799545 4289222400
1.466956 1.5356807 0.10854353 4289222400
1.4607736 1.5292906 0.12000977 4289091840
1.4567348 1.5251415 0.13143744 4289091840
1.465763 1.534655 0.14393646 4289222400
1.4542416 1.5226823 0.15424602 4289091840
1.361697 1.425984 0.15500577 4288700160
1.4648606 1.5339358 0.1778879 4289222400
1.477965 1.5477157 0.19054493 4289222400
1.475626 1.5453459 0.20108533 4289222400
1.4552188 1.5240791 0.20878188 4289091840
1.4179955 1.4852219 0.2134304 4288961280
1.4747175 1.5446278 0.23208027 4289222400
1.468702 1.5384134 0.24096566 4289222400
1.4627336 1.5322484 0.24950996 4289222400
1.4157588 1.483184 0.25045705 4288961280
1.2580681 1.3182828 0.23031254 4288177920
1.447832 1.5168949 0.27353936 4289091840
1.444661 1.5136567 0.28117362 4289091840
1.4325556 1.50107 0.28666866 4289091840
1.377867 1.443922 0.28297818 4288830720
1.3771584 1.4432583 0.28974029 4288830720
1.4061111 1.4736366 0.30253455 4288961280
1.45941 1.5294998 0.32058996 4289222400
1.4553112 1.5252939 0.32591292 4289222400
1.4521325 1.5220516 0.33103573 4289222400
1.4511738 1.5211333 0.33626497 4289222400
1.4458339 1.5156293 0.34006917 4289091840
1.4495102 1.5195644 0.34558925 4289222400
1.4425625 1.5123779 0.34817031 4289091840
1.4375334 1.5072001 0.35077459 4289091840
1.445266 1.5153852 0.35608363 4289222400
1.4394917 1.5094281 0.35766071 4289091840
1.4326136 1.5023153 0.35852137 4289091840
1.4384445 1.5085121 0.36213404 4289091840
1.4280623 1.4977301 0.36124355 4289091840
1.4305871 1.5004663 0.36317876 4289091840
1.4304398 1.5004048 0.36401278 4289091840
1.4377546 1.5081607 0.36631742 4289091840
1.4377068 1.5082054 0.3663213 4289091840
1.4313202 1.5016102 0.36428434 4289091840
1.4367536 1.5073988 0.36482167 4289091840
1.441625 1.5126003 0.36478078 4289091840
1.4497271 1.5211885 0.36511412 4289222400
1.4469744 1.5184036 0.36228448 4289222400
1.44889 1.5205116 0.36019796 4289222400
1.446923 1.5185515 0.35672688 4289222400
1.4503542 1.5222498 0.35416341 4289222400
1.4582595 1.5306393 0.35224834 4289222400
1.4495527 1.5216165 0.34592095 4289222400
1.4494754 1.5216399 0.3412725 4289222400
1.436403 1.5080401 0.33321849 4289091840
1.4253967 1.496605 0.3253428 4289091840
1.4146481 1.4854393 0.31723332 4288961280
1.4281831 1.4997379 0.314179 4289091840
1.4177566 1.48891 0.30548984 4288961280
1.4243268 1.4959074 0.30012113 4289091840
1.4319347 1.5043036 0.24967712 4289091840
1.453618 1.5271651 0.24414301 4289222400
1.457118 1.5309519 0.23512389 4289222400
1.430799 1.5034499 0.2211931 4289091840
1.4036098 1.4750311 0.2072468 4288961280
1.4317437 1.5046692 0.20120911 4289091840
1.4509759 1.524969 0.19335879 4289091840
1.4341422 1.5074162 0.18048206 4289091840
1.4278822 1.5009606 0.16890427 4288961280
1.4470141 1.5211607 0.16003598 4289091840
1.4452852 1.5194629 0.14855494 4289091840
1.4480392 1.522472 0.13736066 4289091840
1.4431525 1.5174589 0.12530875 4289091840
1.4529485 1.5278639 0.11434932 4289091840
1.377735 1.448993 0.097129539 4288700160
1.2989614 1.3663709 0.080821663 4288308480
1.2906907 1.3577904 0.069516249 4288308480
1.5600238 1.6408187 0.070827238 4289614080
1.9733689 2.0751815 0.07280881 4291703040
2.0094714 2.1132743 0.057034682 4291833600
2.0049393 2.1086781 0.039779048 4291833600
2.0104659 2.114651 0.022666983 4291833600
2.0108714 2.1152434 0.0054192087 4291833600
1.988896 2.0923145 -0.011710716 4291703040
1.9909614 2.0946496 -0.02880442 4291703040
2.0079024 2.1126211 -0.046249628 4291833600
2.0083823 2.1132913 -0.063416816 4291833600
1.9910334 2.0952184 -0.079811096 4291703040
2.0108857 2.1162546 -0.097636789 4291833600
2.0100651 2.1155572 -0.11451621 4291833600
2.00001 2.1051493 -0.13065745 4291833600
1.9885613 2.0932741 -0.14639044 4291703040
1.9967912 2.1020925 -0.16339001 4291833600
1.9935255 2.0988209 -0.17931506 4291833600
1.9875476 2.092696 -0.19472949 4291703040
1.9986244 2.1045098 -0.21164568 4291833600
2.0086422 2.115211 -0.22838721 4291833600
2.013572 2.1205602 -0.24441895 4291833600
2.0031402 2.1097467 -0.25827965 4291833600
1.8755242 1.9756229 -0.25572538 4291180800
1.9999702 2.1067326 -0.28721732 4291833600
2.0060508 2.113292 -0.30234298 4291833600
2.0019791 2.1091659 -0.31562102 4291833600
1.9711276 2.0768511 -0.32409254 4291703040
1.8401326 1.939114 -0.31467187 4291050240
2.0312598 2.1404645 -0.36033529 4291964160
2.0405738 2.1504295 -0.37462917 4292094720
2.0330019 2.1426156 -0.3854171 4292094720
2.0113599 2.1199849 -0.39293584 4291964160
1.9212064 2.0252039 -0.38600594 4291441920
2.0238616 2.1334593 -0.41741508 4291964160
2.0295999 2.1396568 -0.42894459 4292094720
2.0220058 2.1318116 -0.43716267 4291964160
2.0169721 2.1266615 -0.44537663 4291964160
2.0163369 2.126143 -0.45402732 4291964160
2.0128672 2.1226375 -0.46150354 4291964160
2.0022385 2.1115878 -0.46675453 4291964160
1.9719186 2.079788 -0.4667311 4291833600
1.9292306 2.03495 -0.46299458 4291572480
1.9448084 2.0515051 -0.47260803 4291703040
1.9604295 2.0681069 -0.4817751 4291703040
1.9066474 2.0115635 -0.47324491 4291441920
1.9061084 2.0111299 -0.47724268 4291441920
1.931399 2.0379214 -0.48719659 4291572480
1.9411482 2.0483322 -0.49272743 4291703040
1.8817644 1.9858631 -0.48008162 4291311360
1.8875833 1.9921263 -0.48343351 4291441920
1.8778806 1.9820241 -0.48224658 4291311360
1.8845091 1.9891394 -0.48468474 4291441920
1.9400445 2.0478258 -0.49913806 4291703040
1.9298669 2.037221 -0.49611518 4291572480
1.9102715 2.0166817 -0.49010482 4291572480
1.9607846 2.0700805 -0.50147158 4291703040
1.9508125 2.0596886 -0.49675995 4291703040
1.9287045 2.0364933 -0.4884218 4291572480
1.9127558 2.0197914 -0.48113176 4291572480
1.9904855 2.1019104 -0.49670869 4291964160
1.997941 2.1098993 -0.49400616 4291964160
2.019644 2.1329198 -0.49417874 4292094720
2.018115 2.1314297 -0.48804441 4292094720
2.0306468 2.1447749 -0.48470944 4292094720
2.0259204 2.1399088 -0.47667319 4292094720
2.0123913 2.1257522 -0.46608272 4291964160
2.0077987 2.1210237 -0.45709288 4291964160
2.0116096 2.1251628 -0.44949287 4291964160
2.0094826 2.1230342 -0.44004512 4291964160
2.0205314 2.1348119 -0.43293643 4291964160
2.0251532 2.1398056 -0.42388269 4292094720
2.0192955 2.1337364 -0.41216183 4291964160
1.9893025 2.102186 -0.39524189 4291833600
1.9868629 2.099721 -0.38352469 4291833600
1.9872549 2.1002445 -0.3719331 4291833600
1.9914563 2.1047895 -0.36060846 4291833600
1.9825422 2.0954852 -0.34653565 4291833600
1.966203 2.0783386 -0.33093971 4291703040
1.9809165 2.093982 -0.32020858 4291833600
1.996003 2.1100199 -0.3089807 4291833600
1.9948877 2.1089478 -0.29480731 4291833600
1.961509 2.0737989 -0.27578807 4291703040
1.9651201 2.0777159 -0.26187858 4291703040
1.9749439 2.0881951 -0.24840938 4291703040
1.9791811 2.0927732 -0.23385954 4291703040
1.966674 2.079663 -0.21714005 4291703040
1.9781657 2.0919044 -0.20284043 4291703040
1.9930304 2.1077101 -0.18845728 4291833600
1.9957545 2.1106896 -0.17258078 4291833600
1.9919599 2.1067817 -0.1559626 4291833600
1.9803865 2.0946536 -0.13869318 4291703040
1.989746 2.1046436 -0.12275895 4291833600
1.9914467 2.1065409 -0.1061276 4291833600
1.9744334 2.0886617 -0.088513583 4291703040
1.9984089 2.114099 -0.072585233 4291833600
2.0048025 2.1209564 -0.05568118 4291833600
2.0139804 2.1307571 -0.038662359 4291833600
1.9926883 2.1083522 -0.021119576 4291833600
1.6989179 1.7979239 -0.0033514306 4290397440
1.3305235 1.4085819 0.0088790795 4288569600
1.1821533 1.2517998 0.018087534 4287786240
1.2973686 1.3736638 0.030971421 4288308480
1.4571726 1.5426805 0.047232687 4289222400
1.4651678 1.5512067 0.059982795 4289222400
1.4589037 1.5446571 0.072101258 4289222400
1.4492023 1.5344725 0.083837099 4289091840
1.453793 1.5394001 0.096262097 4289091840
1.458378 1.5443221 0.10865799 4289222400
1.4389547 1.5238552 0.11903033 4289091840
1.4314455 1.5159868 0.1300351 4289091840
1.3287965 1.4074937 0.13139419 4288569600
1.2806758 1.3566648 0.13678369 4288308480
1.2536484 1.3281426 0.14367893 4288177920
1.3693241 1.4505696 0.16740365 4288700160
1.4618931 1.5485655 0.18970838 4289222400
1.4635276 1.5503712 0.20073666 4289222400
1.452953 1.5392607 0.20980692 4289222400
1.423951 1.5086534 0.21570703 4289091840
1.4711932 1.5587146 0.2330144 4289222400
1.458235 1.5450823 0.24078393 4289222400
1.4511708 1.5376859 0.24912183 4289222400
1.4159932 1.5005391 0.25209334 4288961280
1.3400027 1.4201972 0.24683815 4288700160
1.3229309 1.4022036 0.2515676 4288569600
1.3385537 1.4188122 0.26220527 4288700160
1.344643 1.4253324 0.27080438 4288700160
1.3439372 1.4246613 0.27775913 4288700160
1.2505747 1.3259078 0.26480868 4288177920
1.3518757 1.433219 0.29270858 4288700160
1.4438313 1.5306485 0.31915715 4289222400
1.4426382 1.5294696 0.3250964 4289222400
1.4401941 1.5269669 0.33036453 4289222400
1.4372044 1.5238867 0.33510485 4289091840
1.4356878 1.522367 0.33978358 4289091840
1.4311031 1.5175987 0.34332305 4289091840
1.4275472 1.5139203 0.34668458 4289091840
1.4334023 1.5202093 0.35192928 4289091840
1.4250627 1.5114653 0.35327989 4289091840
1.423318 1.5097067 0.35582668 4289091840
1.417628 1.5037695 0.35695869 4289091840
1.4268066 1.5135833 0.3614141 4289091840
1.4234478 1.5101169 0.36228517 4289091840
1.4198717 1.5064206 0.36266872 4289091840
1.4194587 1.5060762 0.36342981 4289091840
1.4227419 1.5096489 0.36470973 4289091840
1.4260744 1.5132753 0.36557502 4289091840
1.4246656 1.5118783 0.36479792 4289091840
1.4233738 1.5106061 0.36362356 4289091840
1.4246163 1.5120205 0.36266831 4289091840
1.4216826 1.5090094 0.36022845 4289091840
1.4312078 1.5192052 0.36050719 4289091840
1.4293411 1.517327 0.35748786 4289091840
1.4305599 1.5187203 0.35482132 4289091840
1.4366416 1.5252703 0.35292721 4289222400
1.4448984 1.5341284 0.35111815 4289222400
1.437433 1.5263171 0.34508547 4289222400
1.4312012 1.5198135 0.33898863 4289091840
1.4196771 1.5076973 0.33130667 4289091840
1.3954172 1.4820727 0.32040477 4288961280
1.3040601 1.385277 0.29421103 4288439040
1.3242545 1.4067961 0.29307896 4288569600
1.3469964 1.4310215 0.29198214 4288700160
1.3770281 1.4629844 0.2918798 4288830720
1.4148833 1.5035602 0.24821973 4288961280
1.4335093 1.5234398 0.24224602 4289091840
1.4215075 1.5108157 0.23079309 4289091840
1.3106984 1.3933138 0.20390399 4288439040
1.2778114 1.3585093 0.18986623 4288308480
1.2757012 1.3563724 0.18042341 4288308480
1.4240475 1.5139705 0.19094005 4289091840
1.4084579 1.497534 0.17834242 4288961280
1.4158469 1.505495 0.16850962 4288961280
1.4280256 1.5185437 0.15890816 4289091840
1.4433987 1.5349871 0.14927022 4289091840
1.4358768 1.5271171 0.13704416 4289091840
1.4246165 1.5152754 0.12446128 4289091840
1.4391711 1.5308539 0.11396188 4289091840
1.3134835 1.3974518 0.093181521 4288439040
1.2616709 1.3425148 0.07899072 4288177920
1.3096056 1.3935502 0.07096266 4288439040
1.5773172 1.6781234 0.072048008 4289744640
1.9515908 2.0759804 0.072449505 4291572480
1.9938998 2.1211071 0.056941558 4291833600
1.9832375 2.1099415 0.039592259 4291703040
1.9887297 2.1159451 0.022561843 4291833600
1.98228 2.1092556 0.0053779893 4291703040
1.9604371 2.0862007 -0.011610959 4291703040
1.9727669 2.0994732 -0.028714264 4291703040
1.9786985 2.1059451 -0.045853589 4291703040
1.9763838 2.1036494 -0.062786125 4291703040
1.9659903 2.092762 -0.07928808 4291703040
1.9795629 2.1073604 -0.096702531 4291703040
1.9944937 2.1234057 -0.11432401 4291833600
1.9810779 2.1093018 -0.13021216 4291833600
1.9629124 2.0901432 -0.14538589 4291703040
1.9771997 2.1055052 -0.16277668 4291703040
1.9787381 2.1073058 -0.17907406 4291703040
1.9659634 2.0938773 -0.19379327 4291703040
1.9735079 2.1020672 -0.21026455 4291703040
1.9856536 2.1151545 -0.22715472 4291833600
1.99139 2.1214223 -0.24320532 4291833600
1.972273 2.1012385 -0.25585547 4291703040
1.8873564 2.0110137 -0.25891298 4291311360
2.0001864 2.1312728 -0.28900528 4291964160
2.0072877 2.1389945 -0.30437946 4291964160
2.0134039 2.1456678 -0.31936276 4291964160
1.9779271 2.1080563 -0.32719839 4291833600
1.8616302 1.9843807 -0.32029316 4291180800
2.0439308 2.178658 -0.36479816 4292094720
2.0390978 2.1736729 -0.37664521 4292094720
2.037596 2.1722341 -0.38864717 4292094720
2.0112901 2.1443746 -0.39532143 4291964160
1.916355 2.0434067 -0.38738197 4291572480
2.0183847 2.152245 -0.41882634 4292094720
2.0173113 2.151257 -0.42894936 4292094720
2.0223565 2.1567869 -0.43990529 4292094720
2.0237024 2.1583748 -0.44958693 4292094720
2.0108886 2.1448736 -0.4555608 4292094720
1.9987533 2.1320927 -0.46106085 4291964160
1.9995704 2.1331127 -0.46897191 4291964160
1.9667279 2.0982571 -0.46833718 4291833600
1.926995 2.0560515 -0.4652729 4291572480
1.9525967 2.0834823 -0.47738671 4291703040
1.9681159 2.1001678 -0.48660451 4291833600
1.9146527 2.0433125 -0.47811973 4291572480
1.9302911 2.0601225 -0.48623136 4291703040
1.9392427 2.0698037 -0.49214488 4291703040
1.93882 2.0694892 -0.49512359 4291703040
1.9478955 2.0793023 -0.49996105 4291703040
1.9509726 2.0827184 -0.50269115 4291833600
1.9541172 2.086206 -0.50485718 4291833600
1.9445339 2.0761173 -0.50314498 4291703040
1.94445 2.0761588 -0.50329828 4291703040
1.9249047 2.0554395 -0.49783239 4291703040
1.9121627 2.0419738 -0.49355441 4291572480
1.8961194 2.0249834 -0.48786786 4291441920
1.9585218 2.0916851 -0.5017314 4291833600
1.929813 2.0611796 -0.49164864 4291703040
1.9233959 2.0544555 -0.48672137 4291572480
1.9559237 2.089288 -0.49102449 4291833600
2.002785 2.1394198 -0.49818075 4291964160
2.0111036 2.1484222 -0.49504536 4292094720
2.020786 2.1588802 -0.49162224 4292094720
2.012588 2.1502535 -0.48327947 4292094720
2.0190275 2.157249 -0.47789568 4292094720
2.0130172 2.1509545 -0.46901515 4292094720
2.0050797 2.142601 -0.45919973 4291964160
1.9994112 2.1366675 -0.44943196 4291964160
2.0067606 2.1446311 -0.44206563 4291964160
2.0214171 2.1603966 -0.43570086 4292094720
2.0299628 2.1696377 -0.42741057 4292094720
2.0232944 2.1626332 -0.41542426 4292094720
2.0063581 2.1446617 -0.40098655 4291964160
1.9886893 2.1259055 -0.38614208 4291964160
1.9954412 2.1332276 -0.37566343 4291964160
2.0109689 2.1499221 -0.36627942 4291964160
1.9974128 2.1355536 -0.3511793 4291964160
1.9702077 2.1066034 -0.3335503 4291833600
1.9694808 2.1059339 -0.32021362 4291833600
1.9767869 2.1138449 -0.30778155 4291833600
1.9773753 2.1145794 -0.29390815 4291833600
1.9419466 2.076834 -0.2746087 4291572480
1.9470701 2.0824108 -0.26095888 4291703040
1.9527463 2.0885782 -0.24701585 4291703040
1.960358 2.0968142 -0.23294593 4291703040
1.9322529 2.0668836 -0.21453747 4291572480
1.9498 2.0857356 -0.2010448 4291703040
1.961159 2.0979757 -0.18646523 4291703040
1.9706796 2.1082518 -0.17133996 4291703040
1.9634924 2.1006713 -0.15455765 4291703040
1.9492543 2.0855536 -0.13723049 4291703040
1.9681076 2.1058052 -0.12204696 4291703040
1.9732085 2.1113582 -0.10567752 4291703040
1.9528824 2.0897298 -0.087961189 4291703040
1.9726126 2.1109214 -0.071961857 4291703040
1.9857101 2.1250238 -0.055361994 4291833600
1.9819376 2.1210909 -0.038151648 4291833600
1.9758092 2.1146386 -0.020941092 4291703040
1.6679968 1.7856114 -0.0031999091 4290266880
1.2992123 1.391356 0.0088117849 4288439040
1.1727316 1.25617 0.018130647 4287786240
1.269676 1.3599014 0.030583272 4288308480
1.4444352 1.5468615 0.047202617 4289091840
1.4494321 1.5522791 0.059799168 4289222400
1.4473021 1.5500746 0.072062381 4289091840
1.4267411 1.5281563 0.083140545 4289091840
1.4427301 1.5453317 0.096210673 4289091840
1.4399593 1.5424417 0.10804009 4289091840
1.4235331 1.5249437 0.11857132 4289091840
1.4188213 1.5199764 0.12977192 4288961280
1.284603 1.3764555 0.1278961 4288308480
1.2988155 1.3917284 0.13964787 4288439040
1.2310553 1.3192953 0.14203797 4288047360
1.3932276 1.4928864 0.17144924 4288961280
1.4421377 1.5452969 0.18838559 4289091840
1.4429002 1.5461893 0.19921362 4289222400
1.4318265 1.5344155 0.20811523 4289091840
1.4057863 1.5066233 0.2143489 4288961280
1.4516015 1.5557342 0.23141061 4289222400
1.4435754 1.5472225 0.23991108 4289222400
1.4260637 1.5285571 0.24639994 4289091840
1.4004031 1.5011674 0.25092772 4288961280
1.2239137 1.3123133 0.22694314 4288047360
1.4117397 1.5134597 0.27014104 4289091840
1.4099605 1.5116343 0.27793038 4289091840
1.3973812 1.498246 0.28319925 4288961280
1.3675654 1.4664015 0.28443107 4288830720
1.3348593 1.4314591 0.28441429 4288700160
1.327438 1.4235896 0.28924784 4288700160
1.4230946 1.526106 0.31657031 4289091840
1.4242095 1.527384 0.32297626 4289091840
1.4256926 1.5290574 0.32910413 4289091840
1.4254985 1.5289353 0.33447054 4289091840
1.4097941 1.5122002 0.33576053 4289091840
1.4155444 1.5184462 0.34172541 4289091840
1.410538 1.5131705 0.34470445 4289091840
1.4053562 1.507707 0.34721056 4289091840
1.4097035 1.512453 0.35165858 4289091840
1.4089175 1.5117004 0.35442618 4289091840
1.4046172 1.5071828 0.35588726 4289091840
1.4076908 1.5105671 0.35879368 4289091840
1.3946898 1.4967265 0.35717818 4288961280
1.397858 1.5002137 0.35926485 4288961280
1.4037614 1.5066335 0.36163816 4289091840
1.4070147 1.5102147 0.36290988 4289091840
1.400249 1.5030576 0.36117643 4289091840
1.4109331 1.5146061 0.363509 4289091840
1.4080316 1.5115925 0.36191887 4289091840
1.4134479 1.5174971 0.36203513 4289091840
1.408228 1.5119994 0.35900816 4289091840
1.4102294 1.5142447 0.35740131 4289091840
1.413602 1.5179614 0.35571355 4289091840
1.4121746 1.5165321 0.35240045 4289091840
1.4264097 1.531901 0.35254648 4289222400
1.4152809 1.5200688 0.34601808 4289091840
1.4168993 1.5219085 0.34222248 4289091840
1.4096899 1.5142798 0.33591843 4289091840
1.3993182 1.5032585 0.32853153 4288961280
1.3818997 1.4846762 0.31921425 4288961280
1.3959068 1.499809 0.31678316 4288961280
1.4092268 1.5142076 0.31371632 4289091840
1.4082603 1.5132784 0.30705991 4289091840
1.4080223 1.5131315 0.3002145 4289091840
1.3996645 1.5051699 0.24712779 4288961280
1.4208775 1.5280638 0.24165463 4289091840
1.4178904 1.5249704 0.23168394 4289091840
1.3694414 1.4730461 0.21439071 4288830720
1.3588972 1.4618312 0.20318498 4288830720
1.3638855 1.4673011 0.19410764 4288830720
1.4135441 1.5207639 0.19075628 4289091840
1.4023421 1.5088446 0.1787159 4288961280
1.3940039 1.500001 0.16698866 4288961280
1.4094967 1.5167652 0.15786733 4288961280
1.4179735 1.5259924 0.14759955 4289091840
1.4172904 1.5253766 0.13615562 4289091840
1.4020178 1.5090795 0.12329252 4288961280
1.4198411 1.5283558 0.11317299 4289091840
1.3051839 1.4052167 0.093204834 4288439040
1.263224 1.3602155 0.079611868 4288308480
1.2747868 1.3727542 0.069545209 4288308480
1.5544174 1.6735401 0.071485914 4289744640
1.9514545 2.1006269 0.072942279 4291703040
1.9649615 2.1153181 0.056514099 4291703040
1.9605458 2.1107352 0.039430339 4291703040
1.9564166 2.1064601 0.022380475 4291703040
