# .PCD v0.7 - Point Cloud Data file format
VERSION 0.7
FIELDS x y z rgba
SIZE 4 4 4 4
TYPE F F F U
COUNT 1 1 1 1
WIDTH 1128
HEIGHT 1
VIEWPOINT 0 0 0 1 0 0 0
POINTS 1128
DATA ascii
2.0464983 2.2040036 -0.39238846 4292225280
2.0282121 2.1844897 -0.4007374 4292094720
1.9570209 2.108042 -0.39767838 4291833600
2.0107729 2.1660414 -0.4194428 4292094720
2.0225012 2.1788204 -0.43231902 4292094720
2.0268281 2.183634 -0.44320473 4292094720
2.0173821 2.1736226 -0.45055252 4292094720
2.0124419 2.1684589 -0.45832631 4292094720
2.0032825 2.1587512 -0.46455544 4292094720
1.9860481 2.1403475 -0.46827486 4291964160
1.958757 2.1111121 -0.46892017 4291833600
1.9199088 2.0694273 -0.46603128 4291572480
1.9386579 2.0897589 -0.47650799 4291703040
1.9540933 2.1065235 -0.48571929 4291833600
1.9662225 2.1197288 -0.49361911 4291833600
1.9037333 2.0525658 -0.48211306 4291572480
1.9159912 2.0659056 -0.48885512 4291572480
1.9249555 2.0756981 -0.49422577 4291703040
1.9279504 2.0790603 -0.49750686 4291703040
1.9310111 2.0824924 -0.50023168 4291703040
1.930789 2.082387 -0.50152564 4291703040
1.9306356 2.0823543 -0.50225163 4291703040
1.9238528 2.075177 -0.50066632 4291703040
1.9111106 2.0615757 -0.49694809 4291572480
1.9763811 2.1320446 -0.51289624 4291964160
1.9604282 2.1149826 -0.50715446 4291833600
1.9385117 2.0914893 -0.49931616 4291703040
1.9226869 2.0745585 -0.49251094 4291703040
1.9576505 2.1123717 -0.498099 4291833600
1.990466 2.1478724 -0.50243467 4291964160
2.0005214 2.1588395 -0.50035387 4292094720
2.0159454 2.1755943 -0.49897099 4292094720
2.0171213 2.1769876 -0.49344075 4292094720
2.0201206 2.1803465 -0.48777243 4292094720
2.0188072 2.179054 -0.48049459 4292094720
2.0101466 2.169837 -0.47095129 4292094720
2.0028589 2.1620984 -0.4612489 4292094720
2.0003185 2.1594782 -0.45214981 4291964160
1.9998378 2.1590781 -0.44301122 4291964160
2.015085 2.1756413 -0.43677899 4292094720
2.0284557 2.1901815 -0.42950276 4292094720
2.0169547 2.1778917 -0.41646683 4292094720
2.0071976 2.1674817 -0.40343282 4292094720
1.9896818 2.1486988 -0.38853723 4291964160
1.9998969 2.1598322 -0.37865701 4291964160
2.0076294 2.1682873 -0.36777309 4291964160
2.004106 2.164597 -0.35439029 4291964160
1.9845438 2.1435986 -0.33792627 4291964160
1.9926053 2.1524067 -0.32586241 4291964160
1.9908065 2.150574 -0.31178233 4291964160
1.9951228 2.1553402 -0.29829621 4291964160
1.9496763 2.1063976 -0.2773402 4291703040
1.9400644 2.0961275 -0.26157692 4291703040
1.9370774 2.0930066 -0.24651331 4291703040
1.9375322 2.0936003 -0.23163664 4291572480
1.918353 2.0729983 -0.21430598 4291572480
1.9297024 2.0853512 -0.20021263 4291572480
1.9470993 2.104234 -0.18629847 4291703040
1.9498369 2.107291 -0.17061643 4291703040
1.9460253 2.1032767 -0.15418555 4291703040
1.9386498 2.0954137 -0.1373987 4291572480
1.9472178 2.1047654 -0.12158392 4291703040
1.9491932 2.1069989 -0.10513744 4291703040
1.9286764 2.0849423 -0.087522246 4291572480
1.9455808 2.1032975 -0.07154426 4291703040
1.9647192 2.1240668 -0.055261556 4291703040
1.9582494 2.1171796 -0.03808856 4291703040
1.952445 2.1110101 -0.020994976 4291703040
1.7336509 1.8747742 -0.0035231763 4290658560
1.2955394 1.4016038 0.0087060826 4288439040
1.1663496 1.2621095 0.018014226 4287786240
1.2892565 1.3949486 0.031090273 4288439040
1.4277798 1.5446721 0.046770994 4289091840
1.4354361 1.5530175 0.059401374 4289091840
1.4312849 1.5486059 0.071510911 4289091840
1.4128716 1.5287833 0.082640313 4288961280
1.4219904 1.5387099 0.095204554 4289091840
1.421952 1.5387419 0.10713059 4289091840
1.409687 1.5255612 0.11791919 4288961280
1.4078583 1.5236582 0.12933265 4288961280
1.4049181 1.5205541 0.1404639 4288961280
1.3997592 1.5150518 0.15115482 4288961280
1.3442992 1.4551792 0.155783 4288700160
1.4224867 1.5397671 0.17585862 4289091840
1.4282753 1.5461005 0.18745989 4289091840
1.4315445 1.5497111 0.1985925 4289091840
1.4127051 1.5294206 0.20633106 4289091840
1.3212016 1.4305668 0.20245712 4288569600
1.42697 1.5449977 0.22860578 4289091840
1.4237925 1.5416402 0.23779695 4289091840
1.4096723 1.5264503 0.24478279 4289091840
1.3860458 1.5009793 0.2496011 4288961280
1.3579695 1.4706942 0.25301227 4288830720
1.4149967 1.5324455 0.27213159 4289091840
1.4140353 1.5314862 0.28014821 4289091840
1.412456 1.5298591 0.28771031 4289091840
1.4087744 1.5259583 0.29448912 4289091840
1.4013582 1.5180181 0.30009523 4289091840
1.3775625 1.4923586 0.30170327 4288961280
1.4031326 1.520103 0.31375992 4289091840
1.3969352 1.5134819 0.31845534 4288961280
1.3993237 1.5161502 0.32472053 4289091840
1.3944631 1.510976 0.32892254 4288961280
1.3902071 1.506456 0.33285254 4288961280
1.3739424 1.4889414 0.33345804 4288961280
1.3682861 1.482906 0.33617625 4288830720
1.3686085 1.4833409 0.33995342 4288830720
1.368198 1.4829837 0.34315243 4288830720
1.3568132 1.4707484 0.34317788 4288830720
1.3564903 1.4704868 0.34557047 4288830720
1.3662397 1.4811294 0.3501344 4288830720
1.3142816 1.4249698 0.3384521 4288569600
1.3207831 1.4320962 0.34134316 4288700160
1.3683462 1.4836829 0.3544625 4288961280
1.3622373 1.4771608 0.35331345 4288830720
1.3588495 1.4735852 0.3524521 4288830720
1.3588502 1.4736797 0.35205427 4288830720
1.375918 1.4922588 0.35564718 4288961280
1.3699994 1.485945 0.35288623 4288961280
1.3687016 1.4846361 0.3509064 4288961280
1.3780577 1.4948684 0.35122949 4288961280
1.3899852 1.5078883 0.35175985 4288961280
1.3979572 1.5166256 0.35084105 4289091840
1.3958417 1.5144358 0.34697306 4289091840
1.3957858 1.5144781 0.34321636 4289091840
1.398585 1.5176147 0.33975226 4289091840
1.3958746 1.5147823 0.33455712 4288961280
1.3834281 1.5013987 0.32669637 4288961280
1.3801924 1.4979968 0.32068434 4288961280
1.388344 1.5069377 0.31692153 4288961280
1.4057578 1.5259203 0.31479469 4289091840
1.4111522 1.5318769 0.30951807 4289091840
1.410313 1.5310771 0.30249998 4289091840
1.3891646 1.5082685 0.2465568 4288961280
1.4088093 1.5296817 0.24085592 4289091840
1.4174926 1.5392126 0.23282725 4289091840
1.3973141 1.5174463 0.21988626 4288961280
1.3766922 1.4951963 0.20691369 4288830720
1.3963772 1.5166607 0.19975828 4288961280
1.4105735 1.5321753 0.19134906 4289091840
1.3873724 1.5071247 0.17773445 4288961280
1.3766931 1.4956553 0.16577972 4288830720
1.3954809 1.5161544 0.15711613 4288961280
1.4039112 1.5254189 0.14690112 4288961280
1.3998477 1.5211279 0.13518506 4288961280
1.392091 1.5128288 0.12305969 4288961280
1.4039721 1.5258411 0.1124945 4288961280
1.311996 1.4261327 0.094177209 4288569600
1.2066092 1.3118523 0.076452732 4288047360
1.2391043 1.3472297 0.067957796 4288177920
1.5440189 1.678357 0.071378194 4289744640
1.9285342 2.0959594 0.072462477 4291572480
1.938583 2.1070354 0.056047186 4291703040
1.9341882 2.1024292 0.039103657 4291572480
1.9422743 2.111376 0.022333285 4291703040
1.9414903 2.1106911 0.0053710132 4291703040
1.9088823 2.0754409 -0.011393414 4291441920
1.9297924 2.0983174 -0.028371403 4291572480
1.9303235 2.0990596 -0.045207564 4291572480
1.9307458 2.099684 -0.062003914 4291572480
1.9170891 2.0850115 -0.078168757 4291572480
1.9372786 2.1071126 -0.095690593 4291703040
1.9422297 2.1126583 -0.11257473 4291703040
1.9489303 2.1201055 -0.12954101 4291703040
1.9473414 2.1185448 -0.14586225 4291703040
1.969803 2.1431239 -0.16400501 4291833600
1.9904581 2.1657429 -0.18218033 4291964160
1.9608636 2.1337399 -0.19548866 4291833600
2.0027919 2.1794882 -0.21581529 4291964160
2.0150185 2.19295 -0.23314273 4292094720
2.022759 2.2015357 -0.24985626 4292094720
2.0110397 2.1889617 -0.26386505 4292094720
1.9142582 2.0838807 -0.26560593 4291572480
2.0175843 2.1964145 -0.29485437 4292094720
2.0185001 2.197578 -0.30958378 4292094720
2.0157552 2.1947587 -0.32339841 4292094720
2.0087419 2.187295 -0.33610377 4292094720
1.9411514 2.1139276 -0.33780193 4291703040
2.0339785 2.2150803 -0.36718681 4292225280
2.0371397 2.2186847 -0.380602 4292225280
2.0356331 2.2172096 -0.3927305 4292225280
2.03828 2.2202535 -0.40522608 4292225280
2.0159602 2.1961253 -0.41219279 4292094720
2.0354753 2.217525 -0.42722547 4292225280
2.0343909 2.2165058 -0.43755245 4292225280
2.043076 2.2261193 -0.44952059 4292225280
2.0412016 2.2242379 -0.45868853 4292225280
2.035959 2.2186885 -0.46654424 4292225280
2.0500364 2.2341721 -0.47832739 4292355840
2.0307589 2.2133384 -0.48176515 4292225280
2.0188408 2.2005146 -0.48627573 4292225280
2.0103807 2.1914535 -0.49098688 4292094720
1.9907012 2.1701715 -0.49230307 4292094720
1.9388702 2.1138673 -0.48489639 4291833600
1.9575926 2.134403 -0.49446833 4291833600
1.9637016 2.1412005 -0.50034153 4291964160
1.979198 2.1582243 -0.50806701 4291964160
1.9787651 2.1578951 -0.51114231 4291964160
1.9783994 2.1576376 -0.51363808 4291964160
1.987425 2.1676118 -0.51798064 4292094720
1.9871962 2.1675019 -0.51931643 4292094720
1.9837091 2.1638401 -0.51919299 4292094720
1.9709727 2.1500969 -0.51604062 4291964160
1.9642991 2.1429584 -0.51387239 4291964160
1.9583611 2.1366196 -0.51130068 4291964160
1.9458339 2.1230962 -0.5064255 4291833600
1.987107 2.168216 -0.5149197 4292094720
1.9680564 2.1475797 -0.50716799 4291964160
2.0209017 2.2053196 -0.51728141 4292225280
2.0198669 2.2043226 -0.51291674 4292225280
2.0384617 2.2247267 -0.51289719 4292355840
2.0366621 2.222894 -0.50711381 4292355840
2.0408201 2.2275565 -0.50221783 4292355840
2.0359313 2.222353 -0.49451834 4292225280
2.0367746 2.2233989 -0.48765188 4292225280
2.0248404 2.2105081 -0.4772065 4292225280
2.0154662 2.200407 -0.4668974 4292225280
2.0064714 2.1907177 -0.45621613 4292094720
2.0144801 2.1995738 -0.44887918 4292094720
2.0158255 2.2011609 -0.43950209 4292094720
2.0285707 2.2151837 -0.43203798 4292225280
2.020155 2.2061207 -0.41955739 4292225280
2.0053008 2.1900311 -0.40539077 4292094720
1.9871875 2.170383 -0.39029327 4291964160
2.0025387 2.187247 -0.38133916 4292094720
2.0135832 2.1994126 -0.37097636 4292094720
2.0156145 2.2017424 -0.3584561 4292094720
2.0042815 2.1894867 -0.34322059 4292094720
2.0068946 2.19245 -0.33004731 4292094720
2.0185504 2.2052822 -0.3178952 4292094720
2.0228584 2.2100949 -0.30412179 4292094720
1.988578 2.1727862 -0.28443095 4291964160
1.9766797 2.1599057 -0.26796708 4291964160
1.9862322 2.1704402 -0.25413263 4291964160
1.9795567 2.163259 -0.23792227 4291964160
1.9522618 2.1335647 -0.21924022 4291703040
1.9403257 2.1206365 -0.20235485 4291703040
1.9291685 2.1085565 -0.18551667 4291703040
1.9285153 2.107945 -0.16958351 4291572480
1.9179791 2.0965409 -0.15269031 4291572480
1.9106432 2.0886302 -0.13603632 4291572480
1.9164551 2.095077 -0.12018479 4291572480
1.9211128 2.1002636 -0.10404245 4291572480
1.898017 2.0751383 -0.08644259 4291441920
1.9235067 2.1030777 -0.07094454 4291572480
1.933833 2.1144564 -0.054499984 4291703040
1.9415199 2.1229529 -0.037766084 4291703040
1.9209536 2.1005869 -0.020553049 4291572480
1.7136201 1.8741856 -0.0032974067 4290528000
1.3106415 1.4340212 0.0090161199 4288569600
1.1871202 1.2991358 0.018586494 4287916800
1.2874602 1.4088289 0.031393856 4288439040
1.4061309 1.5385611 0.046519618 4288961280
1.4180743 1.5516846 0.059219565 4289091840
1.4097241 1.5426337 0.071042813 4289091840
1.3914251 1.5227097 0.082060426 4288961280
1.4072344 1.5400597 0.094970591 4289091840
1.407197 1.5400925 0.10684532 4289091840
1.3913003 1.5227917 0.11726981 4288961280
1.3991095 1.5314006 0.12949038 4288961280
1.4068271 1.5399104 0.14168817 4289091840
1.4015143 1.5341777 0.15244178 4288961280
1.3852581 1.5164815 0.16166896 4288961280
1.4167262 1.5509576 0.17639135 4289091840
1.4216592 1.5564272 0.18790594 4289091840
1.4087029 1.5423385 0.19679385 4289091840
1.3205135 1.4459896 0.19422966 4288569600
1.2707913 1.3916935 0.19608842 4288439040
1.3258482 1.4519684 0.21388936 4288700160
1.3278224 1.4542009 0.22330634 4288700160
1.2696724 1.3906815 0.22200926 4288439040
1.3470473 1.4753755 0.24422276 4288830720
1.3674433 1.4977595 0.25647879 4288830720
1.4149399 1.5497885 0.27393335 4289091840
1.4008358 1.5344423 0.27937859 4289091840
1.4026625 1.5365219 0.28760624 4289091840
1.3970625 1.5304776 0.29396662 4289091840
1.3875877 1.5201944 0.29909903 4288961280
1.3884823 1.5212556 0.3060762 4288961280
1.3908749 1.5239565 0.31304735 4288961280
1.3817188 1.5140221 0.31703484 4288961280
1.3738638 1.505511 0.32088274 4288961280
1.3454865 1.4745418 0.31943393 4288830720
1.3347399 1.4628645 0.32164645 4288700160
1.3086842 1.4344317 0.31967944 4288569600
1.2704935 1.3927143 0.31418186 4288439040
1.2827131 1.4061705 0.32068008 4288439040
1.2889779 1.4131107 0.32536659 4288569600
1.2912897 1.4157251 0.32869717 4288569600
1.3009515 1.4263872 0.33353356 4288569600
1.3006842 1.4261806 0.33545566 4288569600
1.3097613 1.4362059 0.33940104 4288700160
1.3062589 1.4324591 0.33970231 4288569600
1.3061234 1.4323994 0.34047562 4288569600
1.3033766 1.4294809 0.3401688 4288569600
1.3000114 1.4258857 0.33930051 4288569600
1.2966918 1.4223406 0.33804661 4288569600
1.284119 1.4086609 0.33399636 4288569600
1.2775669 1.4015749 0.33113071 4288439040
1.258436 1.3807094 0.32465139 4288439040
1.2969397 1.4229822 0.33259746 4288569600
1.3319633 1.4614483 0.33914092 4288700160
1.3541846 1.4858932 0.34192288 4288830720
1.3757095 1.5095792 0.34403071 4288961280
1.3779391 1.5121251 0.34086195 4288961280
1.3891639 1.5245297 0.33947751 4289091840
1.3820608 1.5168502 0.3332164 4288961280
1.3729286 1.5069464 0.3261354 4288961280
1.3789889 1.5136946 0.32228804 4288961280
1.3739522 1.5082802 0.31547606 4288961280
1.3949524 1.5314093 0.31419659 4289091840
1.409647 1.5476292 0.31097764 4289091840
1.402145 1.5395151 0.30248153 4289091840
1.38547 1.5222551 0.24751161 4288961280
1.4078269 1.5469004 0.24226464 4289091840
1.4099382 1.5493336 0.23310684 4289091840
1.3875338 1.5248637 0.21978286 4288961280
1.3724631 1.5084393 0.20763415 4288961280
1.3954771 1.5338142 0.20094243 4288961280
1.3960731 1.5345858 0.19063316 4288961280
1.3793752 1.5163735 0.17787743 4288961280
1.3651249 1.5008458 0.16547571 4288830720
1.3831184 1.5207174 0.15675816 4288961280
1.3881342 1.5263427 0.14621782 4288961280
1.3814065 1.5190737 0.13429607 4288961280
1.3730242 1.5099869 0.12218867 4288830720
1.3851089 1.5233769 0.11173082 4288961280
1.2407455 1.3649343 0.0896791 4288177920
1.2216858 1.3441054 0.077928133 4288177920
1.2607558 1.3871303 0.0696119 4288308480
1.5306861 1.6837881 0.071252398 4289614080
1.9177269 2.1091616 0.072563097 4291572480
1.9159733 2.1074011 0.055794425 4291572480
1.9116055 2.1027677 0.03894002 4291572480
1.9102162 2.1014071 0.022151109 4291572480
1.9128016 2.1044145 0.0053702267 4291572480
1.8864607 2.0756283 -0.011288981 4291441920
1.9045442 2.0956702 -0.028136965 4291572480
1.9117482 2.103755 -0.045017987 4291572480
1.916581 2.1092341 -0.061903022 4291572480
1.9437158 2.1392345 -0.079725161 4291703040
1.9841911 2.183908 -0.098599754 4291964160
2.0083094 2.2106018 -0.1171158 4292094720
2.0105476 2.2132368 -0.13445815 4292094720
1.9970249 2.1985378 -0.15050769 4291964160
2.0091558 2.2120526 -0.16831888 4292094720
2.0174417 2.2213402 -0.18579896 4292094720
2.0141013 2.2178385 -0.20205024 4292094720
2.0241363 2.2290511 -0.21948032 4292225280
2.0313392 2.237149 -0.23650539 4292225280
2.0430934 2.2502556 -0.25395441 4292225280
2.0308628 2.2369699 -0.26814413 4292225280
1.9465411 2.144345 -0.27178892 4291833600
2.0400391 2.2474122 -0.30001941 4292225280
2.0302002 2.2367542 -0.31334823 4292225280
2.0246358 2.2307992 -0.3268809 4292225280
2.0178013 2.223444 -0.33976096 4292225280
1.9539732 2.1533415 -0.34219217 4291833600
2.0495224 2.2587032 -0.37234437 4292355840
2.0526462 2.262311 -0.38593879 4292355840
2.0481315 2.2575076 -0.39765805 4292355840
2.0410864 2.2499156 -0.40837082 4292355840
2.0280349 2.2357068 -0.41730684 4292225280
2.0341513 2.2426064 -0.42967418 4292355840
2.0389709 2.2480779 -0.44134 4292355840
2.0419815 2.2515564 -0.45215353 4292355840
2.0445535 2.2545512 -0.46238244 4292355840
2.0363028 2.2456212 -0.46961209 4292355840
2.0363829 2.2458684 -0.47818863 4292355840
2.0325406 2.2417922 -0.48528102 4292355840
2.0260456 2.234791 -0.49114344 4292355840
2.0142548 2.221952 -0.49509305 4292225280
2.0092154 2.2165506 -0.50007433 4292225280
1.9705071 2.1740379 -0.49597603 4291964160
1.9257104 2.1248071 -0.4895497 4291833600
1.9350951 2.1352947 -0.49623188 4291833600
1.9471843 2.1487644 -0.50307453 4291964160
1.9500666 2.1520839 -0.50698155 4291964160
1.958969 2.1620402 -0.51187879 4291964160
1.9553655 2.1582074 -0.51292056 4291964160
1.9518318 2.1544497 -0.51337576 4291964160
1.9549828 2.158062 -0.51498777 4291964160
1.9489429 2.1515374 -0.51357877 4291964160
1.9423115 2.1443586 -0.51141483 4291833600
1.9357493 2.137254 -0.50867647 4291833600
1.9674218 2.1723218 -0.51536459 4291964160
1.9583513 2.1624486 -0.51076669 4291964160
2.0101175 2.2196872 -0.52136981 4292225280
2.0129943 2.2229941 -0.51860982 4292225280
2.0181735 2.2288404 -0.51582336 4292225280
2.0322011 2.2444494 -0.51465428 4292355840
2.0303137 2.2424977 -0.50883067 4292355840
2.0321717 2.2446778 -0.50335485 4292355840
2.0318706 2.2444744 -0.49675718 4292355840
2.028506 2.2408886 -0.48884946 4292355840
2.0265963 2.2389069 -0.48074731 4292355840
2.0154736 2.2267551 -0.46995926 4292225280
2.0098486 2.2206693 -0.45998222 4292225280
2.0174913 2.229228 -0.45250309 4292225280
2.0280449 2.2409997 -0.4450736 4292225280
2.0380023 2.2521136 -0.43690449 4292355840
2.0266001 2.2396452 -0.42367104 4292225280
2.0082517 2.2195058 -0.4086681 4292225280
2.0029063 2.2137206 -0.39598134 4292094720
2.0175078 2.2299595 -0.38673383 4292225280
2.0269461 2.2404976 -0.37591547 4292225280
2.0234935 2.2368002 -0.36224896 4292225280
2.0037417 2.2151008 -0.34541339 4292094720
2.0108242 2.2230358 -0.33290046 4292094720
2.0242229 2.2379467 -0.3209208 4292225280
2.0227759 2.2364609 -0.30614862 4292225280
1.9944674 2.2053022 -0.28719145 4292094720
1.9921571 2.2028594 -0.27188656 4292094720
2.0084751 2.2209949 -0.25871751 4292094720
1.9975322 2.2090144 -0.24171358 4292094720
1.9818873 2.1918373 -0.22408584 4291964160
1.9917032 2.2027893 -0.20913787 4291964160
1.9979146 2.209759 -0.19345395 4292094720
2.0016456 2.2139883 -0.17723821 4292094720
1.9923611 2.2038348 -0.15972444 4291964160
1.9332739 2.1386425 -0.13862094 4291703040
1.9016943 2.1038442 -0.12011096 4291572480
1.9023063 2.1046207 -0.10377105 4291572480
1.8756309 2.0752373 -0.086055264 4291441920
1.8949172 2.0966532 -0.070422426 4291572480
1.9145652 2.1184709 -0.054387964 4291572480
1.9108564 2.1144712 -0.037490875 4291572480
1.8932225 2.0950773 -0.020467505 4291572480
1.6922359 1.8729804 -0.0033489335 4290528000
1.2826719 1.4202636 0.0088290013 4288439040
1.2114617 1.3415985 0.01903248 4288047360
1.2019116 1.3311026 0.029461073 4288047360
1.3925086 1.5419155 0.046309341 4288961280
1.3985645 1.548685 0.058726512 4288961280
1.3891658 1.5383651 0.070404947 4288961280
1.3823835 1.5309378 0.081998661 4288961280
1.3913901 1.5409715 0.094454817 4288961280
1.3880057 1.5373023 0.10601795 4288961280
1.375899 1.5239851 0.11667071 4288961280
1.3806465 1.5293099 0.12855881 4288961280
1.3928298 1.5428605 0.14113624 4288961280
1.3826116 1.5316319 0.15131208 4288961280
1.3670424 1.5144829 0.16053063 4288830720
1.4013399 1.5525011 0.17555937 4289091840
1.4035165 1.5549856 0.18666549 4289091840
1.3975217 1.5484297 0.19645235 4289091840
1.3052573 1.4464177 0.19319147 4288569600
1.21446 1.3460193 0.18859142 4288177920
1.2265389 1.3594536 0.19914719 4288177920
1.2258835 1.3587972 0.20749868 4288177920
1.2032487 1.3338164 0.21174969 4288047360
1.2891454 1.4289523 0.23522693 4288569600
1.3334668 1.4780824 0.25170681 4288700160
1.4002031 1.5520287 0.27281076 4289091840
1.3917272 1.5427279 0.27933526 4289091840
1.3869013 1.5374674 0.2861971 4289091840
1.3813405 1.5313933 0.29252467 4288961280
1.3785635 1.5284013 0.29906252 4288961280
1.3668545 1.5155203 0.30325219 4288961280
1.3714923 1.5207385 0.31067836 4288961280
1.3680142 1.5169711 0.31591848 4288961280
1.3655388 1.5143144 0.32100016 4288961280
1.3358834 1.4815584 0.3192082 4288830720
1.3303353 1.475498 0.32266244 4288830720
1.2809912 1.4209315 0.31495598 4288569600
1.2930931 1.4344176 0.32183677 4288569600
1.2492532 1.3859407 0.31436169 4288308480
1.2581265 1.3958514 0.31966189 4288439040
1.270335 1.4094589 0.32548246 4288439040
1.2667305 1.40555 0.32689783 4288439040
1.2697703 1.4090025 0.32964009 4288439040
1.2794513 1.4198151 0.33373374 4288569600
1.2759738 1.416049 0.33401874 4288569600
1.272541 1.412333 0.33391815 4288439040
1.2691532 1.4086668 0.33343408 4288439040
1.2631707 1.4021255 0.33187699 4288439040
1.2532737 1.3912454 0.32890654 4288439040
1.2500181 1.3877263 0.32729459 4288439040
1.2408664 1.3776716 0.32376787 4288308480
1.2883101 1.4303561 0.33455127 4288569600
1.3138165 1.4587281 0.33915928 4288700160
1.3242509 1.4703937 0.3394281 4288700160
1.3476615 1.4964496 0.34255108 4288830720
1.3525015 1.5019177 0.34050003 4288961280
1.3703346 1.5217957 0.34125677 4288961280
1.3642457 1.5151473 0.33563837 4288961280
1.3662019 1.5174216 0.33161715 4288961280
1.3585238 1.509011 0.32489717 4288961280
1.3583187 1.5088892 0.31961265 4288961280
1.3616796 1.512724 0.3147828 4288961280
1.3825407 1.5359751 0.31352237 4289091840
1.3911771 1.5456669 0.30900156 4289091840
1.381214 1.5347235 0.3000102 4288961280
1.3655144 1.5180247 0.24554181 4288961280
1.3873202 1.542347 0.24029769 4289091840
1.3949033 1.5508825 0.23212893 4289091840
1.3730853 1.5267744 0.218917 4288961280
1.3543329 1.5060673 0.20623374 4288830720
1.3738644 1.5278723 0.19912829 4288961280
1.3748972 1.5291365 0.18897431 4288961280
1.3638532 1.5169878 0.17703012 4288830720
1.3532625 1.5053411 0.16511452 4288830720
1.361562 1.5146772 0.15533169 4288830720
1.3765509 1.5314466 0.14595158 4288961280
1.3691972 1.5233957 0.13398631 4288961280
1.3581959 1.5112909 0.12166772 4288830720
1.3622658 1.5159317 0.11061776 4288830720
1.229434 1.3684359 0.089451283 4288177920
1.2004712 1.3363547 0.07708741 4288047360
1.2620126 1.404861 0.070144475 4288308480
1.5529402 1.728353 0.072768025 4289875200
1.882677 2.0950379 0.071722515 4291441920
1.8849436 2.0977232 0.055270147 4291441920
1.8866198 2.0997529 0.038703136 4291441920
1.8892481 2.1028411 0.022072688 4291572480
1.8926951 2.1068406 0.0053710835 4291572480
1.9146645 2.131439 -0.0115137 4291703040
1.9658488 2.1885331 -0.029214585 4291964160
1.9849991 2.210006 -0.047029622 4291964160
1.9851112 2.2103055 -0.064514577 4291964160
1.9757134 2.2000256 -0.08154203 4291964160
1.9976945 2.2246537 -0.099891402 4292094720
2.0094237 2.237879 -0.1179163 4292094720
2.0050256 2.2331612 -0.13493346 4292094720
1.984185 2.2101457 -0.15048452 4291964160
1.9986322 2.2263968 -0.16849761 4292094720
2.0068548 2.2357223 -0.18599676 4292094720
1.9890789 2.2161117 -0.20080806 4292094720
1.9998477 2.2282712 -0.21822676 4292094720
2.0138023 2.243979 -0.23595783 4292225280
2.0252597 2.2569082 -0.25334376 4292225280
2.0197372 2.2509336 -0.26837814 4292225280
1.9721893 2.1981635 -0.27712989 4291964160
2.0133429 2.2441587 -0.29798728 4292225280
2.0198536 2.2515807 -0.31374648 4292225280
2.01825 2.2499661 -0.32793647 4292225280
2.0081356 2.2388711 -0.3402999 4292225280
1.9413979 2.1647007 -0.34216949 4291833600
2.0336792 2.267663 -0.37183574 4292355840
2.0328071 2.2668607 -0.38466123 4292355840
2.0316362 2.2657244 -0.39698732 4292355840
2.0305951 2.2647319 -0.40888014 4292355840
2.0116706 2.2438107 -0.41659841 4292225280
2.011054 2.2432876 -0.42752513 4292225280
2.018575 2.2518322 -0.43973359 4292225280
2.0208266 2.2545044 -0.45034614 4292355840
2.0179036 2.2514081 -0.45929065 4292355840
2.0177124 2.2513554 -0.46831778 4292355840
2.0153608 2.2488933 -0.47629699 4292355840
2.0174046 2.2513297 -0.4847663 4292355840
2.0126698 2.246208 -0.49104065 4292225280
2.0005188 2.2328148 -0.4948816 4292225280
1.9870522 2.217952 -0.49774253 4292225280
1.9453042 2.1715469 -0.49278599 4291964160
1.9571934 2.1849535 -0.50075275 4291964160
1.9094681 2.1318707 -0.49281487 4291833600
1.9188511 2.1424789 -0.49894896 4291833600
1.9184296 2.1421502 -0.50197119 4291833600
1.9213604 2.1455603 -0.50528848 4291833600
1.9269861 2.1519759 -0.50873446 4291833600
1.9267623 2.151865 -0.51004851 4291833600
1.9206922 2.1452296 -0.50921732 4291833600
1.9173201 2.141603 -0.5085035 4291833600
1.910731 2.1343844 -0.50634378 4291833600
1.9579011 2.1871581 -0.51780975 4292094720
1.9455348 2.1734917 -0.51291686 4291964160
1.9801517 2.212261 -0.51977772 4292094720
1.9813778 2.2137637 -0.51722938 4292094720
2.0024564 2.2374253 -0.51921982 4292225280
2.011724 2.2479041 -0.51748836 4292355840
2.011801 2.2481225 -0.51277244 4292355840
2.012126 2.2486169 -0.50752318 4292355840
2.0154426 2.25245 -0.50242889 4292355840
2.0120983 2.2488451 -0.49509412 4292355840
2.0081778 2.2445953 -0.48706996 4292225280
2.0023241 2.2381849 -0.47805125 4292225280
2.0051577 2.2414744 -0.47056636 4292225280
1.9876497 2.2220452 -0.45783332 4292094720
1.9919404 2.2269595 -0.44965142 4292225280
2.0056617 2.2424068 -0.44299737 4292225280
2.0182483 2.256587 -0.43545672 4292355840
2.0102181 2.2477379 -0.42295277 4292225280
1.9886818 2.2237985 -0.40729168 4292094720
1.9832221 2.2178161 -0.39461398 4292094720
1.9919171 2.2276466 -0.38428625 4292094720
1.9971173 2.2335722 -0.37276718 4292225280
1.9938798 2.2300701 -0.35924399 4292094720
1.9778484 2.2122705 -0.34314248 4292094720
1.9846381 2.2199702 -0.33067742 4292094720
1.9919236 2.2282243 -0.31782934 4292094720
2.0028086 2.2405009 -0.30507317 4292225280
1.9691236 2.202965 -0.28536195 4291964160
1.9696635 2.2036777 -0.27054083 4291964160
1.9762402 2.2111375 -0.25619668 4291964160
1.977986 2.2131975 -0.24088098 4291964160
1.958969 2.1920471 -0.2229113 4291964160
1.9628774 2.196523 -0.20742762 4291964160
1.9816829 2.2176535 -0.19310646 4292094720
1.984725 2.2211614 -0.17685916 4292094720
1.9827691 2.2190814 -0.1599659 4292094720
1.9611832 2.1950517 -0.14151548 4291964160
1.9663614 2.2009466 -0.12498424 4291964160
1.9730574 2.2085392 -0.1083126 4291964160
1.9383066 2.1697826 -0.089491867 4291833600
1.9188744 2.1481535 -0.071756899 4291703040
1.9005585 2.1277709 -0.054318815 4291572480
1.8977828 2.1247671 -0.037454247 4291572480
1.8783208 2.1030991 -0.020416211 4291441920
1.7029632 1.9070511 -0.003374707 4290658560
1.2683799 1.4210118 0.0088033294 4288439040
1.180969 1.3232957 0.018692333 4287916800
1.2067993 1.352255 0.029785028 4288047360
1.3692265 1.5340375 0.045850117 4288961280
1.3808136 1.5470742 0.058376409 4288961280
1.3788522 1.5449531 0.070353553 4288961280
1.3634553 1.5277985 0.081420504 4288961280
1.3757342 1.5416114 0.094017603 4288961280
1.374861 1.5407081 0.10571469 4288961280
1.3633391 1.5278879 0.11637524 4288961280
1.3650653 1.5298934 0.12795326 4288961280
1.377172 1.543517 0.14047614 4288961280
1.3674504 1.5327111 0.15064503 4288961280
1.3517818 1.5152481 0.15978998 4288830720
1.385798 1.5533985 0.17476097 4289091840
1.3939905 1.5626459 0.18662243 4289091840
1.374078 1.5404319 0.1944353 4288961280
1.3205755 1.480611 0.19673946 4288700160
1.1748483 1.3175315 0.18365416 4287916800
1.3603728 1.5253185 0.22227935 4288961280
1.3585277 1.5233299 0.23141117 4288961280
1.3502322 1.5141189 0.23911874 4288830720
1.3255576 1.4865658 0.24344553 4288700160
1.3196502 1.4800273 0.25073922 4288700160
1.3811668 1.5489987 0.27087498 4289091840
1.3731126 1.5400596 0.27741459 4288961280
1.3671824 1.5334991 0.28398654 4288961280
1.3662163 1.5324991 0.2912257 4288961280
1.352357 1.5170569 0.29531202 4288961280
1.3356096 1.4983783 0.29827613 4288830720
1.3565038 1.5218681 0.30930439 4288961280
1.3552341 1.5205296 0.31502473 4288961280
1.3512279 1.5161257 0.3197248 4288961280
1.3449235 1.509147 0.32347161 4288830720
1.3420618 1.5060259 0.32763571 4288830720
1.3409557 1.5048728 0.33183369 4288830720
1.3345753 1.4978093 0.33432004 4288830720
1.3252671 1.4874647 0.33564016 4288830720
1.3125838 1.4733367 0.33565891 4288700160
1.3155097 1.4767036 0.33924547 4288700160
1.3184754 1.4801165 0.34245747 4288830720
1.3064986 1.4667801 0.34138125 4288700160
1.3062724 1.4666158 0.34295106 4288700160
1.3093687 1.4701775 0.34499219 4288700160
1.3092314 1.4701148 0.34578085 4288700160
1.3058617 1.4664286 0.34531027 4288700160
1.3142364 1.4759122 0.34753338 4288700160
1.3207911 1.483357 0.34886611 4288830720
1.3199953 1.4825599 0.34784961 4288830720
1.3289411 1.4926894 0.34897977 4288830720
1.3316903 1.4958707 0.34806454 4288830720
1.3363953 1.501247 0.34724095 4288830720
1.3396409 1.5049878 0.34561887 4288830720
1.3431396 1.509014 0.34364408 4288961280
1.3478379 1.5143872 0.34155503 4288961280
1.3453391 1.5116867 0.33724195 4288961280
1.3480736 1.5148588 0.33384392 4288961280
1.3517798 1.5191227 0.33027703 4288961280
1.3495579 1.5167351 0.32487625 4288961280
1.3370873 1.5028454 0.31669226 4288830720
1.3440382 1.5107534 0.31275305 4288830720
1.356583 1.5249423 0.30966777 4288961280
1.362741 1.5319644 0.30468604 4288961280
1.3550048 1.5233899 0.29626247 4288961280
1.3403226 1.5079263 0.24263582 4288830720
1.367135 1.5381633 0.23839627 4288961280
1.3743467 1.5463824 0.23024984 4288961280
1.3530298 1.5225468 0.21717516 4288830720
1.3347582 1.50213 0.20462604 4288830720
1.3501215 1.5195107 0.19701177 4288830720
1.36537 1.5367656 0.18893273 4288961280
1.3389491 1.5071867 0.17497812 4288830720
1.3317336 1.4991924 0.16359268 4288830720
1.3466002 1.5160213 0.15466973 4288830720
1.3541949 1.5246778 0.14456214 4288830720
1.3541795 1.5247794 0.13342276 4288830720
1.3425851 1.5118614 0.12109455 4288830720
1.3474245 1.5174221 0.11016622 4288830720
1.2246242 1.3794373 0.089716054 4288177920
1.1799203 1.329267 0.076297648 4288047360
1.2251171 1.380209 0.068577468 4288177920
1.5385865 1.7329359 0.072606757 4289744640
1.8699471 2.1058457 0.071750022 4291441920
1.8836354 2.1214128 0.055637509 4291572480
1.937168 2.1818132 0.040038437 4291833600
1.9542627 2.2012217 0.023018189 4291964160
1.9607861 2.2087371 0.0056366413 4291964160
1.9420881 2.1878691 -0.011715728 4291833600
1.9515802 2.1987259 -0.029149644 4291964160
1.9645687 2.2135198 -0.046807792 4291964160
1.9626862 2.211576 -0.064161882 4291964160
1.9519413 2.1996546 -0.081048146 4291964160
1.9710062 2.221293 -0.099162646 4291964160
1.9821991 2.234071 -0.11704182 4292094720
1.9810896 2.2329979 -0.13415861 4292094720
1.9551421 2.2039533 -0.1492174 4291964160
1.9694984 2.2202947 -0.16709447 4291964160
1.9750211 2.2266891 -0.18421209 4292094720
1.9699548 2.2211566 -0.2001487 4291964160
1.974033 2.2259238 -0.21679072 4292094720
1.9938565 2.2484298 -0.23512231 4292094720
1.9959793 2.2509959 -0.25128928 4292225280
1.9905002 2.2449963 -0.26620027 4292094720
1.9432739 2.1919529 -0.27483231 4291964160
1.9841626 2.2381997 -0.29557022 4292094720
1.9906377 2.2456684 -0.31121376 4292094720
1.9824544 2.2366164 -0.32421234 4292094720
1.979013 2.2329068 -0.33754542 4292094720
1.9127247 2.1583509 -0.33931059 4291833600
2.0044036 2.2618675 -0.3688713 4292225280
2.0134201 2.2722023 -0.38347763 4292355840
2.0083115 2.2666111 -0.39499182 4292225280
2.0013635 2.2589445 -0.405628 4292225280
1.9709282 2.2247894 -0.41083175 4292094720
1.9905088 2.2470345 -0.42592743 4292225280
1.9953545 2.2526634 -0.43752298 4292225280
1.9884089 2.244992 -0.44602785 4292225280
1.9920723 2.2492857 -0.45638663 4292225280
1.9945096 2.2521958 -0.46597227 4292225280
1.9895566 2.2467675 -0.47328866 4292225280
1.9883165 2.2455268 -0.48091912 4292225280
1.9747766 2.2304063 -0.48496759 4292225280
1.965664 2.2202783 -0.4894627 4292094720
1.9516397 2.2046049 -0.49209481 4292094720
1.9199835 2.1690297 -0.48957956 4291833600
1.9252598 2.175132 -0.49583411 4291964160
1.8843902 2.129148 -0.48955467 4291703040
1.8937132 2.1398141 -0.49566692 4291703040
1.8991752 2.1461215 -0.50021911 4291833600
1.8988212 2.1458628 -0.50266564 4291833600
1.8985331 2.1456773 -0.50454259 4291833600
1.8983117 2.145566 -0.50584793 4291833600
1.8981577 2.1455293 -0.50658029 4291833600
1.888932 2.1352475 -0.50429982 4291703040
1.8823855 2.1279888 -0.50214583 4291703040
1.9325056 2.1847258 -0.51449037 4291964160
1.9195666 2.1702468 -0.50943691 4291964160
1.9513398 2.2062678 -0.5156247 4292094720
1.9590851 2.2151506 -0.51481652 4292094720
1.9734899 2.2315562 -0.51512098 4292225280
1.9761592 2.2347047 -0.51173264 4292225280
1.9827636 2.2422981 -0.50874656 4292225280
1.9816039 2.2411189 -0.50316566 4292225280
1.9863703 2.2466345 -0.49849448 4292225280
1.9856584 2.245959 -0.49185994 4292225280
1.9791415 2.2387226 -0.48324499 4292225280
1.9765921 2.2359679 -0.47507381 4292225280
1.972854 2.2318683 -0.4660953 4292094720
1.9587283 2.2160268 -0.45420516 4292094720
1.9656039 2.2239201 -0.44669279 4292094720
1.9798831 2.2401817 -0.44025022 4292225280
1.9956585 2.2581358 -0.43348747 4292225280
1.9876766 2.2492335 -0.42103484 4292225280
1.9629956 2.2214503 -0.40475053 4292094720
1.9483706 2.2050323 -0.39030603 4291964160
1.9655386 2.2245591 -0.38176987 4292094720
1.9748394 2.2351911 -0.3711136 4292094720
1.9648428 2.2240026 -0.35642216 4292094720
1.9456192 2.2023778 -0.33985314 4291964160
1.9589376 2.2175515 -0.32862559 4291964160
1.9718977 2.232321 -0.31678855 4292094720
1.9763151 2.2374291 -0.30310401 4292094720
1.9369137 2.1929753 -0.28262597 4291833600
1.9407388 2.1974108 -0.26840773 4291964160
1.9505639 2.2086332 -0.25461885 4291964160
1.9555931 2.214431 -0.2398088 4291964160
1.9300945 2.185693 -0.22115786 4291833600
1.9399164 2.1969111 -0.20643811 4291833600
1.9559497 2.2151575 -0.19194195 4291964160
1.9556617 2.2149386 -0.175505 4291964160
1.9556892 2.2150762 -0.15890843 4291964160
1.9388812 2.1961632 -0.14091524 4291833600
1.9473304 2.2058294 -0.12467788 4291964160
1.9470314 2.205596 -0.1076753 4291964160
1.9217362 2.177074 -0.089397795 4291833600
1.9450088 2.2035165 -0.073303774 4291964160
1.948519 2.2075939 -0.056148667 4291964160
1.9536426 2.2134976 -0.038903739 4291964160
1.9324707 2.1896372 -0.021234943 4291833600
1.7293627 1.9598253 -0.0035294862 4290789120
1.278477 1.4494971 0.0088736154 4288569600
1.1512641 1.3055487 0.018297523 4287916800
1.2339033 1.3991702 0.030595902 4288308480
1.3268862 1.5045118 0.044676658 4288700160
1.369481 1.5528114 0.05822387 4288961280
1.3571073 1.5388743 0.069649205 4288961280
1.3510753 1.5321172 0.081161335 4288830720
1.3573222 1.5392644 0.093321487 4288961280
1.3591017 1.5413532 0.10514329 4288961280
1.3450149 1.5254737 0.11552212 4288830720
1.3467329 1.5274929 0.12702282 4288830720
1.3507751 1.5321451 0.13865133 4288830720
1.3481904 1.529292 0.1494619 4288830720
1.2464428 1.4141124 0.14829884 4288308480
1.3551433 1.5373179 0.17198823 4288961280
1.3602927 1.5432272 0.18328103 4288961280
1.3525779 1.5345634 0.19262306 4288961280
1.3516152 1.5335492 0.20264491 4288961280
1.3037666 1.4794124 0.20506884 4288700160
1.3649626 1.5488272 0.2244662 4288961280
1.3583504 1.5414133 0.23287714 4288961280
1.352158 1.5344747 0.24101105 4288961280
1.3358225 1.5160414 0.2469205 4288830720
1.3035419 1.4795362 0.24929681 4288700160
1.3409269 1.5219846 0.26471311 4288830720
1.3350489 1.5154024 0.27150133 4288830720
1.3263334 1.5056039 0.27732083 4288830720
1.2688489 1.4405226 0.27228242 4288569600
1.2310754 1.3977796 0.27064246 4288308480
1.1759077 1.3353131 0.26440418 4288047360
1.3290125 1.5089675 0.30504459 4288830720
1.3218381 1.5009166 0.30930418 4288830720
1.3365405 1.5176708 0.31834677 4288830720
1.3284134 1.5085406 0.32162362 4288830720
1.3352216 1.5163468 0.32813075 4288830720
1.3314451 1.5121509 0.33167291 4288830720
1.3334074 1.5144639 0.33625013 4288830720
1.3320352 1.5129958 0.3395988 4288830720
1.3335812 1.5148386 0.34329435 4288830720
1.3280623 1.5086684 0.34476542 4288830720
1.3280013 1.5086895 0.34723574 4288830720
1.3244686 1.5047733 0.34838793 4288830720
1.3242383 1.5046039 0.34999329 4288830720
1.3240528 1.5044862 0.35119972 4288830720
1.3206569 1.5007263 0.35114169 4288830720
1.3238192 1.504409 0.35241112 4288830720
1.3235146 1.5041585 0.3523466 4288830720
1.3267689 1.5079479 0.35281324 4288830720
1.3287101 1.5102482 0.35251498 4288830720
1.3275063 1.50898 0.35097 4288830720
1.331177 1.5132455 0.35029644 4288830720
1.3289212 1.5107849 0.34765437 4288830720
1.329144 1.5111386 0.34525546 4288830720
1.3344518 1.5172662 0.3437593 4288961280
1.3280101 1.5100549 0.33884427 4288830720
1.3215154 1.5027833 0.33355391 4288830720
1.313086 1.4933145 0.32743078 4288830720
1.3078105 1.487427 0.32175496 4288700160
1.2998695 1.4785119 0.31509706 4288700160
1.3094769 1.4895281 0.3123112 4288700160
1.3040991 1.4835249 0.30558148 4288700160
1.327854 1.5106157 0.30522969 4288830720
1.3292906 1.512356 0.29929295 4288830720
1.3272846 1.5101863 0.29224169 4288830720
1.3253103 1.5080559 0.24146765 4288830720
1.3341682 1.5182346 0.23415595 4288830720
1.3279696 1.5113055 0.22392677 4288830720
1.3044626 1.4847052 0.21074213 4288700160
1.2984792 1.478018 0.20035569 4288700160
1.3352016 1.5198718 0.19609106 4288830720
1.3456907 1.5319122 0.18741122 4288830720
1.3238699 1.507224 0.17412214 4288830720
1.316697 1.4991858 0.16278695 4288700160
1.3359073 1.5211445 0.15442739 4288830720
1.3363749 1.5217947 0.14357741 4288830720
1.3356972 1.5211428 0.13244744 4288830720
1.318853 1.5021058 0.11971886 4288700160
1.3285158 1.5132138 0.10931633 4288830720
1.2076131 1.3758126 0.089035891 4288177920
1.1565938 1.3178848 0.075268507 4287916800
1.1823143 1.3472492 0.066608675 4288047360
1.5721785 1.7909104 0.07465101 4290005760
1.9262756 2.1939459 0.074363068 4291833600
1.9341825 2.2031169 0.057474285 4291833600
1.9268461 2.1949432 0.040064402 4291833600
1.9293079 2.1979191 0.022853976 4291833600
1.9324889 2.201714 0.0055735777 4291833600
1.9073093 2.173228 -0.011597752 4291703040
1.9233414 2.1916506 -0.028932579 4291833600
1.9329488 2.2027621 -0.046371669 4291833600
1.934379 2.204565 -0.06366577 4291833600
1.9277438 2.1971848 -0.080582149 4291833600
1.9435085 2.2153103 -0.098433115 4291964160
1.9517947 2.2249219 -0.1160138 4291964160
1.9441648 2.216408 -0.13253143 4291964160
1.9394166 2.2111747 -0.14899763 4291964160
1.9438013 2.2163429 -0.16600384 4291964160
1.9525849 2.2265229 -0.18332061 4291964160
1.9416299 2.2142169 -0.19856982 4291964160
1.9456875 2.2190132 -0.21508291 4291964160
1.9588149 2.2341437 -0.23250718 4292094720
1.9675064 2.2442217 -0.24932981 4292094720
1.9554988 2.2307115 -0.26323351 4291964160
1.9184327 2.1886399 -0.27309582 4291833600
1.9557852 2.2313819 -0.29324919 4292094720
1.9681301 2.2456243 -0.3097063 4292094720
1.9632812 2.2402682 -0.32317373 4292094720
1.9507006 2.2260962 -0.33488798 4292094720
1.8848318 2.151166 -0.33654323 4291703040
1.9850984 2.2656529 -0.36769888 4292225280
1.9783609 2.2581398 -0.37925419 4292225280
1.97395 2.2532783 -0.39076018 4292225280
1.9729379 2.2522912 -0.40246683 4292225280
1.9459692 2.221698 -0.40826449 4292094720
1.9654311 2.2440598 -0.42329156 4292094720
1.9637851 2.2423458 -0.43339437 4292094720
1.965964 2.2449939 -0.44385138 4292094720
1.9702599 2.2500567 -0.45431259 4292225280
1.9661719 2.2455533 -0.46232465 4292225280
1.9645121 2.2438188 -0.47035265 4292225280
1.9567773 2.2351508 -0.47634888 4292094720
1.949515 2.2270195 -0.48185417 4292094720
1.9285318 2.2032266 -0.48331463 4291964160
1.9236046 2.1977549 -0.4881514 4291964160
1.8921549 2.1620073 -0.48558971 4291833600
1.9038975 2.1755586 -0.49348542 4291833600
1.8600434 2.1256418 -0.48633412 4291703040
1.8628179 2.1289513 -0.49071023 4291703040
1.8682487 2.1352932 -0.49522886 4291703040
1.8776342 2.1461501 -0.50023967 4291703040
1.8773489 2.1459644 -0.50210375 4291703040
1.8706422 2.1384442 -0.50165975 4291703040
1.8737336 2.1421118 -0.5032528 4291703040
1.8671616 2.1347418 -0.5016641 4291703040
1.8613054 2.1281874 -0.49968207 4291703040
1.8490286 2.1142969 -0.49540105 4291572480
1.8891662 2.1602783 -0.50455117 4291833600
1.9265742 2.2031455 -0.51230621 4291964160
1.9277797 2.2046566 -0.50979537 4291964160
1.9338366 2.2117095 -0.50796002 4292094720
1.9512289 2.231714 -0.50846243 4292094720
1.9512956 2.2319221 -0.50382382 4292094720
1.9574512 2.2390871 -0.50015479 4292094720
1.9519465 2.2329261 -0.49292716 4292094720
1.9574041 2.2392921 -0.48789459 4292094720
1.9541734 2.2357273 -0.48012686 4292094720
1.9451329 2.2255199 -0.47042447 4292094720
1.941411 2.2213905 -0.46151653 4292094720
1.9332244 2.2121553 -0.45106873 4291964160
1.9315865 2.2104046 -0.4416751 4291964160
1.9483703 2.2297134 -0.43591243 4292094720
1.9640362 2.2477453 -0.42923898 4292094720
1.9593557 2.2425141 -0.41757628 4292094720
1.9348242 2.2145832 -0.40137503 4291964160
1.9294204 2.2085209 -0.3888576 4291964160
1.934723 2.2147007 -0.37805817 4291964160
1.946568 2.2283618 -0.3680039 4292094720
1.9333591 2.2133701 -0.35281301 4291964160
1.9207866 2.1991041 -0.33751538 4291833600
1.9274718 2.2068624 -0.32526314 4291964160
1.9411912 2.2226672 -0.3136915 4291964160
1.9420999 2.2238183 -0.29959744 4291964160
1.9180061 2.196367 -0.28148952 4291833600
1.9162333 2.194448 -0.26654109 4291833600
1.9223825 2.2015915 -0.25236696 4291833600
1.9273723 2.2074087 -0.2376761 4291964160
1.9053102 2.1822731 -0.21952787 4291833600
1.9156688 2.1942325 -0.20496944 4291833600
1.9193676 2.1985712 -0.18935919 4291833600
1.9274139 2.2078853 -0.1738736 4291833600
1.9274355 2.2080162 -0.1574073 4291833600
1.9074433 2.1852417 -0.13930775 4291833600
1.912546 2.1911864 -0.1230199 4291833600
1.9188181 2.1984696 -0.10657543 4291833600
1.8969686 2.1735647 -0.088590726 4291703040
1.9102238 2.1888411 -0.072228208 4291833600
1.9229169 2.203475 -0.055536151 4291833600
1.9253742 2.2063925 -0.038353223 4291833600
1.910256 2.1891887 -0.020891728 4291833600
1.7350887 1.9887425 -0.0033523066 4290919680
1.2643828 1.4498972 0.0089901332 4288439040
1.1914519 1.3664588 0.01919743 4288047360
1.2260122 1.4060974 0.030749811 4288308480
1.2581017 1.4429104 0.042803597 4288439040
1.3534548 1.5521752 0.058085475 4288961280
1.3484261 1.5464898 0.069820009 4288961280
1.333231 1.5291609 0.080776118 4288830720
1.3420675 1.5393547 0.093038425 4288830720
1.3412092 1.5384454 0.10459922 4288830720
1.326558 1.5217371 0.11484059 4288830720
1.3315493 1.5275279 0.12656878 4288830720
1.3318936 1.5279964 0.13776325 4288830720
1.2142731 1.3933226 0.13566886 4288177920
1.1964139 1.3729298 0.14342444 4288177920
1.2280325 1.4092236 0.15704541 4288308480
1.1992897 1.3763599 0.16282073 4288177920
1.3007667 1.492705 0.18660742 4288700160
1.3350979 1.5321195 0.20161863 4288830720
1.3066785 1.499629 0.2069996 4288700160
1.3453778 1.5440546 0.22282907 4288961280
1.3430802 1.5414999 0.23189653 4288961280
1.334446 1.5316828 0.23953748 4288830720
1.3314517 1.5283298 0.24784112 4288830720
1.306422 1.4997188 0.25159159 4288700160
1.3125476 1.506819 0.26092342 4288830720
1.2811973 1.4709594 0.26237515 4288569600
1.2244624 1.4059949 0.25782725 4288308480
1.1916909 1.3684978 0.25751489 4288177920
1.215793 1.3962061 0.2691195 4288308480
1.1683172 1.3418455 0.2644932 4288047360
1.2497152 1.4352567 0.28882736 4288439040
1.2873487 1.4784923 0.30328998 4288700160
1.3186131 1.514429 0.31620592 4288830720
1.3098857 1.5045053 0.31928134 4288830720
1.3226012 1.5191747 0.32721654 4288830720
1.3229101 1.5196162 0.33175576 4288830720
1.3159541 1.5117251 0.33407047 4288830720
1.3179421 1.514094 0.33824697 4288830720
1.3172675 1.5134094 0.34135076 4288830720
1.312369 1.5078795 0.34295097 4288830720
1.3120546 1.5076095 0.3453348 4288830720
1.312487 1.5081968 0.34751064 4288830720
1.312259 1.5080274 0.34910515 4288830720
1.3120754 1.50791 0.35030171 4288830720
1.3151724 1.5115581 0.35196334 4288830720
1.3118443 1.5078334 0.35149625 4288830720
1.3143288 1.5107806 0.35217011 4288830720
1.3123949 1.5086573 0.35124922 4288830720
1.3156743 1.5125192 0.35130739 4288830720
1.3160411 1.5130388 0.35017449 4288830720
1.3202269 1.5179439 0.34963959 4288830720
1.3171697 1.5145341 0.34677944 4288830720
1.3165746 1.513952 0.34416604 4288830720
1.3152567 1.5125405 0.34096521 4288830720
1.2971659 1.4918681 0.33307287 4288700160
1.2838538 1.4766817 0.32609817 4288700160
1.2363715 1.4222486 0.31026244 4288439040
1.2000099 1.380582 0.29711884 4288177920
1.215976 1.3990186 0.29662475 4288308480
1.2261432 1.4107971 0.29427674 4288308480
1.2168782 1.4002529 0.28693247 4288308480
1.2385898 1.4252982 0.28648829 4288439040
1.3084353 1.5056547 0.29639721 4288830720
1.3143598 1.5125716 0.29115129 4288830720
1.3107644 1.509465 0.24046065 4288830720
1.2470584 1.4363188 0.22040068 4288439040
1.1588583 1.3349923 0.1968119 4288047360
1.2286023 1.4153098 0.19987744 4288308480
1.2241706 1.4103205 0.19021498 4288308480
1.3157769 1.5158058 0.19457589 4288830720
1.3274448 1.5293454 0.18615112 4288830720
1.3123025 1.5120425 0.17379664 4288700160
1.3045226 1.5032085 0.16240141 4288700160
1.3177147 1.5185053 0.15338556 4288830720
1.3273352 1.529695 0.1435995 4288830720
1.3206021 1.522066 0.1318668 4288830720
1.3078084 1.5074605 0.1195486 4288700160
1.3094724 1.5094945 0.1085097 4288700160
1.2020612 1.3859692 0.089252226 4288177920
1.1330416 1.3066218 0.074264228 4287786240
1.1644825 1.3429234 0.066076629 4288047360
1.5615401 1.800204 0.074682765 4290005760
1.9034104 2.1940091 0.074021965 4291833600
1.895529 2.1851072 0.056753267 4291703040
1.8954514 2.1851916 0.039723903 4291703040
1.9005176 2.1912005 0.022710737 4291703040
1.9102322 2.2025647 0.0055916803 4291833600
1.8852223 2.1739299 -0.011496521 4291703040
1.8951896 2.1855855 -0.028656719 4291703040
1.9041346 2.1960652 -0.045944054 4291833600
1.9081779 2.2008984 -0.063183166 4291833600
1.8962966 2.1873822 -0.079758823 4291703040
1.9113541 2.2049084 -0.097414315 4291833600
1.9203243 2.2154212 -0.1148704 4291833600
1.9218346 2.2173374 -0.1318513 4291833600
1.9027201 2.1954796 -0.14712325 4291833600
1.9149354 2.2097342 -0.16460149 4291833600
1.9203945 2.216202 -0.18147492 4291833600
1.9062518 2.2000699 -0.19622821 4291833600
1.9174218 2.2131219 -0.21335043 4291833600
1.9307197 2.2286291 -0.23068132 4291964160
1.9326334 2.2310095 -0.24652667 4291964160
1.9331149 2.2317381 -0.26194087 4291964160
1.8930424 2.1856909 -0.27126631 4291833600
1.9236289 2.2211409 -0.29034114 4291964160
1.9358995 2.2354665 -0.30665833 4291964160
1.931744 2.2308433 -0.32009774 4291964160
1.9309624 2.2301116 -0.333707 4291964160
1.8039573 2.0837359 -0.32425267 4291311360
1.9469405 2.2488866 -0.36303842 4292094720
1.9493575 2.2518446 -0.37619105 4292094720
1.9508284 2.2537105 -0.38876548 4292094720
1.9504768 2.2534721 -0.40054789 4292094720
1.9139656 2.2114944 -0.40424061 4291964160
1.9333049 2.2339816 -0.41916469 4292094720
1.9316791 2.2322679 -0.42916983 4292094720
1.9344997 2.2356863 -0.43968105 4292094720
1.9413638 2.243773 -0.45065814 4292094720
1.9347222 2.2362647 -0.45798957 4292094720
1.9292015 2.2300487 -0.46500784 4292094720
1.9312232 2.2325408 -0.47329432 4292094720
1.9146419 2.2135472 -0.47642496 4291964160
1.9031771 2.2004595 -0.48017722 4291964160
1.8950592 2.1912344 -0.48415339 4291833600
1.8638271 2.1553059 -0.48155057 4291703040
1.8722682 2.1652043 -0.4885675 4291833600
1.8319407 2.1187587 -0.48222595 4291572480
1.8405024 2.1287928 -0.4881126 4291572480
1.8433188 2.1321888 -0.49192947 4291572480
1.8429739 2.1319306 -0.49433389 4291572480
1.8523594 2.1429162 -0.49877974 4291703040
1.8489202 2.1390803 -0.49919882 4291703040
1.8391044 2.1278725 -0.49730733 4291572480
1.8390197 2.1279099 -0.49746102 4291572480
1.8364236 2.1250434 -0.49635494 4291572480
1.8210074 2.1073546 -0.4912141 4291572480
1.8666695 2.1602747 -0.50193769 4291703040
1.8513829 2.1427336 -0.49567217 4291703040
1.9024386 2.201896 -0.50652522 4291964160
1.9020057 2.2015281 -0.50300974 4291964160
1.928301 2.2320664 -0.50591993 4292094720
1.9239064 2.2271166 -0.50014824 4292094720
1.9220508 2.2251012 -0.4944708 4292094720
1.9231963 2.2265553 -0.4889932 4292094720
1.9260294 2.2299604 -0.48336548 4292094720
1.928624 2.233089 -0.47710055 4292094720
1.9228686 2.2265575 -0.46823335 4292094720
1.9127066 2.2149267 -0.45781887 4291964160
1.9045683 2.2056346 -0.44744092 4291964160
1.9119869 2.2143393 -0.44020492 4291964160
1.9228306 2.2270067 -0.43316543 4291964160
1.9351475 2.241379 -0.42584589 4292094720
1.927253 2.2323642 -0.4135747 4291964160
1.9093566 2.2117734 -0.39883396 4291964160
1.8975013 2.1981707 -0.38507617 4291833600
1.9085941 2.2111239 -0.37554181 4291964160
1.9210001 2.2255979 -0.36569566 4291964160
1.9137162 2.2172818 -0.35166076 4291964160
1.8921335 2.1924136 -0.33480078 4291833600
