# .PCD v0.7 - Point Cloud Data file format
VERSION 0.7
FIELDS x y z rgba
SIZE 4 4 4 4
TYPE F F F U
COUNT 1 1 1 1
WIDTH 1092
HEIGHT 1
VIEWPOINT 0 0 0 1 0 0 0
POINTS 1092
DATA ascii
3.0333343 -1.3697078 -0.56636131 4293400320
3.0408897 -1.3730035 -0.56184912 4293400320
3.0255818 -1.3659861 -0.55248797 4293400320
3.0290573 -1.3674418 -0.54593736 4293400320
3.021229 -1.3637996 -0.53673553 4293400320
3.0050991 -1.3564147 -0.525509 4293269760
2.9815569 -1.3456889 -0.51250041 4293269760
2.9577875 -1.3348627 -0.49901173 4293139200
2.9266167 -1.3207016 -0.48388723 4293008640
2.781924 -1.255368 -0.45009804 4292486400
2.6469543 -1.1944277 -0.41838774 4291964160
2.5452912 -1.1485095 -0.39236054 4291572480
2.4268923 -1.0950563 -0.36420012 4291050240
2.3365486 -1.0542548 -0.34069967 4290789120
2.2989089 -1.0372092 -0.32503361 4290658560
2.2910903 -1.0336032 -0.31341109 4290528000
2.2020648 -0.99341077 -0.29081884 4290266880
2.1905556 -0.98814648 -0.27858818 4290136320
2.2430882 -1.011732 -0.27396029 4290397440
2.2179601 -1.0003328 -0.2594392 4290266880
2.2063911 -0.9950425 -0.24640405 4290266880
2.1160991 -0.95429933 -0.22488606 4289875200
2.0826185 -0.93914634 -0.20981155 4289744640
2.1178381 -0.9549309 -0.20138921 4289875200
2.1187897 -0.95528376 -0.18929774 4289875200
2.0417798 -0.9205367 -0.17050856 4289614080
2.0896349 -0.94200754 -0.16208149 4289744640
2.0604069 -0.92877614 -0.14742056 4289614080
2.0647845 -0.93067324 -0.13514264 4289744640
1.9770861 -0.89112872 -0.11723974 4289352960
2.0005083 -0.90159947 -0.10615522 4289483520
2.0428252 -0.92057127 -0.095542163 4289614080
2.0237513 -0.91191596 -0.081832461 4289483520
2.0391867 -0.91878915 -0.069442689 4289614080
2.0810838 -0.93756622 -0.057505716 4289744640
2.1114695 -0.95116186 -0.044730376 4289875200
2.064816 -0.93010092 -0.030406244 4289614080
2.1349106 -0.96155584 -0.017582783 4289875200
2.1693909 -0.97698802 -0.0037823981 4290005760
2.1798301 -0.98160583 0.010346091 4290136320
2.1181614 -0.95379698 0.023767561 4289875200
2.217778 -0.99851465 0.039259277 4290266880
2.2357922 -1.0065354 0.05400084 4290266880
2.1956558 -0.98841172 0.067121401 4290136320
2.1460104 -0.96601599 0.079299718 4290005760
2.2866204 -1.0291454 0.0990417 4290528000
2.3008115 -1.0354428 0.11415085 4290528000
2.198601 -0.98942369 0.12278508 4290136320
2.1474743 -0.96636897 0.13319448 4290005760
2.3552561 -1.0596631 0.1605259 4290789120
2.344008 -1.0545251 0.17390977 4290789120
2.2875831 -1.0290902 0.18333714 4290528000
2.2317247 -1.0039136 0.19194379 4290266880
2.4480448 -1.1010104 0.22471905 4291180800
2.4456549 -1.0998495 0.23836495 4291180800
2.444217 -1.0991162 0.25181711 4291180800
2.4960132 -1.1222913 0.2707555 4291311360
2.6714318 -1.2009794 0.30403566 4291964160
3.011513 -1.3535959 0.35843828 4293269760
3.0343008 -1.3637196 0.37651709 4293400320
3.0387881 -1.3656253 0.39203697 4293400320
3.0265379 -1.3600161 0.40491727 4293269760
3.0068502 -1.3510691 0.41619462 4293269760
3.0585947 -1.3741868 0.43703556 4293400320
3.0701115 -1.3792452 0.45190862 4293530880
3.0625684 -1.3757486 0.463478 4293530880
3.0501986 -1.3700863 0.47370702 4293400320
3.0392859 -1.3650786 0.48352993 4293400320
3.0268571 -1.3593912 0.4924705 4293400320
3.053875 -1.3714021 0.50731379 4293400320
3.0588789 -1.3735353 0.5180217 4293530880
3.0545189 -1.3714675 0.52654755 4293530880
3.0491397 -1.3689425 0.53425938 4293400320
3.050113 -1.3692667 0.54245216 4293530880
3.044646 -1.3667026 0.54885775 4293400320
3.0476513 -1.3679377 0.55614555 4293530880
3.0431869 -1.365823 0.56141853 4293400320
3.0452023 -1.3666137 0.56722617 4293400320
3.0409369 -1.3645884 0.57119673 4293400320
3.0484462 -1.3678412 0.57671416 4293530880
3.0313225 -1.3600519 0.57688427 4293400320
3.0354366 -1.3617824 0.58040512 4293400320
3.0306652 -1.3595302 0.58154511 4293400320
3.0259998 -1.3573256 0.58201677 4293400320
3.0470626 -1.3666496 0.5867573 4293530880
3.0345211 -1.3609155 0.58433944 4293400320
3.0346699 -1.3608674 0.5836792 4293400320
3.0385072 -1.3624713 0.58304083 4293400320
3.0405755 -1.3632823 0.58137476 4293400320
3.045182 -1.3652298 0.57950598 4293530880
3.0483699 -1.3665415 0.57667941 4293530880
3.0463519 -1.3655212 0.57219076 4293530880
3.0450385 -1.3648163 0.56716925 4293400320
3.0496399 -1.3667598 0.56258053 4293530880
3.0496488 -1.3666464 0.55647892 4293530880
3.0480645 -1.3658197 0.54944116 4293400320
3.0373909 -1.3609241 0.5401541 4293400320
3.0404909 -1.3621941 0.53270769 4293400320
3.0259032 -1.3555474 0.5215764 4293400320
3.0308304 -1.3576349 0.51323342 4293400320
3.0543594 -1.3680457 0.50735867 4293400320
3.0526352 -1.3671552 0.49663249 4293400320
3.0467145 -1.364387 0.48467982 4293400320
2.4925585 -1.1160138 0.32793051 4291311360
2.4317882 -1.0887398 0.30814302 4291050240
2.4343991 -1.0898111 0.2963306 4291050240
2.4034622 -1.0758827 0.28024268 4290919680
2.3792558 -1.0649655 0.26491258 4290919680
2.3772328 -1.0639668 0.25189832 4290919680
2.3682435 -1.0598541 0.23792455 4290789120
2.312674 -1.0349234 0.21935979 4290658560
2.2918777 -1.0255373 0.20428647 4290528000
2.2814589 -1.0207902 0.19009331 4290528000
2.2767878 -1.018612 0.17625828 4290528000
2.2555127 -1.0090157 0.16109514 4290397440
2.2298954 -0.99748111 0.14572629 4290266880
2.2598441 -1.0107703 0.1338117 4290397440
2.238647 -1.0012119 0.11865834 4290266880
2.1485786 -0.96089542 0.10040408 4290005760
2.1681292 -0.96954036 0.087628178 4290005760
2.1832576 -0.9762091 0.074356586 4290136320
2.1460226 -0.95949596 0.059348777 4290005760
2.036427 -0.91047919 0.043197703 4289614080
2.1061485 -0.94152308 0.031105822 4289875200
2.1095161 -0.94294202 0.017509673 4289875200
2.0634577 -0.92229933 0.0037455305 4289614080
2.0337706 -0.90896702 -0.0094993627 4289614080
2.0417948 -0.91246647 -0.022760056 4289614080
1.9880768 -0.88841426 -0.035033219 4289352960
2.0064237 -0.89652073 -0.048288129 4289483520
2.0451419 -0.91371441 -0.062342726 4289614080
2.0484602 -0.91511279 -0.075533457 4289614080
2.0136592 -0.89950722 -0.087051369 4289483520
2.0210831 -0.90273792 -0.10011352 4289483520
2.0954113 -0.93580651 -0.11687064 4289744640
2.1084886 -0.94155461 -0.1306522 4289875200
2.0862236 -0.93154228 -0.14206009 4289744640
2.084271 -0.93058836 -0.15454271 4289744640
2.1846759 -0.9752686 -0.17499827 4290136320
2.2056804 -0.98454499 -0.18965405 4290266880
2.1659124 -0.96673071 -0.19879283 4290005760
2.1546447 -0.96162242 -0.21002614 4290005760
2.1157398 -0.94419813 -0.2180649 4289875200
2.2763627 -1.0156924 -0.24701442 4290528000
2.2925434 -1.0228121 -0.26103491 4290528000
2.2653689 -1.0106137 -0.26979113 4290397440
2.2539351 -1.0054302 -0.27991754 4290397440
2.2240279 -0.9920184 -0.28723967 4290266880
2.5436225 -1.1342882 -0.34063521 4291441920
2.6260896 -1.1709181 -0.36389703 4291833600
2.7395215 -1.2213321 -0.391927 4292225280
2.9017837 -1.2934821 -0.42770255 4292878080
2.9818237 -1.3290081 -0.45194185 4293139200
3.0084164 -1.3407314 -0.46802682 4293269760
3.020128 -1.3458278 -0.48142222 4293269760
3.0358903 -1.3527267 -0.49501741 4293400320
3.0402613 -1.3545541 -0.50626737 4293400320
3.0417383 -1.3550932 -0.51647794 4293400320
3.0461819 -1.3569529 -0.52661848 4293400320
3.0355482 -1.352103 -0.53353572 4293400320
3.0371976 -1.3527195 -0.54196805 4293400320
3.042958 -1.3551654 -0.55052662 4293400320
3.0334961 -1.3508388 -0.55569291 4293400320
3.0245132 -1.3467262 -0.56026399 4293400320
3.0106504 -1.3404438 -0.56323934 4293269760
3.0075026 -1.3389287 -0.56753153 4293269760
2.9989333 -1.3350029 -0.57012564 4293269760
2.9800019 -1.3264699 -0.57005543 4293269760
2.9795995 -1.3261777 -0.57283688 4293269760
2.9837985 -1.3279316 -0.57583648 4293269760
2.9791021 -1.3257308 -0.57645136 4293269760
2.9790101 -1.3255774 -0.57728064 4293269760
2.997443 -1.3336587 -0.58102089 4293269760
2.9930632 -1.3315994 -0.57967043 4293269760
3.0012486 -1.335125 -0.58007044 4293269760
3.0085244 -1.338246 -0.57961059 4293269760
3.0256054 -1.3457236 -0.58034182 4293400320
3.032002 -1.348453 -0.57832992 4293400320
3.0325768 -1.3485957 -0.57452881 4293400320
3.0397389 -1.3516649 -0.57129395 4293400320
3.0394907 -1.3514422 -0.56599516 4293400320
3.0421908 -1.3525293 -0.56058335 4293400320
3.0317459 -1.3477782 -0.55212194 4293400320
3.0209787 -1.342885 -0.5430119 4293400320
3.0152495 -1.34023 -0.53421986 4293269760
3.0009592 -1.3337744 -0.5233534 4293269760
2.9641016 -1.3173003 -0.50810689 4293139200
2.8926497 -1.2854711 -0.48669568 4292878080
2.7207837 -1.2090719 -0.44867107 4292225280
2.6247277 -1.1663359 -0.42353043 4291833600
2.5379078 -1.1277064 -0.40006125 4291441920
2.4183292 -1.0745448 -0.37177914 4291050240
2.3413603 -1.0403008 -0.35039431 4290789120
2.3081632 -1.0254856 -0.33560458 4290658560
2.2740338 -1.0102595 -0.32059488 4290528000
2.2716208 -1.0091071 -0.30984715 4290528000
2.2592206 -1.0035244 -0.29746482 4290397440
2.1698902 -0.96381748 -0.27514601 4290136320
2.2225444 -0.98709476 -0.27064142 4290266880
2.2018821 -0.97785121 -0.25677979 4290266880
2.1984568 -0.97625351 -0.24476326 4290136320
2.1133835 -0.93844962 -0.22389576 4289875200
2.070708 -0.91945153 -0.20795348 4289744640
2.109653 -0.93664515 -0.19996573 4289875200
2.0978434 -0.93133456 -0.18681695 4289744640
2.0206223 -0.89702755 -0.16818234 4289483520
2.0731492 -0.92023957 -0.16025507 4289744640
2.0392749 -0.90515178 -0.14540002 4289614080
2.0482166 -0.9090426 -0.13357478 4289614080
1.9566317 -0.86838299 -0.11559504 4289222400
2.03707 -0.90395844 -0.10765508 4289614080
2.0632296 -0.91547757 -0.096087411 4289614080
2.0485928 -0.90891975 -0.082460202 4289614080
2.0572443 -0.91268033 -0.069713145 4289614080
2.0901101 -0.92716688 -0.057440553 4289744640
2.1086893 -0.93532294 -0.044390641 4289875200
2.0655704 -0.91615045 -0.030173618 4289614080
2.1321867 -0.94558084 -0.017343506 4289875200
2.1827617 -0.96790266 -0.003613943 4290136320
2.1817904 -0.96739566 0.010508979 4290136320
2.1144757 -0.93751347 0.02383955 4289875200
2.2406027 -0.99328053 0.039754171 4290266880
2.2415495 -0.99362069 0.054190159 4290266880
2.2013085 -0.97572815 0.067307934 4290136320
2.1515341 -0.95361859 0.079482399 4290005760
2.2842805 -1.0122963 0.098878674 4290528000
2.3021626 -1.0201297 0.11411934 4290528000
2.2088218 -0.9787423 0.12322773 4290136320
2.144779 -0.95032561 0.13286561 4290005760
2.3567464 -1.0440367 0.1604131 4290789120
2.3637176 -1.0470376 0.17512299 4290789120
2.2889004 -1.0138556 0.1831619 4290528000
2.2292523 -0.98738891 0.19142199 4290266880
2.4452181 -1.0828353 0.22408254 4291050240
2.4519341 -1.0857189 0.23856266 4291180800
2.3806565 -1.0541093 0.24481897 4290919680
2.3874164 -1.0570139 0.2584821 4290919680
2.4862728 -1.1006408 0.28240359 4291311360
2.9093602 -1.2876157 0.34560096 4292878080
3.0202727 -1.3365467 0.37403932 4293269760
3.0371091 -1.3438815 0.39103764 4293269760
3.0342987 -1.3425304 0.40513247 4293269760
3.0054855 -1.3296862 0.41514847 4293269760
3.0619013 -1.3545117 0.43659431 4293400320
3.0689168 -1.3575017 0.45077649 4293400320
3.0704188 -1.3580549 0.46367112 4293530880
3.058017 -1.3524642 0.47389239 4293400320
3.0516021 -1.3495194 0.48442629 4293400320
3.0219483 -1.3363082 0.4905822 4293269760
3.0608766 -1.3533949 0.5073396 4293400320
3.0621991 -1.3538677 0.51741242 4293530880
3.0542157 -1.35023 0.52529418 4293400320
3.0524392 -1.3493338 0.53360647 4293400320
3.0543199 -1.3500526 0.54193902 4293400320
3.0595932 -1.3522692 0.55026126 4293530880
3.056011 -1.3505751 0.55635399 4293530880
3.0591085 -1.35183 0.5630123 4293530880
3.0485013 -1.3470346 0.56647676 4293400320
3.0487354 -1.3470252 0.57127517 4293400320
3.0481513 -1.3466543 0.57525045 4293400320
3.0557795 -1.3499076 0.58010924 4293530880
3.055397 -1.3496251 0.58277392 4293530880
3.0429473 -1.3440175 0.58244282 4293400320
3.0427763 -1.3438283 0.58376986 4293400320
3.054883 -1.3490556 0.58676958 4293530880
3.042311 -1.3433946 0.58434004 4293400320
3.0595694 -1.3508933 0.58695132 4293530880
3.0508156 -1.3469167 0.58388048 4293400320
3.0519896 -1.3473192 0.58202749 4293530880
3.0575113 -1.3496387 0.58031458 4293530880
3.0562012 -1.3489449 0.57661992 4293530880
3.0505719 -1.3463466 0.57144308 4293400320
3.0523589 -1.347018 0.56699145 4293400320
3.0493572 -1.3455782 0.56098938 4293400320
3.0529749 -1.3470563 0.55554849 4293400320
3.0513861 -1.3462389 0.54850811 4293400320
3.0452006 -1.3433954 0.540021 4293400320
3.0483091 -1.3446481 0.53256214 4293400320
3.0246451 -1.3341027 0.51986486 4293269760
3.0390763 -1.3403444 0.51314014 4293400320
3.0712631 -1.3544077 0.50867498 4293530880
3.060487 -1.3495413 0.49643749 4293400320
3.0500233 -1.3448131 0.48375461 4293400320
2.4586747 -1.0835143 0.32262766 4291180800
2.4567666 -1.0825779 0.31050441 4291180800
2.4544175 -1.0814474 0.29799715 4291180800
2.397012 -1.056089 0.27876806 4290919680
2.3763773 -1.0469149 0.26391041 4290789120
2.3743441 -1.0459265 0.25094599 4290789120
2.3662379 -1.0422662 0.23711467 4290789120
2.305047 -1.0152549 0.21807802 4290528000
2.2978745 -1.0120087 0.20430274 4290528000
2.3073671 -1.0160925 0.1917721 4290528000
2.290962 -1.0087863 0.17691395 4290528000
2.208087 -0.97225183 0.15730606 4290136320
2.2402971 -0.98632681 0.14604747 4290266880
2.2620981 -0.99582285 0.13361934 4290397440
2.2445016 -0.987997 0.11868421 4290266880
2.1541977 -0.94821167 0.10043055 4290005760
2.1737986 -0.95674133 0.087656558 4290005760
2.1798158 -0.95929927 0.07407365 4290136320
2.1516335 -0.94682735 0.059380122 4290005760
2.0380902 -0.89684808 0.043150458 4289614080
2.1025002 -0.92506742 0.031002259 4289744640
2.1067913 -0.9268688 0.017474545 4289744640
2.0688517 -0.91011781 0.003781728 4289614080
2.0471857 -0.90051812 -0.0094974292 4289614080
2.0665627 -0.90894735 -0.022931192 4289614080
2.0155914 -0.88647914 -0.035379011 4289483520
1.9042357 -0.83749777 -0.045705557 4289091840
2.0367579 -0.89561278 -0.061887462 4289483520
2.0980859 -0.92245841 -0.077102385 4289744640
1.996963 -0.87797952 -0.08606834 4289352960
2.0172174 -0.88679135 -0.099619582 4289483520
2.0926564 -0.91982448 -0.11636773 4289744640
2.1002846 -0.92308933 -0.12976043 4289744640
2.0697401 -0.90960097 -0.14052901 4289744640
2.0760124 -0.9122712 -0.15348417 4289744640
2.1730311 -0.95475912 -0.17356494 4290005760
2.1895318 -0.96191263 -0.18772867 4290136320
2.1633577 -0.95034313 -0.19799015 4290005760
2.1301713 -0.9356997 -0.2070573 4289875200
2.1085021 -0.92611074 -0.21670447 4289875200
2.2604361 -0.9926638 -0.24459793 4290397440
2.2068038 -0.96905428 -0.25059506 4290266880
2.2494342 -0.98766106 -0.26714686 4290397440
2.2425313 -0.98454583 -0.27772593 4290397440
2.2080066 -0.96932095 -0.28438085 4290266880
2.4206793 -1.0624681 -0.32331079 4291050240
2.4933417 -1.0942248 -0.3445878 4291311360
2.5563059 -1.1217253 -0.36476269 4291572480
2.6639507 -1.1688032 -0.39163736 4291964160
2.8425281 -1.246958 -0.4296858 4292616960
2.9767699 -1.3056716 -0.46184182 4293139200
3.0025072 -1.3168328 -0.47730839 4293269760
3.0228515 -1.3256295 -0.49154946 4293269760
3.0268419 -1.3272605 -0.50266409 4293269760
3.0410242 -1.3333558 -0.51495427 4293400320
3.0446675 -1.3348342 -0.52493101 4293400320
3.0426335 -1.3338261 -0.53333366 4293400320
3.0447991 -1.3346573 -0.54185772 4293400320
3.033344 -1.3295244 -0.54731512 4293400320
3.0201802 -1.3236445 -0.55177474 4293269760
3.0168409 -1.3220671 -0.55735117 4293269760
3.0125718 -1.3200831 -0.56209564 4293269760
2.9933882 -1.3115711 -0.56337094 4293269760
2.9400907 -1.2881293 -0.55747664 4293008640
2.9531305 -1.293725 -0.56343091 4293139200
2.9527304 -1.2934382 -0.56618428 4293139200
2.9524312 -1.2931958 -0.56829661 4293139200
2.952235 -1.2929988 -0.56976569 4293139200
2.9476314 -1.2908738 -0.56971961 4293008640
2.9431322 -1.2887951 -0.5690273 4293008640
2.9914064 -1.3098017 -0.57784837 4293269760
2.9780955 -1.3038681 -0.57411647 4293139200
3.0014057 -1.3139521 -0.5767535 4293269760
3.0007968 -1.3135742 -0.57411593 4293269760
3.0168784 -1.3204952 -0.57398099 4293269760
3.0318568 -1.3269329 -0.57293218 4293400320
3.0366869 -1.3289329 -0.56927657 4293400320
3.0309169 -1.3262987 -0.56297898 4293400320
3.0365016 -1.3286285 -0.5581333 4293400320
3.0311453 -1.326176 -0.55063486 4293400320
3.0222948 -1.322197 -0.54189909 4293269760
2.9945123 -1.3099449 -0.52924204 4293269760
2.9578445 -1.2938123 -0.51458126 4293008640
2.8557 -1.2490723 -0.48836422 4292747520
2.687887 -1.1756481 -0.45121321 4292094720
2.5673459 -1.1228886 -0.42240095 4291572480
2.5001521 -1.0934424 -0.4025076 4291311360
2.4197364 -1.0582259 -0.38057068 4291050240
2.3380454 -1.0224583 -0.35862082 4290789120
2.2396574 -0.97940457 -0.33443108 4290397440
2.283262 -0.99836642 -0.33122629 4290528000
2.2544811 -0.98571694 -0.31711876 4290397440
2.251138 -0.98417664 -0.30636647 4290397440
2.2386909 -0.97866195 -0.29411069 4290397440
2.1445627 -0.93748957 -0.27134454 4290005760
2.1973364 -0.96045023 -0.26699966 4290136320
2.176604 -0.95132273 -0.25329855 4290136320
2.186831 -0.95570904 -0.24296184 4290136320
2.0878444 -0.91243207 -0.22074471 4289744640
2.1186972 -0.92582172 -0.21232651 4289875200
2.0895531 -0.91302991 -0.19768031 4289744640
2.0813556 -0.90937942 -0.18500303 4289744640
2.0039251 -0.87552488 -0.16649382 4289483520
2.0565791 -0.89842409 -0.15870194 4289614080
2.0842376 -0.91041642 -0.14834307 4289744640
2.0361407 -0.88936466 -0.13258591 4289483520
1.9397367 -0.84724778 -0.11444084 4289222400
2.04264 -0.89205575 -0.10781226 4289614080
2.0717897 -0.90469521 -0.096382305 4289614080
2.0296559 -0.88625085 -0.081641085 4289483520
2.0579967 -0.89853615 -0.06971059 4289614080
2.1124885 -0.92222023 -0.058057226 4289875200
2.1141567 -0.92287344 -0.044550005 4289875200
2.0791762 -0.90755159 -0.030449973 4289744640
2.1413825 -0.93459171 -0.017537408 4289875200
2.1838386 -0.95301986 -0.0037777645 4290136320
2.163183 -0.94394201 0.010215899 4290005760
2.1291273 -0.92902642 0.023776649 4289875200
2.2464144 -0.98005563 0.039575353 4290266880
2.2510304 -0.98198795 0.054099437 4290266880
2.2152674 -0.96632904 0.067383714 4290136320
2.1525352 -0.93892461 0.079139374 4290005760
2.2856271 -0.99682063 0.098495945 4290397440
2.3081365 -1.0065441 0.11393368 4290528000
2.2145543 -0.96570754 0.12304991 4290136320
2.1631608 -0.94324946 0.13348714 4290005760
2.3592029 -1.0285369 0.15997593 4290789120
2.365279 -1.0310994 0.17459682 4290789120
2.3122158 -1.0079143 0.18437018 4290528000
2.2350395 -0.97423565 0.19124785 4290266880
2.4607024 -1.0723865 0.22472955 4291180800
2.4537327 -1.069266 0.23793189 4291050240
2.3740563 -1.0345023 0.24332763 4290789120
2.3844895 -1.0389587 0.25731891 4290919680
2.3763139 -1.0353165 0.26902482 4290789120
2.7770936 -1.2096181 0.32881963 4292355840
2.9989522 -1.306046 0.37022474 4293139200
3.0404382 -1.3239876 0.39024505 4293269760
3.0421734 -1.3246342 0.40493026 4293269760
3.0087364 -1.3099813 0.41432682 4293139200
3.0653 -1.3344755 0.43575507 4293400320
3.085968 -1.3433543 0.45192179 4293530880
3.0829265 -1.3419211 0.46417546 4293530880
3.0659494 -1.3344282 0.4737201 4293400320
3.0595169 -1.331521 0.4842616 4293400320
3.0379491 -1.322034 0.4917489 4293400320
3.0651071 -1.3337305 0.50657719 4293400320
3.0656056 -1.3338362 0.51650703 4293400320
3.0702853 -1.3357592 0.52656066 4293530880
3.0739331 -1.3372329 0.5358519 4293530880
3.0703802 -1.335577 0.54326653 4293530880
3.0584683 -1.3302888 0.54853189 4293400320
3.0684481 -1.3345133 0.55707967 4293530880
3.067028 -1.3337839 0.56292623 4293530880
3.0563912 -1.3290504 0.56640106 4293400320
3.0430636 -1.3231485 0.56867474 4293400320
3.0596511 -1.3302412 0.57587636 4293400320
3.0636814 -1.3318785 0.58006507 4293530880
3.0587776 -1.3296355 0.58188093 4293400320
3.0417764 -1.3221391 0.58069539 4293400320
3.0416031 -1.3219508 0.58202976 4293400320
3.0582557 -1.3290676 0.58590466 4293400320
3.0501657 -1.3254411 0.58435249 4293400320
3.0674663 -1.3328371 0.58697563 4293530880
3.0586872 -1.3289113 0.58391666 4293400320
3.056247 -1.3277372 0.58138782 4293400320
3.0653949 -1.3315922 0.58037496 4293530880
3.0550394 -1.3269826 0.57499051 4293400320
3.0633407 -1.330469 0.57244527 4293530880
3.082433 -1.3386364 0.57120621 4293530880
3.0572097 -1.3275766 0.56109869 4293400320
3.0517852 -1.325107 0.55402672 4293400320
3.0556183 -1.3266531 0.54799253 4293400320
3.0485077 -1.3234524 0.53936571 4293400320
3.0434673 -1.3211496 0.530509 4293400320
3.0451112 -1.3217456 0.52221143 4293400320
3.0468893 -1.3223995 0.51332265 4293400320
3.070086 -1.3323394 0.50737178 4293400320
3.0707514 -1.3325094 0.49703428 4293400320
3.0578592 -1.326802 0.48397395 4293400320
2.4557636 -1.0653715 0.32143924 4291180800
2.4397447 -1.0583349 0.30757827 4291050240
2.4606049 -1.0672767 0.29799974 4291180800
2.4121788 -1.0462022 0.27982906 4290919680
2.3914967 -1.0371487 0.2649228 4290919680
2.3803287 -1.0322177 0.25094414 4290789120
2.3758569 -1.0301874 0.23747726 4290789120
2.3154275 -1.0039254 0.21850535 4290528000
2.2990923 -0.99676096 0.20388992 4290528000
2.3049462 -0.99920475 0.19107975 4290528000
2.2921576 -0.99357724 0.17655082 4290528000
2.2090716 -0.95752025 0.15696877 4290136320
2.2367804 -0.96942627 0.14543709 4290266880
2.2586329 -0.97879553 0.13306287 4290397440
2.2547386 -0.9770208 0.11891069 4290397440
2.1642082 -0.93775678 0.10062756 4290005760
2.1746876 -0.94220525 0.087452002 4290005760
2.1898921 -0.94869703 0.074209437 4290136320
2.161639 -0.93638778 0.059485406 4290005760
2.0468924 -0.8866666 0.043206464 4289614080
2.1169708 -0.91689605 0.031114882 4289875200
2.1203549 -0.91827554 0.017518746 4289875200
2.0694699 -0.89618629 0.0037447799 4289614080
2.0548315 -0.88977438 -0.0095367208 4289614080
2.0685408 -0.89562023 -0.022926571 4289614080
2.0429795 -0.88448727 -0.035793766 4289614080
1.93689 -0.83854502 -0.046393842 4289222400
2.0642505 -0.89351934 -0.062592104 4289614080
2.0730879 -0.89725709 -0.076037534 4289614080
2.0585766 -0.89090353 -0.088518001 4289614080
1.9874425 -0.86008286 -0.097950891 4289352960
2.0575783 -0.89030904 -0.11418198 4289614080
2.0707359 -0.89591223 -0.12766527 4289614080
2.0483711 -0.88616854 -0.13877851 4289614080
2.0464242 -0.88524646 -0.15097022 4289614080
2.1473608 -0.92876327 -0.17113858 4290005760
2.1684906 -0.93780434 -0.18551202 4290005760
2.1376867 -0.92441601 -0.1952056 4289875200
2.1135743 -0.91391975 -0.20498121 4289875200
2.0699222 -0.89498872 -0.21226624 4289744640
2.2350481 -0.96619779 -0.24130285 4290266880
2.2513359 -0.97314143 -0.25504419 4290397440
2.2203958 -0.9596976 -0.26309714 4290266880
2.2134922 -0.95663083 -0.27350229 4290266880
2.1652195 -0.93571091 -0.27823538 4290005760
2.3343575 -1.0086159 -0.3110818 4290658560
2.3504822 -1.0154825 -0.32413086 4290789120
2.4461482 -1.056667 -0.34825951 4291050240
2.5149899 -1.0862716 -0.36891401 4291311360
2.5652409 -1.1078514 -0.3869389 4291572480
2.7720866 -1.1969737 -0.4291257 4292355840
2.8798018 -1.2433245 -0.45674825 4292747520
2.9438539 -1.2708367 -0.47758371 4293008640
2.9606953 -1.2779858 -0.49052152 4293008640
2.9680231 -1.2810315 -0.50140768 4293139200
2.9643247 -1.279323 -0.50987309 4293008640
2.9768953 -1.2846286 -0.52057099 4293139200
2.9006951 -1.2516667 -0.51500803 4292878080
2.9250576 -1.2620569 -0.52652961 4292878080
2.8727632 -1.2394066 -0.52361161 4292747520
2.8891253 -1.2463489 -0.53249425 4292747520
2.9064682 -1.2537127 -0.54100525 4292878080
2.9184606 -1.2587699 -0.54794526 4292878080
2.939589 -1.2677627 -0.55600953 4293008640
2.9390922 -1.2674377 -0.55937254 4293008640
2.8587606 -1.2327225 -0.5468393 4292747520
2.8458078 -1.227036 -0.54644799 4292616960
2.8456185 -1.2268479 -0.54785615 4292616960
2.8455293 -1.2267032 -0.5486443 4292616960
2.9290762 -1.2625741 -0.56489372 4293008640
2.9255736 -1.260957 -0.5637306 4293008640
2.9077015 -1.2531536 -0.55915314 4292878080
2.8863094 -1.2438363 -0.5532679 4292747520
2.8785827 -1.2404035 -0.54937226 4292747520
2.8573775 -1.2311699 -0.54229778 4292747520
2.9047737 -1.2514641 -0.54755014 4292878080
2.9320788 -1.2631086 -0.54828376 4293008640
2.9514222 -1.2713252 -0.54682046 4293008640
2.9295356 -1.2617997 -0.53710693 4293008640
2.9248188 -1.2596635 -0.52996641 4292878080
2.8742037 -1.2377815 -0.5140413 4292747520
2.8181827 -1.213578 -0.49682096 4292486400
2.7150087 -1.1690961 -0.47116068 4292094720
2.6118071 -1.1246099 -0.44554538 4291703040
2.5179036 -1.0841303 -0.42160463 4291441920
2.4592705 -1.0588251 -0.4035677 4291180800
2.3982344 -1.0324912 -0.38508958 4290919680
2.3290699 -1.0026668 -0.36534467 4290658560
2.2259092 -0.95823163 -0.34052527 4290266880
2.2097726 -0.95121497 -0.32906631 4290266880
2.2543781 -0.97031021 -0.32613409 4290397440
2.2419086 -0.96487021 -0.31446704 4290397440
2.2257829 -0.95785987 -0.30206478 4290266880
2.2096391 -0.95084292 -0.28947222 4290266880
2.1280339 -0.91569757 -0.26847926 4289875200
2.1809278 -0.93834972 -0.26423532 4290136320
2.1473405 -0.92384207 -0.24916285 4290005760
2.1575749 -0.92816299 -0.23900186 4290005760
2.1229796 -0.91322571 -0.22376153 4289875200
2.09747 -0.90219361 -0.20955622 4289744640
2.1207662 -0.91212553 -0.19998917 4289875200
2.0645885 -0.88792449 -0.18292941 4289614080
2.0526454 -0.88272327 -0.16996334 4289614080
2.0840738 -0.89614666 -0.16027269 4289744640
2.0908031 -0.89896297 -0.14829344 4289744640
2.0109668 -0.86461365 -0.13048817 4289483520
2.007319 -0.86297739 -0.11796422 4289483520
2.0339825 -0.87435275 -0.10694233 4289483520
2.0723813 -0.89076346 -0.096015453 4289614080
2.0590398 -0.88496512 -0.082451366 4289614080
2.0594678 -0.88507694 -0.069428265 4289614080
2.114094 -0.90844625 -0.057791721 4289744640
2.1277092 -0.91421461 -0.0445522 4289875200
2.0715058 -0.89002639 -0.030099344 4289614080
2.143055 -0.92064995 -0.017334308 4289875200
2.1938863 -0.94238096 -0.0036045264 4290136320
2.1837192 -0.93794334 0.010471836 4290005760
2.1344409 -0.91673124 0.023954295 4289875200
2.2520189 -0.96708333 0.039763838 4290266880
2.2483754 -0.96544236 0.054088183 4290266880
2.2161977 -0.95156592 0.067430131 4290136320
2.1624939 -0.92846203 0.079491682 4290005760
2.2995884 -0.98716414 0.099047579 4290528000
2.3138871 -0.99321371 0.11412928 4290528000
2.2154808 -0.95094937 0.12298148 4290136320
2.1639595 -0.92878819 0.13338576 4290005760
2.3650763 -1.0149107 0.16017404 4290789120
2.375751 -1.0194027 0.17513318 4290789120
2.3005524 -0.98709476 0.18317178 4290528000
2.2405999 -0.96132499 0.1914316 4290266880
2.4576628 -1.0542487 0.22409309 4291050240
2.4598341 -1.0550926 0.23812932 4291050240
2.3845344 -1.0227486 0.24398515 4290789120
2.3904166 -1.0251843 0.25750554 4290919680
2.3685052 -1.015715 0.26765582 4290789120
2.7967873 -1.1990567 0.33054334 4292355840
3.0018346 -1.2867687 0.36988369 4293139200
3.0443377 -1.3048629 0.38999721 4293269760
3.0451658 -1.3051095 0.40453896 4293269760
3.0207675 -1.2945555 0.41516146 4293269760
3.0820262 -1.3206733 0.43725464 4293400320
3.0799627 -1.3196801 0.45012349 4293400320
3.07692 -1.3182679 0.46231517 4293400320
3.0781114 -1.3186679 0.47460777 4293400320
3.0625625 -1.3119034 0.48372054 4293400320
3.0500369 -1.3064336 0.4926528 4293400320
3.0682495 -1.314117 0.50600296 4293400320
3.0732152 -1.3161311 0.51666152 4293400320
3.0697329 -1.3145305 0.52530742 4293400320
3.067946 -1.3136551 0.5336197 4293400320
3.0734649 -1.3159047 0.54259336 4293530880
3.0705976 -1.3145667 0.54946238 4293400320
3.0760667 -1.3167942 0.55718893 4293530880
3.0619502 -1.3106452 0.56070012 4293400320
3.0639815 -1.311402 0.56648993 4293400320
3.0596843 -1.3094525 0.57044321 4293400320
3.050036 -1.3052154 0.57271057 4293400320
3.0631392 -1.3107047 0.57858181 4293400320
3.0663776 -1.3119762 0.58192724 4293400320
3.057946 -1.308259 0.58237082 4293400320
3.0532444 -1.3061365 0.58283293 4293400320
3.0577071 -1.3079304 0.58435869 4293400320
3.057749 -1.3078346 0.58435321 4293400320
3.070565 -1.3131967 0.5860998 4293530880
3.0617652 -1.3093224 0.58303094 4293400320
3.0638492 -1.3100981 0.58135283 4293400320
3.0639608 -1.3100308 0.57861608 4293400320
3.0626411 -1.309352 0.57493126 4293400320
3.0709641 -1.3127913 0.57237363 4293530880
3.0723717 -1.3132764 0.56784284 4293530880
3.0602858 -1.3079995 0.5601722 4293400320
3.0757155 -1.3144715 0.55687678 4293530880
3.0713942 -1.3125098 0.54933316 4293400320
3.0560997 -1.3058637 0.53923291 4293400320
3.059221 -1.3070796 0.53178561 4293400320
3.0572391 -1.3061167 0.5228315 4293400320
3.0581152 -1.3063737 0.51376438 4293400320
3.0764518 -1.3140813 0.50697738 4293400320
3.0738533 -1.3128543 0.49610466 4293400320
3.0609269 -1.3072208 0.48304915 4293400320
2.4756937 -1.056715 0.32323515 4291180800
2.4550719 -1.0478276 0.30873531 4291050240
2.4668462 -1.0527508 0.29800776 4291180800
2.4045756 -1.0261136 0.27824846 4290919680
2.4057984 -1.0265408 0.26584494 4290919680
2.3827021 -1.0166043 0.25057048 4290789120
2.3690553 -1.0106961 0.23620993 4290789120
2.3212979 -0.99025553 0.21852019 4290528000
2.3140903 -0.98709381 0.20471911 4290528000
2.3153758 -0.9875505 0.19147794 4290528000
2.2942965 -0.97848088 0.17628762 4290528000
2.2728565 -0.96925914 0.16112587 4290397440
2.2424488 -0.95622009 0.1454595 4290266880
2.2735434 -0.96937251 0.13362913 4290397440
2.247586 -0.95823061 0.11825693 4290266880
2.1559031 -0.91910821 0.10001128 4290005760
2.1847947 -0.93132246 0.08766596 4290005760
2.200038 -0.93772477 0.074396297 4290136320
2.1671147 -0.92362481 0.059516899 4290005760
2.043798 -0.87105685 0.043061111 4289483520
2.1260133 -0.90596282 0.03120387 4289875200
2.1174443 -0.90223253 0.017483663 4289744640
2.0655096 -0.88005215 0.0037615588 4289614080
2.0493958 -0.8731153 -0.0094534429 4289614080
2.0641274 -0.87930095 -0.022783937 4289614080
2.0527534 -0.87438142 -0.035832793 4289614080
1.9776754 -0.8423686 -0.047199406 4289352960
2.0694773 -0.88133138 -0.062549293 4289614080
2.101763 -0.89497864 -0.076842323 4289744640
2.0509148 -0.87327528 -0.087925389 4289614080
2.0599205 -0.87702316 -0.10119696 4289614080
2.1164443 -0.900971 -0.11708534 4289744640
2.1204309 -0.90258223 -0.13033423 4289875200
2.0973699 -0.89269692 -0.14167415 4289744640
2.0157928 -0.85794437 -0.14829968 4289483520
2.1843529 -0.92949599 -0.17358302 4290005760
2.1917603 -0.93255776 -0.18696919 4290136320
2.1776726 -0.92648607 -0.19828834 4290005760
2.1770136 -0.92612076 -0.21052465 4290005760
2.1124043 -0.89858925 -0.21600839 4289875200
2.2013183 -0.93627393 -0.23702033 4290136320
2.2268212 -0.94701946 -0.25158525 4290266880
2.1994774 -0.93532008 -0.25991535 4290136320
2.1797645 -0.92686325 -0.26861548 4290136320
2.1313894 -0.90623802 -0.27315927 4289875200
2.3183346 -0.98552597 -0.30811775 4290658560
2.2480299 -0.95558953 -0.30920577 4290397440
2.2861414 -0.97168034 -0.32466283 4290528000
2.3379064 -0.99356347 -0.34208256 4290658560
2.3218236 -0.98664737 -0.349372 4290658560
2.5097501 -1.0663089 -0.38756633 4291311360
2.5741384 -1.0935345 -0.40728131 4291572480
2.6430504 -1.1226746 -0.42774227 4291833600
2.6506133 -1.1257818 -0.43808466 4291833600
2.7013161 -1.1471894 -0.4552325 4292094720
2.6750052 -1.1359254 -0.45899174 4291964160
2.7393973 -1.1631348 -0.47785944 4292225280
2.7865372 -1.1830229 -0.49348375 4292355840
2.7534466 -1.1688843 -0.4944025 4292225280
2.7961488 -1.1868868 -0.50834793 4292486400
2.7426026 -1.1640778 -0.5042271 4292225280
2.771827 -1.1763641 -0.51465446 4292355840
2.8147316 -1.1944475 -0.52714235 4292486400
2.8096266 -1.1921778 -0.53010511 4292486400
2.8309188 -1.2010968 -0.53744036 4292616960
2.7501457 -1.1667589 -0.52475643 4292225280
2.7625611 -1.1719173 -0.52914119 4292355840
2.7496817 -1.166357 -0.52807558 4292225280
2.7450607 -1.1642969 -0.52796918 4292225280
2.7369101 -1.1607419 -0.52656734 4292225280
2.7956302 -1.1855155 -0.53738254 4292486400
2.7740741 -1.1762815 -0.5321669 4292355840
2.7571456 -1.1690093 -0.52723557 4292355840
2.7966175 -1.1856246 -0.5324322 4292486400
2.7581048 -1.1692129 -0.52219671 4292355840
2.697891 -1.1436154 -0.50737029 4292094720
2.7397184 -1.1612265 -0.51112163 4292225280
2.6705647 -1.1318495 -0.49367023 4291964160
2.6919897 -1.1408223 -0.49243492 4292094720
2.6193023 -1.1099567 -0.47356206 4291833600
2.5720809 -1.0898753 -0.45900315 4291572480
2.5643258 -1.0865004 -0.45107397 4291572480
2.4386125 -1.0332085 -0.42228639 4291050240
2.3914411 -1.0131603 -0.40706992 4290919680
2.3670328 -1.0027472 -0.39546919 4290789120
2.3198762 -0.98271167 -0.37985933 4290658560
2.3118911 -0.97925073 -0.37040061 4290658560
2.300283 -0.97425789 -0.36001316 4290528000
2.2841284 -0.96734315 -0.34861386 4290528000
2.2716281 -0.96197516 -0.33749041 4290397440
2.2381299 -0.94772822 -0.32306764 4290266880
2.2082596 -0.935018 -0.30907673 4290136320
2.1920719 -0.92809534 -0.29685387 4290136320
2.1840963 -0.92464596 -0.28551942 4290136320
2.177021 -0.92157781 -0.27405629 4290005760
2.164434 -0.91618031 -0.26169434 4290005760
2.2016244 -0.93182409 -0.25491467 4290136320
2.1364172 -0.90418696 -0.2361881 4289875200
2.1200588 -0.8971988 -0.22301285 4289875200
2.094481 -0.88631594 -0.20885475 4289744640
2.126091 -0.89959925 -0.20011288 4289875200
2.1224537 -0.89798826 -0.18769287 4289875200
2.0614734 -0.87215155 -0.17039244 4289614080
2.1067657 -0.89121288 -0.1617389 4289744640
2.1089222 -0.8920505 -0.14933605 4289744640
2.0288901 -0.85817397 -0.13145135 4289483520
2.0298371 -0.85850334 -0.1191201 4289483520
2.0493536 -0.86667454 -0.10761878 4289614080
2.0605512 -0.87133181 -0.095379099 4289614080
2.0642104 -0.8728053 -0.082599387 4289614080
2.0646398 -0.87291497 -0.069578722 4289614080
2.1230872 -0.89751762 -0.058048062 4289875200
2.1284475 -0.89970666 -0.044616956 4289875200
2.081315 -0.87973869 -0.030322665 4289614080
2.1521232 -0.90955168 -0.017528115 4289875200
2.1993976 -0.92942798 -0.0037749291 4290136320
2.1892054 -0.9250508 0.010300781 4290005760
2.1398039 -0.90412974 0.023785889 4289875200
2.2438591 -0.94795853 0.03933936 4290266880
2.2795563 -0.96294087 0.054525774 4290397440
2.2263722 -0.94042617 0.067393325 4290136320
2.1725335 -0.91763896 0.079487868 4290005760
2.2970827 -0.97009593 0.098505862 4290397440
2.3197036 -0.97955656 0.1139437 4290528000
2.2210507 -0.93787295 0.12280411 4290136320
2.1611207 -0.91252476 0.13270283 4290005760
2.3664243 -0.99901414 0.159675 4290658560
2.3725312 -1.0015066 0.17426857 4290789120
2.3063374 -0.97351831 0.18299147 4290528000
2.2416413 -0.94616616 0.19086559 4290266880
2.4638431 -1.0397465 0.22390421 4291050240
2.4614308 -1.0386437 0.23749897 4291050240
2.3905313 -1.0086783 0.24380654 4290789120
2.4092667 -1.0164897 0.25870991 4290919680
2.5088727 -1.0583755 0.28264683 4291311360
2.9232659 -1.2328827 0.3444331 4292747520
3.0341094 -1.2794775 0.3727152 4293269760
3.0651972 -1.2924668 0.3914783 4293400320
3.0573957 -1.2890725 0.40494347 4293269760
3.0283616 -1.2767358 0.41496679 4293269760
3.0897737 -1.3024925 0.43706203 4293400320
3.096838 -1.3053579 0.45126924 4293530880
3.0937824 -1.3039614 0.46350449 4293530880
3.0767212 -1.2966679 0.47303152 4293400320
3.0748177 -1.2957571 0.48427489 4293400320
3.0485826 -1.284603 0.49102747 4293269760
3.0841575 -1.2994689 0.50720328 4293400320
3.0763786 -1.2960843 0.51575643 4293400320
3.0774403 -1.2964207 0.52517492 4293400320
3.0756471 -1.2955556 0.53349602 4293400320
3.0729899 -1.2943267 0.54103625 4293400320
3.0873969 -1.3002775 0.55098087 4293530880
3.0792367 -1.2967327 0.55627143 4293530880
3.0741735 -1.2944911 0.56144488 4293400320
3.0716631 -1.2933233 0.56641436 4293400320
3.0755157 -1.2948319 0.57189655 4293400320
3.0713031 -1.292948 0.5752089 4293400320
3.0744445 -1.2941567 0.5792225 4293400320
3.0740559 -1.2938806 0.58189422 4293400320
3.0701406 -1.2921214 0.58321178 4293400320
3.0658724 -1.2902138 0.58377248 4293400320
3.0698957 -1.291792 0.5852254 4293400320
3.0653956 -1.2897869 0.58436573 4293400320
3.0691614 -1.2912561 0.58439469 4293400320
3.0612442 -1.2878146 0.58151412 4293400320
3.0751359 -1.2935386 0.58208895 4293530880
3.067071 -1.2900349 0.57782048 4293400320
3.0748293 -1.29318 0.57585478 4293400320
3.0786285 -1.2946608 0.57245857 4293530880
3.0754926 -1.2932278 0.56710184 4293400320
3.0770102 -1.2937496 0.56194252 4293400320
3.0788372 -1.2944008 0.5561772 4293400320
3.0745013 -1.2924634 0.54865551 4293400320
3.0719056 -1.291257 0.54082161 4293400320
3.0586479 -1.2855735 0.53052223 4293400320
3.0566556 -1.2846206 0.52160263 4293400320
3.0657294 -1.2883136 0.51394725 4293400320
3.0886676 -1.2978259 0.50792354 4293530880
3.0699704 -1.2898595 0.49445426 4293400320
3.0685427 -1.2891427 0.48326829 4293400320
2.4817367 -1.0424252 0.32324049 4291180800
2.4752352 -1.0396016 0.31051907 4291180800
2.4682844 -1.0365899 0.29745752 4291180800
2.4150288 -1.0141571 0.27877963 4290919680
2.4034123 -1.0091913 0.2649332 4290919680
2.3885164 -1.002851 0.25056872 4290789120
2.3840194 -1.0008721 0.23712161 4290789120
2.350363 -0.98666787 0.22071709 4290658560
2.310544 -0.96988267 0.20389992 4290528000
2.3164263 -0.97225803 0.19108978 4290528000
2.3161919 -0.97206908 0.17753042 4290528000
2.2820816 -0.95768219 0.16137576 4290397440
2.2479184 -0.94327563 0.14544682 4290266880
2.2698786 -0.9523896 0.13307269 4290397440
2.257673 -0.94718641 0.11848357 4290266880
2.1703751 -0.91052341 0.10042271 4290005760
2.185513 -0.91677976 0.087461464 4290005760
2.1961825 -0.92116302 0.0740624 4290136320
2.1677873 -0.90918362 0.059367392 4290005760
2.053391 -0.86118889 0.043136872 4289614080
2.1311948 -0.89368945 0.031179054 4289875200
2.1309056 -0.89348447 0.017527973 4289875200
2.0751545 -0.87005854 0.0037441384 4289614080
2.049777 -0.85935271 -0.0094617987 4289483520
2.0649989 -0.86564398 -0.022769218 4289614080
2.0436273 -0.85661727 -0.035621982 4289483520
1.9824922 -0.8309502 -0.047230549 4289352960
2.096648 -0.878645 -0.063243717 4289744640
2.1197882 -0.88824546 -0.077344745 4289744640
2.0651259 -0.865291 -0.088352516 4289614080
2.0870528 -0.87438345 -0.10231084 4289744640
2.1298873 -0.89222044 -0.11757936 4289875200
2.1384861 -0.89573365 -0.13116081 4289875200
2.1107602 -0.88405335 -0.14227027 4289744640
2.029902 -0.8501547 -0.14901157 4289483520
2.1979473 -0.92034733 -0.17428036 4290136320
2.2191656 -0.92913342 -0.18888474 4290136320
2.1875651 -0.91583467 -0.19874884 4290005760
2.1823068 -0.91355097 -0.2105695 4290005760
2.1267259 -0.89023203 -0.21698594 4289875200
2.2685344 -0.94942206 -0.24368958 4290397440
2.2230558 -0.9303264 -0.25060046 4290266880
2.1873937 -0.91533679 -0.25791276 4290136320
2.166724 -0.90661478 -0.26641312 4290005760
2.1237383 -0.88857037 -0.27156773 4289875200
2.2937407 -0.95951253 -0.30416822 4290528000
2.3099711 -0.96620393 -0.31698 4290528000
2.2569239 -0.94395661 -0.31979492 4290397440
2.3124895 -0.96707755 -0.33760044 4290528000
2.2918122 -0.9583531 -0.34407789 4290528000
2.4058619 -1.0058913 -0.37070763 4290919680
2.4311914 -1.0163754 -0.38382897 4291050240
2.391084 -0.99953693 -0.38615906 4290919680
2.4292343 -1.0153725 -0.40064362 4291050240
2.4546239 -1.0258784 -0.41278413 4291180800
2.5110316 -1.0493296 -0.42991075 4291311360
2.4641483 -1.0296668 -0.42893663 4291180800
2.5069525 -1.0474367 -0.4430266 4291311360
2.563446 -1.0709159 -0.45927179 4291572480
2.5397921 -1.0609496 -0.46074259 4291441920
2.5148022 -1.0504278 -0.46133465 4291311360
2.5669034 -1.0720685 -0.47554868 4291572480
2.5380905 -1.0599532 -0.47429979 4291441920
2.5594022 -1.0687473 -0.48183069 4291572480
2.5853355 -1.0794674 -0.48972926 4291572480
2.6113474 -1.0902188 -0.49712744 4291703040
2.5847211 -1.0790187 -0.49395043 4291572480
2.5754585 -1.075061 -0.49348509 4291572480
2.5926459 -1.0821313 -0.49750215 4291703040
2.5581167 -1.067641 -0.49103725 4291572480
2.5991354 -1.084645 -0.49846309 4291703040
2.577512 -1.0755368 -0.49331921 4291572480
2.5123377 -1.0482798 -0.47932953 4291311360
2.5414691 -1.0603278 -0.48275247 4291441920
2.4809909 -1.0350341 -0.46866587 4291180800
2.5170612 -1.0499728 -0.47225201 4291441920
2.455806 -1.024361 -0.4571121 4291180800
2.515054 -1.0489538 -0.46381393 4291311360
2.4675715 -1.029084 -0.45032656 4291180800
2.4383421 -1.0168205 -0.4397957 4291050240
2.4735615 -1.0314008 -0.44033575 4291180800
2.4307723 -1.0134927 -0.42653784 4291050240
2.4053288 -1.0028106 -0.41546509 4290919680
2.3753557 -0.99024475 -0.40329307 4290789120
2.3371909 -0.97427058 -0.38947985 4290658560
2.3209429 -0.96742326 -0.37903929 4290658560
2.300149 -0.95868498 -0.3675535 4290528000
2.2967281 -0.95717955 -0.35850507 4290528000
2.2805297 -0.95035648 -0.34713638 4290397440
2.2689087 -0.9454397 -0.33618021 4290397440
2.2389858 -0.932908 -0.32231387 4290266880
2.2798989 -0.94985235 -0.31820169 4290397440
2.2682879 -0.94494146 -0.30629635 4290397440
2.1985638 -0.91585541 -0.28660315 4290136320
2.1951444 -0.91435593 -0.2755515 4290136320
2.174274 -0.9055981 -0.26213047 4290005760
2.2198198 -0.92446506 -0.25627235 4290136320
2.1544604 -0.89720619 -0.23747884 4290005760
2.1380682 -0.89031446 -0.22423248 4289875200
2.1078362 -0.87766939 -0.20954707 4289744640
2.1487255 -0.89459658 -0.20161356 4289875200
2.1414049 -0.89147854 -0.18876843 4289875200
2.0848858 -0.86790907 -0.17176688 4289614080
2.1256886 -0.88479722 -0.16264884 4289875200
2.1324623 -0.88753885 -0.15048435 4289875200
2.0513201 -0.8537426 -0.13243248 4289483520
2.0531962 -0.85445124 -0.12004554 4289614080
2.0483484 -0.85236591 -0.10715799 4289483520
2.0713375 -0.86184686 -0.095490254 4289614080
2.0493932 -0.85265845 -0.081659459 4289483520
2.0779438 -0.86444837 -0.069695249 4289614080
2.124531 -0.88372856 -0.057782497 4289744640
2.1335957 -0.88742036 -0.044448126 4289875200
2.0863481 -0.86772388 -0.030155648 4289614080
2.157326 -0.89712816 -0.017353617 4289875200
2.2047131 -0.91673148 -0.0035949522 4290136320
2.2037301 -0.91624737 0.010527962 4290136320
2.1357374 -0.8879419 0.023857949 4289875200
2.258512 -0.93883812 0.039691366 4290266880
2.2804425 -0.94786394 0.054605339 4290397440
2.2271295 -0.92565608 0.067439809 4290136320
2.1731601 -0.90317953 0.079501122 4290005760
2.3109293 -0.9602803 0.099057615 4290528000
2.320684 -0.96424848 0.11391193 4290528000
2.2310174 -0.9269619 0.12324695 4290136320
2.17924 -0.90540189 0.13367905 4290005760
2.3767354 -0.98726219 0.16018437 4290789120
2.382854 -0.98971814 0.17480466 4290789120
2.3026795 -0.95637882 0.18245015 4290528000
2.2553263 -0.93665832 0.19175526 4290266880
2.4651713 -1.0236102 0.22368543 4291050240
2.4673543 -1.0244298 0.23769613 4291050240
2.4750955 -1.0275539 0.25203347 4291180800
2.5183496 -1.0454023 0.26998666 4291311360
2.6877141 -1.1155323 0.30229971 4291964160
3.0366836 -1.2601076 0.35717952 4293139200
3.0763631 -1.2764497 0.3772299 4293400320
3.0725648 -1.2747676 0.39169949 4293400320
3.0647435 -1.2714183 0.40515888 4293269760
3.0310564 -1.25735 0.41454738 4293139200
3.0926175 -1.2827535 0.43662095 4293400320
3.0905447 -1.2817856 0.44947067 4293400320
3.088403 -1.2807893 0.46178094 4293400320
3.0913503 -1.281901 0.47432804 4293400320
3.0776329 -1.2761091 0.48373389 4293400320
3.0559061 -1.2670004 0.49119639 4293269760
3.0915661 -1.2816613 0.50736624 4293400320
3.0837686 -1.2783219 0.5159108 4293400320
3.088939 -1.2803527 0.52602029 4293400320
3.0875978 -1.279687 0.53442299 4293400320
3.084933 -1.278473 0.5419656 4293400320
3.077493 -1.275282 0.54801404 4293400320
3.0866358 -1.2789561 0.55638057 4293530880
3.0815613 -1.2767441 0.561544 4293400320
3.0790455 -1.2755915 0.56650329 4293400320
3.0829082 -1.2770785 0.57197529 4293400320
3.0695813 -1.2714517 0.5735749 4293400320
3.0818365 -1.2764109 0.5792799 4293400320
3.0691531 -1.2710509 0.57961786 4293400320
3.0734224 -1.2727048 0.58246928 4293400320
3.0773489 -1.2742165 0.58457583 4293400320
3.0772812 -1.2740755 0.5852378 4293400320
3.0727715 -1.272097 0.58436656 4293400320
3.0810986 -1.2754273 0.58524847 4293400320
3.0722537 -1.2716559 0.58218151 4293400320
3.0606909 -1.2667609 0.57792699 4293400320
3.0744562 -1.2723385 0.57777363 4293400320
3.0822344 -1.2754396 0.57579559 4293400320
3.0814896 -1.2750168 0.57154202 4293400320
3.0829015 -1.2754852 0.56701809 4293400320
3.084424 -1.2759988 0.56184638 4293400320
3.0643773 -1.2675986 0.5521248 4293400320
3.0864708 -1.2766128 0.54934663 4293400320
3.0756609 -1.27203 0.54004753 4293400320
3.056895 -1.2641608 0.52879798 4293400320
3.067677 -1.2684991 0.52206761 4293400320
3.0731213 -1.2706317 0.51377773 4293400320
3.0961154 -1.2800122 0.50774056 4293530880
3.0935049 -1.2788163 0.4968527 4293400320
3.0850897 -1.2752233 0.48449987 4293400320
2.5321417 -1.0461543 0.32901362 4291311360
2.4950545 -1.0307533 0.31225088 4291180800
2.4651248 -1.018308 0.29635844 4291050240
2.4209263 -0.99997824 0.27878693 4290919680
2.400084 -0.99128675 0.26392841 4290789120
2.3851466 -0.98503226 0.24961297 4290789120
2.3935218 -0.98839384 0.23749706 4290789120
2.3607054 -0.97476739 0.22115943 4290658560
2.3161838 -0.95631659 0.20391065 4290528000
2.3395946 -0.96587908 0.19254605 4290658560
2.3091948 -0.95325458 0.17657314 4290528000
2.2793474 -0.94086015 0.16080141 4290397440
2.2534034 -0.93007684 0.14546053 4290266880
2.2800326 -0.94096446 0.13335834 4290397440
2.263181 -0.93393028 0.11849903 4290266880
2.1664324 -0.89397287 0.10000982 4290005760
2.1908443 -0.903947 0.087478094 4290005760
2.2015393 -0.90826762 0.074079938 4290136320
2.1730745 -0.89645475 0.059385519 4290005760
2.0537765 -0.8472271 0.043056652 4289483520
2.1326938 -0.87965202 0.031143457 4289875200
2.1453478 -0.88478011 0.017626621 4289875200
2.0802145 -0.8578732 0.0037645083 4289614080
2.0593982 -0.84921998 -0.0094608413 4289614080
2.0758431 -0.85591024 -0.022809638 4289614080
2.067101 -0.85222983 -0.035915479 4289614080
2.0141356 -0.83034521 -0.047836613 4289352960
2.1110022 -0.87013853 -0.063494891 4289744640
2.134197 -0.87960231 -0.077653274 4289875200
2.0960324 -0.86381251 -0.089423127 4289744640
2.1096921 -0.86935145 -0.1031376 4289744640
2.157244 -0.88883477 -0.11876584 4289875200
2.1566236 -0.88849527 -0.13192005 4289875200
2.1343639 -0.87925386 -0.14347768 4289875200
2.0569932 -0.84734446 -0.15059832 4289614080
2.2208273 -0.91465026 -0.17563127 4290136320
2.2384019 -0.92179161 -0.19002442 4290266880
2.2150135 -0.91208649 -0.20071596 4290136320
2.2060475 -0.90831363 -0.21230648 4290136320
2.1447976 -0.88304502 -0.21826406 4289875200
2.2823429 -0.93950838 -0.24454321 4290397440
2.241349 -0.92256844 -0.2520135 4290266880
2.2055936 -0.907785 -0.25939199 4290136320
2.1903813 -0.90144753 -0.26863086 4290136320
2.2277901 -0.91673636 -0.28411135 4290266880
2.3121789 -0.95132744 -0.3058328 4290528000
2.3238533 -0.95603526 -0.31807664 4290528000
2.3584478 -0.97015876 -0.3333005 4290658560
2.3272853 -0.95726663 -0.338902 4290658560
2.4095104 -0.99095267 -0.36079556 4290919680
2.4871626 -1.0227544 -0.38224524 4291180800
2.5518796 -1.0492381 -0.40183082 4291441920
2.6293769 -1.080965 -0.42349198 4291703040
2.6766601 -1.1002802 -0.44025624 4291964160
2.6440668 -1.0867966 -0.4434638 4291833600
2.7087588 -1.1132549 -0.46253738 4292094720
2.6823881 -1.1023272 -0.46568403 4291964160
2.7252166 -1.1198056 -0.4803226 4292094720
2.7808602 -1.1425403 -0.49691105 4292355840
2.7394855 -1.1254562 -0.49566635 4292225280
2.7870274 -1.1448623 -0.50990891 4292355840
2.7415299 -1.1260899 -0.50658435 4292225280
2.7718878 -1.1384425 -0.51662767 4292355840
2.7886462 -1.1452142 -0.52361268 4292355840
2.7155859 -1.1151412 -0.51309294 4292094720
2.7152159 -1.1148887 -0.51559824 4292094720
2.7322516 -1.121775 -0.52081364 4292094720
2.7238674 -1.1182359 -0.52059352 4292094720
2.7192245 -1.1162317 -0.5204742 4292094720
2.7963514 -1.147755 -0.53537238 4292355840
2.770036 -1.1368637 -0.52988666 4292355840
2.7347033 -1.1222781 -0.52207899 4292225280
2.8016002 -1.1495997 -0.53311509 4292355840
2.7491384 -1.1279951 -0.52086169 4292225280
2.8128574 -1.1540093 -0.52994877 4292486400
2.7696834 -1.1362149 -0.5183053 4292225280
2.726579 -1.1184523 -0.50619137 4292094720
2.7480323 -1.1271439 -0.50547957 4292225280
2.6877272 -1.1023386 -0.48925087 4291964160
2.706311 -1.1098549 -0.486864 4292094720
2.6634521 -1.0922023 -0.47294351 4291833600
2.5987043 -1.0655875 -0.45486337 4291703040
2.5444493 -1.043275 -0.43840584 4291441920
2.4925172 -1.0219176 -0.42214578 4291180800
2.4310117 -0.99664408 -0.40412974 4291050240
2.4010377 -0.98428535 -0.39117408 4290919680
2.380229 -0.97568113 -0.37943485 4290789120
2.311451 -0.94744152 -0.35996294 4290528000
2.3034658 -0.9440915 -0.34981108 4290528000
