# .PCD v0.7 - Point Cloud Data file format
VERSION 0.7
FIELDS x y z rgba
SIZE 4 4 4 4
TYPE F F F U
COUNT 1 1 1 1
WIDTH 1103
HEIGHT 1
VIEWPOINT 0 0 0 1 0 0 0
POINTS 1103
DATA ascii
3.3080635 0.21746534 -0.50172246 4293400320
3.2861633 0.21612936 -0.5082593 4293269760
3.2646866 0.21481985 -0.51415116 4293269760
3.2293668 0.21259765 -0.51711673 4293139200
3.1875148 0.20994301 -0.51824325 4293008640
3.1574965 0.20806549 -0.52052331 4292878080
3.1285038 0.20625372 -0.52224088 4292747520
3.1413155 0.20719749 -0.53029436 4292878080
3.1827383 0.21003009 -0.54265487 4293008640
3.116354 0.20574769 -0.53597337 4292747520
3.1304266 0.20677558 -0.54242367 4292747520
3.1485276 0.20807056 -0.54897636 4292878080
3.1529675 0.20846345 -0.55252892 4292878080
3.1575134 0.20886365 -0.55546075 4292878080
3.1425138 0.20797059 -0.55430001 4292878080
3.1423659 0.20805998 -0.55510283 4292878080
3.128572 0.20724538 -0.55284399 4292747520
3.1001482 0.20546032 -0.54735583 4292747520
3.1609626 0.20959049 -0.55696487 4292878080
3.1425848 0.20847112 -0.55195677 4292878080
3.1193967 0.20703129 -0.54548603 4292747520
3.1576324 0.20966859 -0.54909915 4292878080
3.1695271 0.21055843 -0.54743886 4292878080
3.186537 0.21178898 -0.5459857 4293008640
3.2251284 0.21445568 -0.54750949 4293139200
3.2551184 0.21655259 -0.54682159 4293269760
3.2533238 0.21653587 -0.54010898 4293139200
3.2832153 0.21862899 -0.53796887 4293269760
3.3361433 0.22225872 -0.53879118 4293530880
3.4264247 0.22838153 -0.54466945 4293792000
3.5079973 0.23392929 -0.5480836 4294053120
3.5762973 0.23859669 -0.54837292 4294314240
3.5953548 0.23998159 -0.54022497 4294314240
3.627733 0.24225724 -0.53329587 4294444800
3.6165574 0.24162507 -0.51928771 4294444800
3.5981293 0.24050741 -0.50375074 4294314240
3.5759943 0.2391407 -0.48727104 4294314240
3.5952983 0.24054509 -0.47589323 4294314240
3.6166241 0.24208604 -0.46408367 4294314240
3.6158419 0.24214777 -0.44883108 4294314240
3.5833549 0.24008526 -0.42928249 4294314240
3.5903683 0.24066845 -0.41409421 4294314240
3.6151347 0.24244267 -0.40034556 4294314240
3.6245849 0.24319081 -0.38429624 4294314240
3.6231353 0.24320789 -0.3666265 4294314240
3.563498 0.2393171 -0.34296429 4294183680
3.6036723 0.24212885 -0.32862112 4294314240
3.6075652 0.24250425 -0.31038395 4294314240
3.6107776 0.24283415 -0.29170981 4294314240
3.5749516 0.24053758 -0.26973596 4294183680
3.599364 0.24229373 -0.25207072 4294314240
3.6182978 0.24368247 -0.23350997 4294314240
3.5975616 0.24239947 -0.21214578 4294183680
3.6051152 0.2430222 -0.19229175 4294314240
3.6090217 0.24339944 -0.17196947 4294314240
3.6062713 0.24332774 -0.15113693 4294314240
3.6092618 0.24364343 -0.13037971 4294314240
3.590802 0.24251063 -0.10879672 4294183680
3.6156828 0.2443051 -0.088371024 4294314240
3.6267717 0.24516882 -0.067301743 4294314240
3.5914123 0.24289188 -0.045441344 4294183680
3.6206439 0.24498311 -0.024384886 4294314240
3.6409717 0.24647345 -0.0029486534 4294314240
3.6304607 0.24587649 0.018573981 4294314240
3.5634832 0.24145286 0.039328966 4294053120
3.6473143 0.24724814 0.061804842 4294444800
3.6582708 0.24810633 0.083539121 4294444800
3.6514988 0.24776229 0.1048033 4294444800
3.4707427 0.23560713 0.11986635 4293792000
3.6566148 0.24834023 0.14748473 4294444800
3.662349 0.24884526 0.16878848 4294444800
3.6197093 0.24606226 0.18746966 4294314240
3.2983093 0.2243181 0.18945163 4293269760
3.66627 0.24945882 0.2310638 4294444800
3.6671028 0.24963121 0.25134602 4294444800
3.6159508 0.24626328 0.26751709 4294314240
3.2973685 0.22467038 0.26162413 4293269760
3.6905825 0.25157899 0.3122865 4294575360
3.6848214 0.25130257 0.33088946 4294575360
3.6704304 0.25043696 0.34825 4294575360
3.4794333 0.23751487 0.34744576 4293922560
3.3284397 0.22731273 0.34856597 4293400320
3.6771805 0.25124571 0.40255487 4294575360
3.6665201 0.25063306 0.41835788 4294575360
3.6342847 0.24854425 0.43103752 4294444800
3.5465477 0.24265596 0.43612358 4294183680
3.3961835 0.23247518 0.4319993 4293661440
3.6818082 0.25214297 0.48337823 4294575360
3.672936 0.25165129 0.49667969 4294575360
3.6522939 0.25035226 0.50771409 4294575360
3.6178389 0.24810469 0.51604873 4294444800
3.5643578 0.24454956 0.52077156 4294183680
3.5155931 0.24131478 0.52524287 4294053120
3.6751885 0.25238562 0.56058115 4294575360
3.6722219 0.25229782 0.57097083 4294575360
3.6642525 0.25186595 0.57989514 4294575360
3.6494846 0.25096604 0.58701479 4294575360
3.6404989 0.25046304 0.5943265 4294575360
3.6403422 0.25056717 0.60236973 4294575360
3.6489863 0.25127733 0.61118776 4294575360
3.62677 0.24986193 0.61410367 4294444800
3.6405392 0.25092545 0.62238008 4294575360
3.5871837 0.24736114 0.61840171 4294314240
3.5913517 0.24776192 0.62354714 4294314240
3.5995674 0.24844234 0.62868053 4294444800
3.5990574 0.24852073 0.63156295 4294444800
3.6084967 0.24928644 0.63545787 4294444800
3.5895672 0.24809204 0.63361108 4294314240
3.5982749 0.24880745 0.63589466 4294444800
3.5796001 0.24762915 0.63259608 4294314240
3.5708761 0.24713837 0.63031685 4294314240
3.6412537 0.2521241 0.64123482 4294575360
3.6278715 0.25131202 0.63663101 4294444800
3.6445568 0.25258291 0.63655323 4294575360
3.6391304 0.25232172 0.63186103 4294575360
3.6622066 0.25403732 0.63135678 4294575360
3.6576681 0.25383797 0.62533325 4294575360
3.6634471 0.25435466 0.62034196 4294575360
3.6729133 0.25512785 0.61522639 4294705920
3.6715853 0.25515151 0.60757339 4294575360
3.6647027 0.25478888 0.59831446 4294575360
3.6611552 0.25465783 0.5889312 4294575360
3.6569986 0.25448415 0.57878894 4294575360
3.6462724 0.25385284 0.56698012 4294575360
3.6646552 0.25524834 0.55902094 4294575360
3.6770339 0.2562266 0.54941148 4294575360
3.6777394 0.25639185 0.53738791 4294575360
3.6252775 0.25347325 0.43871891 4294444800
3.6456318 0.2550115 0.42503521 4294444800
3.670424 0.25686157 0.4111903 4294575360
3.6633439 0.25648177 0.39323628 4294444800
3.632057 0.25440592 0.37242982 4294444800
3.6149464 0.25332156 0.35289827 4294314240
3.6487787 0.25580758 0.33786348 4294444800
3.6464589 0.25576004 0.31895015 4294444800
3.6238377 0.25428784 0.29804003 4294314240
3.6116393 0.25354588 0.27784276 4294314240
3.6397612 0.25563502 0.26035589 4294444800
3.6388342 0.25568479 0.24035969 4294444800
3.6097596 0.25375581 0.21840836 4294314240
3.6341922 0.25558808 0.19948076 4294314240
3.6527669 0.25700974 0.17977209 4294444800
3.6601186 0.25764257 0.15916844 4294444800
3.5898166 0.25280723 0.1353792 4294183680
3.6258888 0.25546202 0.11565114 4294314240
3.6237876 0.25542837 0.094382912 4294314240
3.6262136 0.25571388 0.073128611 4294314240
3.5933757 0.25351167 0.051263649 4294183680
3.6108959 0.25486171 0.030151833 4294314240
3.613621 0.25516814 0.0087640816 4294314240
3.5740249 0.25248501 -0.012517291 4294183680
3.5895164 0.25369272 -0.033835258 4294183680
3.6068773 0.25503358 -0.055328894 4294314240
3.6208873 0.25613853 -0.076896839 4294314240
3.5878847 0.25391722 -0.097272232 4294183680
3.6192853 0.25625375 -0.11927839 4294314240
3.6284957 0.25702041 -0.14066142 4294314240
3.6424377 0.25812301 -0.16220964 4294444800
3.5891452 0.25445974 -0.18036363 4294183680
3.6103086 0.25607413 -0.20187859 4294314240
3.624357 0.25718501 -0.22297496 4294314240
3.6187398 0.25690067 -0.24266633 4294314240
3.598182 0.25555485 -0.26094767 4294314240
3.6288867 0.25785017 -0.2827144 4294314240
3.6512051 0.25955129 -0.30380166 4294444800
3.6552172 0.25995192 -0.32317123 4294444800
3.6314077 0.25837329 -0.33962446 4294444800
3.6240416 0.25796363 -0.3570821 4294314240
3.6394217 0.2591733 -0.37642431 4294444800
3.635246 0.25899073 -0.39338157 4294444800
3.6372466 0.25924811 -0.41055885 4294444800
3.6040568 0.25699627 -0.4231647 4294314240
3.6485395 0.26028344 -0.4444623 4294444800
3.6501923 0.26051658 -0.46024674 4294444800
3.6407015 0.25995421 -0.47407618 4294444800
3.6421075 0.2601696 -0.48875606 4294444800
3.6095595 0.25795856 -0.49820742 4294314240
3.2100739 0.22951052 -0.45485568 4293008640
3.1633396 0.22626904 -0.45933908 4292878080
3.1144588 0.22287101 -0.46265924 4292747520
3.1157091 0.22305886 -0.47273779 4292747520
3.0833158 0.22083715 -0.4770765 4292616960
3.0677834 0.21982153 -0.4833346 4292486400
3.0318487 0.21734238 -0.48568279 4292486400
3.0406737 0.21807103 -0.49456722 4292486400
3.0430465 0.21833728 -0.5018571 4292486400
3.0131192 0.21628517 -0.50318158 4292355840
3.0456319 0.21871513 -0.51434809 4292486400
3.0027976 0.2157339 -0.51218075 4292355840
3.0256443 0.21747085 -0.52058154 4292486400
3.0397301 0.21857928 -0.52691996 4292486400
3.0578399 0.21997806 -0.53337848 4292486400
2.9469807 0.21209602 -0.51663941 4292225280
2.9702137 0.21386191 -0.52272189 4292225280
2.9699695 0.21393813 -0.52407634 4292225280
3.0566251 0.22027679 -0.54017413 4292486400
3.0467663 0.2196625 -0.53860527 4292486400
3.0232627 0.21806346 -0.53399634 4292486400
2.9910226 0.21583247 -0.52723396 4292355840
3.0519156 0.22032291 -0.53624821 4292486400
3.0139866 0.2176799 -0.52726591 4292355840
3.0384312 0.21954134 -0.528584 4292486400
2.9967585 0.21662492 -0.51780754 4292355840
3.002665 0.21714672 -0.51468885 4292355840
3.0341303 0.21951804 -0.51529336 4292486400
3.0502555 0.22078103 -0.51261443 4292486400
3.0659077 0.22201076 -0.50920069 4292616960
3.0811634 0.22321276 -0.50506634 4292616960
3.1207035 0.22617577 -0.50420165 4292747520
3.1540148 0.22868967 -0.50157005 4292878080
3.2700605 0.23720711 -0.51111603 4293269760
3.4853451 0.25293374 -0.53464365 4293922560
3.596858 0.26113987 -0.54067028 4294314240
3.6248679 0.26328793 -0.53309113 4294444800
3.6329453 0.26398936 -0.52185279 4294444800
3.6149395 0.26279512 -0.50630999 4294444800
3.5883763 0.26097739 -0.48915711 4294314240
3.6205361 0.26343068 -0.47942889 4294444800
3.6237578 0.26377955 -0.46518838 4294444800
3.6283128 0.26422569 -0.45056254 4294444800
3.5959768 0.26198444 -0.43097013 4294314240
3.6022797 0.26255742 -0.4156374 4294314240
3.6262493 0.26441899 -0.40174019 4294444800
3.6379838 0.26538956 -0.38587424 4294444800
3.6225717 0.26437965 -0.3667191 4294314240
3.5761597 0.26110542 -0.34432349 4294183680
3.6107316 0.26374364 -0.32939941 4294314240
3.6110594 0.26388165 -0.31081158 4294314240
3.6142721 0.26423055 -0.29211152 4294314240
3.5784621 0.2617256 -0.27011129 4294183680
3.6065457 0.26389351 -0.25267705 4294314240
3.6181118 0.2648541 -0.2335936 4294314240
3.6199827 0.2651054 -0.2135554 4294314240
3.6086178 0.26438707 -0.19255747 4294314240
3.6115272 0.2647143 -0.17215943 4294314240
3.6197391 0.26543051 -0.1517636 4294314240
3.6097617 0.26481292 -0.13045129 4294314240
3.5973065 0.26401281 -0.10903855 4294183680
3.6181862 0.26565948 -0.088468537 4294314240
3.6252818 0.26629499 -0.067301743 4294314240
3.6088836 0.26520446 -0.045681179 4294314240
3.6191549 0.26607355 -0.024384886 4294314240
3.6358941 0.26741904 -0.0029457533 4294314240
3.6359348 0.26753688 0.018609647 4294314240
3.5759776 0.26323807 0.039483115 4294183680
3.6625609 0.26972744 0.06208878 4294444800
3.6717186 0.27051783 0.083880782 4294444800
3.6500084 0.26903358 0.10480373 4294444800
3.4792781 0.25655934 0.12021071 4293792000
3.6690567 0.27066937 0.14804766 4294444800
3.6703026 0.27087724 0.1692249 4294444800
3.6194923 0.26724163 0.18753588 4294314240
3.320842 0.24529599 0.19082475 4293269760
3.6660497 0.27091074 0.23114546 4294444800
3.6703427 0.27134395 0.25167218 4294444800
3.6194277 0.26769418 0.26788515 4294314240
3.3198633 0.24564317 0.26351804 4293269760
3.7029662 0.27410665 0.31346422 4294575360
3.7071338 0.27453226 0.33303106 4294575360
3.6545062 0.27075034 0.34688288 4294444800
3.4928756 0.25888601 0.34893277 4293922560
3.340945 0.2477307 0.3500208 4293400320
3.7044039 0.27479815 0.40570351 4294705920
3.680938 0.27317369 0.42017746 4294575360
3.6289663 0.26943135 0.43058562 4294444800
3.4741056 0.25804353 0.4273929 4293922560
3.4086218 0.25328732 0.43376181 4293661440
3.7040079 0.27535382 0.48649517 4294705920
3.6901851 0.27444279 0.49921998 4294705920
3.6646025 0.27265596 0.5096373 4294575360
3.6212685 0.26954621 0.51675314 4294444800
3.5059361 0.26107228 0.51244938 4294053120
3.4269722 0.25530043 0.51221609 4293792000
3.6821065 0.2744236 0.56187069 4294705920
3.6795588 0.27434993 0.57235038 4294705920
3.6725731 0.27394512 0.58145469 4294575360
3.6578069 0.2729592 0.58859921 4294575360
3.6478362 0.2723304 0.59577328 4294575360
3.6388206 0.2717723 0.60236973 4294575360
3.6563127 0.27319422 0.61267108 4294575360
3.6350856 0.271723 0.61576927 4294575360
3.6527777 0.2731609 0.62473381 4294575360
3.5807676 0.26788899 0.61755425 4294314240
3.5986905 0.26934355 0.62508315 4294444800
3.607883 0.27014554 0.63039702 4294444800
3.6073711 0.27022117 0.63328737 4294444800
3.6069829 0.27030605 0.63545787 4294444800
3.6165414 0.27113661 0.63864046 4294444800
3.6016746 0.27013579 0.63676274 4294444800
3.5928276 0.26958576 0.63520044 4294444800
3.5880353 0.26933953 0.63361192 4294314240
3.6357944 0.27303949 0.64054269 4294575360
3.6125941 0.27141136 0.63421685 4294444800
3.6469529 0.2741079 0.63723981 4294575360
3.66118 0.2752929 0.63595712 4294575360
3.6695094 0.27603513 0.63288224 4294705920
3.664974 0.27580976 0.62684637 4294575360
3.6717355 0.2764346 0.62200761 4294705920
3.6762822 0.27689305 0.61605048 4294705920
3.6749558 0.27690926 0.60838777 4294705920
3.6818557 0.27754551 0.60136873 4294705920
3.6881618 0.27813742 0.59352612 4294705920
3.6653037 0.27652937 0.58034849 4294575360
3.6595123 0.27620807 0.56927937 4294575360
3.6680348 0.27696723 0.55977315 4294575360
3.6858358 0.27842781 0.55095971 4294705920
3.6899972 0.27885875 0.53940731 4294705920
3.6475143 0.27617779 0.44159535 4294444800
3.6629193 0.27745992 0.42722929 4294575360
3.6738365 0.27840298 0.41174382 4294575360
3.6806419 0.279035 0.39525646 4294575360
3.6354895 0.27572677 0.37293482 4294444800
3.6412139 0.27627599 0.35560733 4294444800
3.657172 0.27760237 0.3387773 4294444800
3.6588306 0.27784386 0.32015997 4294444800
3.6272805 0.27556261 0.29844067 4294314240
3.6290073 0.27580848 0.27928716 4294314240
3.6481729 0.27738038 0.26105699 4294444800
3.6472492 0.27742538 0.2410053 4294444800
3.6132133 0.27495062 0.21869658 4294314240
3.6427381 0.27731246 0.20001988 4294444800
3.6530139 0.27821016 0.17984451 4294444800
3.668534 0.27950805 0.15958478 4294444800
3.6072311 0.27495134 0.13607542 4294314240
3.6293387 0.2767511 0.11579075 4294314240
3.6272383 0.27670556 0.094492123 4294314240
3.6386354 0.27768996 0.073388226 4294314240
3.600827 0.27491832 0.051368758 4294183680
3.6183395 0.27636972 0.030202525 4294314240
3.6270454 0.27714929 0.0087748552 4294314240
3.5777133 0.27349278 -0.012561834 4294183680
3.5979638 0.2751545 -0.033956856 4294183680
3.6229908 0.27718294 -0.055628538 4294314240
3.6233366 0.27732387 -0.077011466 4294314240
3.5863595 0.27460703 -0.097302824 4294183680
3.6177461 0.27712461 -0.1193102 4294314240
3.6319332 0.27832615 -0.14088747 4294314240
3.6408868 0.27912736 -0.16224343 4294444800
3.5965786 0.27584413 -0.18084835 4294183680
3.6227069 0.27796257 -0.2026934 4294314240
3.6317677 0.27877256 -0.22356211 4294314240
3.6261489 0.27845582 -0.24330342 4294314240
3.60659 0.27706787 -0.26170594 4294314240
3.6511936 0.28060982 -0.28461152 4294444800
3.6635551 0.28167564 -0.30499777 4294444800
3.6586196 0.28141177 -0.32364887 4294444800
3.6298537 0.27931386 -0.33966276 4294444800
3.6324122 0.27962554 -0.35809866 4294444800
3.6467884 0.28084746 -0.37738657 4294444800
3.6436005 0.2807171 -0.39449328 4294444800
3.6406403 0.28060409 -0.41115665 4294444800
3.6025102 0.27777904 -0.42320243 4294314240
3.6519217 0.28170446 -0.44510332 4294444800
3.6535704 0.28194708 -0.46090814 4294444800
3.6480355 0.28163525 -0.4752723 4294444800
3.6217654 0.27972162 -0.48627126 4294444800
3.5560479 0.2747584 -0.49106732 4294183680
3.0701337 0.23731121 -0.4352431 4292486400
3.0311239 0.23439167 -0.44035798 4292355840
3.0059965 0.23254362 -0.44676623 4292355840
3.0089273 0.23286544 -0.45675886 4292355840
2.9929097 0.23172039 -0.46331254 4292355840
2.9845066 0.23116413 -0.47044066 4292225280
2.954422 0.2289273 -0.47350591 4292225280
2.9719777 0.23038156 -0.48362345 4292225280
2.9469178 0.22853211 -0.48623294 4292094720
2.9695301 0.23037954 -0.49613467 4292225280
2.9128723 0.22607602 -0.49215645 4292094720
2.9641514 0.23014961 -0.50582242 4292225280
2.8765864 0.22344162 -0.49516207 4291964160
2.8808739 0.22386569 -0.4996103 4291964160
2.8990047 0.22536622 -0.50590104 4291964160
2.9123161 0.22649308 -0.51079077 4292094720
2.9119754 0.22655861 -0.51269996 4292094720
2.9353013 0.2284662 -0.51818663 4292094720
2.8880341 0.22487848 -0.51060271 4291964160
2.8879995 0.22496708 -0.51075894 4291964160
2.8694117 0.22360982 -0.50703835 4291964160
2.9514344 0.23009504 -0.52047569 4292225280
2.9193039 0.22768241 -0.51316184 4292094720
2.9802723 0.23253165 -0.52158362 4292225280
2.942445 0.22967324 -0.51209497 4292094720
2.9194388 0.22796975 -0.50465125 4292094720
2.948972 0.23036911 -0.5056867 4292225280
2.9649398 0.23171021 -0.50374049 4292225280
2.9781458 0.2328364 -0.5006898 4292225280
2.9776051 0.23288824 -0.49472356 4292225280
2.9988024 0.23464094 -0.49175009 4292355840
3.0235314 0.23667143 -0.48868197 4292355840
3.0483506 0.23871054 -0.48494208 4292486400
3.1066742 0.24337594 -0.48575065 4292747520
3.3325632 0.26117736 -0.51138461 4293400320
3.5716374 0.28002682 -0.53706115 4294314240
3.638093 0.28535211 -0.53521287 4294444800
3.6313705 0.28493965 -0.52179426 4294444800
3.6232457 0.28441665 -0.5076316 4294444800
3.5966985 0.28244644 -0.49043947 4294314240
3.6189656 0.28430945 -0.47936025 4294444800
3.6409736 0.28615353 -0.46752882 4294444800
3.6306953 0.28546047 -0.45097852 4294444800
3.5892489 0.28231525 -0.43027255 4294314240
3.6155705 0.28449988 -0.41727021 4294314240
3.6395366 0.28650075 -0.40330175 4294444800
3.6453245 0.28707162 -0.3867318 4294444800
3.634882 0.28636417 -0.36803329 4294444800
3.59445 0.28329247 -0.34614101 4294314240
3.6105597 0.28467625 -0.32942957 4294314240
3.6144524 0.28509742 -0.31113848 4294314240
3.6176648 0.28546518 -0.29240954 4294314240
3.5908182 0.28346026 -0.27105653 4294183680
3.6102431 0.28510779 -0.25293756 4294314240
3.6165314 0.28571871 -0.23348175 4294314240
3.6273568 0.28668863 -0.21396929 4294314240
3.6159983 0.28590524 -0.19291897 4294314240
3.6136291 0.28583214 -0.17221606 4294314240
3.6311877 0.28733578 -0.15218855 4294314240
3.6301084 0.28736514 -0.13112031 4294314240
3.5957277 0.28475717 -0.10891395 4294183680
3.6315455 0.28770852 -0.088706538 4294314240
3.6336548 0.28799051 -0.067357421 4294314240
3.6172636 0.28680572 -0.045677006 4294314240
3.6377983 0.28854889 -0.024388747 4294314240
3.6442599 0.28917664 -0.0028197824 4294444800
3.6542678 0.2900863 0.018847266 4294444800
3.5843663 0.28465062 0.039727099 4294183680
3.674896 0.29195619 0.062463488 4294444800
3.6752007 0.29209659 0.084136195 4294444800
3.6583564 0.2908735 0.10522849 4294444800
3.4916835 0.27773184 0.12082531 4293922560
3.6674287 0.29182673 0.14818692 4294444800
3.6686728 0.29204169 0.16936415 4294444800
3.6228611 0.28850943 0.18793115 4294314240
3.3233457 0.26476234 0.19117913 4293269760
3.6783457 0.29316056 0.23216234 4294575360
3.6726854 0.29282555 0.25208238 4294444800
3.6277547 0.2893579 0.26875588 4294314240
3.3233504 0.265183 0.26403487 4293269760
3.7013123 0.29545906 0.31359902 4294575360
3.7002947 0.29549482 0.33269852 4294575360
3.6811614 0.29408327 0.34970006 4294575360
3.5002394 0.2797403 0.34994742 4293922560
3.35432 0.26818442 0.35169488 4293400320
3.697789 0.29576236 0.40528551 4294575360
3.6891916 0.29519135 0.42143053 4294575360
3.6372371 0.2911492 0.43187833 4294444800
3.4913445 0.27958134 0.42981669 4293922560
3.4169796 0.27373439 0.43512568 4293661440
3.7023437 0.29671198 0.48660553 4294705920
3.6885264 0.29572123 0.49932647 4294705920
3.6629548 0.29378691 0.5097394 4294575360
3.6383901 0.29193172 0.51952761 4294444800
3.504359 0.28128836 0.51253957 4294053120
3.5263488 0.28316492 0.52739358 4294053120
3.6991727 0.29715961 0.5648157 4294705920
3.6877525 0.29635879 0.57396501 4294705920
3.6847041 0.29623035 0.58371508 4294705920
3.666002 0.29484269 0.59025544 4294575360
3.6658702 0.29494801 0.59905505 4294575360
3.6657028 0.29505047 0.60715473 4294575360
3.6483057 0.29376552 0.61166078 4294575360
3.6422949 0.29339671 0.61731899 4294575360
3.6560466 0.29462004 0.62561971 4294575360
3.612556 0.29122961 0.62335616 4294444800
3.6068928 0.29088712 0.62682319 4294444800
3.6200075 0.29205924 0.63282782 4294444800
3.615567 0.29181531 0.63503337 4294444800
3.6240139 0.29261166 0.63876104 4294444800
3.6149158 0.29199138 0.63864982 4294444800
3.604964 0.29130152 0.63763398 4294444800
3.6049559 0.29141486 0.63762796 4294444800
3.6001668 0.29114157 0.63603032 4294444800
3.6616497 0.29622939 0.64537132 4294575360
3.6433723 0.29486597 0.63988465 4294575360
3.6649551 0.29672861 0.6406433 4294705920
3.6557605 0.29609978 0.63526458 4294575360
3.65046 0.2957859 0.62983644 4294575360
3.6819992 0.29845783 0.6299907 4294705920
3.6799176 0.2984055 0.6236164 4294705920
3.6883979 0.2992098 0.61829406 4294705920
3.6831431 0.29889998 0.60994595 4294705920
3.6900439 0.2995767 0.60289866 4294705920
3.6727321 0.29828736 0.59122384 4294575360
3.6725225 0.29838651 0.58166122 4294575360
3.6667378 0.29803243 0.57056159 4294575360
3.6801872 0.29924202 0.56177485 4294705920
3.6930575 0.30040529 0.55217499 4294705920
3.6982076 0.30094117 0.54073137 4294705920
3.6458259 0.29763731 0.44159535 4294444800
3.661006 0.29899237 0.42720485 4294575360
3.6873987 0.30126446 0.41345719 4294575360
3.687855 0.30141836 0.39621753 4294575360
3.652642 0.29865584 0.374872 4294444800
3.6494446 0.29850981 0.35658139 4294444800
3.6693687 0.3002556 0.34007096 4294575360
3.6670606 0.30018267 0.32103631 4294444800
3.6305621 0.29730976 0.29885769 4294444800
3.6273208 0.29715905 0.27929655 4294314240
3.6517467 0.29927561 0.26144496 4294444800
3.6495309 0.29920942 0.24128018 4294444800
3.6254597 0.29735059 0.21955304 4294314240
3.6509941 0.29956031 0.20058098 4294444800
3.6652491 0.30084583 0.1805467 4294444800
3.6668251 0.30109116 0.15960182 4294444800
3.6244729 0.29772818 0.1368077 4294314240
3.6366119 0.29884034 0.11609636 4294314240
3.6355097 0.29886475 0.094772495 4294314240
3.6419201 0.2995069 0.073510751 4294444800
3.6091118 0.29692295 0.051534005 4294314240
3.6315992 0.29888788 0.030351734 4294314240
3.6253517 0.29848835 0.0088003706 4294314240
3.5899947 0.29569083 -0.012584435 4294183680
3.6093247 0.29739711 -0.034052327 4294314240
3.6312625 0.29931957 -0.05575268 4294314240
3.6266246 0.29905197 -0.077087454 4294314240
3.6085923 0.29767919 -0.097921044 4294314240
3.6309948 0.29964203 -0.11977123 4294314240
3.6441758 0.30084506 -0.14139558 4294444800
3.6491389 0.3013702 -0.16265343 4294444800
3.6053474 0.29786766 -0.18133993 4294314240
3.6272805 0.29979447 -0.20300919 4294314240
3.6400139 0.300962 -0.22413874 4294444800
3.6443374 0.30143476 -0.24460182 4294444800
3.6088758 0.29861575 -0.26195779 4294314240
3.6494823 0.30209115 -0.28457385 4294444800
3.6680956 0.30374795 -0.30548081 4294444800
3.6717947 0.3041704 -0.32492822 4294575360
3.6519654 0.30264327 -0.34185371 4294444800
3.6454985 0.30222267 -0.35951889 4294444800
3.6513231 0.30282104 -0.37799457 4294444800
3.655761 0.30330473 -0.39595714 4294444800
3.662698 0.30399612 -0.41380349 4294575360
3.6245728 0.30094647 -0.4259564 4294444800
3.6550658 0.3035939 -0.44565803 4294575360
3.6572025 0.30388707 -0.46154583 4294575360
3.6433516 0.30285141 -0.47484857 4294444800
3.6153393 0.30063727 -0.48560101 4294444800
3.5381026 0.29432648 -0.48878482 4294183680
3.0410593 0.25307482 -0.43129551 4292486400
2.9965522 0.24946576 -0.43551293 4292355840
2.9763811 0.24788065 -0.44254655 4292225280
2.9691806 0.24737491 -0.45091221 4292225280
2.9321847 0.24438538 -0.45410201 4292094720
2.9207661 0.24352609 -0.46058765 4292094720
2.8768823 0.23995818 -0.4612748 4291964160
2.8944585 0.24151576 -0.47121102 4291964160
2.8376577 0.23686601 -0.4684079 4291833600
2.8602948 0.23884608 -0.4780927 4291833600
2.8829963 0.24083295 -0.48732299 4291964160
2.8052068 0.23442349 -0.47891152 4291703040
2.8182585 0.23560335 -0.48533893 4291703040
2.851032 0.23843338 -0.49465829 4291833600
2.8603227 0.23930085 -0.49937809 4291833600
2.7596858 0.23096864 -0.48424339 4291572480
2.7554359 0.23070014 -0.48536372 4291572480
2.8544111 0.23907718 -0.50414246 4291833600
2.8680148 0.24030732 -0.50730288 4291964160
2.8355944 0.23768055 -0.50173002 4291833600
2.825846 0.23695283 -0.49958056 4291703040
2.8024557 0.23508018 -0.49444416 4291703040
2.7840674 0.23362578 -0.48963004 4291572480
2.8662565 0.24061337 -0.50187844 4291833600
2.8382463 0.23835181 -0.49420825 4291833600
2.8895657 0.24275297 -0.49974069 4291964160
2.8627183 0.24058807 -0.4911477 4291833600
2.9060752 0.2443238 -0.49399543 4291964160
2.943306 0.24754705 -0.49509206 4292094720
2.9624157 0.249248 -0.4924612 4292225280
2.9741511 0.25032946 -0.48796985 4292225280
2.9890208 0.25167561 -0.48336715 4292355840
3.0232675 0.25465482 -0.48121709 4292355840
3.0881383 0.26021671 -0.48312244 4292616960
3.2629511 0.27505025 -0.50098658 4293269760
3.5453696 0.29896885 -0.53341818 4294183680
3.6215539 0.30550781 -0.53309113 4294444800
3.6255913 0.3059631 -0.5212732 4294444800
3.6170611 0.30535769 -0.50707108 4294444800
3.5994673 0.30398628 -0.49111855 4294314240
3.6142538 0.30534941 -0.47903562 4294444800
3.6405036 0.30768231 -0.46776655 4294444800
3.6446795 0.30815056 -0.45301011 4294444800
3.6023569 0.30468625 -0.43213096 4294314240
3.6138244 0.30577049 -0.41735223 4294314240
3.6479807 0.30877593 -0.4045189 4294444800
3.6534715 0.3093563 -0.38787302 4294444800
3.6430385 0.30858815 -0.36912996 4294444800
3.5915024 0.30433637 -0.34611869 4294314240
3.617744 0.30667451 -0.33034274 4294314240
3.6229303 0.30722877 -0.31212026 4294314240
3.6213779 0.30721173 -0.29295528 4294314240
3.594048 0.30500695 -0.27153763 4294314240
3.6273811 0.30795053 -0.25437096 4294314240
3.628701 0.30817741 -0.2344932 4294314240
3.6305737 0.30845132 -0.21437767 4294314240
3.624197 0.30802426 -0.19356719 4294314240
3.6181502 0.30762482 -0.1726343 4294314240
3.6353157 0.3091993 -0.15255739 4294314240
3.6333289 0.3091453 -0.13142425 4294314240
3.6228683 0.30836987 -0.10991482 4294314240
3.6347671 0.30949768 -0.088956103 4294314240
3.6458421 0.31055608 -0.067746021 4294444800
3.6194968 0.3084265 -0.045857903 4294314240
3.6360364 0.30995095 -0.024521299 4294314240
3.6524589 0.31146646 -0.0029619134 4294444800
3.6475163 0.31116039 0.018686213 4294444800
3.5876122 0.30616367 0.039648276 4294183680
3.678098 0.31400204 0.062409956 4294444800
3.6872435 0.31489947 0.084313557 4294575360
3.665549 0.31316271 0.10534759 4294444800
3.50493 0.29955128 0.12120938 4293922560
3.6805871 0.3146804 0.14865078 4294575360
3.6858082 0.31524345 0.17009763 4294575360
3.6260829 0.31024995 0.18805191 4294314240
3.3366582 0.2855922 0.19191179 4293400320
3.6964533 0.31650484 0.23327912 4294575360
3.6947646 0.31647718 0.25358242 4294575360
3.6399102 0.31189379 0.2696518 4294444800
3.3366406 0.28601304 0.26509628 4293400320
3.7144132 0.31851283 0.31472602 4294705920
3.7084274 0.3181169 0.33345765 4294705920
3.6709414 0.31501746 0.34876767 4294575360
3.5134163 0.3016108 0.35131198 4294053120
3.3526957 0.28791979 0.35157949 4293400320
3.7148163 0.31913525 0.40722355 4294705920
3.7012634 0.31808805 0.422892 4294705920
3.6542737 0.31416538 0.43399334 4294444800
3.4995413 0.30097347 0.4309243 4293922560
3.4291604 0.29502898 0.43678328 4293792000
3.7054875 0.31892017 0.48714453 4294705920
3.7104335 0.31946328 0.50242877 4294705920
3.6799271 0.31695318 0.51224738 4294575360
3.6464868 0.31418836 0.52083886 4294575360
3.5361762 0.30479571 0.51735353 4294183680
3.4385459 0.29648945 0.51442748 4293792000
3.7022979 0.31934869 0.56548131 4294705920
3.7046633 0.31966996 0.57679564 4294705920
3.6976709 0.31918365 0.58597732 4294705920
3.6779869 0.31760094 0.59240186 4294705920
3.6640821 0.31651616 0.59898829 4294575360
3.6727602 0.31738207 0.60855895 4294705920
3.6563497 0.31607968 0.61325282 4294575360
3.6640906 0.31686485 0.62126595 4294575360
3.6680067 0.31731957 0.6279282 4294705920
3.6156957 0.31290859 0.62416458 4294444800
3.6149409 0.3129577 0.62849659 4294444800
3.6182311 0.31335706 0.63280022 4294444800
3.622623 0.3138521 0.63656378 4294444800
3.6271381 0.31435809 0.63961059 4294575360
3.626873 0.31444988 0.6410684 4294575360
3.626735 0.31455272 0.64179784 4294575360
3.626725 0.31466663 0.64179814 4294575360
3.6032953 0.31274787 0.63690704 4294444800
3.6696525 0.31862348 0.64711791 4294705920
3.6562901 0.317579 0.64249402 4294575360
3.6670663 0.31863108 0.64135951 4294705920
3.6665583 0.318703 0.63749319 4294705920
3.6584673 0.3181155 0.63157427 4294575360
3.689991 0.32097343 0.63172203 4294705920
3.6811347 0.32031956 0.62418979 4294705920
3.6963887 0.32176393 0.62000608 4294705920
3.6862235 0.32099575 0.61083096 4294705920
3.6931207 0.32171327 0.60378003 4294705920
3.6945071 0.32195097 0.59511054 4294705920
3.6854494 0.3212783 0.58409137 4294705920
3.6698277 0.32003266 0.57142544 4294575360
3.6783469 0.32089204 0.56187934 4294705920
3.7010624 0.32299086 0.55376083 4294705920
3.7112646 0.32399866 0.54303122 4294705920
3.6479671 0.31943524 0.44207475 4294444800
3.6690779 0.32139996 0.42836097 4294575360
3.6905117 0.32339433 0.41401431 4294575360
3.6909695 0.3235513 0.39675269 4294575360
3.669867 0.32181761 0.37683153 4294575360
3.6525815 0.32041743 0.35707089 4294444800
3.6724973 0.32228079 0.34053683 4294575360
3.6741612 0.32254314 0.32182577 4294575360
3.6426482 0.31989202 0.30001068 4294444800
3.6453731 0.32024673 0.28083631 4294444800
3.663533 0.32195807 0.26243064 4294444800
3.6675861 0.32243034 0.24260712 4294444800
3.628618 0.31911942 0.21986735 4294314240
3.6591136 0.32191721 0.20114218 4294444800
3.6733639 0.32328719 0.18105285 4294444800
3.6719587 0.32327977 0.15992242 4294444800
3.6276343 0.31949231 0.13701379 4294314240
3.6447458 0.32111475 0.11643386 4294444800
3.6489244 0.32159841 0.095190689 4294444800
3.654037 0.32216468 0.0738144 4294444800
3.6162658 0.31894901 0.05168514 4294314240
3.6347575 0.32069504 0.030417783 4294314240
3.6424584 0.32148981 0.0088719819 4294444800
3.6029158 0.31811377 -0.012609554 4294314240
3.6203711 0.31976959 -0.034145936 4294314240
3.6347187 0.32115191 -0.055804819 4294314240
3.6306999 0.32091179 -0.077182889 4294314240
3.6055646 0.31880426 -0.097857296 4294314240
3.6431074 0.32223916 -0.12019916 4294444800
3.652297 0.32316765 -0.14174892 4294444800
3.6522794 0.32328171 -0.16284141 4294444800
3.6075132 0.31943345 -0.1815059 4294314240
3.6294334 0.32148933 -0.20319672 4294314240
3.6395843 0.32250372 -0.22418915 4294444800
3.6470344 0.32327935 -0.24486946 4294444800
3.6073389 0.31987488 -0.26194134 4294314240
3.6543095 0.32415563 -0.28505614 4294444800
3.6675615 0.32544729 -0.30555207 4294575360
3.6642709 0.32527131 -0.32438743 4294444800
3.622859 0.32170996 -0.33926186 4294314240
3.6327982 0.32270759 -0.35840863 4294444800
3.6438541 0.32380506 -0.37737307 4294444800
3.6341527 0.32305804 -0.39377689 4294444800
3.6324403 0.32302085 -0.41055393 4294444800
3.5913658 0.31948194 -0.42222944 4294314240
3.6040008 0.32072008 -0.43961629 4294314240
3.6014249 0.32060486 -0.45469928 4294314240
3.5742202 0.31829622 -0.46603775 4294314240
3.5380297 0.3151854 -0.47542217 4294183680
3.4975364 0.31168878 -0.48339099 4294053120
3.0443788 0.27140129 -0.43195581 4292486400
3.0094337 0.2683813 -0.43757868 4292355840
2.983742 0.2661846 -0.44383895 4292225280
2.9685624 0.26492441 -0.45102108 4292225280
2.9614205 0.26438081 -0.45883757 4292225280
2.9245167 0.26117882 -0.46138975 4292094720
2.9092369 0.25990638 -0.46667722 4291964160
2.8507137 0.25476828 -0.46430477 4291833600
2.7890422 0.249345 -0.46059829 4291572480
2.7979281 0.25022805 -0.46788862 4291703040
2.8255472 0.25278759 -0.47783902 4291703040
2.8483226 0.25491539 -0.48650518 4291833600
2.7697053 0.24796709 -0.47720763 4291572480
2.8024716 0.25098935 -0.48646954 4291703040
2.79214 0.2501525 -0.48771331 4291703040
2.8015277 0.25108227 -0.49182856 4291703040
2.8061035 0.25158122 -0.49453518 4291703040
2.8009663 0.25120935 -0.49495193 4291703040
2.7959278 0.250846 -0.49480286 4291703040
2.7909882 0.25049123 -0.49409017 4291703040
2.7724149 0.24891207 -0.49038768 4291572480
2.840616 0.25512522 -0.50143814 4291833600
2.8173347 0.25312349 -0.49574143 4291703040
2.8078816 0.25236312 -0.4919183 4291703040
2.7896891 0.25081635 -0.48601383 4291572480
2.8409722 0.25551713 -0.49160284 4291833600
2.9077628 0.26161635 -0.49914899 4292094720
2.9186416 0.26268756 -0.49640614 4292094720
2.9363985 0.26437876 -0.49420652 4292094720
2.9617765 0.26675746 -0.49263352 4292225280
2.9726217 0.2678284 -0.4879981 4292225280
2.9870949 0.26922703 -0.48333555 4292355840
3.0108049 0.27145934 -0.47951448 4292355840
3.0921171 0.27888852 -0.48403227 4292616960
3.2432332 0.29262093 -0.49825892 4293139200
3.4432108 0.31077296 -0.51836413 4293792000
3.5443478 0.32001352 -0.52204955 4294183680
3.5769672 0.32307199 -0.51460558 4294314240
3.5713751 0.32268003 -0.50098616 4294314240
3.5722558 0.32287273 -0.48772219 4294314240
3.585063 0.32414383 -0.4754805 4294314240
3.6063826 0.32618567 -0.46369404 4294314240
3.6126914 0.32687071 -0.44934201 4294444800
3.5884974 0.32479534 -0.43076953 4294314240
3.605602 0.32645765 -0.41670024 4294314240
3.6316822 0.32893404 -0.40300608 4294444800
3.6472418 0.33045885 -0.38750178 4294444800
3.650902 0.33090612 -0.37021121 4294444800
3.5889452 0.32540423 -0.34614581 4294314240
3.6237125 0.32867131 -0.33115754 4294314240
3.6274116 0.32912171 -0.31276974 4294444800
3.628433 0.32932931 -0.2937825 4294444800
3.6110516 0.32786608 -0.27307037 4294314240
3.635433 0.33019498 -0.25517786 4294444800
3.6367557 0.3304303 -0.23524833 4294444800
3.6431634 0.33112788 -0.21534812 4294444800
3.6013622 0.32744265 -0.19256391 4294314240
3.6258695 0.32978573 -0.17321201 4294314240
3.6367359 0.33088928 -0.15281837 4294444800
3.6354973 0.33089176 -0.13169514 4294314240
3.6249685 0.33004829 -0.11016142 4294314240
3.6418397 0.33169973 -0.08930365 4294444800
3.6628671 0.33373094 -0.068228334 4294444800
3.6225963 0.33017653 -0.046051726 4294314240
3.6441069 0.33225253 -0.024721395 4294444800
3.6595252 0.33377424 -0.0031039182 4294444800
3.6745021 0.33525661 0.018697836 4294444800
3.5857496 0.32727253 0.039514229 4294183680
3.6811671 0.33609796 0.062356062 4294575360
3.6992679 0.33786777 0.084492706 4294575360
3.6736009 0.33563989 0.1054946 4294444800
3.5031109 0.32017395 0.12107633 4293922560
3.6975827 0.33806524 0.1492742 4294575360
3.6988173 0.33829531 0.1706461 4294575360
3.6656892 0.33538151 0.19006561 4294444800
3.3398979 0.30568001 0.19207157 4293400320
3.6945353 0.33825478 0.23314005 4294575360
3.6978152 0.33867222 0.25378516 4294575360
3.6529183 0.33467597 0.27062026 4294444800
3.3388801 0.30600995 0.26528898 4293400320
3.7214162 0.34118748 0.31534746 4294705920
3.7206063 0.34123105 0.3345924 4294705920
3.701263 0.33957428 0.35169947 4294705920
3.516547 0.32273883 0.35168451 4294053120
3.3747253 0.30982974 0.35395724 4293530880
3.7277365 0.3423574 0.40872613 4294705920
3.6943941 0.33941224 0.42220414 4294705920
3.6474309 0.33521318 0.43328771 4294444800
3.5076067 0.32247391 0.43203121 4294053120
3.4372568 0.31611517 0.43793657 4293792000
3.7173839 0.34199545 0.48885179 4294705920
3.7085035 0.34129596 0.5023216 4294705920
3.6878757 0.3395144 0.51351821 4294705920
3.6495175 0.3360987 0.52144527 4294575360
3.5294075 0.32514912 0.51654136 4294183680
3.4456182 0.31753913 0.51566947 4293792000
3.7052898 0.34158719 0.56614661 4294705920
3.7076504 0.34192228 0.57747972 4294705920
3.7045927 0.34175766 0.58730334 4294705920
3.6858976 0.34014976 0.59391397 4294705920
3.68084 0.33979967 0.60197538 4294705920
3.6757512 0.33944634 0.60931146 4294705920
3.6544354 0.33759367 0.61319655 4294575360
3.6719894 0.33933163 0.62288046 4294705920
3.6048539 0.33324179 0.61739606 4294444800
3.627537 0.33545363 0.62649816 4294575360
3.6316841 0.33595216 0.6317057 4294575360
3.6310434 0.33600798 0.63534725 4294575360
3.6393528 0.33689222 0.63981831 4294575360
3.6350353 0.33660772 0.64132524 4294575360
3.6347675 0.33669811 0.64279318 4294575360
3.6297245 0.33634597 0.64266276 4294575360
3.6199067 0.3355509 0.64093316 4294444800
3.6151197 0.33522171 0.63934457 4294444800
3.6775179 0.3411243 0.64886457 4294705920
3.6778929 0.3412756 0.64665556 4294705920
3.6847413 0.34202781 0.6448223 4294705920
3.6657453 0.34038073 0.63772649 4294705920
3.6702626 0.34091648 0.63399035 4294705920
3.6880298 0.34268364 0.63177216 4294705920
3.6889942 0.34289014 0.62591249 4294705920
3.714148 0.34534588 0.62338108 4294836480
3.6980126 0.34396279 0.61318213 4294705920
3.7098231 0.34517887 0.60691237 4294836480
3.7062984 0.34496835 0.5974136 4294705920
3.692332 0.34378541 0.58558631 4294705920
3.6816404 0.34290662 0.57366931 4294705920
3.7000031 0.34473416 0.56559509 4294705920
3.7128682 0.34605047 0.55593699 4294705920
3.70435 0.34537393 0.54242861 4294705920
3.665834 0.34231439 0.44447178 4294575360
3.6721084 0.34301665 0.4289377 4294575360
3.7024386 0.34596717 0.41556737 4294705920
3.7038925 0.3462204 0.39834696 4294705920
3.6828077 0.34436622 0.3783541 4294575360
3.6645467 0.34277484 0.35842296 4294575360
3.6894155 0.34521791 0.34227842 4294575360
3.6821594 0.34465566 0.32268786 4294575360
3.6457052 0.34135902 0.30041128 4294444800
3.6434662 0.34126487 0.28082687 4294444800
3.6715472 0.34401143 0.26313168 4294575360
3.6781735 0.34474885 0.2434229 4294575360
3.6518228 0.34239477 0.22137615 4294444800
3.6661444 0.34385374 0.20161977 4294444800
3.6803889 0.34530643 0.18147837 4294575360
3.6799808 0.34538475 0.16033874 4294575360
3.6272833 0.34055379 0.13705426 4294314240
3.6562252 0.34338692 0.11684231 4294444800
3.6573269 0.34360629 0.095439136 4294444800
3.6509943 0.34312707 0.073769614 4294444800
3.6248209 0.34078214 0.051811498 4294314240
3.641808 0.34249458 0.030468343 4294444800
3.6514921 0.34352103 0.0088729393 4294444800
3.5974927 0.33855498 -0.012623691 4294183680
3.5177824 0.33116505 -0.033222821 4293922560
3.526475 0.33209512 -0.054199561 4294053120
3.517128 0.33132637 -0.074836984 4293922560
3.6045191 0.33967319 -0.097911276 4294314240
3.6305606 0.34224227 -0.11988033 4294314240
3.6398702 0.34323522 -0.14137411 4294444800
3.6499932 0.34430552 -0.16285929 4294444800
3.5798767 0.33780485 -0.18024457 4294183680
3.6071584 0.34049356 -0.20209135 4294314240
3.6110137 0.34097192 -0.22258256 4294314240
3.5709927 0.33730611 -0.23992656 4294183680
3.5650573 0.33685845 -0.25904447 4294183680
3.5998652 0.34026152 -0.28099501 4294314240
3.6032965 0.34070006 -0.30039454 4294314240
3.5923567 0.33977956 -0.31822729 4294314240
3.5307035 0.33406007 -0.33084455 4294053120
3.5581312 0.33676791 -0.35126588 4294183680
3.5620334 0.33725017 -0.36913285 4294183680
3.565752 0.33771527 -0.38660821 4294183680
3.5564024 0.33694249 -0.40221074 4294183680
3.522222 0.33381581 -0.41435724 4294053120
3.5807977 0.33948076 -0.43705526 4294314240
3.5636437 0.33796743 -0.45020497 4294183680
3.5352979 0.33539125 -0.46124369 4294183680
3.4942522 0.33160803 -0.46982411 4294053120
3.4277375 0.32540438 -0.47402966 4293792000
3.0168235 0.28649083 -0.42830268 4292355840
2.9801717 0.28310469 -0.43358222 4292225280
2.9551027 0.28081691 -0.43983945 4292225280
2.9418993 0.27965549 -0.44723371 4292094720
2.9233406 0.27798393 -0.45320323 4292094720
2.9162941 0.27740633 -0.46036091 4292094720
2.8883359 0.27483845 -0.4635933 4291964160
2.8544788 0.2717073 -0.4651863 4291833600
2.8108325 0.26764184 -0.4644632 4291703040
2.8285432 0.26941791 -0.47327814 4291703040
2.7769201 0.26458883 -0.46988177 4291572480
2.7849753 0.26544464 -0.47595331 4291572480
2.8176396 0.26864728 -0.48573849 4291703040
2.7205396 0.25947556 -0.47251016 4291441920
2.7347467 0.26091731 -0.47795242 4291441920
2.7431571 0.26180667 -0.48184577 4291441920
2.7477369 0.26233086 -0.48451313 4291441920
2.7426069 0.26192805 -0.48490193 4291441920
2.7287507 0.26069123 -0.483174 4291441920
2.7238145 0.260306 -0.48245561 4291441920
2.8154054 0.26914829 -0.49825543 4291703040
2.792038 0.26700294 -0.49312162 4291703040
2.7736673 0.2653341 -0.48831162 4291572480
2.7504849 0.26320362 -0.4821113 4291572480
2.8065362 0.26865634 -0.48919868 4291703040
2.8545396 0.27334198 -0.49420038 4291833600
2.8829696 0.27615574 -0.49514064 4291964160
2.9104307 0.27887848 -0.49525461 4292094720
2.921952 0.2800751 -0.49201572 4292094720
2.925348 0.28049335 -0.48680949 4292094720
2.9430645 0.28228539 -0.48337632 4292094720
2.9681556 0.28478611 -0.48049697 4292225280
2.9892385 0.28690374 -0.47630048 4292355840
3.0623889 0.29402173 -0.47959751 4292486400
3.2220805 0.30945599 -0.49523145 4293139200
3.4575171 0.33217746 -0.52074736 4293922560
3.5148561 0.3377977 -0.51792955 4294053120
3.5465789 0.34095886 -0.51044971 4294183680
3.5329542 0.33976105 -0.49580163 4294183680
3.5197334 0.33860123 -0.48074523 4294053120
3.5315492 0.33984989 -0.46856698 4294183680
3.5501018 0.34174779 -0.45663157 4294183680
3.5544481 0.34227893 -0.44226065 4294183680
3.525296 0.33958343 -0.42333284 4294053120
3.5271027 0.33986932 -0.40776664 4294053120
3.5503511 0.34222209 -0.39410838 4294183680
3.565985 0.34384212 -0.3789846 4294183680
3.5556321 0.34295663 -0.360654 4294183680
3.5277092 0.34037521 -0.34032997 4294053120
3.5451081 0.34216633 -0.32405227 4294053120
3.560581 0.34377268 -0.30707309 4294183680
3.5441463 0.3422983 -0.28701073 4294053120
3.5393615 0.34194839 -0.26768884 4294053120
3.596247 0.34755832 -0.25245452 4294314240
3.5806808 0.34616745 -0.23163497 4294183680
3.5804851 0.3462621 -0.21164395 4294183680
3.5034585 0.33892408 -0.18731681 4293922560
3.4604003 0.33486837 -0.16528249 4293792000
3.4751964 0.3364104 -0.14599253 4293792000
3.408267 0.33003947 -0.12341407 4293661440
3.6223369 0.35088381 -0.11001528 4294314240
3.6511145 0.35378718 -0.089451008 4294444800
3.6512132 0.35391253 -0.067917846 4294444800
3.4981093 0.33918309 -0.044367027 4293922560
3.5839703 0.34762198 -0.024195842 4294183680
3.5259335 0.34210458 -0.0028623478 4294053120
3.5408077 0.34366006 0.018158829 4294053120
3.602711 0.34978244 0.039857481 4294314240
3.6930976 0.35867509 0.062731132 4294575360
3.7072053 0.36016276 0.084860213 4294575360
3.6805544 0.3576903 0.10589144 4294575360
3.5151277 0.34172499 0.12169149 4293922560
3.7005384 0.35986716 0.14961578 4294575360
3.6967983 0.35962066 0.17078662 4294575360
3.6785965 0.35796669 0.19097868 4294575360
3.3470151 0.32580644 0.19271277 4293400320
3.7064209 0.36090937 0.23415768 4294575360
3.7057207 0.36095873 0.25460577 4294575360
3.6548879 0.35612321 0.27105042 4294444800
3.342011 0.32574326 0.2658065 4293400320
3.7207744 0.36277905 0.3156018 4294705920
3.7233038 0.36314374 0.33515307 4294705920
3.6947651 0.36047748 0.35140634 4294575360
3.5284803 0.34436589 0.35319555 4294053120
3.3728702 0.32928595 0.35407346 4293530880
3.7256863 0.36384875 0.40885216 4294705920
3.7210388 0.3635129 0.42560655 4294705920
3.6602485 0.3576903 0.43516842 4294575360
3.5096266 0.3430824 0.43262908 4294053120
3.4491858 0.33728343 0.43980476 4293792000
3.7202692 0.36390969 0.4896121 4294705920
3.7261853 0.36460656 0.50510275 4294836480
3.7095015 0.36309171 0.51691806 4294705920
3.6563725 0.35800734 0.52281123 4294575360
3.5323846 0.34597933 0.51735353 4294183680
3.4486389 0.33788621 0.51649141 4293922560
3.7081647 0.3634313 0.56698567 4294705920
3.7154388 0.3642621 0.57909495 4294836480
3.7172937 0.36456186 0.58972019 4294836480
3.6927068 0.3622677 0.59541225 4294705920
3.6788085 0.36102089 0.60204256 4294705920
3.6737223 0.36063829 0.60937333 4294705920
3.6661608 0.36001229 0.61556023 4294705920
3.6797757 0.36146599 0.62459725 4294705920
3.6826999 0.36187005 0.63112259 4294705920
3.6255355 0.35636792 0.6265375 4294575360
3.6247773 0.35640839 0.63088596 4294575360
3.6378644 0.35781056 0.63691992 4294575360
3.6471484 0.35883942 0.64156455 4294575360
3.6467533 0.35891622 0.64376336 4294575360
3.6415846 0.35852304 0.64436352 4294575360
3.6326241 0.35775608 0.64353406 4294575360
3.6365333 0.3582564 0.64422888 4294575360
3.6278293 0.35751402 0.64193642 4294575360
3.6656907 0.36136144 0.64711791 4294705920
3.6709664 0.36199796 0.64577043 4294705920
3.6866341 0.36365992 0.6454792 4294705920
3.6735332 0.36248413 0.63939691 4294705920
3.6780505 0.36304656 0.63564217 4294705920
3.6958106 0.3649168 0.6334033 4294705920
3.7007024 0.36551723 0.62818742 4294836480
3.7159457 0.36714068 0.62396163 4294836480
3.7097251 0.36664376 0.61539149 4294836480
3.7028723 0.36608395 0.60603058 4294705920
3.7042608 0.36633873 0.59732878 4294705920
3.7099617 0.36702022 0.58861411 4294836480
3.6845336 0.36462155 0.5743379 4294705920
3.7028885 0.36655542 0.56624222 4294705920
3.7157485 0.36794636 0.55656189 4294836480
3.7209013 0.36857462 0.54503268 4294836480
3.6726689 0.36454904 0.44555044 4294575360
3.6789436 0.36528859 0.42997745 4294575360
3.701263 0.36762217 0.41566879 4294705920
3.7080693 0.36841583 0.39902028 4294705920
3.6755722 0.36530367 0.377823 4294575360
3.6624875 0.36411941 0.35842296 4294575360
3.6887393 0.36684635 0.34240818 4294575360
3.6953659 0.36762261 0.32402742 4294575360
3.6580939 0.36403081 0.3016018 4294444800
3.6640184 0.36473662 0.28256997 4294444800
3.6761427 0.36606017 0.26360941 4294575360
3.6833744 0.36689717 0.24390443 4294575360
3.6381557 0.36250839 0.22067192 4294444800
3.6699626 0.36579409 0.20194353 4294575360
3.6868868 0.36759794 0.18190129 4294575360
3.6814291 0.3671706 0.16049233 4294575360
3.5659487 0.35576621 0.1348128 4294183680
3.0939279 0.30877197 0.098928735 4292486400
3.2913184 0.32857585 0.085936524 4293269760
3.4326608 0.34279513 0.069397286 4293661440
3.5812218 0.35774446 0.051217236 4294183680
3.5947838 0.35921332 0.030091926 4294183680
3.5605867 0.35590908 0.0086569358 4294183680
3.4545474 0.34541923 -0.012128949 4293792000
3.3777907 0.33785152 -0.031918753 4293530880
3.4920247 0.34938818 -0.053700455 4293922560
3.4109845 0.34138808 -0.072619572 4293661440
3.5103478 0.35144424 -0.095407255 4293922560
3.561152 0.35664359 -0.11765508 4294183680
3.5632994 0.35697171 -0.1384785 4294183680
3.5630329 0.35705805 -0.15906931 4294183680
3.5347238 0.35433331 -0.17807208 4294053120
3.549608 0.35593799 -0.19897988 4294053120
3.5589259 0.35698527 -0.21949635 4294183680
3.5451362 0.35571459 -0.23832452 4294053120
3.5374496 0.35505557 -0.25718439 4294053120
3.5649042 0.35792434 -0.27842411 4294183680
3.5782628 0.35937911 -0.29847705 4294183680
3.5799677 0.35966393 -0.31731007 4294183680
3.5475528 0.35651994 -0.3326124 4294183680
3.5634129 0.3582269 -0.35198739 4294183680
3.5692637 0.35892832 -0.37009254 4294183680
3.5717487 0.35929158 -0.3874788 4294183680
3.5656044 0.35878667 -0.40348101 4294183680
3.5387137 0.3561931 -0.41653439 4294183680
3.5773709 0.36019772 -0.43688577 4294314240
3.5737689 0.35994843 -0.4517414 4294314240
3.5450296 0.35716632 -0.46277699 4294183680
3.4989154 0.35263133 -0.4707194 4294053120
3.4090724 0.34368485 -0.47171736 4293661440
2.9857042 0.30109781 -0.42412648 4292225280
2.9517348 0.29776582 -0.42969012 4292094720
2.9316137 0.29582906 -0.43659246 4292094720
2.9061446 0.2933512 -0.44205052 4291964160
2.908848 0.2937164 -0.4512141 4291964160
2.8875887 0.29166141 -0.45609003 4291964160
2.8849256 0.291484 -0.46331063 4291964160
2.8656468 0.28962708 -0.46727335 4291833600
2.8395107 0.28707564 -0.46947041 4291833600
2.7562644 0.2787469 -0.46144819 4291572480
2.7926941 0.28251973 -0.47282141 4291703040
2.7274745 0.27600843 -0.46639332 4291441920
2.75425 0.2788054 -0.47508261 4291572480
2.773257 0.28081745 -0.48194227 4291572480
2.7913663 0.28273979 -0.48812744 4291703040
2.6906233 0.27262086 -0.47288898 4291311360
2.694226 0.27307138 -0.47534993 4291311360
2.6851835 0.2722401 -0.47502166 4291311360
2.6801555 0.27181539 -0.47484171 4291311360
2.7617979 0.28018305 -0.48946425 4291572480
2.7569609 0.27977985 -0.48819244 4291572480
2.7247846 0.27660105 -0.48151997 4291441920
2.785497 0.28285253 -0.49067608 4291572480
2.7525284 0.27959213 -0.48274684 4291572480
2.8204587 0.28658178 -0.49190816 4291703040
2.8519504 0.28987211 -0.49403608 4291833600
