# .PCD v0.7 - Point Cloud Data file format
VERSION 0.7
FIELDS x y z rgba
SIZE 4 4 4 4
TYPE F F F U
COUNT 1 1 1 1
WIDTH 1124
HEIGHT 1
VIEWPOINT 0 0 0 1 0 0 0
POINTS 1124
DATA ascii
1.6531841 1.0912099 -0.25905412 4288830720
1.6573035 1.0940108 -0.26759517 4288830720
1.6310877 1.0768127 -0.27083787 4288700160
1.6329658 1.0781345 -0.2783277 4288700160
1.6321203 1.07766 -0.28504345 4288700160
1.6343559 1.0792168 -0.29197955 4288700160
1.6339029 1.0790004 -0.29811075 4288700160
1.6397643 1.0829479 -0.30507329 4288700160
1.6419727 1.0844861 -0.31103629 4288700160
1.6483884 1.0887994 -0.31746748 4288830720
1.642367 1.0849082 -0.32114211 4288700160
1.6316686 1.0779305 -0.32348615 4288700160
1.6151826 1.0671327 -0.32424006 4288700160
1.5707211 1.0378742 -0.3188639 4288439040
1.5194899 1.0041438 -0.31154102 4288308480
1.5273046 1.0093732 -0.3158693 4288308480
1.5351642 1.0146323 -0.31986621 4288308480
1.5463593 1.0220933 -0.32421276 4288439040
1.5543145 1.0274162 -0.327526 4288439040
1.5499928 1.0246353 -0.32787669 4288439040
1.5572314 1.0294851 -0.33029038 4288439040
1.5415156 1.0191807 -0.32745111 4288308480
1.5414685 1.0192193 -0.32755214 4288308480
1.5299726 1.011698 -0.32484117 4288308480
1.5218174 1.0063812 -0.3224659 4288308480
1.5685275 1.0372944 -0.33130813 4288439040
1.612573 1.0664515 -0.33913004 4288700160
1.6181257 1.0701891 -0.33841786 4288700160
1.6320318 1.0794439 -0.33903241 4288700160
1.6278466 1.0767494 -0.33548334 4288700160
1.6318746 1.0794797 -0.33323622 4288700160
1.631614 1.0793765 -0.32972026 4288700160
1.6237081 1.0742217 -0.32429737 4288700160
1.6168053 1.0697285 -0.31873649 4288700160
1.6144894 1.0682651 -0.31373638 4288700160
1.6131607 1.0674533 -0.30857751 4288700160
1.6048672 1.0620383 -0.30176339 4288569600
1.5936878 1.0547149 -0.29412678 4288569600
1.5878916 1.0509481 -0.28720739 4288569600
1.6050938 1.0623813 -0.28407374 4288569600
1.6343272 1.0817678 -0.28255948 4288700160
1.6235491 1.0747074 -0.27373537 4288700160
1.6074106 1.0641019 -0.26381648 4288569600
1.5920513 1.05401 -0.25387168 4288569600
1.5915717 1.0537543 -0.24608772 4288569600
1.608416 1.0649526 -0.240624 4288569600
1.6177595 1.071192 -0.23363653 4288569600
1.5952632 1.0563773 -0.22186245 4288569600
1.583905 1.048926 -0.21157336 4288439040
1.5997044 1.0594341 -0.20465082 4288569600
1.6179746 1.0715772 -0.19762361 4288569600
1.5983593 1.0586634 -0.18576141 4288569600
1.5697286 1.0397846 -0.17293647 4288439040
1.5918953 1.0545051 -0.16555612 4288439040
1.5917996 1.0545 -0.15554315 4288439040
1.5762243 1.0442541 -0.14394785 4288439040
1.5739594 1.0428127 -0.13352659 4288439040
1.6022823 1.0616089 -0.12538566 4288569600
1.5953183 1.0570588 -0.11420641 4288439040
1.5850761 1.0503389 -0.1027848 4288439040
1.5742913 1.043259 -0.091360122 4288439040
1.5841315 1.0498272 -0.081041977 4288439040
1.5795358 1.0468423 -0.069862053 4288439040
1.5548518 1.0305616 -0.057921559 4288308480
1.567553 1.0390236 -0.047399066 4288439040
1.5893435 1.0535028 -0.03686012 4288439040
1.5858357 1.0512371 -0.025564786 4288439040
1.5775707 1.0458221 -0.014249373 4288439040
1.6054064 1.0643059 -0.0031115967 4288569600
1.6093546 1.0669768 0.0083027305 4288569600
1.5833714 1.0498306 0.019400114 4288439040
1.6848906 1.1171056 0.032553177 4288830720
1.8940707 1.2556772 0.049926985 4289744640
1.9053103 1.2631873 0.063606337 4289744640
1.8993964 1.2593389 0.076682493 4289744640
1.888801 1.2523896 0.089370839 4289744640
1.9008061 1.2604082 0.10303593 4289744640
1.8920603 1.2546835 0.11548883 4289744640
1.872058 1.2415024 0.12693441 4289614080
1.8896626 1.2532314 0.14076644 4289744640
1.8982921 1.2590163 0.15395093 4289744640
1.8935122 1.2559185 0.16590625 4289744640
1.8650368 1.2371218 0.17539254 4289614080
1.9110343 1.2676661 0.19178218 4289744640
1.9222618 1.2751756 0.20483635 4289875200
1.9131069 1.2691801 0.21550892 4289875200
1.8919346 1.2552205 0.22440845 4289744640
1.8606273 1.2345434 0.23154911 4289614080
1.9101648 1.2674437 0.24857394 4289875200
1.8995454 1.2604772 0.25772738 4289744640
1.8964731 1.2585126 0.26753822 4289744640
1.885626 1.2513947 0.27587932 4289744640
1.85947 1.2341282 0.28148335 4289614080
1.8978592 1.2596493 0.29657966 4289744640
1.8903842 1.2547672 0.30433533 4289744640
1.9016075 1.2622821 0.31476599 4289744640
1.8982944 1.2601601 0.32247123 4289744640
1.8772458 1.2462779 0.32669726 4289744640
1.8742493 1.2443656 0.33358648 4289744640
1.8815347 1.2492722 0.34193492 4289744640
1.8787686 1.2475137 0.34808263 4289744640
1.879016 1.2477542 0.35437676 4289744640
1.8811181 1.2492255 0.36061722 4289744640
1.8713539 1.2428262 0.3641459 4289744640
1.8751203 1.2454027 0.36986244 4289744640
1.878865 1.2479656 0.37516296 4289744640
1.8772347 1.2469634 0.37895948 4289744640
1.8722365 1.243727 0.38162076 4289744640
1.8692816 1.2418467 0.38423657 4289744640
1.8664695 1.2400614 0.38642219 4289744640
1.8661102 1.2399043 0.38865706 4289744640
1.8538245 1.2318325 0.38794234 4289614080
1.8700074 1.2426554 0.39272118 4289744640
1.8616312 1.2371789 0.39189538 4289744640
1.8694096 1.242426 0.39400265 4289744640
1.8611645 1.2370372 0.39227563 4289744640
1.8676839 1.2414504 0.39319324 4289744640
1.8702476 1.2432384 0.39281383 4289744640
1.8666514 1.2409371 0.3906818 4289744640
1.8756542 1.2470025 0.3907178 4289744640
1.8646237 1.2397654 0.38613197 4289744640
1.8710847 1.2441447 0.38471437 4289744640
1.8687599 1.2426897 0.38103613 4289744640
1.8770604 1.2482929 0.3790631 4289744640
1.8811041 1.2510698 0.37576324 4289744640
1.8809088 1.2510316 0.37117061 4289744640
1.8815273 1.2515346 0.36630443 4289744640
1.8670875 1.2420332 0.35812426 4289744640
1.8558214 1.2346398 0.35021234 4289614080
1.866356 1.241733 0.34600267 4289744640
1.8888444 1.2567718 0.34349135 4289744640
1.8958265 1.2615077 0.3376621 4289744640
1.8845266 1.2540932 0.3282108 4289744640
1.8631535 1.2407402 0.26849219 4289614080
1.8949423 1.2619839 0.26301107 4289744640
1.9036571 1.2678815 0.25381958 4289744640
1.8772881 1.2504395 0.23977241 4289744640
1.8562508 1.2365426 0.22640468 4289614080
1.8754948 1.2494469 0.21769555 4289614080
1.8910664 1.2599097 0.20811041 4289744640
1.8626269 1.2410849 0.19353916 4289614080
1.8498101 1.2326552 0.18062732 4289614080
1.8744726 1.249171 0.17109029 4289614080
1.8824524 1.2545848 0.15963492 4289744640
1.8748515 1.2496271 0.1466821 4289614080
1.8568325 1.2377328 0.13292289 4289614080
1.8727922 1.2484609 0.12145533 4289614080
1.7052224 1.1369809 0.099012189 4288961280
1.5979353 1.0656275 0.081824496 4288569600
1.6012068 1.0678941 0.070901245 4288569600
1.6054047 1.0707784 0.059887908 4288569600
1.5907668 1.0611163 0.048181251 4288439040
1.4924802 0.99572927 0.034694839 4288047360
1.5821919 1.0555792 0.025567001 4288439040
1.5825318 1.0558929 0.014341187 4288439040
1.5562279 1.0384533 0.0030441696 4288308480
1.5614588 1.0420251 -0.0080512958 4288308480
1.5704379 1.0480953 -0.019261111 4288439040
1.568321 1.0467712 -0.030363834 4288439040
1.5432129 1.030122 -0.040795937 4288308480
1.5739467 1.0506943 -0.052707348 4288439040
1.5931644 1.0635928 -0.064528525 4288439040
1.5895765 1.0612884 -0.075466253 4288439040
1.531016 1.0223296 -0.08328025 4288308480
1.5828041 1.0569471 -0.096967556 4288439040
1.591772 1.0630144 -0.10834177 4288439040
1.5810125 1.0559257 -0.11824518 4288439040
1.5247713 1.0185 -0.12417212 4288177920
1.5961288 1.0661815 -0.14045772 4288569600
1.6121305 1.0769429 -0.15228941 4288569600
1.5923872 1.0638586 -0.16055641 4288569600
1.555618 1.0394123 -0.16657689 4288308480
1.2857165 0.85940224 -0.14556156 4287264000
1.592387 1.0641161 -0.1898647 4288569600
1.5967996 1.0671464 -0.19978537 4288569600
1.577304 1.0542198 -0.20640908 4288439040
1.4864578 0.99366653 -0.20284776 4288047360
1.3096015 0.87568939 -0.18585372 4287394560
1.6063088 1.0738336 -0.23646088 4288569600
1.6046402 1.072804 -0.24444622 4288569600
1.596458 1.0674249 -0.25111744 4288569600
1.5621088 1.0445719 -0.25318736 4288439040
1.4307956 0.95696372 -0.23849189 4287916800
1.587976 1.0620085 -0.27169418 4288569600
1.5871531 1.0615405 -0.27825126 4288569600
1.5954359 1.0671538 -0.28611875 4288569600
1.5904129 1.0638795 -0.29128954 4288569600
1.5801169 1.0570816 -0.29510656 4288569600
1.5625712 1.0454388 -0.29713616 4288439040
1.560069 1.0438449 -0.30161771 4288439040
1.5427577 1.0323551 -0.30283168 4288439040
1.4403844 0.96402115 -0.28667516 4287916800
1.4595479 0.97689843 -0.2941373 4288047360
1.478739 0.98979557 -0.30135652 4288177920
1.4140769 0.94664776 -0.29105663 4287916800
1.417791 0.94919831 -0.29436314 4287916800
1.4289201 0.95670545 -0.29889071 4287916800
1.4441859 0.96697867 -0.30397302 4288047360
1.448032 0.9696179 -0.30632302 4288047360
1.4437404 0.96681595 -0.30659604 4288047360
1.4517788 0.97225785 -0.30913028 4288047360
1.4434971 0.96678644 -0.3078323 4288047360
1.4401785 0.96463299 -0.30723041 4287916800
1.4205416 0.95156491 -0.30279362 4287916800
1.408321 0.94345504 -0.29959247 4287786240
1.3928745 0.9331857 -0.29537159 4287786240
1.4653685 0.98174137 -0.30939126 4288047360
1.4418355 0.96606255 -0.30274457 4287916800
1.4926188 1.0001007 -0.31129977 4288177920
1.5378605 1.0304351 -0.31819165 4288308480
1.5669657 1.0499756 -0.32124695 4288439040
1.5759889 1.0560803 -0.31974003 4288569600
1.5849514 1.0621446 -0.31781036 4288569600
1.582947 1.0608697 -0.31329918 4288569600
1.5790592 1.0583335 -0.30807024 4288569600
1.5787348 1.0581815 -0.30319369 4288569600
1.5720807 1.0537924 -0.29677641 4288439040
1.5614119 1.0467145 -0.28932035 4288439040
1.5450883 1.0358499 -0.2805835 4288439040
1.5629901 1.0478969 -0.27773085 4288439040
1.5978166 1.0712763 -0.2773563 4288569600
1.5928286 1.0679998 -0.26963612 4288569600
1.5771804 1.0575844 -0.25989857 4288439040
1.5529109 1.0413941 -0.24863128 4288439040
1.5707506 1.0534012 -0.24385212 4288439040
1.5819916 1.0609901 -0.23763213 4288569600
1.5827904 1.0615858 -0.22951749 4288569600
1.5653361 1.0499552 -0.21858984 4288439040
1.548206 1.0385404 -0.2076526 4288308480
1.5819489 1.061202 -0.20321201 4288439040
1.5974848 1.071669 -0.19592687 4288569600
1.5679101 1.0519152 -0.18297836 4288439040
1.5536153 1.0423962 -0.17187481 4288308480
1.5694946 1.0530931 -0.16391037 4288439040
1.5813971 1.0611261 -0.15517837 4288439040
1.5617396 1.0480118 -0.14323051 4288439040
1.5603087 1.04711 -0.13293487 4288439040
1.5881017 1.0657927 -0.12481244 4288439040
1.5848951 1.0637012 -0.11395539 4288439040
1.5746918 1.0569198 -0.1025627 4288439040
1.5684519 1.0527943 -0.091430031 4288439040
1.570429 1.054176 -0.080708168 4288439040
1.5733204 1.0561706 -0.069913626 4288439040
1.5442545 1.0367419 -0.057805259 4288308480
1.5632616 1.0495398 -0.047509443 4288439040
1.5751989 1.0575991 -0.036730055 4288439040
1.5754426 1.0578188 -0.02555242 4288439040
1.569712 1.0540326 -0.014290047 4288439040
1.5911974 1.0684958 -0.0031525183 4288439040
1.598869 1.0736971 0.0082236417 4288569600
1.5688356 1.0536129 0.019241598 4288439040
1.6763085 1.1257476 0.032453679 4288830720
1.8791456 1.2618507 0.049660414 4289614080
1.8978136 1.2744393 0.063535579 4289744640
1.8720028 1.2571943 0.075807922 4289614080
1.8770385 1.2606394 0.089095525 4289614080
1.889179 1.2688514 0.10274018 4289744640
1.8785152 1.2617654 0.11504587 4289614080
1.8596449 1.2491728 0.12652254 4289614080
1.8792624 1.2624028 0.14047572 4289744640
1.8866802 1.2674484 0.1535451 4289744640
1.8799698 1.2630144 0.16530308 4289744640
1.8567978 1.2475333 0.17524086 4289614080
1.9057852 1.2804772 0.19194275 4289744640
1.9026412 1.2784375 0.20348215 4289744640
1.9014452 1.2777054 0.21497673 4289744640
1.8803579 1.2636223 0.22385369 4289744640
1.8417428 1.2377723 0.23004597 4289614080
1.8985201 1.2759556 0.24797414 4289744640
1.8882376 1.2691245 0.25714672 4289744640
1.8848858 1.2669462 0.26689741 4289744640
1.8703156 1.2572359 0.27466685 4289744640
1.855433 1.2473153 0.28192818 4289614080
1.8860918 1.267974 0.29585451 4289744640
1.8829423 1.2659327 0.30428547 4289744640
1.8858968 1.2679907 0.3133536 4289744640
1.8784906 1.2630913 0.32032633 4289744640
1.872329 1.2590278 0.32708654 4289744640
1.8668686 1.2554353 0.33354661 4289744640
1.8670294 1.2556187 0.34060499 4289744640
1.8781298 1.2631514 0.34930378 4289744640
1.8655827 1.2547992 0.35320473 4289744640
1.8610754 1.2518481 0.35816082 4289744640
1.858963 1.2505063 0.36314151 4289744640
1.8562647 1.2487712 0.36757246 4289744640
1.8595395 1.2510501 0.37275729 4289744640
1.8575581 1.2497978 0.37645867 4289744640
1.8566736 1.2492831 0.37993607 4289744640
1.8586401 1.250685 0.38355324 4289744640
1.8517493 1.2461344 0.38488883 4289614080
1.8587515 1.2509226 0.38865525 4289744640
1.8625429 1.2535534 0.39130741 4289744640
1.8541336 1.2479832 0.39093754 4289744640
1.8506948 1.2457546 0.3911466 4289614080
1.8538599 1.2479665 0.39228866 4289744640
1.8529313 1.2474267 0.39210498 4289744640
1.8488694 1.2447805 0.3907989 4289614080
1.854691 1.2487812 0.39111757 4289744640
1.8511072 1.2464576 0.38899544 4289614080
1.8600725 1.2525746 0.38904351 4289744640
1.8527616 1.2477452 0.38523519 4289744640
1.8579725 1.2513388 0.38357621 4289744640
1.8603134 1.253003 0.38086417 4289744640
1.8554479 1.2498195 0.37623832 4289744640
1.8729105 1.2616594 0.37566519 4289744640
1.8696734 1.2595731 0.37047672 4289744640
1.8626252 1.2549224 0.36412883 4289744640
1.8482375 1.2453324 0.3559846 4289614080
1.8452063 1.2433847 0.34966213 4289614080
1.8611449 1.2542055 0.34648037 4289744640
1.8836213 1.2694293 0.34398058 4289744640
1.8799435 1.2670493 0.33624846 4289744640
1.8735774 1.2628597 0.32768795 4289744640
1.8432645 1.2426127 0.26665148 4289614080
1.8798866 1.2673711 0.26192701 4289744640
1.890478 1.2746037 0.25303289 4289744640
1.8625542 1.2558988 0.23880631 4289614080
1.8439913 1.2434963 0.22577409 4289614080
1.8673965 1.2593611 0.21758723 4289614080
1.8768309 1.2658176 0.20733665 4289744640
1.8495823 1.2475623 0.19292042 4289614080
1.829294 1.2339938 0.17930919 4289483520
1.8549783 1.2514 0.16995916 4289614080
1.8670591 1.2596422 0.15893379 4289614080
1.8621657 1.2564471 0.14624387 4289614080
1.8484857 1.2473296 0.13282666 4289614080
1.864697 1.2583584 0.12138676 4289614080
1.7014538 1.1484226 0.099163987 4288961280
1.5802894 1.0668355 0.081225157 4288439040
1.5951459 1.0769393 0.070894606 4288569600
1.5952486 1.0770971 0.059727859 4288569600
1.5980166 1.0790522 0.048573352 4288569600
1.4793686 0.99912995 0.034512099 4288047360
1.5799302 1.0670323 0.025615143 4288439040
1.5682486 1.0592414 0.014253935 4288439040
1.5532411 1.0492059 0.0030354108 4288308480
1.5555444 1.0508462 -0.0080665909 4288308480
1.5603442 1.054171 -0.0192261 4288439040
1.5627344 1.0558704 -0.030388435 4288439040
1.5415095 1.041636 -0.040924832 4288308480
1.5679826 1.0595859 -0.052727208 4288439040
1.5788425 1.0670019 -0.064211972 4288439040
1.5835519 1.070268 -0.075488269 4288439040
1.5347099 1.0373892 -0.083821788 4288308480
1.5693539 1.0608596 -0.096532427 4288439040
1.5729097 1.0633469 -0.10748892 4288439040
1.5708817 1.0620644 -0.11795945 4288439040
1.511547 1.0220889 -0.12358805 4288177920
1.58181 1.0696167 -0.13975361 4288439040
1.5936229 1.0776806 -0.15114084 4288569600
1.5880086 1.0739762 -0.16075201 4288569600
1.5414619 1.0426248 -0.16571628 4288308480
1.2684618 0.85830754 -0.14417712 4287264000
1.5863445 1.0731111 -0.18989265 4288569600
1.5866189 1.0733821 -0.19929577 4288569600
1.5589613 1.0547814 -0.20481339 4288439040
1.4020275 0.94882846 -0.19207999 4287786240
1.2931091 0.87530392 -0.18423517 4287394560
1.5895164 1.07568 -0.23490798 4288569600
1.5948501 1.0793689 -0.2439077 4288569600
1.5936819 1.0786636 -0.25166246 4288569600
1.5479659 1.0478458 -0.25187659 4288439040
1.3331541 0.90271527 -0.22308794 4287525120
1.5778438 1.0682061 -0.27101368 4288569600
1.5779471 1.0683576 -0.27771491 4288569600
1.5774961 1.0681338 -0.28400233 4288569600
1.5718734 1.0644125 -0.28901273 4288569600
1.5659282 1.060472 -0.29359132 4288439040
1.5607253 1.0570326 -0.29793426 4288439040
1.5313683 1.0372553 -0.29721504 4288308480
1.4703689 0.99607176 -0.28974089 4288047360
1.427556 0.96718395 -0.28521785 4287916800
1.3548614 0.91807646 -0.27409837 4287655680
1.3813618 0.93607169 -0.28260028 4287786240
1.3972733 0.94690466 -0.28870219 4287786240
1.3217438 0.8958655 -0.27548003 4287525120
1.3410119 0.90896749 -0.28158179 4287525120
1.3407364 0.90884501 -0.28328377 4287525120
1.3486629 0.91427308 -0.28639641 4287655680
1.3558179 0.91917926 -0.28902596 4287655680
1.3483405 0.91418117 -0.28820226 4287655680
1.3482507 0.9141829 -0.28861654 4287655680
1.32864 0.90096885 -0.28451568 4287525120
1.3286463 0.90103376 -0.28428045 4287525120
1.3988911 0.94865429 -0.2987054 4287786240
1.3761636 0.93332803 -0.29292315 4287786240
1.3600043 0.92244703 -0.28822723 4287655680
1.4249358 0.96647888 -0.300313 4287916800
1.4755244 1.0008022 -0.30887997 4288177920
1.4989922 1.0167609 -0.31130213 4288177920
1.5377434 1.0430731 -0.31642309 4288439040
1.5662397 1.0624416 -0.31893319 4288569600
1.5704119 1.0653346 -0.31605184 4288569600
1.5654944 1.0620695 -0.31097943 4288439040
1.5689725 1.0644915 -0.30721843 4288569600
1.5645601 1.0615671 -0.30156288 4288439040
1.5620172 1.0599087 -0.29594305 4288439040
1.5472962 1.0499974 -0.28773725 4288439040
1.5369742 1.0430657 -0.28011009 4288308480
1.5529556 1.0539584 -0.27693164 4288439040
1.5917444 1.0803096 -0.27728188 4288569600
1.5834965 1.0747827 -0.26900142 4288569600
1.5670857 1.0637218 -0.25913996 4288439040
1.5396241 1.0451682 -0.24736208 4288308480
1.5524665 1.0539342 -0.24184664 4288439040
1.5702319 1.0660384 -0.23667443 4288439040
1.5652692 1.0627345 -0.22774847 4288439040
1.5437642 1.0482137 -0.21630357 4288308480
1.5467855 1.0503212 -0.20815359 4288439040
1.5718197 1.0673554 -0.20257619 4288439040
1.5823567 1.0745603 -0.19470282 4288569600
1.5578294 1.057986 -0.18238501 4288439040
1.5394658 1.0455899 -0.17084682 4288308480
1.5672348 1.0644814 -0.1641816 4288439040
1.5638343 1.062233 -0.15392001 4288439040
1.5516729 1.0540414 -0.14272805 4288439040
1.5560342 1.057057 -0.13295142 4288439040
1.5779305 1.0719682 -0.12435634 4288439040
1.57845 1.0723783 -0.11379263 4288439040
1.561262 1.0607743 -0.10194206 4288439040
1.5542165 1.0560507 -0.090810053 4288439040
1.5561832 1.0574414 -0.080142833 4288439040
1.5631955 1.062256 -0.069587871 4288439040
1.5350658 1.0432234 -0.057540208 4288308480
1.5531719 1.0555663 -0.047238883 4288308480
1.5650623 1.063692 -0.036485963 4288439040
1.5735772 1.0695274 -0.025470987 4288439040
1.5637307 1.0629007 -0.014140261 4288439040
1.5843705 1.0769669 -0.002997817 4288439040
1.588819 1.0800436 0.008358431 4288569600
1.5781657 1.0728685 0.019582573 4288439040
1.6644599 1.1315101 0.032512359 4288830720
1.8627007 1.2661619 0.049599711 4289614080
1.8808511 1.2785525 0.0633967 4289744640
1.8659046 1.2684716 0.076035649 4289614080
1.8616109 1.2656235 0.088888079 4289614080
1.8735251 1.2737815 0.10246674 4289744640
1.8680412 1.2701254 0.1150287 4289614080
1.8525465 1.2596701 0.12670596 4289614080
1.8638315 1.2674024 0.14004137 4289614080
1.8710424 1.2723684 0.15304106 4289744640
1.8686655 1.2708226 0.16512179 4289614080
1.8455825 1.2552114 0.1750294 4289614080
1.8902621 1.2856321 0.19129193 4289744640
1.8994918 1.2919728 0.20410357 4289875200
1.8941798 1.2884346 0.21515398 4289744640
1.8727115 1.2739193 0.22397161 4289744640
1.83059 1.2453691 0.22969747 4289483520
1.8883219 1.2846684 0.24775785 4289744640
1.8810194 1.279778 0.25731167 4289744640
1.8724139 1.2740018 0.26631096 4289744640
1.8557755 1.2627661 0.2737352 4289614080
1.8483382 1.2577833 0.28207973 4289614080
1.8706783 1.2730402 0.29471439 4289744640
1.8757416 1.2765555 0.30443093 4289744640
1.8657427 1.2698326 0.31133837 4289744640
1.8635261 1.2684 0.31913182 4289744640
1.8569838 1.2640268 0.32578337 4289744640
1.8594058 1.2657485 0.33361387 4289744640
1.8598886 1.2661524 0.3407248 4289744640
1.858745 1.2654511 0.34714317 4289744640
1.8565272 1.2640196 0.35294864 4289744640
1.8539575 1.2623492 0.35826311 4289744640
1.8518534 1.2609959 0.36323759 4289744640
1.8446767 1.2561928 0.36677089 4289614080
1.8442717 1.2559958 0.37120128 4289614080
1.843116 1.2552888 0.37504414 4289614080
1.8454981 1.256989 0.37916973 4289614080
1.8433839 1.255631 0.38193008 4289614080
1.8365216 1.251043 0.38324663 4289614080
1.8402408 1.2536548 0.38631311 4289614080
1.847278 1.2585255 0.38963327 4289744640
1.8437889 1.256234 0.39028272 4289614080
1.8468785 1.2584203 0.39186296 4289744640
1.8394464 1.2534463 0.39075249 4289614080
1.8336368 1.2495766 0.38952461 4289614080
1.8434436 1.256337 0.39114898 4289614080
1.8406248 1.2545043 0.38963684 4289614080
1.849134 1.2603838 0.39005628 4289744640
1.8415645 1.255318 0.38663146 4289614080
1.8416119 1.2554382 0.38435683 4289614080
1.8435438 1.2568423 0.38202101 4289614080
1.8450599 1.257964 0.3791458 4289614080
1.8552122 1.264968 0.3775762 4289744640
1.8502678 1.2616916 0.37248766 4289744640
1.8533499 1.2638825 0.36858121 4289744640
1.8598832 1.268425 0.36490542 4289744640
1.8474245 1.260031 0.3571026 4289614080
1.8370997 1.2530901 0.34936523 4289614080
1.8447695 1.258409 0.34464666 4289614080
1.8649917 1.2722821 0.34177348 4289744640
1.8645929 1.2721062 0.33466166 4289744640
1.8508869 1.2628621 0.32483545 4289614080
1.8316782 1.2508571 0.26607212 4289614080
1.8722523 1.2786319 0.26194385 4289744640
1.8745894 1.280327 0.25194925 4289744640
1.8498805 1.263571 0.23816873 4289614080
1.8241731 1.2461315 0.22428115 4289483520
1.8556991 1.2677423 0.21712869 4289614080
1.8568671 1.2686406 0.20599343 4289614080
1.8387753 1.2563956 0.19260041 4289614080
1.8199252 1.2436314 0.17914437 4289483520
1.8431418 1.2595785 0.16959158 4289614080
1.8479366 1.2629533 0.15797858 4289614080
1.8464133 1.2620157 0.14563006 4289614080
1.8353996 1.254599 0.132457 4289483520
1.8529934 1.2667137 0.1211512 4289614080
1.6821629 1.1501673 0.098473683 4288961280
1.5895271 1.0870008 0.082061976 4288569600
1.5804068 1.080861 0.07056015 4288439040
1.5846341 1.0838367 0.059607212 4288569600
1.5799605 1.0807332 0.0482575 4288439040
1.4609672 0.99953544 0.034257658 4288047360
1.5660728 1.0714229 0.025532581 4288439040
1.5655353 1.0711436 0.014325458 4288439040
1.5510505 1.0613344 0.0030824044 4288308480
1.5409594 1.0545259 -0.0079821814 4288308480
1.5498679 1.0607005 -0.019132767 4288308480
1.5563757 1.0652355 -0.030345354 4288439040
1.5311099 1.0480534 -0.040770929 4288308480
1.5653143 1.0715203 -0.052807443 4288439040
1.5716569 1.0759441 -0.064134181 4288439040
1.570519 1.0752542 -0.075124785 4288439040
1.5325869 1.0494066 -0.08400093 4288308480
1.5629666 1.0702655 -0.096483365 4288439040
1.5665077 1.0727743 -0.10743898 4288439040
1.5562493 1.0658458 -0.11728753 4288439040
1.5053939 1.0311494 -0.12353878 4288177920
1.5778432 1.0807892 -0.13992086 4288439040
1.57973 1.0821673 -0.15038265 4288569600
1.5741416 1.0784312 -0.1599465 4288439040
1.5277874 1.0468034 -0.16486578 4288308480
1.2559011 0.86085337 -0.14329034 4287133440
1.5823519 1.0843085 -0.19013529 4288569600
1.5803382 1.0830169 -0.19926465 4288569600
1.5615543 1.0702469 -0.20593978 4288439040
1.4592053 1.0002786 -0.20068118 4288047360
1.2796465 0.87744844 -0.1830197 4287264000
1.5855026 1.0868936 -0.23521981 4288569600
1.5838506 1.0858474 -0.24316357 4288569600
1.5716453 1.0775751 -0.24914634 4288569600
1.5302119 1.0492882 -0.24995686 4288308480
1.3162801 0.90287459 -0.2211238 4287525120
1.5632468 1.0720721 -0.26955611 4288439040
1.5706002 1.0771899 -0.27750444 4288569600
1.5633148 1.0722814 -0.28255409 4288439040
1.5573117 1.0682501 -0.2874617 4288439040
1.5522091 1.0648347 -0.29216626 4288439040
1.542956 1.0585747 -0.29570571 4288439040
1.5096502 1.0358342 -0.29415998 4288308480
1.4603034 1.0020987 -0.28889838 4288047360
1.4054581 0.96459013 -0.28191924 4287916800
1.3493361 0.92620069 -0.27406695 4287655680
1.3602754 0.9337644 -0.27939731 4287655680
1.3875087 0.95249641 -0.28783038 4287786240
1.3204159 0.90657663 -0.27630463 4287525120
1.3274142 0.91143781 -0.27984539 4287525120
1.3352655 0.91688395 -0.28326187 4287525120
1.3350357 0.91679013 -0.28464523 4287525120
1.3429742 0.92229623 -0.28744417 4287655680
1.3387759 0.91948074 -0.28731564 4287655680
1.3346257 0.91669738 -0.28685865 4287525120
1.3191546 0.90614986 -0.28363243 4287525120
1.3151 0.90342981 -0.28252843 4287525120
1.3858693 0.95202708 -0.29713303 4287786240
1.3705425 0.94157726 -0.2929199 4287786240
1.3511994 0.92837059 -0.28753564 4287655680
1.4150524 0.97223318 -0.29945612 4287916800
1.4573079 1.0012844 -0.3063246 4288047360
1.4888033 1.0229566 -0.31046379 4288177920
1.5241431 1.0472686 -0.31492418 4288308480
1.5476416 1.0634583 -0.31645599 4288439040
1.5570205 1.0699606 -0.31466264 4288439040
1.5550261 1.0686581 -0.31019089 4288439040
1.5625571 1.0738924 -0.30724469 4288569600
1.5622329 1.0737352 -0.30238029 4288569600
1.548298 1.0642358 -0.29458192 4288439040
1.5377076 1.0570303 -0.28716514 4288439040
1.5380236 1.0573103 -0.28149226 4288439040
1.5392616 1.0582229 -0.27566111 4288439040
1.5762587 1.0836849 -0.27576092 4288569600
1.5688529 1.0786636 -0.26766077 4288569600
1.5558356 1.0697882 -0.25839171 4288439040
1.5292367 1.0515856 -0.24676032 4288308480
1.5430207 1.0611112 -0.2414245 4288439040
1.5523522 1.0675799 -0.23500663 4288439040
1.5686849 1.0788571 -0.22925298 4288439040
1.5451739 1.06277 -0.21746284 4288439040
1.5371755 1.0573357 -0.20778559 4288308480
1.5612857 1.0739555 -0.20212516 4288439040
1.5758774 1.0840383 -0.19478622 4288569600
1.5557321 1.0702587 -0.18297403 4288439040
1.5389174 1.0587656 -0.17157611 4288308480
1.5575322 1.0716125 -0.16392794 4288439040
1.5606141 1.073788 -0.15432994 4288439040
1.5430672 1.0617894 -0.14261702 4288308480
1.5414406 1.0607288 -0.13234539 4288308480
1.5632443 1.0757689 -0.12380894 4288439040
1.5604683 1.0739186 -0.11306451 4288439040
1.5425243 1.0616437 -0.10123952 4288308480
1.5363276 1.0574411 -0.090242624 4288308480
1.5456936 1.0639348 -0.080042087 4288308480
1.5504208 1.0672402 -0.069417395 4288439040
1.520543 1.0467584 -0.057344146 4288308480
1.542232 1.0617236 -0.047216803 4288308480
1.5545346 1.0702373 -0.036510043 4288439040
1.5572573 1.0721654 -0.025432106 4288439040
1.5532086 1.0694381 -0.014226271 4288439040
1.5737641 1.0836279 -0.0031163467 4288439040
1.579019 1.0872982 0.0082129911 4288439040
1.563466 1.0766602 0.019352885 4288439040
1.6474285 1.1344575 0.032177433 4288830720
1.8438933 1.2696321 0.049149241 4289614080
1.869094 1.2870312 0.063104272 4289744640
1.853691 1.2765049 0.075694337 4289614080
1.8498769 1.2739489 0.088536873 4289614080
1.8576286 1.2793486 0.10186099 4289614080
1.8543499 1.2771609 0.11450125 4289614080
1.8351067 1.2639906 0.1258781 4289614080
1.8562062 1.2785742 0.13988803 4289614080
1.8633878 1.2835838 0.15288812 4289744640
1.853626 1.2769361 0.16431609 4289614080
1.8265342 1.2583631 0.17378932 4289483520
1.8743203 1.2913145 0.19030982 4289744640
1.8802339 1.2954543 0.20271835 4289744640
1.8735065 1.2908951 0.21353713 4289744640
1.8494754 1.2744266 0.2219633 4289614080
1.8075337 1.2456291 0.22760411 4289483520
1.8642186 1.2847157 0.24546687 4289744640
1.865958 1.2859845 0.25616774 4289744640
1.8573912 1.2801594 0.26513138 4289744640
1.8514539 1.276144 0.27409303 4289614080
1.8170772 1.2525487 0.27833396 4289483520
1.8630245 1.2842556 0.29459563 4289744640
1.8610097 1.2829422 0.30316824 4289744640
1.8595741 1.2820277 0.31147385 4289744640
1.8558998 1.2795721 0.31902692 4289744640
1.8493835 1.2751595 0.32568371 4289744640
1.839896 1.2687005 0.33137923 4289614080
1.8545046 1.2788378 0.34104487 4289744640
1.8470653 1.2737902 0.34629744 4289744640
1.8416033 1.2701045 0.35147515 4289614080
1.8341666 1.2650588 0.35582799 4289614080
1.8288232 1.2614549 0.36013457 4289614080
1.8371199 1.267249 0.36671156 4289614080
1.8367152 1.267049 0.37114838 4289614080
1.8274425 1.260739 0.37334114 4289614080
1.8306277 1.2630134 0.37762502 4289614080
1.8277109 1.2610837 0.38021138 4289614080
1.831355 1.263676 0.38371566 4289614080
1.8205248 1.2562933 0.38373324 4289614080
1.8283447 1.2617651 0.38722038 4289614080
1.8240587 1.2588935 0.38769689 4289614080
1.8238913 1.2588614 0.38858855 4289614080
1.8318967 1.2644644 0.39076415 4289614080
1.8301637 1.2633545 0.39040768 4289614080
1.8318195 1.2645818 0.39031357 4289614080
1.8330653 1.265527 0.3896721 4289614080
1.8301834 1.2636267 0.38769779 4289614080
1.8258867 1.2607509 0.38497499 4289614080
1.822686 1.2586312 0.3820391 4289614080
1.8278518 1.2622828 0.38040251 4289614080
1.8415318 1.2718085 0.3800582 4289744640
1.8362182 1.2682337 0.37534118 4289614080
1.8385973 1.2699659 0.37176082 4289614080
1.8416642 1.2721735 0.36787251 4289744640
1.8359803 1.2683442 0.3618176 4289614080
1.8276296 1.2626746 0.35485637 4289614080
1.8214067 1.2584732 0.34793937 4289614080
1.8331075 1.2666415 0.34401834 4289614080
1.8573122 1.2834419 0.34191704 4289744640
1.8531877 1.2806911 0.33414245 4289744640
1.846521 1.2761856 0.32556763 4289744640
1.8204942 1.2583778 0.26549187 4289614080
1.8535515 1.2813003 0.2603527 4289744640
1.86869 1.291854 0.25214598 4289744640
1.8386188 1.27119 0.23765214 4289614080
1.8166134 1.2560936 0.22423092 4289483520
1.8329439 1.2674721 0.21531279 4289614080
1.8422939 1.2740313 0.20518109 4289614080
1.8232374 1.2609695 0.19172391 4289483520
1.8005676 1.2454096 0.17793575 4289483520
1.827791 1.2643178 0.16883849 4289614080
1.8411175 1.2736274 0.15800999 4289614080
1.8351476 1.2696052 0.14530595 4289614080
1.8364934 1.2706379 0.1330492 4289614080
1.8301982 1.2663903 0.12012645 4289614080
1.668242 1.1545556 0.098036341 4288830720
1.5677444 1.085184 0.081250317 4288439040
1.5742743 1.0897864 0.07055366 4288439040
1.5743738 1.0899441 0.059444834 4288439040
1.5659579 1.0842146 0.048008319 4288439040
1.5107065 1.0461 0.035542857 4288177920
1.5599937 1.0802677 0.025520936 4288439040
1.5520556 1.0748664 0.014245651 4288439040
1.5409038 1.0672417 0.0030607551 4288308480
1.5308639 1.0603846 -0.007975339 4288308480
1.5434369 1.0691686 -0.019143958 4288308480
1.5554794 1.0775868 -0.03046431 4288439040
1.5329791 1.0621084 -0.040999141 4288308480
1.5510136 1.0746732 -0.052547935 4288439040
1.5622638 1.0825455 -0.064020053 4288439040
1.564417 1.0841238 -0.075146601 4288439040
1.5102028 1.0466924 -0.083117582 4288177920
1.5518637 1.0756118 -0.096194699 4288439040
1.5637672 1.0839385 -0.10769399 4288439040
1.5452045 1.0711766 -0.11693398 4288439040
1.4872367 1.0311328 -0.12254879 4288177920
1.567609 1.0868613 -0.1395819 4288439040
1.5808626 1.0961256 -0.15110508 4288569600
1.5683712 1.0875639 -0.16000938 4288439040
1.5218456 1.0554314 -0.16489238 4288308480
1.3378384 0.92807841 -0.15326054 4287525120
1.5639259 1.0847453 -0.18868259 4288439040
1.5627434 1.0840123 -0.19784328 4288439040
1.5513927 1.0762348 -0.20542623 4288439040
1.4494431 1.0056903 -0.20014285 4288047360
1.2714005 0.88241404 -0.18257304 4287264000
1.5760688 1.0935857 -0.2347609 4288569600
1.5695318 1.089141 -0.24193345 4288569600
1.5614527 1.0836264 -0.24852376 4288439040
1.5161095 1.0522845 -0.2486458 4288308480
1.3944882 0.96806836 -0.23519614 4287786240
1.5555359 1.0797741 -0.26929837 4288439040
1.5604185 1.0832406 -0.27680585 4288569600
1.5572273 1.0811099 -0.28257546 4288439040
1.5522714 1.077755 -0.28767157 4288439040
1.5461642 1.0736008 -0.29218498 4288439040
1.5247713 1.058846 -0.29338101 4288308480
1.4956568 1.038734 -0.29258868 4288308480
1.4432611 1.0024723 -0.28665739 4288047360
1.3967403 0.97027957 -0.28127775 4287786240
1.3400272 0.93101221 -0.27325028 4287655680
1.3590264 0.94425821 -0.28023988 4287655680
1.3740041 0.95471585 -0.28615034 4287786240
1.3817285 0.96014237 -0.29026374 4287786240
1.3149568 0.9138822 -0.27830613 4287525120
1.3146859 0.91375804 -0.27998847 4287525120
1.3217422 0.91871768 -0.2829119 4287525120
1.3215603 0.91865462 -0.28396454 4287525120
1.3254696 0.92143041 -0.28556699 4287525120
1.321336 0.91862392 -0.2851052 4287525120
1.3140146 0.91360366 -0.28362134 4287525120
1.3844589 0.96256369 -0.29857117 4287786240
1.3845141 0.96266568 -0.29798636 4287786240
1.3530675 0.94089729 -0.29029822 4287655680
1.3378438 0.93038893 -0.28578636 4287655680
1.4014472 0.97461104 -0.29771224 4287916800
1.4475836 1.0067096 -0.30544171 4288047360
1.5003835 1.043439 -0.31406742 4288308480
1.5182054 1.0558816 -0.31488699 4288308480
1.5453426 1.0747948 -0.31718022 4288439040
1.5509549 1.0787597 -0.31461784 4288439040
1.5489683 1.0774462 -0.3101427 4288439040
1.5474515 1.0764586 -0.30541337 4288439040
1.5472285 1.0763689 -0.30059269 4288439040
1.5454111 1.0751712 -0.29512379 4288439040
1.5278367 1.0630255 -0.28637636 4288439040
1.5206631 1.0581044 -0.27933928 4288308480
1.5328577 1.06664 -0.2755191 4288439040
1.566054 1.0897702 -0.27497342 4288569600
1.5619985 1.0870152 -0.26745629 4288569600
1.5465198 1.0763208 -0.25776908 4288439040
1.5283747 1.0637715 -0.24750301 4288308480
1.5329368 1.0670029 -0.24069852 4288439040
1.5503776 1.0791862 -0.23553474 4288439040
1.5584964 1.0848905 -0.22856005 4288439040
1.5309963 1.065834 -0.21621382 4288308480
1.5271049 1.063188 -0.2071321 4288308480
1.5550996 1.0827098 -0.202007 4288439040
1.5582998 1.0849944 -0.19325857 4288439040
1.5423131 1.0739379 -0.18199486 4288439040
1.5214722 1.0595045 -0.17018248 4288308480
1.5432807 1.0747274 -0.16294654 4288439040
1.5586208 1.0854534 -0.1546151 4288439040
1.528864 1.0648168 -0.1417354 4288308480
1.5239644 1.0614661 -0.13123253 4288308480
1.5531152 1.0817983 -0.12335891 4288439040
1.5461866 1.0770364 -0.11233666 4288439040
1.5411015 1.0735562 -0.10140921 4288439040
1.530333 1.0661218 -0.090107806 4288308480
1.5392505 1.0723819 -0.079882793 4288308480
1.5476508 1.0782826 -0.069424376 4288439040
1.5105051 1.0524945 -0.057049036 4288308480
1.5321081 1.0675811 -0.04694701 4288308480
1.5436046 1.0756366 -0.036248833 4288439040
1.5470719 1.0781057 -0.025216321 4288439040
1.5356507 1.070214 -0.013970813 4288308480
1.567616 1.0925159 -0.0029635483 4288439040
1.5646416 1.0905029 0.0083249062 4288439040
1.5499696 1.0803479 0.019415369 4288439040
1.62868 1.1351911 0.03209966 4288700160
1.8325833 1.2771857 0.049222868 4289614080
1.853583 1.2918711 0.063012853 4289614080
1.8464431 1.2869682 0.075879507 4289614080
1.8397092 1.2823478 0.088581003 4289614080
1.8421644 1.2841247 0.10159574 4289614080
1.8356211 1.2796366 0.11397565 4289614080
1.8197331 1.2686414 0.125497 4289483520
1.8415709 1.2839154 0.13951476 4289614080
1.8479073 1.2883964 0.15239799 4289614080
1.8444464 1.2860548 0.16432652 4289614080
1.8169394 1.2669663 0.17373352 4289483520
1.86017 1.2971445 0.18979652 4289744640
1.8702096 1.3042077 0.20260955 4289744640
1.8547313 1.2934968 0.2124058 4289744640
1.838148 1.2820153 0.2216434 4289614080
1.7963718 1.2529823 0.22725387 4289483520
1.8569148 1.2952309 0.24563429 4289744640
1.8486495 1.2895441 0.25495571 4289744640
1.8460385 1.2877966 0.26470846 4289744640
1.8246515 1.2729664 0.27134717 4289614080
1.8099555 1.2627974 0.27848369 4289483520
1.8443322 1.2868257 0.29293874 4289744640
1.8496493 1.2906048 0.30264902 4289744640
1.8426971 1.2858337 0.31000376 4289744640
1.8331908 1.2792822 0.31650171 4289614080
1.8340147 1.2799311 0.32437998 4289614080
1.8250594 1.2737638 0.33012664 4289614080
1.8391232 1.2836434 0.33966905 4289744640
1.8317169 1.2785565 0.3448872 4289614080
1.8262798 1.2748424 0.35003221 4289614080
1.8237361 1.2731459 0.35529938 4289614080
1.8240858 1.2734673 0.3607102 4289614080
1.8299184 1.2776128 0.36680117 4289614080
1.8181876 1.2695111 0.36893615 4289614080
1.8212993 1.2717605 0.37362626 4289614080
1.8194093 1.2705222 0.37685829 4289614080
1.8229833 1.2730956 0.38078204 4289614080
1.808821 1.2632979 0.38054499 4289614080
1.8133907 1.2665671 0.38378149 4289614080
1.8171406 1.2692653 0.38640365 4289614080
1.8128724 1.2663704 0.3868697 4289614080
1.8127067 1.2663382 0.38775188 4289614080
1.8012955 1.2584598 0.38577285 4289614080
1.8157252 1.2686135 0.38886371 4289614080
1.8133364 1.2670319 0.38790074 4289614080
1.8137696 1.2674203 0.38708472 4289614080
1.8117064 1.266067 0.38528287 4289614080
1.8197222 1.2717495 0.38516217 4289614080
1.8188449 1.2712255 0.38270244 4289614080
1.8206956 1.2726065 0.38036516 4289614080
1.8189634 1.2714868 0.37683472 4289614080
1.8249876 1.2757832 0.37445879 4289614080
1.8276443 1.2777294 0.37093708 4289614080
1.8271748 1.2774934 0.36634386 4289614080
1.8255577 1.2764566 0.36109936 4289614080
1.8091428 1.2650852 0.35256401 4289614080
1.8069899 1.2636743 0.34644932 4289614080
1.8145912 1.2690771 0.34178162 4289614080
1.8338333 1.2826134 0.3388133 4289614080
1.8426927 1.2888985 0.33343557 4289744640
1.827938 1.2786865 0.32343253 4289614080
1.8114822 1.2682842 0.26529813 4289483520
1.8376915 1.2867122 0.2592231 4289614080
1.8609073 1.3030497 0.25216416 4289744640
1.8277011 1.2799259 0.23724881 4289614080
1.8008937 1.2612751 0.22324216 4289483520
1.829386 1.2813067 0.21581456 4289614080
1.8346183 1.285069 0.20520408 4289614080
1.8076879 1.2663289 0.19090976 4289483520
1.7971478 1.2590549 0.17836542 4289483520
1.816089 1.2724104 0.16848734 4289483520
1.8252717 1.2789389 0.15733576 4289614080
1.816053 1.2725898 0.1444279 4289483520
1.8092109 1.2679032 0.13165605 4289483520
1.8229147 1.2775984 0.12018234 4289614080
1.6449214 1.1530955 0.097104795 4288830720
1.5571148 1.0917138 0.081069052 4288439040
1.5646144 1.0970535 0.07044737 4288439040
1.562794 1.095868 0.059289306 4288439040
1.5590761 1.0933535 0.048032563 4288439040
1.4970347 1.0499921 0.035404742 4288177920
1.5527316 1.089088 0.025546068 4288439040
1.5455812 1.0841682 0.014284163 4288439040
1.5189263 1.0655843 0.003070893 4288308480
1.5296046 1.0731522 -0.0079622976 4288308480
1.5296267 1.0732553 -0.019009588 4288308480
1.5375253 1.0788772 -0.030194536 4288308480
1.5155239 1.0635476 -0.040657487 4288308480
1.5445415 1.08397 -0.05250258 4288439040
1.5557444 1.0919098 -0.063973367 4288439040
1.546433 1.085472 -0.074545734 4288439040
1.5006278 1.0534518 -0.082889676 4288177920
1.5412978 1.0820481 -0.095890999 4288439040
1.5498828 1.0881544 -0.10713477 4288439040
1.5501957 1.0884618 -0.11775342 4288439040
1.476944 1.0371852 -0.12216177 4288177920
1.5529705 1.0905827 -0.13880588 4288439040
1.5620202 1.0970169 -0.14987682 4288439040
1.5577444 1.0941057 -0.15953843 4288439040
1.5073372 1.0588361 -0.16395342 4288308480
1.2417153 0.8725912 -0.14280087 4287133440
1.5573959 1.0941223 -0.18862903 4288439040
1.5562181 1.0933822 -0.19778973 4288439040
1.5449144 1.0855371 -0.20537311 4288439040
1.4393229 1.0115284 -0.19952962 4288047360
1.2660897 0.89003938 -0.18252984 4287264000
1.5687445 1.1025157 -0.23459677 4288569600
1.5629764 1.0985525 -0.24188095 4288569600
1.5516843 1.090711 -0.24795341 4288439040
1.5057204 1.0585291 -0.2479286 4288308480
1.3846084 0.97358578 -0.23446502 4287786240
1.5417446 1.0839822 -0.26798192 4288439040
1.5449932 1.086345 -0.27517176 4288439040
1.5426259 1.0847644 -0.28105396 4288439040
1.5425485 1.0847909 -0.28702375 4288439040
1.5316157 1.0771935 -0.29060677 4288439040
1.5183983 1.0679898 -0.29333866 4288308480
1.4894048 1.0477033 -0.29254863 4288308480
1.4291512 1.0054545 -0.28501022 4288047360
1.3941294 0.98092467 -0.28189605 4287916800
1.3231252 0.9311114 -0.27090651 4287525120
1.3533427 0.95240861 -0.28020969 4287655680
1.3609986 0.95785564 -0.2846044 4287786240
1.3759487 0.96842849 -0.29023677 4287786240
1.2973639 0.91327101 -0.27571386 4287525120
1.3091849 0.92164218 -0.27996668 4287525120
1.316211 0.92664397 -0.28289208 4287525120
1.3200575 0.92941111 -0.28481567 4287525120
1.3158935 0.92654717 -0.28468049 4287525120
1.3125824 0.92428195 -0.28439423 4287525120
1.3044852 0.91865122 -0.28273809 4287525120
1.3706068 0.96520102 -0.29681876 4287786240
1.3666328 0.96247041 -0.29536986 4287786240
1.3361218 0.94107872 -0.28786603 4287655680
1.3209598 0.93047756 -0.28336713 4287525120
1.3883237 0.97791207 -0.29616797 4287786240
1.4302351 1.0074512 -0.30305707 4288047360
1.4860353 1.0467623 -0.31238213 4288308480
1.5187021 1.0698059 -0.31632715 4288439040
1.5275743 1.0761136 -0.31486917 4288439040
1.536386 1.0823791 -0.31299391 4288439040
1.5339996 1.0807666 -0.30846158 4288439040
1.5409634 1.085732 -0.30543935 4288439040
1.5367024 1.0827994 -0.29983452 4288439040
1.5348903 1.0815892 -0.29438218 4288439040
1.5133455 1.0664926 -0.28489131 4288308480
1.5142844 1.0672163 -0.27937877 4288308480
1.5184001 1.0701754 -0.27411374 4288308480
1.5594835 1.0991533 -0.27502131 4288569600
1.5481564 1.091244 -0.26625457 4288439040
1.5359792 1.0827351 -0.25714552 4288439040
1.5098017 1.0643694 -0.24558301 4288308480
1.518393 1.0704778 -0.23948067 4288308480
1.5431292 1.087953 -0.23548695 4288439040
1.5365301 1.0833677 -0.2263571 4288439040
1.5164471 1.0692874 -0.21513294 4288308480
1.5257812 1.075919 -0.20789976 4288308480
1.5404407 1.0863011 -0.2010252 4288439040
1.5469475 1.0909427 -0.19274193 4288439040
1.5276995 1.0774466 -0.18111502 4288308480
1.5150836 1.0686196 -0.17026949 4288308480
1.540122 1.0863127 -0.16339035 4288439040
1.5325197 1.0810161 -0.15276037 4288439040
1.5183681 1.0711054 -0.14145188 4288308480
1.5260689 1.0765871 -0.1320677 4288308480
1.5425146 1.0882299 -0.12313654 4288439040
1.5430217 1.0886447 -0.1126855 4288439040
1.5341358 1.0824416 -0.10148426 4288439040
1.5290189 1.0788931 -0.090520225 4288308480
1.5295204 1.0793029 -0.079824351 4288308480
1.5297161 1.0794973 -0.069022447 4288308480
1.5032742 1.06092 -0.057129499 4288177920
1.5256752 1.0767622 -0.047064833 4288308480
1.5338548 1.0825831 -0.036291588 4288308480
1.5364903 1.0844969 -0.025270969 4288439040
1.5369099 1.084849 -0.014165672 4288439040
1.5568472 1.098959 -0.0030814789 4288439040
1.5580736 1.0998806 0.0081972266 4288439040
1.5434635 1.0896381 0.019287899 4288439040
1.6205394 1.1440332 0.031939335 4288700160
1.8175391 1.2829844 0.048873685 4289483520
1.8424796 1.3006362 0.062745333 4289614080
1.82726 1.2899725 0.075255714 4289614080
1.8197407 1.2847377 0.087837532 4289614080
1.8270876 1.2899859 0.10103638 4289614080
1.8311845 1.2929429 0.11402505 4289614080
1.8120987 1.2795506 0.12534548 4289483520
1.8271115 1.2902066 0.13885163 4289614080
1.832002 1.2937243 0.15157275 4289614080
1.8263998 1.2898414 0.16325629 4289614080
1.8076779 1.2767037 0.17342955 4289483520
1.8442241 1.3025534 0.18881562 4289614080
1.8582952 1.3125503 0.20202029 4289744640
1.8428838 1.3017482 0.21179488 4289614080
1.8304377 1.2930373 0.2215028 4289614080
1.7807091 1.2580197 0.22608891 4289483520
1.8458763 1.304073 0.24506707 4289744640
1.8408948 1.3006295 0.25482288 4289744640
1.8342371 1.2960032 0.26399609 4289614080
1.8169969 1.2839082 0.27122283 4289614080
1.7991197 1.2713627 0.2778641 4289483520
1.8288352 1.2924087 0.29158568 4289614080
1.8337913 1.2959805 0.30120704 4289614080
1.8276812 1.2917415 0.30866638 4289614080
1.8254979 1.2902746 0.31639782 4289614080
1.8113025 1.2803277 0.32161874 4289614080
1.8133587 1.2818542 0.32930043 4289614080
1.8200953 1.2866862 0.33748639 4289614080
1.8199903 1.2866884 0.34404209 4289614080
1.8105419 1.2800932 0.34840435 4289614080
1.8069615 1.2776418 0.35344753 4289614080
1.8067461 1.2775671 0.35872605 4289614080
1.8109474 1.2806125 0.36447409 4289614080
1.8065202 1.2775643 0.36806405 4289614080
1.8063968 1.2775565 0.37208912 4289614080
1.799684 1.2728944 0.37431037 4289614080
1.8032447 1.2754902 0.37822035 4289614080
1.8052405 1.2769814 0.38136882 4289614080
1.8048903 1.2768155 0.3835777 4289614080
1.7942109 1.269352 0.38313296 4289614080
1.7939835 1.2692739 0.38445601 4289614080
1.7938179 1.2692401 0.38534015 4289614080
1.7937148 1.2692511 0.38578451 4289614080
1.8080821 1.2794904 0.38888317 4289614080
1.80168 1.275051 0.38706517 4289614080
1.8061315 1.278284 0.38711989 4289614080
1.8000531 1.2740741 0.38446802 4289614080
1.8120558 1.2826473 0.38521349 4289614080
1.8031338 1.2764279 0.38106367 4289614080
1.8010197 1.2750219 0.37791783 4289614080
1.8098489 1.2813548 0.37660992 4289614080
1.8060201 1.2787377 0.37222302 4289614080
1.816715 1.2863923 0.37037385 4289614080
1.8194674 1.2884313 0.36644477 4289614080
1.8097967 1.2816838 0.35960934 4289614080
1.7961905 1.2721521 0.35164061 4289614080
1.7912986 1.2687843 0.34502241 4289483520
1.8028973 1.2770834 0.34115225 4289614080
1.8228625 1.291304 0.3383573 4289614080
1.8308744 1.2970691 0.33285388 4289744640
1.816179 1.286767 0.32287356 4289614080
1.7929407 1.2704786 0.26364705 4289483520
1.830392 1.2970847 0.2592369 4289614080
1.8372903 1.3020686 0.24997313 4289614080
1.8082658 1.2816242 0.23567621 4289614080
1.7856188 1.2656918 0.22224334 4289483520
1.809932 1.2830055 0.21438269 4289614080
1.8246826 1.2935513 0.20491505 4289614080
1.7970427 1.2740816 0.19054948 4289483520
1.7813865 1.2630956 0.1775129 4289483520
1.801548 1.2774755 0.16780986 4289483520
1.8066208 1.2811707 0.1563534 4289483520
1.8088347 1.2828416 0.14442819 4289483520
1.7938735 1.2723461 0.13106115 4289483520
1.8042607 1.2798076 0.11942645 4289483520
1.6310461 1.1571852 0.096667506 4288830720
1.5468469 1.0976173 0.080851749 4288439040
1.5543153 1.1029985 0.07025744 4288439040
1.5533164 1.1023799 0.059157934 4288439040
1.5458835 1.0972013 0.047808498 4288439040
1.4829223 1.0526633 0.035202544 4288177920
1.5383968 1.0920726 0.02540106 4288439040
1.5314528 1.0872386 0.014198587 4288308480
1.5242907 1.0822492 0.0030786635 4288308480
1.512097 1.0736914 -0.0079160435 4288308480
1.5235389 1.081892 -0.019025754 4288308480
1.5314054 1.0875585 -0.030211911 4288308480
1.5123507 1.074133 -0.040753052 4288308480
1.5262259 1.0840614 -0.052105594 4288308480
1.540482 1.0942615 -0.063618772 4288439040
1.5446991 1.0973417 -0.07478182 4288439040
1.5051177 1.0693499 -0.08349286 4288308480
1.5278283 1.0855494 -0.095455654 4288308480
1.5437092 1.0969051 -0.10715884 4288439040
1.5366945 1.0920157 -0.11721897 4288439040
1.4678048 1.0432147 -0.12191546 4288177920
1.542716 1.0964645 -0.1384667 4288439040
1.5517308 1.1029507 -0.14951162 4288439040
1.5474732 1.1000164 -0.15914738 4288439040
1.5117624 1.0747529 -0.16511957 4288308480
1.3115158 0.93267316 -0.15145674 4287525120
1.5472007 1.1000844 -0.1881717 4288439040
1.5455518 1.0990002 -0.19724788 4288439040
1.5274063 1.086201 -0.20388569 4288439040
1.4262917 1.0144769 -0.19854005 4287916800
1.2488939 0.88856298 -0.1807939 4287264000
1.5584413 1.1084982 -0.23401624 4288569600
1.5535066 1.1050783 -0.2414047 4288569600
1.5414524 1.0965999 -0.24733067 4288439040
1.5037525 1.0699 -0.24862058 4288308480
1.3750459 0.97853523 -0.23380032 4287786240
1.5355927 1.0926864 -0.2680051 4288439040
1.5347947 1.0922016 -0.27447295 4288439040
1.5357264 1.0929455 -0.28093916 4288439040
1.5283339 1.0877728 -0.28553861 4288439040
1.5318757 1.0903708 -0.29183906 4288439040
1.5083122 1.0737015 -0.29257506 4288308480
1.4721932 1.048104 -0.29034266 4288177920
1.4194238 1.0106652 -0.28421825 4288047360
1.3773062 0.9807936 -0.27962267 4287786240
1.3138233 0.93572593 -0.27008969 4287525120
1.3286543 0.94633847 -0.27620989 4287655680
1.343515 0.95697325 -0.28208143 4287655680
1.3704545 0.97619915 -0.29024073 4287786240
1.2849573 0.91545933 -0.2741746 4287394560
1.2999433 0.92618185 -0.27910522 4287525120
1.3037317 0.92894024 -0.2813319 4287525120
1.3107737 0.93401307 -0.28394255 4287525120
1.3034172 0.92884266 -0.28310612 4287525120
1.2953057 0.92313397 -0.28176865 4287525120
1.2880436 0.91802841 -0.2802839 4287394560
1.2840369 0.91523802 -0.27918032 4287394560
1.3459312 0.95934266 -0.29204673 4287655680
1.3307861 0.948627 -0.28784698 4287655680
1.3116723 0.93508488 -0.28248191 4287525120
1.38278 0.98575544 -0.29614255 4287786240
1.4245242 1.0155314 -0.30302793 4288047360
1.4801019 1.0551577 -0.31234869 4288308480
1.508623 1.0755273 -0.31545037 4288308480
1.5174587 1.0818844 -0.31399733 4288439040
1.5280508 1.0894923 -0.31249925 4288439040
1.5278749 1.0894337 -0.30841354 4288439040
1.5299892 1.0910052 -0.30442849 4288439040
1.5298325 1.0909592 -0.29963559 4288439040
1.5271554 1.0891179 -0.29401439 4288439040
1.5073032 1.075044 -0.28483006 4288308480
1.5037605 1.0725839 -0.27848494 4288308480
1.5236185 1.0867908 -0.27608886 4288439040
1.54849 1.10457 -0.27410373 4288569600
1.5448699 1.1020547 -0.26667711 4288439040
1.528939 1.0907687 -0.2569131 4288439040
1.5037729 1.0729015 -0.24550085 4288308480
