# .PCD v0.7 - Point Cloud Data file format
VERSION 0.7
FIELDS x y z rgba
SIZE 4 4 4 4
TYPE F F F U
COUNT 1 1 1 1
WIDTH 1104
HEIGHT 1
VIEWPOINT 0 0 0 1 0 0 0
POINTS 1104
DATA ascii
1.945497 -2.3374119 -0.33979073 4292355840
1.9560413 -2.3499053 -0.32721809 4292355840
1.9533461 -2.3465014 -0.31201535 4292355840
1.9279512 -2.3158467 -0.2930631 4292225280
1.9257604 -2.3130503 -0.27753237 4292225280
1.9390892 -2.3288822 -0.2638475 4292355840
1.9362613 -2.32532 -0.24759544 4292225280
1.91979 -2.3053839 -0.22949272 4292225280
1.9325871 -2.3205738 -0.21467219 4292225280
1.9515287 -2.3431346 -0.20003469 4292355840
1.9517174 -2.3431907 -0.183098 4292355840
1.8981494 -2.2787495 -0.16139154 4292094720
1.9377444 -2.3260858 -0.14755921 4292225280
1.9452995 -2.3349793 -0.13071233 4292355840
1.9342476 -2.3215516 -0.11251029 4292225280
1.9251168 -2.31043 -0.094486579 4292225280
1.948701 -2.338547 -0.077841803 4292355840
1.9612105 -2.3533778 -0.060345437 4292355840
1.8955926 -2.2745178 -0.04086845 4291964160
1.9504983 -2.3401883 -0.024059637 4292355840
1.9592818 -2.3505483 -0.006069974 4292355840
1.9596816 -2.3508554 0.012032114 4292355840
1.8962061 -2.2745869 0.029148659 4291964160
1.9714787 -2.3646526 0.048451807 4292486400
1.9835073 -2.3788977 0.066953354 4292486400
1.9704661 -2.3630931 0.084525101 4292486400
1.9231114 -2.3061666 0.09998332 4292225280
1.967361 -2.3590264 0.12004609 4292355840
1.979775 -2.3737299 0.13854598 4292486400
1.9585017 -2.348067 0.15446012 4292355840
1.9278821 -2.3112099 0.16900739 4292225280
1.9840117 -2.3782873 0.19117369 4292486400
1.9811538 -2.3746912 0.20791589 4292486400
1.9625728 -2.3522615 0.22259639 4292355840
1.9132625 -2.2930284 0.23297992 4292094720
1.984781 -2.3785203 0.25796688 4292486400
2.002507 -2.3995774 0.2764135 4292616960
1.9837862 -2.3769865 0.2895216 4292486400
1.9127152 -2.291713 0.29397753 4292094720
1.8280572 -2.1901836 0.29482704 4291703040
1.9869157 -2.3802233 0.33509076 4292616960
1.9811816 -2.3731892 0.3483876 4292486400
1.9548824 -2.341538 0.35745347 4292355840
1.9299695 -2.3115513 0.366014 4292225280
1.823812 -2.1843257 0.35790461 4291703040
1.9951637 -2.3892529 0.40415925 4292616960
1.9755992 -2.3656716 0.41229585 4292486400
1.9655533 -2.3534846 0.42176569 4292486400
1.9343755 -2.3160141 0.4259882 4292355840
1.8990154 -2.2735445 0.42843512 4292094720
1.842953 -2.2063131 0.42524633 4291833600
1.9905729 -2.3827655 0.46893224 4292616960
1.9992886 -2.3930285 0.4801484 4292616960
1.9880936 -2.3794742 0.48602331 4292616960
1.9687719 -2.3562016 0.489223 4292486400
1.9322094 -2.3123128 0.48735982 4292355840
1.9468014 -2.3296084 0.49772888 4292355840
1.9582714 -2.3431687 0.50680506 4292486400
1.9761162 -2.3643508 0.51702243 4292616960
1.9109176 -2.286236 0.50481784 4292225280
1.9225563 -2.3000002 0.51215583 4292355840
1.9253988 -2.3032475 0.51658279 4292355840
1.928303 -2.3065684 0.52042878 4292355840
1.9312705 -2.3099654 0.5236876 4292355840
1.9336708 -2.3126848 0.52618212 4292355840
1.9310805 -2.3094397 0.52670085 4292355840
1.9279251 -2.3055203 0.52644223 4292355840
1.9248369 -2.3016825 0.52558041 4292355840
1.9281372 -2.3054802 0.52584034 4292355840
1.9131699 -2.2874498 0.5205133 4292225280
1.9718442 -2.3574131 0.53453749 4292616960
1.9570115 -2.3395438 0.52799088 4292486400
1.9365449 -2.3149469 0.51935714 4292355840
1.9218264 -2.2972205 0.51171404 4292225280
1.9645628 -2.34813 0.51868302 4292486400
1.9862895 -2.3739383 0.51935256 4292616960
1.9973798 -2.3870399 0.51654929 4292616960
1.9949309 -2.3839705 0.50962102 4292616960
1.9925323 -2.3809621 0.50212699 4292616960
1.999691 -2.3893681 0.49643523 4292616960
1.9901109 -2.3777854 0.48602766 4292616960
1.9910156 -2.3787243 0.47764865 4292616960
1.9887842 -2.3759193 0.46797171 4292616960
1.9899607 -2.3771839 0.45855987 4292616960
1.9877892 -2.3744521 0.44785461 4292616960
1.985751 -2.3711691 0.36983809 4292486400
1.9981377 -2.3858159 0.35837615 4292616960
1.9992172 -2.3869689 0.34439188 4292616960
1.9736362 -2.3563106 0.32561249 4292486400
1.9778656 -2.3612244 0.31153366 4292486400
1.9930892 -2.3792551 0.29868743 4292616960
1.9940828 -2.3803074 0.28325409 4292616960
1.9654598 -2.3460293 0.26352456 4292355840
1.9663731 -2.3469882 0.24767652 4292355840
1.9872503 -2.3717606 0.23388422 4292486400
1.9848862 -2.3688095 0.21694921 4292486400
1.9532746 -2.3309765 0.19687138 4292355840
1.972808 -2.3541439 0.18182188 4292355840
1.9903084 -2.3748844 0.1660634 4292486400
1.9877431 -2.371695 0.1483205 4292486400
1.9370095 -2.3110695 0.12730093 4292225280
1.9711665 -2.3516703 0.11185113 4292355840
1.9738553 -2.3547473 0.094165698 4292355840
1.9655694 -2.3447402 0.075904429 4292355840
1.8932064 -2.2583444 0.055827931 4291964160
1.968375 -2.3478289 0.039991312 4292355840
1.9685545 -2.3479152 0.0219038 4292355840
1.9525627 -2.3287256 0.0037569667 4292225280
1.9510378 -2.326781 -0.014209484 4292225280
1.9666879 -2.3453066 -0.032420218 4292355840
1.9595979 -2.3367293 -0.050300881 4292355840
1.9080771 -2.2752044 -0.066449501 4292094720
1.9624202 -2.3398373 -0.086248256 4292355840
1.9723309 -2.3515189 -0.10458619 4292355840
1.9652969 -2.3430092 -0.12194097 4292355840
1.879392 -2.2405305 -0.13343661 4291964160
1.9576497 -2.3336418 -0.15637998 4292355840
1.9730966 -2.3519158 -0.17496668 4292355840
1.9486908 -2.3227131 -0.1897544 4292225280
1.8682574 -2.2267749 -0.19797823 4291833600
1.9737915 -2.3523548 -0.22590339 4292486400
1.9832424 -2.3634808 -0.24355957 4292486400
1.9844531 -2.3647916 -0.26002872 4292486400
1.9202719 -2.2882261 -0.26713836 4292094720
1.8637037 -2.2207344 -0.27404934 4291833600
1.982448 -2.3620083 -0.30691114 4292486400
1.9809598 -2.3601038 -0.32173526 4292486400
1.9600734 -2.3351028 -0.33288917 4292355840
1.9312111 -2.3006082 -0.3419579 4292225280
1.8069109 -2.1524968 -0.33266962 4291572480
1.992469 -2.3732708 -0.38043928 4292616960
1.9914913 -2.3719716 -0.39343715 4292616960
1.9851005 -2.3642285 -0.404879 4292486400
1.9662656 -2.3416743 -0.41317278 4292486400
1.9015565 -2.2645242 -0.41086546 4292094720
1.9755546 -2.352458 -0.43809304 4292486400
1.9746431 -2.3512361 -0.44863471 4292486400
1.9737669 -2.3500559 -0.45866641 4292486400
1.9706808 -2.3462455 -0.46764371 4292486400
1.9529734 -2.3250382 -0.4725222 4292355840
1.9480861 -2.3190856 -0.47985804 4292355840
1.9197975 -2.2852929 -0.48074529 4292225280
1.8799407 -2.2377419 -0.47791794 4291964160
1.9034481 -2.2655699 -0.49057409 4292094720
1.9155676 -2.2798486 -0.49985251 4292225280
1.9207551 -2.2858796 -0.50679976 4292225280
1.8642391 -2.2185242 -0.49675447 4291964160
1.8822342 -2.2397885 -0.50587445 4292094720
1.8882354 -2.2467866 -0.51123893 4292094720
1.8936632 -2.2531011 -0.5158757 4292094720
1.896618 -2.256474 -0.51925272 4292094720
1.8996381 -2.2599232 -0.52205086 4292094720
1.8932172 -2.252147 -0.52164674 4292094720
1.8932021 -2.2519863 -0.52239501 4292094720
1.8875501 -2.2451241 -0.52098 4292094720
1.8813313 -2.2375884 -0.51880324 4292094720
1.8758126 -2.230885 -0.51622021 4291964160
1.925748 -2.2900889 -0.52824998 4292225280
1.9165627 -2.2790239 -0.52342165 4292225280
1.8991942 -2.2582352 -0.51578885 4292094720
1.8812474 -2.2367616 -0.50745976 4292094720
1.9329638 -2.2980626 -0.51724792 4292355840
1.957908 -2.3275468 -0.51910371 4292486400
1.9594915 -2.329273 -0.51410252 4292486400
1.9738954 -2.3462281 -0.51182193 4292486400
1.9743487 -2.3466091 -0.50529033 4292486400
1.9808785 -2.3542068 -0.4997071 4292616960
1.9728432 -2.3445036 -0.48988578 4292486400
1.9648539 -2.3348556 -0.479581 4292486400
1.9572009 -2.3256078 -0.46887931 4292355840
1.9725133 -2.3436313 -0.46310508 4292486400
1.9888147 -2.3628256 -0.45688176 4292616960
1.9930562 -2.3676982 -0.44726697 4292616960
1.982015 -2.3544257 -0.43375781 4292486400
1.9591773 -2.3271501 -0.41737384 4292355840
1.963464 -2.3320761 -0.4064053 4292355840
1.9757464 -2.3464913 -0.39653394 4292486400
1.9806348 -2.3521283 -0.3846283 4292486400
1.9690348 -2.3381953 -0.36914045 4292486400
1.961498 -2.3290858 -0.35413575 4292355840
1.9776473 -2.348084 -0.34295312 4292486400
1.9914782 -2.3643279 -0.33077538 4292486400
1.988775 -2.3609519 -0.31540865 4292486400
1.962572 -2.3296962 -0.29619241 4292355840
1.9578085 -2.3238783 -0.2801277 4292355840
1.9738069 -2.3426888 -0.26663944 4292355840
1.9773926 -2.3467731 -0.25102964 4292486400
1.9518199 -2.3162739 -0.23163037 4292225280
1.9582831 -2.3237715 -0.21594231 4292355840
1.9805768 -2.3500407 -0.20152569 4292486400
1.9775637 -2.3462975 -0.18415549 4292355840
1.9300534 -2.2897944 -0.16288571 4292094720
1.9731491 -2.3407226 -0.14912926 4292355840
1.9775413 -2.3457594 -0.13187109 4292355840
1.9689935 -2.3354557 -0.1136497 4292355840
1.957225 -2.3213356 -0.095307618 4292225280
1.9841992 -2.353138 -0.078618847 4292486400
1.9903506 -2.3602567 -0.060723774 4292486400
1.9333043 -2.2924795 -0.041301027 4292094720
1.9885935 -2.35783 -0.024264004 4292486400
1.9974384 -2.3681383 -0.0060482067 4292486400
1.9806086 -2.3480248 0.012175432 4292355840
1.9248921 -2.2818437 0.029480826 4292094720
2.0071361 -2.379108 0.049086887 4292486400
2.0192454 -2.3932786 0.067789286 4292616960
2.005465 -2.3767815 0.085532106 4292486400
1.961645 -2.3247082 0.1013793 4292355840
2.0061967 -2.3773019 0.12166958 4292486400
2.0148234 -2.3873451 0.14012496 4292616960
1.9908184 -2.3587463 0.15602332 4292486400
1.9599795 -2.3220603 0.17073134 4292355840
2.0164926 -2.3888016 0.19306076 4292616960
2.012964 -2.3844512 0.20989369 4292616960
2.0039005 -2.3735497 0.22580937 4292486400
1.9478024 -2.3069746 0.23564035 4292225280
2.0236676 -2.3966043 0.26129913 4292616960
2.0382907 -2.4137394 0.27950448 4292747520
2.0130033 -2.3836401 0.29185006 4292616960
1.947854 -2.3063736 0.29739776 4292225280
1.8625971 -2.2053256 0.29840413 4291833600
2.0347419 -2.4088509 0.34087166 4292747520
2.016763 -2.387409 0.35228023 4292616960
1.9870639 -2.3521049 0.3609108 4292486400
1.9709404 -2.3328657 0.37127945 4292355840
1.8582665 -2.1994231 0.36221829 4291833600
2.0307968 -2.4033353 0.40861234 4292747520
2.0110853 -2.3798547 0.41687539 4292616960
1.9945619 -2.360148 0.42510501 4292616960
1.9727507 -2.3341916 0.43150279 4292486400
1.930742 -2.2843568 0.43264565 4292225280
1.88067 -2.2249956 0.43100625 4291964160
2.0261106 -2.3967967 0.47406456 4292747520
2.0147898 -2.3832493 0.48058802 4292747520
2.0261481 -2.3965142 0.49195412 4292747520
1.9977534 -2.3627877 0.49304265 4292616960
1.9609313 -2.3191056 0.49122989 4292355840
1.9851806 -2.34761 0.50407088 4292486400
1.9999088 -2.3648589 0.51403648 4292616960
1.9462864 -2.3013339 0.50574762 4292355840
1.9458426 -2.300657 0.51051605 4292355840
1.9575573 -2.3143473 0.51789606 4292355840
1.9693295 -2.3281043 0.52473062 4292486400
1.9690661 -2.327641 0.52776664 4292486400
1.9625028 -2.3197362 0.52848607 4292486400
1.9687374 -2.3269508 0.53202289 4292486400
1.9686741 -2.3267264 0.53323865 4292486400
1.9654967 -2.3228245 0.53298229 4292486400
1.9623876 -2.3190045 0.53211522 4292486400
1.9536176 -2.3085005 0.52909052 4292355840
1.9474604 -2.301084 0.52615601 4292355840
2.000814 -2.3639407 0.53861344 4292616960
1.9922491 -2.3536801 0.53374678 4292616960
1.9741926 -2.3322153 0.52575219 4292486400
1.9593776 -2.3145804 0.51805919 4292355840
1.9992304 -2.3614857 0.52413487 4292616960
2.0243013 -2.3909366 0.52557313 4292747520
2.0354762 -2.4039817 0.52269715 4292747520
2.0298293 -2.397171 0.51488131 4292747520
2.02806 -2.3949385 0.50747091 4292747520
2.0151854 -2.3796005 0.49674776 4292747520
2.0281942 -2.3948104 0.49181578 4292747520
2.0323107 -2.3995259 0.4840897 4292747520
2.0179298 -2.3824151 0.47145039 4292747520
2.0287158 -2.3950012 0.46415287 4292747520
2.0265412 -2.3922956 0.45331785 4292747520
2.0149794 -2.3777015 0.3726708 4292616960
2.0370975 -2.4036498 0.36282068 4292747520
2.0349827 -2.4010201 0.34811488 4292747520
2.0092344 -2.3705237 0.32918116 4292616960
2.0070686 -2.3678367 0.31393856 4292616960
2.0281999 -2.3926182 0.3018392 4292616960
2.0292103 -2.3936758 0.28624448 4292616960
2.0003977 -2.3595757 0.26635012 4292486400
1.9962676 -2.3545759 0.24970207 4292486400
2.0230026 -2.3859594 0.23644553 4292616960
2.0206304 -2.3830314 0.21933094 4292616960
1.9913896 -2.3484361 0.19932868 4292486400
1.9963123 -2.3541083 0.18272424 4292486400
2.0319273 -2.3959513 0.16837132 4292616960
2.0203044 -2.3821232 0.14971903 4292616960
1.969223 -2.3218 0.12853606 4292355840
1.9947518 -2.3517537 0.11242339 4292486400
2.0121536 -2.3721287 0.095345825 4292486400
2.0012267 -2.3591254 0.076766178 4292486400
1.924482 -2.2685828 0.056378484 4292094720
2.0072923 -2.3660138 0.040522955 4292486400
2.0010035 -2.3584766 0.022136509 4292486400
1.9946088 -2.3508158 0.0038377286 4292486400
1.9833654 -2.3374448 -0.014315949 4292355840
1.9920698 -2.3475692 -0.032579891 4292486400
1.9984545 -2.3549607 -0.050911259 4292486400
1.9465734 -2.2937338 -0.067288361 4292225280
1.9980551 -2.3542337 -0.087171361 4292486400
2.0073841 -2.3650901 -0.10567135 4292486400
1.9953054 -2.3507388 -0.12290785 4292486400
1.9112037 -2.2515883 -0.13471855 4291964160
1.9958184 -2.3510852 -0.15828547 4292486400
2.0017357 -2.3579226 -0.17623623 4292486400
1.9841976 -2.337147 -0.1918329 4292355840
1.9057821 -2.2447116 -0.20051619 4291964160
2.008811 -2.3658612 -0.22827658 4292486400
2.0215464 -2.3807201 -0.24650106 4292616960
2.0050077 -2.3611228 -0.26085937 4292486400
1.9555383 -2.3027718 -0.27011812 4292225280
1.9043696 -2.2424271 -0.27804843 4291964160
2.0181255 -2.3761644 -0.31022742 4292616960
2.0191927 -2.3772869 -0.32563052 4292616960
1.9981494 -2.3523932 -0.33696336 4292486400
1.9665008 -2.3150241 -0.34575418 4292355840
1.8406836 -2.1668706 -0.33650276 4291703040
2.0307324 -2.3903248 -0.38501948 4292747520
2.032948 -2.3927948 -0.39880636 4292747520
2.0232875 -2.3812945 -0.40977186 4292616960
2.0017419 -2.3558149 -0.41767853 4292616960
1.9333646 -2.2752571 -0.41481221 4292225280
2.0014634 -2.3552151 -0.4407331 4292616960
2.0069394 -2.3615177 -0.45278445 4292616960
2.0092516 -2.3640985 -0.46365061 4292616960
2.0054934 -2.3595405 -0.4725832 4292616960
1.9908541 -2.3421884 -0.47832832 4292486400
1.9833628 -2.3332415 -0.48514387 4292486400
1.9574276 -2.3026114 -0.48675632 4292355840
1.9147271 -2.252275 -0.48337626 4292094720
1.92944 -2.2694349 -0.49381918 4292225280
1.9441949 -2.2866414 -0.50380224 4292355840
1.9589959 -2.3038995 -0.51330572 4292355840
1.8956939 -2.2293591 -0.50163758 4292094720
1.9138087 -2.2505114 -0.51080203 4292094720
1.9255931 -2.2642212 -0.51774997 4292225280
1.931692 -2.2712476 -0.52260232 4292225280
1.9314718 -2.2708476 -0.52514851 4292225280
1.9345098 -2.2742748 -0.52797258 4292225280
1.9312333 -2.270282 -0.52846056 4292225280
1.9312165 -2.2701187 -0.52922291 4292225280
1.9216955 -2.2587898 -0.52676505 4292225280
1.9128805 -2.248291 -0.52388901 4292094720
1.9066857 -2.2408702 -0.52112621 4292094720
1.9011952 -2.234277 -0.51795805 4292094720
1.9515516 -2.2932718 -0.52934098 4292355840
1.9366205 -2.275588 -0.52237004 4292225280
1.9249417 -2.2617249 -0.51571363 4292225280
1.9584928 -2.3009717 -0.52052212 4292355840
1.946938 -2.2872529 -0.51270139 4292355840
1.9916025 -2.3395388 -0.51899278 4292486400
1.9979776 -2.3468666 -0.51456952 4292616960
2.0065734 -2.3567998 -0.51007742 4292616960
2.0042028 -2.3538585 -0.50219244 4292616960
2.00508 -2.3547292 -0.49455044 4292616960
1.9995956 -2.3481326 -0.48479381 4292616960
1.9861296 -2.3321693 -0.47263297 4292486400
2.011174 -2.3613987 -0.46903679 4292616960
2.021183 -2.3729813 -0.46123397 4292616960
2.0280304 -2.3808515 -0.45210174 4292747520
2.0265579 -2.3789594 -0.44057736 4292747520
1.9939378 -2.3405256 -0.42198402 4292486400
1.9924774 -2.3386493 -0.40970692 4292486400
2.0048521 -2.3530011 -0.39974767 4292616960
2.0194385 -2.3699446 -0.3896127 4292616960
2.0045507 -2.3523171 -0.37336516 4292486400
1.9995511 -2.3462877 -0.35867947 4292486400
2.0126004 -2.361424 -0.34677732 4292616960
2.0239568 -2.3745728 -0.33402774 4292616960
2.021244 -2.3712232 -0.31852853 4292616960
1.9769669 -2.3191431 -0.29648966 4292355840
1.9894353 -2.3335943 -0.28287804 4292486400
2.0088506 -2.3561866 -0.26969674 4292486400
2.0098178 -2.3571513 -0.2535859 4292486400
1.9840765 -2.3268111 -0.23403589 4292355840
1.9996562 -2.3449028 -0.21919121 4292486400
2.0162854 -2.3642213 -0.20395727 4292486400
2.0132596 -2.3605049 -0.18640332 4292486400
1.9621878 -2.3004911 -0.16467035 4292225280
2.0023448 -2.3473747 -0.15051459 4292486400
2.0087831 -2.3547473 -0.13325712 4292486400
2.0046566 -2.3497424 -0.11513954 4292486400
1.9960566 -2.3394976 -0.09675964 4292355840
2.0193274 -2.366585 -0.079695404 4292486400
2.013849 -2.3599966 -0.061254274 4292486400
1.9687369 -2.3069918 -0.042003047 4292225280
2.0031648 -2.347141 -0.024512308 4292486400
2.0333173 -2.3822777 -0.0063606543 4292616960
2.0189695 -2.3653049 0.012079441 4292486400
1.9602706 -2.2964079 0.029575605 4292225280
2.0424321 -2.3924284 0.049355015 4292616960
2.0546234 -2.4065261 0.068248682 4292747520
2.0349019 -2.3832662 0.085939348 4292616960
1.9998661 -2.3420851 0.10239509 4292486400
2.0414755 -2.3906138 0.1227044 4292616960
2.0508063 -2.4013603 0.14139239 4292747520
2.0233862 -2.3690991 0.15723538 4292616960
1.9949242 -2.3356235 0.17233434 4292355840
2.0404682 -2.3887429 0.1937646 4292616960
2.055392 -2.4060309 0.21259226 4292747520
2.0332949 -2.380007 0.2273013 4292616960
1.9832821 -2.3213315 0.2380446 4292355840
2.0622523 -2.4135365 0.26420507 4292747520
2.0590246 -2.4095883 0.28016791 4292747520
2.0456703 -2.3937979 0.29431081 4292747520
1.9891176 -2.3274918 0.30138132 4292355840
1.8935621 -2.2155864 0.30106691 4291964160
2.064301 -2.4150717 0.34322026 4292878080
2.035552 -2.3812876 0.35290205 4292616960
1.9667627 -2.3006964 0.35457322 4292355840
2.0064883 -2.3469753 0.37517053 4292486400
1.892381 -2.2134244 0.36614159 4291964160
2.0628669 -2.4125462 0.41201201 4292878080
2.046232 -2.3929353 0.42105225 4292747520
2.032804 -2.3770757 0.43009135 4292747520
2.0050359 -2.3444607 0.43537453 4292486400
1.9659457 -2.2986202 0.43733981 4292355840
1.9213067 -2.2463031 0.43713525 4292094720
2.0613077 -2.409725 0.47882691 4292878080
2.0473282 -2.3932283 0.48484471 4292747520
2.025105 -2.3671041 0.48819265 4292616960
2.0397909 -2.3840992 0.49982414 4292747520
1.9962837 -2.3331194 0.4965288 4292486400
2.0232589 -2.36447 0.51009566 4292616960
2.0348716 -2.3778749 0.51932526 4292747520
1.98408 -2.3184004 0.51193255 4292486400
1.9836257 -2.3177168 0.51676953 4292486400
1.9954145 -2.3313298 0.52421051 4292486400
2.0014918 -2.338273 0.52957416 4292616960
2.0012224 -2.337806 0.53264856 4292616960
2.0099924 -2.347893 0.53750992 4292616960
2.0066521 -2.343842 0.53851128 4292616960
2.0008175 -2.3368809 0.53820276 4292616960
2.0162015 -2.3546882 0.54296201 4292616960
2.0008934 -2.3366716 0.53883016 4292616960
1.9914219 -2.3254697 0.53563643 4292486400
1.9890689 -2.3225772 0.53372854 4292486400
2.0453558 -2.3881149 0.5468564 4292747520
2.033529 -2.3741663 0.54111105 4292747520
2.0127869 -2.349817 0.53240734 4292616960
1.9978739 -2.332273 0.52467924 4292486400
2.0347972 -2.3752062 0.52987969 4292747520
2.0568357 -2.4007709 0.53045064 4292878080
2.0680914 -2.4137549 0.52753603 4292878080
2.0624104 -2.4069824 0.51967543 4292878080
2.0696299 -2.4152584 0.51444852 4292878080
2.0508912 -2.3932586 0.50222188 4292747520
2.0607815 -2.4046504 0.49644396 4292878080
2.0183661 -2.3550448 0.47764534 4292616960
2.0594723 -2.4028394 0.47803017 4292878080
2.0671244 -2.4116206 0.46988416 4292878080
2.0559254 -2.3984218 0.45693666 4292747520
2.0417957 -2.3811336 0.37504739 4292747520
2.0691469 -2.4128759 0.366005 4292878080
2.0767355 -2.4215834 0.35281995 4292878080
2.0443497 -2.3837059 0.33263507 4292747520
2.0421796 -2.381043 0.31723517 4292616960
2.0553577 -2.3962653 0.30377764 4292747520
2.0683842 -2.4113095 0.28975874 4292747520
2.0393863 -2.3773899 0.26966566 4292616960
2.025501 -2.3610811 0.25160682 4292616960
2.0556724 -2.3960989 0.23859812 4292747520
2.0500424 -2.3894081 0.22097696 4292747520
2.0303578 -2.3663471 0.2018103 4292616960
2.0411751 -2.3788166 0.18551996 4292616960
2.0581794 -2.3984909 0.16934754 4292747520
2.0562408 -2.3961017 0.15130286 4292747520
2.0074196 -2.3391142 0.13009346 4292486400
2.0272689 -2.3621011 0.11343265 4292486400
2.0447931 -2.3823781 0.096184567 4292616960
2.039335 -2.3758931 0.077644229 4292616960
1.9597847 -2.2831409 0.056970466 4292225280
2.0275364 -2.361897 0.040599585 4292486400
2.0368319 -2.3725905 0.022321729 4292616960
2.0297425 -2.364208 0.0038190051 4292486400
2.0249381 -2.3584867 -0.014578968 4292486400
2.0271845 -2.3609731 -0.032992534 4292486400
2.0277467 -2.3614988 -0.051371526 4292486400
1.9781152 -2.3036048 -0.067979604 4292225280
2.0332026 -2.3675911 -0.08817137 4292616960
2.0491045 -2.3859677 -0.10720661 4292616960
2.042614 -2.3782845 -0.12504074 4292616960
1.9496504 -2.2699792 -0.13656627 4292094720
2.025732 -2.358381 -0.1596415 4292486400
2.0310237 -2.3644085 -0.17767666 4292616960
2.0166132 -2.3475127 -0.19371983 4292486400
1.9409071 -2.2593091 -0.20290034 4292094720
2.0478809 -2.3836281 -0.23121651 4292616960
2.0574431 -2.3946197 -0.24925625 4292747520
2.0466285 -2.3819075 -0.26454827 4292616960
1.9870689 -2.3125002 -0.27268985 4292355840
1.9420331 -2.2599924 -0.28170091 4292094720
2.050714 -2.3862605 -0.31318012 4292747520
2.0394676 -2.3730483 -0.3267507 4292616960
2.0338228 -2.3663509 -0.34073371 4292616960
2.0012991 -2.3283989 -0.34956515 4292486400
1.868785 -2.1741898 -0.33939663 4291833600
2.0601211 -2.3965249 -0.38802344 4292747520
2.056531 -2.3922145 -0.40077704 4292747520
2.0411532 -2.3742006 -0.41066596 4292747520
2.0341389 -2.3659103 -0.42163733 4292616960
1.9710996 -2.2924974 -0.42011368 4292355840
2.030611 -2.3615363 -0.44419408 4292616960
2.0328994 -2.3640585 -0.45560476 4292616960
2.0442421 -2.3771029 -0.46859792 4292747520
2.0346453 -2.3658106 -0.47627151 4292747520
2.0263443 -2.356025 -0.48362109 4292616960
2.0181484 -2.3463619 -0.49036998 4292616960
1.9926718 -2.3166208 -0.49222195 4292486400
1.9554663 -2.2732551 -0.49037069 4292225280
1.9702699 -2.2903171 -0.50090474 4292355840
1.9883333 -2.3111632 -0.51179856 4292486400
1.9967942 -2.3208513 -0.51971227 4292486400
1.9427003 -2.2578762 -0.51063514 4292225280
1.951287 -2.2677112 -0.51731616 4292225280
1.9573616 -2.2746267 -0.52276301 4292355840
1.9692832 -2.288331 -0.52919561 4292355840
1.9722717 -2.2916591 -0.5326373 4292355840
1.9721148 -2.2913337 -0.53461444 4292355840
1.9720273 -2.2910881 -0.53598809 4292355840
1.9655843 -2.2834628 -0.53500873 4292355840
1.9656371 -2.2833791 -0.53517133 4292355840
1.9535508 -2.2692022 -0.53141016 4292355840
1.9383188 -2.251375 -0.52618665 4292225280
1.9295794 -2.2410855 -0.52212888 4292225280
1.9867095 -2.3072507 -0.53522044 4292486400
1.9684659 -2.2859268 -0.52735198 4292355840
1.9625 -2.2788537 -0.5221976 4292355840
1.9969292 -2.3186579 -0.52712023 4292486400
1.9788678 -2.2975466 -0.51755309 4292355840
2.0302796 -2.3570478 -0.52545452 4292616960
2.0238276 -2.3494051 -0.51765883 4292616960
2.0415051 -2.3697567 -0.51539755 4292747520
2.0301042 -2.3563714 -0.50518793 4292616960
2.0342159 -2.3609824 -0.49828315 4292747520
2.0319262 -2.3581665 -0.4892343 4292616960
2.0274119 -2.3527703 -0.47912145 4292616960
2.0494115 -2.378124 -0.47464335 4292747520
2.0562708 -2.3859155 -0.46598318 4292747520
2.06059 -2.3907597 -0.45616338 4292747520
2.0494165 -2.3776388 -0.44243887 4292747520
2.0359902 -2.3619072 -0.42786869 4292616960
2.0274134 -2.3517995 -0.41396555 4292616960
2.0463614 -2.3736014 -0.40515214 4292747520
2.0507569 -2.3785307 -0.39286134 4292747520
2.0396025 -2.3654344 -0.37720174 4292616960
2.0172439 -2.3393536 -0.35927969 4292486400
2.0418856 -2.3677471 -0.34931028 4292616960
2.0624213 -2.3913774 -0.33793336 4292747520
2.0597022 -2.3880572 -0.32224846 4292747520
2.0216386 -2.3437829 -0.30099076 4292486400
2.0283511 -2.351393 -0.28630769 4292616960
2.0407493 -2.3655889 -0.27196738 4292616960
2.0417304 -2.3665562 -0.2557064 4292616960
2.0164728 -2.3371286 -0.23608227 4292486400
2.0321653 -2.3551371 -0.22107607 4292616960
2.0547829 -2.3811636 -0.20626757 4292616960
2.0517445 -2.3774734 -0.18849967 4292616960
1.99707 -2.3139865 -0.16628298 4292355840
2.0407696 -2.3644216 -0.15217653 4292616960
2.0580351 -2.3842421 -0.13540736 4292616960
2.0543585 -2.3798127 -0.1169995 4292616960
2.040149 -2.3631897 -0.098029286 4292616960
2.0552721 -2.3805254 -0.080361359 4292616960
2.0556412 -2.3807797 -0.061896008 4292616960
1.9633561 -2.2737916 -0.041401204 4292225280
1.9907855 -2.3053725 -0.02398617 4292355840
2.0480952 -2.3715289 -0.0061477404 4292616960
2.0549142 -2.3792474 0.012427846 4292616960
1.9984303 -2.3137164 0.030159291 4292355840
2.078531 -2.4062278 0.050110124 4292747520
2.0875428 -2.4164793 0.069098413 4292878080
2.0601754 -2.3846438 0.086642563 4292616960
2.0415463 -2.3629215 0.10404298 4292616960
2.0808172 -2.408175 0.12444927 4292747520
2.092818 -2.421881 0.14354029 4292878080
2.0652037 -2.3897693 0.1596237 4292747520
2.0365393 -2.3564482 0.17496003 4292616960
2.0823822 -2.4092896 0.1966325 4292747520
2.084996 -2.4121385 0.2144224 4292878080
2.0718763 -2.3967962 0.23027024 4292747520
2.0280361 -2.3459401 0.24198467 4292486400
2.0861974 -2.4130087 0.26568872 4292878080
2.09514 -2.4231734 0.28337401 4292878080
2.0842903 -2.41046 0.29805484 4292878080
2.021482 -2.3376956 0.3044211 4292486400
1.9350326 -2.2376199 0.30577278 4292094720
2.0914836 -2.4182599 0.34559774 4292878080
2.0747037 -2.3986995 0.35745865 4292747520
2.0643857 -2.3866086 0.36983785 4292747520
2.0415189 -2.3600214 0.3793295 4292616960
1.9272773 -2.2278733 0.37054616 4292094720
2.1021509 -2.4297349 0.41720432 4293008640
2.0853906 -2.4102054 0.42638645 4292878080
2.0718594 -2.3944092 0.43556148 4292878080
2.0497243 -2.3686786 0.44223011 4292747520
2.0071158 -2.3193071 0.44363162 4292486400
1.956334 -2.2605045 0.44223821 4292225280
2.0972724 -2.4230974 0.48403451 4293008640
2.0857773 -2.4096596 0.49074861 4292878080
2.0601599 -2.3799191 0.49341494 4292747520
2.0717041 -2.3930864 0.50433505 4292878080
2.0408237 -2.3572764 0.50428426 4292747520
2.0615098 -2.3809979 0.51632917 4292747520
2.0738401 -2.395072 0.52578741 4292878080
2.0162401 -2.3284316 0.51679856 4292616960
2.0248177 -2.3381777 0.5240081 4292616960
2.0308712 -2.3450098 0.52998435 4292616960
2.0395677 -2.3548923 0.5360561 4292747520
2.04252 -2.3581457 0.54001004 4292747520
2.0455394 -2.3614769 0.54335421 4292747520
2.0421753 -2.3574433 0.54436529 4292747520
2.0356557 -2.349771 0.54388744 4292747520
2.0453372 -2.3607895 0.54709101 4292747520
2.0357335 -2.3495617 0.54449993 4292747520
2.0300715 -2.3428824 0.54232198 4292616960
2.0270603 -2.3392622 0.54021597 4292616960
2.0811501 -2.4014981 0.55262411 4292878080
2.0724754 -2.3913448 0.54769289 4292878080
2.0541811 -2.3701003 0.53961784 4292747520
2.0359452 -2.3489265 0.53098714 4292616960
2.069895 -2.3879278 0.53528798 4292878080
2.0985515 -2.4208217 0.53744769 4293008640
2.1008434 -2.423317 0.53215557 4293008640
2.1041839 -2.4270217 0.52648991 4293008640
2.0991721 -2.4210987 0.51812893 4293008640
2.0861375 -2.4059291 0.50725114 4292878080
2.0999889 -2.4217513 0.50230676 4293008640
2.0696049 -2.3865891 0.48628449 4292878080
2.0986943 -2.4199729 0.48365483 4293008640
2.105762 -2.4279757 0.47523269 4293008640
2.1042297 -2.4260681 0.46429837 4293008640
2.0777855 -2.3946693 0.37906602 4292747520
2.090538 -2.4092221 0.36728108 4292878080
2.0981815 -2.4178894 0.35404643 4292878080
2.0895181 -2.4077754 0.33767426 4292878080
2.0757074 -2.3917356 0.32025525 4292747520
2.0875783 -2.4052718 0.3064467 4292878080
2.0886166 -2.4063332 0.29061112 4292878080
2.0747814 -2.3902688 0.27248502 4292747520
2.0581968 -2.3710411 0.25393498 4292616960
2.0879264 -2.4051378 0.24069965 4292878080
2.0920777 -2.4097843 0.22397877 4292878080
2.0624537 -2.3755488 0.20361248 4292616960
2.0707319 -2.3849471 0.18693314 4292747520
2.0944149 -2.4120767 0.17116301 4292878080
2.0983555 -2.4164801 0.15335692 4292878080
2.0433133 -2.352998 0.13152492 4292616960
2.0659239 -2.3788912 0.11481516 4292616960
2.0737021 -2.3877125 0.096888281 4292747520
2.034817 -2.3428357 0.07695666 4292486400
2.0095625 -2.313648 0.058024362 4292355840
2.0694778 -2.3824613 0.041163217 4292747520
2.0827179 -2.3975649 0.022674637 4292747520
2.0855336 -2.4006739 0.0039015443 4292747520
2.0809152 -2.3952303 -0.014875872 4292747520
2.0837193 -2.3983254 -0.033677828 4292747520
2.057559 -2.3681026 -0.051766105 4292616960
2.0105455 -2.3138969 -0.068618692 4292355840
2.0660033 -2.3775568 -0.088979051 4292616960
2.0781412 -2.391387 -0.10798098 4292747520
2.0664775 -2.3778427 -0.12563609 4292616960
1.984495 -2.2834337 -0.13805774 4292225280
2.0610862 -2.3713827 -0.16131936 4292616960
2.0670621 -2.3781242 -0.17959645 4292747520
2.0551667 -2.364316 -0.19607827 4292616960
1.982213 -2.2803085 -0.20580746 4292225280
2.0683115 -2.3791678 -0.23193364 4292747520
2.0825717 -2.3954298 -0.25058413 4292747520
2.0827305 -2.3954799 -0.26738435 4292747520
2.0319104 -2.3369298 -0.27694833 4292486400
1.9741398 -2.2703972 -0.28441268 4292225280
2.0790412 -2.3908391 -0.3153502 4292747520
2.0754797 -2.3866122 -0.3302632 4292747520
2.0607507 -2.3695509 -0.34290266 4292747520
1.9811355 -2.2779269 -0.34369779 4292225280
1.912735 -2.1991994 -0.34502271 4291964160
2.0962276 -2.4099131 -0.39214832 4292878080
2.0893452 -2.4018681 -0.40441367 4292878080
2.080363 -2.3914111 -0.41572016 4292878080
2.0287981 -2.3320343 -0.41768593 4292616960
2.0124106 -2.3130746 -0.42601591 4292486400
2.0729609 -2.3824947 -0.4503907 4292747520
2.0746009 -2.3842399 -0.46180701 4292878080
2.0801623 -2.3904884 -0.47360957 4292878080
2.0615857 -2.3690131 -0.47931874 4292747520
2.0647185 -2.3724713 -0.48945242 4292747520
2.0101588 -2.3096766 -0.48513597 4292486400
2.0282037 -2.3302603 -0.49761939 4292616960
1.9900898 -2.2863576 -0.49568835 4292355840
2.0023937 -2.3003473 -0.50564128 4292486400
2.0199251 -2.3203361 -0.51642865 4292616960
1.962799 -2.2546136 -0.50743169 4292225280
1.9713825 -2.2643299 -0.51468825 4292355840
1.9864956 -2.2815392 -0.5231089 4292355840
1.9893706 -2.284699 -0.52774125 4292355840
2.001369 -2.2983286 -0.53420573 4292486400
2.0043745 -2.301635 -0.53767371 4292486400
2.0074484 -2.3050191 -0.54054219 4292486400
2.0041239 -2.3010595 -0.54106033 4292486400
2.0008705 -2.2971814 -0.54096448 4292486400
1.9976887 -2.293385 -0.54025674 4292486400
1.982286 -2.2755675 -0.53561991 4292355840
1.9766567 -2.2689636 -0.53300637 4292355840
1.9639778 -2.2542732 -0.52788675 4292225280
2.0214963 -2.320106 -0.54095721 4292616960
2.0063694 -2.3026044 -0.53392142 4292486400
1.991303 -2.2851741 -0.52633178 4292355840
1.979532 -2.2715249 -0.51905471 4292355840
2.0136185 -2.3104649 -0.52313924 4292486400
2.0718639 -2.3771026 -0.53265381 4292878080
2.065377 -2.3695068 -0.52477968 4292747520
2.0718296 -2.3767467 -0.51958603 4292878080
2.0814481 -2.387615 -0.51453334 4292878080
2.0726211 -2.3773348 -0.50433218 4292878080
2.0589569 -2.3615108 -0.49246833 4292747520
2.0657918 -2.369185 -0.48497042 4292747520
2.0733209 -2.3776531 -0.47701806 4292747520
2.0922666 -2.399204 -0.47102129 4292878080
2.0998788 -2.4077632 -0.46180755 4292878080
2.085397 -2.3910022 -0.44725448 4292878080
2.0679729 -2.3708715 -0.43174553 4292747520
2.0665169 -2.3690391 -0.41919303 4292747520
2.0790844 -2.3832726 -0.40894729 4292747520
2.0802567 -2.3844492 -0.39592034 4292747520
2.072299 -2.3751667 -0.38076144 4292747520
2.0497994 -2.3492277 -0.3627148 4292616960
2.0778849 -2.3812306 -0.35317421 4292747520
2.0881727 -2.3928449 -0.33995125 4292878080
2.0925722 -2.3977139 -0.32529154 4292878080
2.0542612 -2.3536727 -0.30389369 4292616960
2.0636477 -2.3642538 -0.2894367 4292616960
2.0767946 -2.379138 -0.27501863 4292747520
2.0751796 -2.3771193 -0.25825882 4292747520
2.0615571 -2.3613541 -0.2398501 4292616960
2.0740871 -2.3755283 -0.22423474 4292747520
2.0909593 -2.3946705 -0.20860589 4292747520
2.0846248 -2.387248 -0.19035231 4292747520
2.039443 -2.335367 -0.16878849 4292486400
2.0827887 -2.3848033 -0.15438895 4292747520
2.0928893 -2.3961897 -0.13689998 4292747520
2.0993786 -2.4034419 -0.11888729 4292747520
2.0687053 -2.3681736 -0.098859333 4292616960
2.0986643 -2.4022775 -0.081636555 4292747520
2.0977809 -2.401093 -0.062871441 4292747520
1.9989647 -2.287884 -0.041994434 4292225280
2.0232897 -2.3155417 -0.024341658 4292355840
2.0776951 -2.3775992 -0.0063261096 4292747520
2.0937753 -2.395817 0.012443831 4292747520
2.0369103 -2.330615 0.030402504 4292486400
2.1175492 -2.4226553 0.050571505 4292878080
2.1239865 -2.4298406 0.069695793 4292878080
2.096432 -2.3981614 0.087440103 4292747520
2.0037374 -2.2920167 0.10131117 4292355840
2.1165471 -2.4208097 0.12560008 4292878080
2.1105301 -2.4137573 0.14365044 4292878080
2.0597959 -2.3555951 0.15801138 4292616960
2.0020256 -2.2893999 0.17072397 4292355840
2.118099 -2.4218864 0.1985285 4292878080
2.1240082 -2.4284654 0.21683422 4293008640
2.0671909 -2.3633687 0.2280857 4292616960
2.0633631 -2.3588264 0.24441992 4292616960
2.1192815 -2.4225445 0.26796195 4292878080
2.1249955 -2.4288995 0.2853564 4293008640
2.1271818 -2.4312246 0.30201927 4293008640
2.0600045 -2.3543186 0.30801913 4292616960
1.9762378 -2.2584763 0.31007272 4292225280
2.1212838 -2.4239726 0.34805173 4293008640
2.1076562 -2.4082389 0.36058387 4292878080
2.0470729 -2.3388882 0.36417711 4292616960
2.0807686 -2.3772001 0.38391793 4292747520
1.9683607 -2.2486899 0.37580273 4292225280
2.141129 -2.4457817 0.42198235 4293139200
2.1242433 -2.4263351 0.43131381 4293008640
2.1106083 -2.4106028 0.44063225 4293008640
2.0915749 -2.388711 0.44813702 4292878080
2.0421441 -2.332128 0.44825813 4292616960
2.0007894 -2.2847705 0.44916829 4292355840
2.1394029 -2.4428034 0.49036101 4293139200
2.1252122 -2.4264443 0.49659368 4293008640
2.099412 -2.3968403 0.49936911 4292878080
2.058496 -2.3499944 0.4977046 4292747520
2.0760212 -2.3698316 0.50947762 4292747520
2.0909839 -2.3867435 0.52014166 4292878080
2.1215999 -2.4215105 0.53423065 4293008640
2.05125 -2.3411036 0.52219796 4292747520
2.0637791 -2.3552399 0.53046477 4292747520
2.0757153 -2.3686993 0.5380134 4292878080
2.0786159 -2.3718529 0.54262149 4292878080
2.0783348 -2.3713782 0.54576659 4292878080
2.0872171 -2.3813536 0.5506835 4292878080
2.077981 -2.3706691 0.55017906 4292878080
2.0934997 -2.3882113 0.5555743 4292878080
2.0805109 -2.373251 0.55276316 4292878080
2.0747395 -2.3665209 0.55121189 4292878080
2.0716381 -2.3628364 0.54972053 4292747520
2.068608 -2.3592343 0.54760313 4292747520
2.0442064 -2.3312736 0.53921431 4292616960
2.1019862 -2.3969824 0.55179435 4293008640
2.095921 -2.3899221 0.54692054 4292878080
2.0775681 -2.36886 0.53824484 4292878080
2.1091504 -2.4047041 0.54182541 4293008640
2.1347525 -2.4337301 0.54310399 4293139200
2.1230936 -2.4202988 0.53424639 4293008640
2.140435 -2.4399099 0.53203273 4293139200
2.1380019 -2.4369915 0.52424335 4293139200
2.12554 -2.4226499 0.51344061 4293008640
2.1355832 -2.4339461 0.50747716 4293139200
2.095875 -2.3885725 0.48924309 4292878080
2.1342974 -2.432194 0.48865494 4293139200
2.1420746 -2.4409089 0.4802855 4293139200
2.139889 -2.4382772 0.46910551 4293139200
2.1139839 -2.4078815 0.38308454 4292878080
2.1443501 -2.4423125 0.37420532 4293139200
2.1306028 -2.4265261 0.3571071 4293008640
2.1159832 -2.409749 0.33965945 4292878080
2.1119363 -2.4050078 0.3236585 4292878080
2.1238973 -2.4184859 0.30968553 4293008640
2.124953 -2.4195526 0.29368171 4293008640
2.1110353 -2.4035797 0.27538383 4292878080
2.1035609 -2.3949411 0.25778577 4292878080
2.1275783 -2.4221368 0.24362078 4293008640
2.1218894 -2.4155302 0.22564279 4292878080
2.0986607 -2.3889694 0.20579138 4292747520
2.1070018 -2.3983271 0.18892488 4292878080
2.1308506 -2.4253256 0.17296506 4293008640
2.1374617 -2.4327133 0.15515837 4293008640
2.0761206 -2.3628061 0.13273157 4292616960
2.1021862 -2.3923242 0.11603665 4292747520
2.1034205 -2.3935976 0.097607397 4292747520
2.0867612 -2.3745205 0.078377798 4292747520
2.040416 -2.3216858 0.058507912 4292486400
2.1146359 -2.4059596 0.041764311 4292878080
2.1128533 -2.4038017 0.022834113 4292878080
2.0813005 -2.3677938 0.0038557311 4292616960
2.0873075 -2.3744948 -0.014835548 4292747520
2.0994885 -2.3882143 -0.033721264 4292747520
2.0964181 -2.3845937 -0.052409161 4292747520
2.0497482 -2.3314095 -0.069507286 4292486400
2.1082137 -2.3977423 -0.090209514 4292878080
2.1111858 -2.4009895 -0.10898425 4292878080
2.10274 -2.391259 -0.12700649 4292747520
2.0235035 -2.3010721 -0.13985087 4292355840
2.103898 -2.3923132 -0.16359136 4292747520
2.1026504 -2.3907642 -0.1814896 4292747520
2.0939648 -2.3807628 -0.19846739 4292747520
2.0145826 -2.2904301 -0.20779267 4292355840
2.1071789 -2.395515 -0.23473699 4292878080
2.1155965 -2.4049463 -0.25288132 4292878080
2.11904 -2.4087253 -0.27025318 4292878080
2.0612893 -2.342984 -0.27910045 4292616960
2.0123346 -2.2872419 -0.28800321 4292355840
2.1185825 -2.4078031 -0.3192277 4292878080
2.1143274 -2.4028351 -0.33422443 4292878080
2.1001444 -2.3865912 -0.34715065 4292878080
2.0160449 -2.2909424 -0.34744453 4292355840
1.9478325 -2.2133467 -0.349033 4292094720
2.1325388 -2.4229734 -0.39630607 4293008640
2.1314993 -2.4216552 -0.4098472 4293008640
2.1158895 -2.4037921 -0.42002583 4292878080
2.0613492 -2.3417289 -0.42158318 4292616960
2.041569 -2.3191369 -0.42933261 4292616960
2.1084044 -2.3948791 -0.45506391 4292878080
2.1074286 -2.3936322 -0.46601394 4292878080
2.1009185 -2.3861027 -0.47517452 4292878080
2.0975754 -2.3821685 -0.48446253 4292878080
2.094187 -2.3781822 -0.49315676 4292878080
2.0516622 -2.3297784 -0.49187842 4292616960
2.0632892 -2.3428354 -0.50288081 4292747520
2.0288272 -2.3035879 -0.50199562 4292486400
2.0405519 -2.3167543 -0.51186991 4292616960
2.0523233 -2.3299713 -0.52124304 4292616960
2.0006771 -2.2712324 -0.51380408 4292355840
2.009311 -2.2808897 -0.52112198 4292486400
2.0186546 -2.2913504 -0.5280633 4292486400
2.0274076 -2.3011389 -0.53427583 4292486400
2.0394816 -2.3146927 -0.54077971 4292616960
2.0333853 -2.3076344 -0.54185081 4292616960
2.0455952 -2.3213387 -0.54717261 4292616960
2.0389905 -2.3137026 -0.54683483 4292616960
2.0454824 -2.320919 -0.54936969 4292616960
2.029906 -2.3031092 -0.54534173 4292616960
2.0209136 -2.2927663 -0.54244804 4292486400
2.0113404 -2.2817655 -0.53877479 4292486400
1.9992304 -2.2678893 -0.53381121 4292355840
2.0571353 -2.3333883 -0.54685712 4292747520
2.0451694 -2.3196726 -0.54065067 4292616960
2.0234895 -2.2949467 -0.53130633 4292486400
2.0116444 -2.2813706 -0.52399099 4292486400
2.0524843 -2.3275082 -0.52971458 4292616960
2.0915539 -2.3716321 -0.53416657 4292878080
2.0948143 -2.3751698 -0.52874547 4292878080
2.1071906 -2.3890359 -0.52496541 4292878080
2.1077373 -2.3894956 -0.51759362 4292878080
2.1086574 -2.3903775 -0.50971448 4292878080
2.0975263 -2.3776057 -0.4983826 4292878080
2.1018014 -2.3822877 -0.4901686 4292878080
2.1028471 -2.3833103 -0.48062018 4292878080
2.1193173 -2.4018035 -0.4739649 4293008640
2.1354918 -2.4199586 -0.46654275 4293008640
2.1242013 -2.4070053 -0.45257309 4293008640
2.1073296 -2.3877327 -0.43706208 4292878080
2.0927546 -2.3710632 -0.42171827 4292747520
2.1119866 -2.3926752 -0.41268224 4292878080
2.1223624 -2.4042563 -0.40127328 4292878080
2.1143668 -2.3950362 -0.38593262 4292878080
2.0950203 -2.3729668 -0.36827606 4292747520
2.107518 -2.3869476 -0.35585392 4292878080
2.1270983 -2.4089427 -0.34401044 4292878080
2.1190348 -2.399646 -0.32723945 4292878080
2.0929859 -2.3699956 -0.30758741 4292747520
2.0998094 -2.3775494 -0.29257393 4292747520
2.1156926 -2.3953538 -0.2783303 4292878080
2.1048377 -2.382901 -0.26023111 4292747520
2.0944324 -2.3709581 -0.24207731 4292747520
2.1103561 -2.3888037 -0.22666128 4292878080
2.1194851 -2.3989604 -0.21006775 4292878080
2.1242855 -2.4042184 -0.19270594 4292878080
2.07815 -2.351862 -0.17086937 4292616960
2.1035929 -2.3804696 -0.1549143 4292747520
2.1257336 -2.4053383 -0.13814406 4292878080
2.0971498 -2.3728406 -0.11798889 4292747520
2.0935788 -2.3686318 -0.099401139 4292747520
2.1288738 -2.4083691 -0.082279459 4292878080
2.1318936 -2.4116096 -0.063487075 4292878080
2.0749981 -2.3471134 -0.043322667 4292616960
2.1225295 -2.4006758 -0.025388608 4292878080
2.1183302 -2.395756 -0.006423702 4292878080
2.133543 -2.4127777 0.012579761 4292878080
2.0729861 -2.3441617 0.030720426 4292616960
2.1418965 -2.42187 0.050799809 4293008640
2.1606364 -2.4428723 0.070413217 4293008640
2.1355455 -2.4143443 0.088465936 4292878080
2.1106968 -2.3860946 0.1059874 4292747520
2.1531351 -2.4338696 0.12691022 4293008640
2.1652863 -2.447422 0.14638403 4293008640
2.1372895 -2.4156201 0.16284955 4292878080
2.0378344 -2.3031065 0.17261307 4292486400
2.1513629 -2.4311693 0.2002978 4293008640
2.1632571 -2.4444287 0.21936475 4293139200
2.1380413 -2.4157772 0.23432158 4293008640
2.0962412 -2.368403 0.24665821 4292747520
2.174139 -2.456193 0.27306196 4293139200
2.1708143 -2.4522645 0.28956509 4293139200
2.1597974 -2.4396527 0.30460864 4293139200
2.0961244 -2.367599 0.31133333 4292747520
2.0111313 -2.2714887 0.31344736 4292355840
2.1604254 -2.4398453 0.35211575 4293139200
2.1433997 -2.4204576 0.36426097 4293008640
2.0764751 -2.3447571 0.36695364 4292616960
2.113678 -2.3865774 0.38739917 4292878080
2.000514 -2.2587125 0.37940431 4292355840
2.1777074 -2.4584939 0.42634124 4293269760
2.1639853 -2.4428415 0.43646517 4293139200
2.1469615 -2.4234667 0.4452464 4293008640
2.1245062 -2.3979678 0.45217261 4293008640
2.0872126 -2.3557346 0.45510805 4292747520
2.0357251 -2.2974975 0.45397881 4292486400
2.1618197 -2.439563 0.49221623 4293139200
2.1675107 -2.4458163 0.50311714 4293139200
2.1349728 -2.408957 0.50446051 4293008640
2.1003292 -2.3697286 0.50445032 4292878080
2.11534 -2.3864963 0.51568455 4292878080
2.1362863 -2.4099548 0.52788603 4293008640
2.1546574 -2.4305074 0.5389601 4293139200
2.0995424 -2.368212 0.53094631 4292878080
2.1088738 -2.3785758 0.53846139 4292878080
2.1110697 -2.3808951 0.54355186 4292878080
2.1205256 -2.3913982 0.54989308 4293008640
2.1235075 -2.3946042 0.55393249 4293008640
2.1324446 -2.4045219 0.55888706 4293008640
2.129029 -2.4005184 0.55995721 4293008640
2.1230717 -2.393652 0.5596928 4293008640
2.1198037 -2.3898175 0.5594722 4293008640
2.1133401 -2.3823836 0.55774862 4293008640
2.1200278 -2.3897681 0.55883247 4293008640
2.1078248 -2.3758709 0.55428916 4292878080
2.0983076 -2.3650017 0.54981494 4292878080
2.1473176 -2.4200616 0.55996013 4293139200
2.1379466 -2.4093566 0.55419207 4293008640
2.1194777 -2.3884075 0.54546589 4293008640
2.101721 -2.3682632 0.53635502 4292878080
2.1296587 -2.3995814 0.53823316 4293008640
2.1686032 -2.4432912 0.54208362 4293269760
2.1628261 -2.4366388 0.53404385 4293139200
2.157757 -2.4307849 0.52558982 4293139200
2.1678202 -2.4419701 0.52018607 4293139200
2.1245492 -2.3931093 0.5015257 4293008640
2.1347003 -2.4043956 0.49500668 4293008640
2.1707611 -2.4448471 0.49371344 4293139200
2.1695027 -2.4432876 0.48321748 4293139200
2.1646793 -2.4377158 0.47140133 4293139200
2.1563427 -2.4274318 0.38817024 4293008640
2.1842842 -2.4587307 0.37864769 4293269760
2.1821585 -2.4562001 0.36332092 4293139200
2.1524525 -2.4226441 0.34322283 4293008640
2.1568813 -2.4274902 0.32835257 4293008640
2.1693738 -2.441406 0.31421632 4293139200
2.1737597 -2.446203 0.29843107 4293139200
2.1442039 -2.4128256 0.2778542 4293008640
2.1485078 -2.4175322 0.26154333 4293008640
2.1608722 -2.4313028 0.24578917 4293008640
2.1644235 -2.4351621 0.228634 4293008640
2.1284618 -2.3945909 0.20732525 4292878080
2.1546731 -2.4239306 0.19191007 4293008640
2.1734734 -2.4449351 0.17524685 4293139200
2.1708529 -2.441855 0.15652968 4293008640
2.1117673 -2.3752973 0.1341064 4292747520
2.138674 -2.4054143 0.11725798 4292878080
2.1472752 -2.4149511 0.098969817 4293008640
2.1362419 -2.4024179 0.07969071 4292878080
2.0598919 -2.3164728 0.058664136 4292486400
2.1216602 -2.3857677 0.041614674 4292747520
2.1284976 -2.3933218 0.022838008 4292878080
2.082181 -2.3411419 0.0038197073 4292616960
2.1112692 -2.3737013 -0.014921991 4292747520
2.1386313 -2.4043176 -0.034140434 4292878080
2.1328797 -2.3977242 -0.052986149 4292878080
2.0918808 -2.3515301 -0.070485868 4292616960
2.1447473 -2.4107955 -0.091185518 4292878080
2.1470702 -2.4132733 -0.11012411 4292878080
2.1392283 -2.4043326 -0.12837705 4292878080
2.0587988 -2.3138559 -0.14137037 4292486400
2.1363978 -2.4008899 -0.16504236 4292878080
2.1424389 -2.4075434 -0.18372463 4292878080
2.1303689 -2.3938553 -0.20060664 4292878080
2.047137 -2.3002512 -0.209778 4292486400
2.1436534 -2.4085097 -0.2372469 4293008640
2.1554322 -2.4216032 -0.25596604 4293008640
2.1615386 -2.4283254 -0.27387795 4293008640
2.1067059 -2.3666253 -0.2833913 4292747520
2.0481434 -2.3007441 -0.29121736 4292486400
2.1517725 -2.4169557 -0.32211465 4293008640
2.1540954 -2.4194281 -0.33828974 4293008640
2.1298869 -2.3921175 -0.34977022 4292878080
2.0551379 -2.308079 -0.35187027 4292486400
1.9824985 -2.2264175 -0.35292584 4292225280
2.1717138 -2.4386559 -0.40095147 4293139200
2.1680145 -2.4343655 -0.4141466 4293139200
2.1522899 -2.41658 -0.42446169 4293008640
2.0967185 -2.3540819 -0.42601627 4292747520
2.0741608 -2.3286345 -0.43333757 4292616960
2.1414273 -2.4039745 -0.45917249 4293008640
2.1496527 -2.4130633 -0.47224531 4293008640
2.1486843 -2.4118361 -0.4828023 4293008640
2.1337879 -2.3949838 -0.48960644 4293008640
2.1336544 -2.3946931 -0.49916783 4293008640
2.1285505 -2.3888266 -0.50697458 4293008640
2.1025314 -2.3595011 -0.50909662 4292878080
2.0546968 -2.305711 -0.50507534 4292616960
2.0730596 -2.3261666 -0.51662666 4292747520
2.0881839 -2.3429875 -0.52688527 4292747520
2.1000772 -2.3561823 -0.53580141 4292878080
2.0415945 -2.2904632 -0.52603519 4292486400
2.0509949 -2.3008633 -0.53301775 4292616960
2.0630801 -2.3142715 -0.54012412 4292616960
2.0686729 -2.3203988 -0.54493672 4292747520
2.068434 -2.3199873 -0.54758936 4292747520
2.0839994 -2.3372908 -0.55380327 4292747520
2.0780046 -2.330425 -0.553657 4292747520
2.0714283 -2.3229079 -0.55270499 4292747520
2.0590265 -2.308862 -0.54955238 4292616960
2.052597 -2.3015101 -0.54735422 4292616960
2.0501735 -2.2986474 -0.5455898 4292616960
2.0406091 -2.2877829 -0.54130065 4292486400
2.0923412 -2.3455987 -0.55258411 4292747520
2.0835795 -2.3356304 -0.54720789 4292747520
2.0617619 -2.3110363 -0.53782076 4292616960
2.0498443 -2.2975352 -0.53045529 4292616960
2.0850518 -2.3368223 -0.53460753 4292747520
2.1342342 -2.3917565 -0.54150891 4293008640
2.133584 -2.3908701 -0.53501678 4293008640
2.1368504 -2.3943691 -0.52888161 4293008640
2.1466103 -2.4051392 -0.52370042 4293008640
2.1449153 -2.40308 -0.51509696 4293008640
2.1485305 -2.4069662 -0.50717092 4293008640
2.1406667 -2.397999 -0.49597687 4293008640
2.1506271 -2.4089878 -0.48833516 4293008640
2.1642423 -2.4240654 -0.48085636 4293139200
2.1686802 -2.4288676 -0.47070581 4293139200
2.154026 -2.4122984 -0.45593745 4293008640
2.1429915 -2.3997822 -0.44156298 4293008640
2.1415408 -2.3979926 -0.42873797 4293008640
2.1509957 -2.4084077 -0.41756773 4293008640
2.1522064 -2.409595 -0.40426722 4293008640
2.144166 -2.4004304 -0.38882509 4293008640
2.1247001 -2.3784831 -0.37106368 4292878080
2.153183 -2.4101827 -0.36119974 4293008640
2.164227 -2.4223685 -0.34773967 4293008640
2.171428 -2.430253 -0.3331511 4293139200
2.1259995 -2.3792677 -0.31040969 4292878080
2.1295581 -2.3830798 -0.29479259 4292878080
2.1428967 -2.3978286 -0.28007993 4292878080
2.1499031 -2.4054935 -0.26407924 4293008640
2.1208425 -2.3728259 -0.24354129 4292747520
2.1428597 -2.3972754 -0.22866215 4292878080
2.1632969 -2.4199548 -0.21302342 4293008640
2.1542315 -2.4096465 -0.19415979 4293008640
2.1077976 -2.3575652 -0.17218871 4292747520
2.15172 -2.4064939 -0.15743846 4292878080
2.1573205 -2.4125814 -0.13929556 4293008640
2.1545753 -2.4093399 -0.12044413 4293008640
2.1073463 -2.3563843 -0.099414781 4292747520
2.126904 -2.3780706 -0.081679016 4292747520
2.1409211 -2.3935626 -0.063352942 4292878080
2.1369045 -2.3889027 -0.044341564 4292878080
2.1588287 -2.4132259 -0.025670059 4293008640
2.1753123 -2.4314673 -0.0065715117 4293008640
2.1777296 -2.4339926 0.01273937 4293008640
2.0932808 -2.3394859 0.030804355 4292616960
2.1909921 -2.4484558 0.051606879 4293139200
