# .PCD v0.7 - Point Cloud Data file format
VERSION 0.7
FIELDS x y z rgba
SIZE 4 4 4 4
TYPE F F F U
COUNT 1 1 1 1
WIDTH 1104
HEIGHT 1
VIEWPOINT 0 0 0 1 0 0 0
POINTS 1104
DATA ascii
2.4587157 -2.473767 -0.61629671 4293922560
2.4552093 -2.4700887 -0.61631286 4293922560
2.4517903 -2.4664977 -0.61562973 4293922560
2.5017273 -2.5165257 -0.6276418 4294183680
2.4950147 -2.5096204 -0.62467164 4294183680
2.5358903 -2.5505319 -0.63288212 4294314240
2.5224092 -2.5368226 -0.62674266 4294314240
2.5413036 -2.5556407 -0.6279223 4294314240
2.5534046 -2.5676303 -0.62664235 4294444800
2.5599833 -2.57407 -0.62324232 4294444800
2.557888 -2.5717952 -0.61699414 4294444800
2.5576913 -2.5714262 -0.61049443 4294444800
2.5672579 -2.580862 -0.60559714 4294444800
2.559371 -2.572767 -0.59587127 4294444800
2.5635092 -2.5767484 -0.58827454 4294444800
2.5536778 -2.5667002 -0.57680929 4294444800
2.558027 -2.5708909 -0.56791085 4294444800
2.5557559 -2.5684333 -0.55688113 4294444800
2.5717618 -2.5843241 -0.54914695 4294444800
2.5861416 -2.5985789 -0.54030275 4294575360
2.5874968 -2.5997572 -0.52804375 4294575360
2.5726984 -2.5847204 -0.51194954 4294444800
2.5624313 -2.5742326 -0.49631065 4294444800
2.5685272 -2.5801673 -0.48331192 4294444800
2.5798702 -2.5913658 -0.47066215 4294444800
2.5816655 -2.5929813 -0.45566261 4294444800
2.568449 -2.5795333 -0.43756682 4294444800
2.5646629 -2.5755482 -0.42070127 4294314240
2.578809 -2.5895529 -0.40625328 4294444800
2.5968657 -2.6074777 -0.39176223 4294575360
2.5883136 -2.5987086 -0.37274775 4294444800
2.5596631 -2.5697813 -0.35067654 4294314240
2.5709131 -2.5808752 -0.33383244 4294314240
2.5748546 -2.5846372 -0.31556153 4294314240
2.5769286 -2.5865257 -0.29667336 4294444800
2.5582895 -2.5676444 -0.27519131 4294314240
2.5721798 -2.5813801 -0.25696617 4294314240
2.5765603 -2.5855794 -0.23736772 4294314240
2.5797749 -2.588609 -0.21734713 4294314240
2.5584955 -2.5670846 -0.19515856 4294314240
2.5661201 -2.5745347 -0.17509428 4294314240
2.5767686 -2.5850139 -0.15490492 4294314240
2.5784783 -2.5865331 -0.13390823 4294314240
2.5687933 -2.576633 -0.11223708 4294314240
2.5750668 -2.5827253 -0.091185078 4294314240
2.5919611 -2.599458 -0.070230089 4294444800
2.5492873 -2.5565081 -0.047763091 4294183680
2.5729814 -2.5800519 -0.026698224 4294314240
2.5799775 -2.5868657 -0.0051668934 4294314240
2.5883441 -2.5950508 0.016490512 4294444800
2.503973 -2.5103507 0.036968008 4293922560
2.6004417 -2.606775 0.060031634 4294444800
2.6064568 -2.6126022 0.08186055 4294444800
2.6036661 -2.609611 0.10335376 4294444800
2.4665704 -2.4721441 0.11834999 4293792000
2.5988147 -2.6043613 0.14587148 4294444800
2.60484 -2.610198 0.16737546 4294444800
2.5918381 -2.5969868 0.18743031 4294444800
2.4679513 -2.4727848 0.19825518 4293792000
2.6036527 -2.6084237 0.22957666 4294444800
2.6023638 -2.6069391 0.24973455 4294444800
2.598573 -2.6029515 0.2693384 4294444800
2.5251093 -2.5292449 0.28089479 4294183680
2.6061797 -2.610177 0.30924514 4294575360
2.6224215 -2.6262345 0.33033478 4294575360
2.6091971 -2.6128109 0.34739321 4294575360
2.5827646 -2.5861762 0.36203623 4294444800
2.4862831 -2.4894757 0.36566836 4293922560
2.6072533 -2.6102931 0.40082434 4294575360
2.6013875 -2.6042366 0.41691262 4294575360
2.5861135 -2.5887725 0.43089682 4294444800
2.5623951 -2.564867 0.44275242 4294314240
2.5237195 -2.5260093 0.45115972 4294183680
2.6069005 -2.6089993 0.48097602 4294575360
2.5982845 -2.6001992 0.49382216 4294575360
2.5869868 -2.5887203 0.5054903 4294444800
2.5777009 -2.5792551 0.51686454 4294444800
2.5720143 -2.5733898 0.52829015 4294444800
2.5335448 -2.5347588 0.5321998 4294183680
2.6047356 -2.6057346 0.55856377 4294575360
2.5946548 -2.5954802 0.56720209 4294575360
2.5995915 -2.600235 0.57843119 4294575360
2.5829322 -2.5834105 0.58416378 4294444800
2.6059906 -2.6062744 0.59818119 4294575360
2.5829327 -2.5830612 0.60096687 4294575360
2.5856709 -2.5856235 0.60896623 4294575360
2.5734992 -2.5732915 0.61273432 4294444800
2.5728972 -2.5725195 0.61849761 4294444800
2.5793474 -2.578793 0.6252377 4294444800
2.5789034 -2.5781808 0.62959319 4294444800
2.588304 -2.5874016 0.63561749 4294575360
2.5845428 -2.5834787 0.63768572 4294575360
2.5443585 -2.5431852 0.63001448 4294314240
2.540776 -2.5394461 0.6305939 4294314240
2.5877328 -2.58617 0.64293766 4294575360
2.5808434 -2.5791292 0.6412127 4294575360
2.5810144 -2.579139 0.64048171 4294575360
2.5784862 -2.5764554 0.63833272 4294444800
2.5896223 -2.5874131 0.63879544 4294575360
2.5865734 -2.5842121 0.63501698 4294575360
2.5738442 -2.5713501 0.62814867 4294444800
2.5806203 -2.5779583 0.62529302 4294444800
2.5866933 -2.5838649 0.62151188 4294575360
2.5898986 -2.58691 0.61629844 4294575360
2.5987763 -2.5956163 0.61168003 4294575360
2.6031363 -2.5998147 0.60525447 4294575360
2.5978358 -2.5943754 0.59589213 4294575360
2.6002762 -2.5966601 0.58761472 4294575360
2.5891352 -2.585397 0.57563263 4294575360
2.5896673 -2.5857806 0.56560814 4294575360
2.6052322 -2.6011603 0.55813366 4294575360
2.5969365 -2.5927398 0.54489899 4294575360
2.5919268 -2.5875986 0.53178519 4294444800
2.5815344 -2.5763254 0.43821764 4294444800
2.5995996 -2.5941987 0.42502582 4294444800
2.6041136 -2.598561 0.40901145 4294575360
2.5909066 -2.585258 0.38982958 4294444800
2.5715647 -2.565841 0.3695128 4294314240
2.588104 -2.5821927 0.35392556 4294444800
2.5958378 -2.5897665 0.33657917 4294444800
2.5835552 -2.5773902 0.31631535 4294444800
2.5631261 -2.5568967 0.29495031 4294314240
2.5890093 -2.5825593 0.27850661 4294444800
2.583529 -2.5769656 0.25825632 4294314240
2.5867729 -2.5800662 0.23860361 4294314240
2.5736341 -2.5668426 0.21726893 4294314240
2.5938039 -2.5868087 0.19842413 4294444800
2.5946143 -2.5874846 0.17773059 4294444800
2.5894916 -2.5822499 0.15647571 4294314240
2.5759225 -2.5686016 0.1346976 4294314240
2.5859509 -2.5784619 0.11401583 4294314240
2.5902174 -2.5825818 0.092842348 4294314240
2.5813334 -2.5736027 0.071144067 4294314240
2.5767562 -2.5689144 0.049594413 4294314240
2.5806301 -2.5726433 0.028151743 4294314240
2.5829935 -2.5748677 0.0066097951 4294314240
2.5618289 -2.5536613 -0.014826887 4294183680
2.577405 -2.5690439 -0.036442019 4294314240
2.5772645 -2.5687749 -0.057914622 4294314240
2.5850689 -2.5764167 -0.079574168 4294314240
2.5716686 -2.5629444 -0.10043577 4294314240
2.5966558 -2.587693 -0.12281132 4294444800
2.5956578 -2.5865688 -0.14400634 4294444800
2.589735 -2.5805418 -0.16471431 4294314240
2.5778458 -2.5685756 -0.1847181 4294314240
2.5900288 -2.5805721 -0.20626542 4294314240
2.6036792 -2.5940278 -0.22791271 4294444800
2.5972383 -2.5874846 -0.2475992 4294444800
2.5911188 -2.5812616 -0.26695073 4294444800
2.6104779 -2.6003952 -0.28875273 4294444800
2.6132576 -2.6030273 -0.30856308 4294575360
2.6126065 -2.6022446 -0.32764485 4294575360
2.5836041 -2.5732503 -0.34258145 4294444800
2.6031213 -2.5925355 -0.36353368 4294444800
2.6146522 -2.6038723 -0.38318202 4294575360
2.6170709 -2.6061416 -0.40116179 4294575360
2.6012466 -2.5902605 -0.41580221 4294444800
2.5676138 -2.5566652 -0.42680505 4294314240
2.6158004 -2.6044617 -0.45106408 4294575360
2.6201298 -2.608628 -0.4675557 4294575360
2.6203215 -2.6086776 -0.48280936 4294575360
2.6186821 -2.6069052 -0.49717346 4294575360
2.5992482 -2.5874348 -0.50747472 4294575360
2.5899739 -2.5780694 -0.51903862 4294444800
2.5892663 -2.5772228 -0.53168374 4294444800
2.5909486 -2.578752 -0.54422057 4294444800
2.5932593 -2.580905 -0.55628729 4294575360
2.5923612 -2.5798662 -0.56703436 4294575360
2.5908244 -2.5781915 -0.57698166 4294444800
2.5923877 -2.5795982 -0.58695781 4294575360
2.5869045 -2.5739989 -0.59464592 4294444800
2.572757 -2.5597866 -0.5995878 4294444800
2.5564215 -2.5434 -0.6032328 4294314240
2.5537179 -2.5405631 -0.60934824 4294314240
2.5628681 -2.5495064 -0.61760592 4294444800
2.5514948 -2.5380516 -0.6201877 4294314240
2.5067284 -2.4934137 -0.61380965 4294183680
2.5063436 -2.4928803 -0.61752605 4294183680
2.5165234 -2.5028429 -0.62314302 4294183680
2.5128167 -2.4990065 -0.62459636 4294183680
2.5161843 -2.5021975 -0.62708145 4294183680
2.5161483 -2.5020061 -0.62798655 4294183680
2.5057242 -2.4914942 -0.62555945 4294183680
2.552937 -2.5382333 -0.63680965 4294314240
2.5433931 -2.5285926 -0.63312453 4294314240
2.555228 -2.5401845 -0.63402855 4294314240
2.5576339 -2.5424099 -0.63183653 4294314240
2.5834591 -2.5678904 -0.6346674 4294444800
2.577054 -2.5613627 -0.62880021 4294444800
2.5857794 -2.5698578 -0.6258949 4294444800
2.5836928 -2.567616 -0.61962771 4294444800
2.5923223 -2.5760121 -0.61520052 4294575360
2.583595 -2.5671759 -0.60593575 4294444800
2.590534 -2.5738907 -0.59965616 4294575360
2.5881433 -2.5713432 -0.59050727 4294444800
2.5797467 -2.562834 -0.57934344 4294444800
2.5811582 -2.564059 -0.56974685 4294444800
2.5753691 -2.5581372 -0.55792266 4294444800
2.5964577 -2.5788863 -0.55123043 4294575360
2.6054208 -2.5875998 -0.54119676 4294575360
2.6067851 -2.5887721 -0.52891803 4294575360
2.5909891 -2.5729187 -0.51262206 4294444800
2.5776868 -2.5595403 -0.49639136 4294444800
2.5901597 -2.5717306 -0.48458114 4294444800
2.5977957 -2.5791211 -0.47120729 4294444800
2.6062939 -2.5873649 -0.45736927 4294575360
2.5843229 -2.5653889 -0.43774045 4294444800
2.5845711 -2.5654495 -0.42153341 4294444800
2.594007 -2.57462 -0.40630031 4294444800
2.6050074 -2.5853398 -0.39073014 4294444800
2.6037211 -2.5838757 -0.37281525 4294444800
2.5646958 -2.544997 -0.34934506 4294314240
2.5788341 -2.5588253 -0.33293769 4294314240
2.5863316 -2.5660684 -0.31515089 4294314240
2.5852716 -2.5648279 -0.29592687 4294314240
2.5605197 -2.5401065 -0.27384892 4294183680
2.5871756 -2.5663342 -0.25698876 4294314240
2.5852013 -2.5641866 -0.23680191 4294314240
2.5877218 -2.566493 -0.21677119 4294314240
2.5563846 -2.5352521 -0.19387855 4294183680
2.5776839 -2.556164 -0.17488439 4294314240
2.5855532 -2.5637681 -0.15455081 4294314240
2.5771034 -2.5552053 -0.13307273 4294314240
2.5681477 -2.5461428 -0.11157045 4294183680
2.576731 -2.5544522 -0.090728641 4294314240
2.5829086 -2.5603778 -0.069585055 4294314240
2.562608 -2.540082 -0.047755852 4294183680
2.5744686 -2.551635 -0.02657168 4294314240
2.5886097 -2.565444 -0.005172105 4294314240
2.5934706 -2.5700631 0.016412146 4294314240
2.5050542 -2.4823394 0.036758289 4293922560
2.5985305 -2.5746846 0.059630226 4294314240
2.6081333 -2.5839961 0.081426367 4294444800
2.6017742 -2.5775077 0.10267105 4294444800
2.4702759 -2.4471731 0.11782873 4293792000
2.6043565 -2.5796757 0.14532116 4294444800
2.6069083 -2.5820074 0.16652641 4294444800
2.5969961 -2.5720062 0.18670169 4294314240
2.4851551 -2.4611607 0.19845787 4293792000
2.6017764 -2.5763512 0.22807479 4294444800
2.6210544 -2.5952299 0.25004721 4294444800
2.5966759 -2.5709226 0.26757601 4294444800
2.5291698 -2.5039625 0.27970585 4294053120
2.6178 -2.5914335 0.30880731 4294444800
2.6197863 -2.5932069 0.32808617 4294444800
2.6208355 -2.5940535 0.34690475 4294575360
2.5878808 -2.5612779 0.36064145 4294314240
2.4908419 -2.4651461 0.36420751 4293922560
2.6160538 -2.5887573 0.39983442 4294575360
2.6094489 -2.5820398 0.41576999 4294444800
2.5947948 -2.5673673 0.42982671 4294444800
2.5702345 -2.5429063 0.44152346 4294314240
2.5383933 -2.5112529 0.4511376 4294183680
2.6150029 -2.5867863 0.47966567 4294575360
2.6098642 -2.5815239 0.4931365 4294575360
2.602025 -2.5735948 0.50546765 4294444800
2.5856407 -2.5572243 0.51544428 4294444800
2.5834432 -2.5548737 0.52755201 4294444800
2.5447509 -2.5164695 0.5314461 4294183680
2.6100245 -2.5807772 0.55645043 4294575360
2.5994625 -2.5701656 0.5649569 4294444800
2.6013527 -2.571856 0.5754689 4294575360
2.6077762 -2.5780249 0.58634377 4294575360
2.5909283 -2.5612109 0.59129405 4294444800
2.5874057 -2.557559 0.59851789 4294444800
2.6006911 -2.5705066 0.60894358 4294575360
2.58143 -2.5513165 0.61105728 4294444800
2.5913491 -2.560941 0.61931014 4294444800
2.5943279 -2.5637133 0.62521511 4294444800
2.5966856 -2.5658731 0.63024884 4294575360
2.5560858 -2.5256286 0.6241042 4294314240
2.5960445 -2.564908 0.63680649 4294575360
2.5521209 -2.5213897 0.62827307 4294314240
2.5457127 -2.5149045 0.62815934 4294314240
2.5929408 -2.5613549 0.64049989 4294444800
2.5895157 -2.5578139 0.63963753 4294444800
2.5931921 -2.5612822 0.63976991 4294444800
2.5829346 -2.5510023 0.6357314 4294444800
2.5769715 -2.5449617 0.63201052 4294444800
2.5952723 -2.5628617 0.63345951 4294575360
2.5887811 -2.5563025 0.6281262 4294444800
2.5815611 -2.5490263 0.62190282 4294444800
2.5883665 -2.5555868 0.61831599 4294444800
2.5986068 -2.5655355 0.61478674 4294575360
2.6033189 -2.5700319 0.60920185 4294575360
2.606988 -2.5734999 0.60264152 4294575360
2.6023636 -2.5687897 0.59347492 4294575360
2.5949686 -2.5613492 0.58302951 4294444800
2.5943055 -2.5605483 0.57344228 4294444800
2.5913165 -2.5574553 0.56269431 4294444800
2.6168218 -2.5824578 0.55736423 4294575360
2.6056578 -2.571306 0.54355949 4294444800
2.5999105 -2.5654962 0.53033131 4294444800
2.5809731 -2.54599 0.43559352 4294314240
2.603133 -2.5676916 0.42314205 4294444800
2.6120982 -2.5763896 0.40788755 4294444800
2.5959775 -2.5603683 0.38832939 4294444800
2.5793526 -2.5438526 0.36848032 4294314240
2.5931468 -2.5573103 0.352557 4294314240
2.6012754 -2.5651851 0.33532426 4294444800
2.5770197 -2.5411558 0.31368959 4294314240
2.564028 -2.5282261 0.29333889 4294183680
2.5873296 -2.551049 0.27670759 4294314240
2.5888755 -2.5524404 0.2572777 4294314240
2.5981758 -2.56147 0.23824611 4294314240
2.5852396 -2.5485981 0.21696121 4294314240
2.5979729 -2.5610085 0.19757231 4294314240
2.6024981 -2.5653348 0.17721328 4294314240
2.5980549 -2.5608292 0.15605637 4294314240
2.5709381 -2.5339975 0.13363947 4294183680
2.5873671 -2.550046 0.11339123 4294314240
2.588093 -2.5506322 0.092202999 4294314240
2.5820041 -2.5445087 0.070720151 4294314240
2.5736496 -2.5361552 0.049218163 4294183680
2.5816495 -2.5439031 0.027964694 4294314240
2.5822334 -2.5443499 0.0065335445 4294314240
2.5630925 -2.5253804 -0.01478769 4294183680
2.5720303 -2.5340507 -0.036192439 4294183680
2.5850298 -2.5467181 -0.057801567 4294314240
2.5800536 -2.541692 -0.079001755 4294183680
2.5751176 -2.536706 -0.1000379 4294183680
2.5977669 -2.5588672 -0.12220319 4294314240
2.6010795 -2.5619974 -0.14352731 4294314240
2.5947361 -2.5556257 -0.1641341 4294314240
2.5780075 -2.5390356 -0.18371564 4294183680
2.5988836 -2.5594468 -0.20583591 4294314240
2.6002746 -2.5606847 -0.22635436 4294314240
2.5810261 -2.5416169 -0.24467964 4294314240
2.5920744 -2.5523553 -0.26556653 4294314240
2.6159022 -2.5756633 -0.28774598 4294444800
2.6210859 -2.5806293 -0.30776724 4294444800
2.6152501 -2.5747554 -0.32614726 4294444800
2.5705037 -2.5306108 -0.33893117 4294183680
2.6043143 -2.5637312 -0.36166573 4294444800
2.610189 -2.5693738 -0.38038236 4294444800
2.6261938 -2.5849774 -0.40030813 4294575360
2.6085384 -2.5674791 -0.41463163 4294444800
2.5608561 -2.5204568 -0.42328629 4294183680
2.6246138 -2.5830109 -0.45004433 4294575360
2.6260505 -2.5842843 -0.46597892 4294575360
2.6325576 -2.5905418 -0.48233953 4294575360
2.6274312 -2.585361 -0.4960286 4294575360
2.6071808 -2.5653129 -0.50615776 4294444800
2.5950317 -2.5532291 -0.51712066 4294444800
2.6006749 -2.5586343 -0.5310176 4294444800
2.603018 -2.5607946 -0.5436734 4294444800
2.6053977 -2.5629895 -0.55573827 4294444800
2.5974472 -2.5550311 -0.56493598 4294444800
2.6022451 -2.5596006 -0.57625115 4294444800
2.60939 -2.5664749 -0.58747059 4294575360
2.6024563 -2.559514 -0.59483916 4294444800
2.5911124 -2.5482197 -0.60045135 4294444800
2.5871449 -2.5441725 -0.6070351 4294444800
2.5774779 -2.5345261 -0.61153883 4294444800
2.5713177 -2.5283241 -0.61612689 4294314240
2.5591767 -2.516247 -0.61852342 4294314240
2.565727 -2.5225296 -0.62471408 4294314240
2.5716572 -2.5282013 -0.63004661 4294314240
2.5176814 -2.4750366 -0.61988032 4294183680
2.5237901 -2.4808838 -0.62375516 4294183680
2.5201511 -2.4771569 -0.62449098 4294183680
2.5611281 -2.5172393 -0.63558894 4294314240
2.5611825 -2.5171349 -0.63578278 4294314240
2.5578156 -2.5136702 -0.63438386 4294314240
2.5696259 -2.525105 -0.63601083 4294314240
2.5754688 -2.530679 -0.63540477 4294444800
2.5883412 -2.5431519 -0.63577682 4294444800
2.5920205 -2.546598 -0.63312602 4294444800
2.5890925 -2.5435579 -0.6281206 4294444800
2.6006801 -2.5547631 -0.62589592 4294444800
2.6013949 -2.5552955 -0.62029803 4294444800
2.6041341 -2.5578134 -0.61445606 4294575360
2.6153784 -2.568675 -0.60987586 4294575360
2.6026423 -2.5560057 -0.5989942 4294444800
2.6001809 -2.5534174 -0.5898385 4294444800
2.591084 -2.5443192 -0.5785358 4294444800
2.5845599 -2.5377448 -0.56720185 4294444800
2.5902042 -2.5431063 -0.55789703 4294444800
2.6053593 -2.5577943 -0.54991996 4294444800
2.6226315 -2.5745559 -0.54162019 4294575360
2.6112294 -2.5631936 -0.52674377 4294444800
2.6089797 -2.5608072 -0.51318765 4294444800
2.5837307 -2.5358679 -0.49465865 4294314240
2.5904229 -2.5422494 -0.48180118 4294314240
2.6066802 -2.5580068 -0.47005847 4294444800
2.6115248 -2.5625727 -0.45560461 4294444800
2.5909145 -2.5421848 -0.43628359 4294314240
2.5853159 -2.5365133 -0.41917351 4294314240
2.6056323 -2.556242 -0.40571991 4294444800
2.6068099 -2.55721 -0.38868836 4294444800
2.6072469 -2.5574515 -0.37110701 4294444800
2.5670025 -2.5178282 -0.347579 4294183680
2.5822022 -2.5325363 -0.33138272 4294314240
2.5885501 -2.5385692 -0.31353033 4294314240
2.5847049 -2.5346146 -0.29407859 4294314240
2.5648479 -2.5149744 -0.27265266 4294183680
2.5808942 -2.5305057 -0.25479838 4294314240
2.589736 -2.5389776 -0.23576438 4294314240
2.5876203 -2.5367162 -0.21542132 4294314240
2.5639522 -2.5133479 -0.19324228 4294183680
2.5784769 -2.5273833 -0.17383222 4294183680
2.5792472 -2.5279481 -0.15317962 4294183680
2.5805671 -2.5290508 -0.13238142 4294183680
2.5671892 -2.5157635 -0.11077833 4294183680
2.5779693 -2.5261276 -0.090139642 4294183680
2.5913231 -2.5390096 -0.069301702 4294314240
2.5744762 -2.5223284 -0.047593422 4294183680
2.5856884 -2.5331125 -0.026423153 4294183680
2.5997519 -2.5466855 -0.0050508613 4294314240
2.601222 -2.5479321 0.016484695 4294314240
2.5194438 -2.4677179 0.036867972 4293922560
2.6034493 -2.5497277 0.059523508 4294314240
2.6166794 -2.56248 0.081346862 4294444800
2.6067209 -2.5525451 0.10240188 4294314240
2.4816015 -2.4299574 0.11780559 4293792000
2.6050208 -2.5504987 0.14465523 4294314240
2.6147304 -2.5598044 0.16619438 4294444800
2.598335 -2.5435779 0.18585771 4294314240
2.4858546 -2.4333889 0.19750191 4293792000
2.6167057 -2.5611625 0.22818959 4294444800
2.6189713 -2.5631871 0.24855101 4294444800
2.6051545 -2.5494876 0.26703617 4294314240
2.4790215 -2.4259849 0.27275684 4293792000
2.6192751 -2.5629144 0.30734098 4294444800
2.6321473 -2.5753081 0.32786626 4294444800
2.6258965 -2.5690088 0.34570873 4294444800
2.5956028 -2.5392125 0.35976574 4294314240
2.4287469 -2.3759606 0.35326743 4293530880
2.6104305 -2.5533321 0.39681894 4294444800
2.6173003 -2.5598595 0.41474843 4294444800
2.6061161 -2.5487468 0.42933995 4294444800
2.5750253 -2.5181873 0.43992555 4294314240
2.4885721 -2.4335475 0.43990624 4293922560
2.6200571 -2.5618172 0.47794956 4294444800
2.618438 -2.5600531 0.49202621 4294444800
2.6063037 -2.5480201 0.50350279 4294444800
2.600455 -2.5421286 0.51551926 4294444800
2.5505359 -2.4931998 0.51797855 4294183680
2.5593295 -2.5016129 0.5315119 4294183680
2.610827 -2.5517242 0.55352676 4294444800
2.6079884 -2.5487766 0.56364566 4294444800
2.6028221 -2.5435576 0.57258052 4294444800
2.6022203 -2.5427964 0.58183002 4294444800
2.602236 -2.5426393 0.59053969 4294444800
2.6057556 -2.545903 0.59936541 4294444800
2.5870152 -2.5274405 0.6023519 4294444800
2.5962141 -2.5362501 0.6110853 4294444800
2.6026614 -2.5423741 0.61849767 4294444800
2.5616512 -2.5021865 0.61388659 4294314240
2.5640304 -2.5043445 0.61883545 4294314240
2.5636711 -2.5038311 0.62240404 4294314240
2.5633969 -2.503402 0.62526214 4294314240
2.5632098 -2.5030587 0.62740684 4294314240
2.5532393 -2.4931726 0.62642354 4294183680
2.5631008 -2.5026345 0.62954766 4294314240
2.556834 -2.4963646 0.62798905 4294314240
2.6009893 -2.5392764 0.63801485 4294444800
2.6012509 -2.5393741 0.63655257 4294444800
2.5917273 -2.5299301 0.6319657 4294444800
2.5780559 -2.5164435 0.62565392 4294314240
2.5866702 -2.5246906 0.62399894 4294444800
2.5998716 -2.5374107 0.62267989 4294444800
2.5961277 -2.5336087 0.61657447 4294444800
2.6134858 -2.5503814 0.61470807 4294575360
2.6153994 -2.5520966 0.6084615 4294575360
2.6113153 -2.5479655 0.60012299 4294444800
2.613729 -2.5501704 0.59257776 4294444800
2.6098261 -2.5462186 0.58292395 4294444800
2.6020842 -2.5385265 0.57178199 4294444800
2.6026137 -2.538898 0.56181479 4294444800
2.6183491 -2.5540891 0.5544011 4294444800
2.6099482 -2.5457587 0.54123271 4294444800
2.6048708 -2.540669 0.52818918 4294444800
2.5879064 -2.5231867 0.43425488 4294314240
2.6090128 -2.5436099 0.42166311 4294444800
2.6172824 -2.5515287 0.40635183 4294444800
2.6009068 -2.5354447 0.38683492 4294314240
2.5841806 -2.5190217 0.367053 4294314240
2.5973351 -2.5316997 0.35110253 4294314240
2.6022925 -2.5363946 0.33353612 4294314240
2.5889554 -2.5232759 0.31333113 4294314240
2.5820327 -2.5164046 0.29369619 4294183680
2.5957479 -2.5296278 0.27601615 4294314240
2.5965846 -2.5303121 0.25656551 4294314240
2.6030746 -2.5365002 0.23733093 4294314240
2.5864832 -2.5202191 0.21582881 4294183680
2.6028616 -2.5360336 0.19681472 4294314240
2.6002514 -2.5333636 0.17605691 4294314240
2.5989234 -2.5319424 0.15522344 4294314240
2.5828228 -2.5161436 0.13348943 4294183680
2.5950468 -2.5279126 0.1130816 4294314240
2.5957749 -2.5284934 0.091952927 4294314240
2.5832005 -2.5161293 0.070359163 4294183680
2.5819619 -2.514797 0.049101084 4294183680
2.5896473 -2.5221481 0.027898321 4294183680
2.5812845 -2.5138841 0.0065085245 4294183680
2.5641742 -2.4971104 -0.014695419 4294053120
2.5756288 -2.5081284 -0.036023039 4294183680
2.5828109 -2.5149887 -0.057404142 4294183680
2.5776496 -2.509841 -0.078458592 4294183680
2.5726871 -2.5048869 -0.099353246 4294183680
2.5890205 -2.5206473 -0.12107181 4294183680
2.6052489 -2.536304 -0.14292017 4294314240
2.5952904 -2.5264897 -0.16321248 4294314240
2.5756052 -2.5072165 -0.18247478 4294183680
2.5864279 -2.5176136 -0.20365113 4294183680
2.5980089 -2.5287466 -0.2248435 4294314240
2.5761468 -2.5073588 -0.24279852 4294183680
2.5994766 -2.5299141 -0.26478767 4294314240
2.6135857 -2.5435019 -0.28582686 4294314240
2.6284637 -2.5578351 -0.3068544 4294444800
2.6124578 -2.5421414 -0.32391578 4294314240
2.5299997 -2.461849 -0.3316403 4293922560
2.6094935 -2.5389943 -0.36029807 4294314240
2.6182582 -2.5473804 -0.37936392 4294444800
2.6186538 -2.5476301 -0.39685526 4294444800
2.5992715 -2.528657 -0.41077483 4294314240
2.5375166 -2.4685037 -0.4170014 4294053120
2.6333911 -2.5615447 -0.44895792 4294575360
2.632081 -2.5601332 -0.46436831 4294575360
2.6311724 -2.5591116 -0.479316 4294575360
2.6315711 -2.5593593 -0.49396044 4294575360
2.6121817 -2.54038 -0.50422162 4294444800
2.6138446 -2.5418556 -0.5178929 4294444800
2.6123788 -2.5402906 -0.53035653 4294444800
2.6111889 -2.5389926 -0.54226035 4294444800
2.6233561 -2.5506692 -0.55637491 4294575360
2.6120105 -2.5395043 -0.56486058 4294444800
2.6168437 -2.544054 -0.57617784 4294444800
2.6119251 -2.5391312 -0.58468187 4294444800
2.6032696 -2.5305786 -0.59162682 4294444800
2.5928497 -2.5203125 -0.59742492 4294444800
2.5894213 -2.5168359 -0.60410434 4294314240
2.5831473 -2.5105956 -0.60939258 4294314240
2.5754292 -2.5029528 -0.61359817 4294314240
2.5667551 -2.4943817 -0.61682671 4294314240
2.5698087 -2.497196 -0.62214977 4294314240
2.5323937 -2.4607234 -0.6168794 4294183680
2.5349157 -2.4630215 -0.62058616 4294183680
2.531872 -2.4599159 -0.62220377 4294183680
2.5345705 -2.4623826 -0.6245082 4294183680
2.5317063 -2.4594493 -0.62471068 4294183680
2.5317588 -2.4593461 -0.62490386 4294183680
2.5759797 -2.5021029 -0.63528234 4294314240
2.5627902 -2.4891453 -0.63072872 4294314240
2.577585 -2.503341 -0.63233542 4294314240
2.58355 -2.5089669 -0.63101584 4294314240
2.5937567 -2.5187061 -0.62997878 4294444800
2.5968344 -2.5215273 -0.62645411 4294444800
2.6052163 -2.5294921 -0.62346202 4294444800
2.6113036 -2.5352292 -0.61916602 4294444800
2.6110487 -2.5348132 -0.61263222 4294444800
2.6160095 -2.5394547 -0.60660267 4294444800
2.6070907 -2.5306344 -0.5966599 4294444800
2.6010666 -2.524621 -0.58673966 4294444800
2.599041 -2.5224848 -0.57707518 4294444800
2.5954766 -2.5188558 -0.56642634 4294314240
2.5917313 -2.5150511 -0.55511791 4294314240
2.6133842 -2.5358679 -0.54855102 4294444800
2.6207092 -2.5427918 -0.53821808 4294444800
2.6220794 -2.543942 -0.52600771 4294444800
2.6020579 -2.5243573 -0.5089919 4294314240
2.585741 -2.5083652 -0.49231252 4294314240
2.597791 -2.5198646 -0.48051494 4294314240
2.6047118 -2.5263913 -0.46712193 4294314240
2.5990405 -2.520715 -0.45093477 4294314240
2.5835924 -2.5055661 -0.43266875 4294314240
2.5793843 -2.5013084 -0.41592947 4294183680
2.5998039 -2.5209086 -0.40261036 4294314240
2.6079614 -2.5286272 -0.38675624 4294314240
2.6014035 -2.5220907 -0.36827573 4294314240
2.5680676 -2.4896188 -0.34585732 4294183680
2.5800755 -2.5010655 -0.32933983 4294183680
2.5863008 -2.5069096 -0.3115924 4294183680
2.5797105 -2.5003428 -0.29195768 4294183680
2.5663044 -2.4871774 -0.27137843 4294053120
2.5864882 -2.5065346 -0.25402695 4294183680
2.5905278 -2.5102589 -0.23462318 4294183680
2.5940902 -2.5135202 -0.21486577 4294183680
2.5705743 -2.4905698 -0.19277447 4294053120
2.5864801 -2.505779 -0.17351876 4294183680
2.5908415 -2.5098126 -0.15313631 4294183680
2.5899017 -2.5087149 -0.132248 4294183680
2.5706542 -2.4899011 -0.11043672 4294053120
2.5858445 -2.5044122 -0.090045869 4294183680
2.5933535 -2.5114892 -0.069104224 4294183680
2.5719092 -2.4905539 -0.047414761 4294053120
2.5867765 -2.5047488 -0.026427535 4294183680
2.5974824 -2.5149164 -0.0051603224 4294183680
2.6044896 -2.5215046 0.016263928 4294314240
2.5201514 -2.4397461 0.036527466 4293922560
2.6111042 -2.5275223 0.059207004 4294314240
2.6245673 -2.5403512 0.080974944 4294314240
2.6115093 -2.5275342 0.10185657 4294314240
2.4885633 -2.4084711 0.1173199 4293661440
2.6202283 -2.5355844 0.14451428 4294314240
2.6227682 -2.5378499 0.16560523 4294314240
2.6160064 -2.5311239 0.18589911 4294314240
2.4899733 -2.4091132 0.19656454 4293792000
2.6204941 -2.5350835 0.22707471 4294314240
2.6234515 -2.5377531 0.24741521 4294314240
2.6092429 -2.523834 0.2657918 4294314240
2.5345149 -2.4514377 0.27709562 4293922560
2.6379411 -2.5511897 0.30761853 4294444800
2.6367154 -2.5498176 0.32642889 4294444800
2.6301169 -2.5432556 0.34415957 4294444800
2.6003706 -2.5143337 0.35824484 4294314240
2.4318535 -2.3513725 0.35158837 4293530880
2.6288774 -2.541501 0.39721078 4294444800
2.6222029 -2.5348706 0.41303763 4294444800
2.6073868 -2.5203791 0.42698896 4294314240
2.5789809 -2.4927671 0.43798062 4294183680
2.4856162 -2.402436 0.43678409 4293792000
2.62815 -2.5398843 0.47658592 4294444800
2.6297836 -2.541281 0.49123549 4294444800
2.6076024 -2.5196877 0.50079054 4294314240
2.5981636 -2.5103989 0.51204556 4294314240
2.5543759 -2.4679568 0.51571852 4294183680
2.506496 -2.4215717 0.51754856 4293922560
2.6192853 -2.5302587 0.55207539 4294444800
2.6157205 -2.5266438 0.56202108 4294444800
2.6105263 -2.5214579 0.57093412 4294444800
2.6170287 -2.5275602 0.58173668 4294444800
2.6008134 -2.5117431 0.58680457 4294444800
2.6106386 -2.5210528 0.59701753 4294444800
2.5917931 -2.502703 0.59998268 4294314240
2.5974963 -2.5080378 0.60786945 4294314240
2.6075301 -2.51755 0.6160925 4294444800
2.5691252 -2.4803417 0.61214232 4294183680
2.5552022 -2.4667511 0.61318547 4294183680
2.5718648 -2.4826603 0.62082011 4294314240
2.575134 -2.4856524 0.62453359 4294314240
2.5713987 -2.4818912 0.62582237 4294314240
2.5712976 -2.4816356 0.62725395 4294314240
2.5641949 -2.4746304 0.6262452 4294183680
2.5848372 -2.4943759 0.63124776 4294314240
2.5644398 -2.4745564 0.62553144 4294183680
2.6061001 -2.5145626 0.63413972 4294444800
2.589426 -2.4983354 0.62785459 4294314240
2.5962467 -2.5047567 0.62651348 4294314240
2.6049087 -2.5129533 0.62486023 4294444800
2.6046989 -2.5125995 0.62034303 4294444800
2.6044791 -2.5122373 0.61509842 4294444800
2.6176713 -2.5248003 0.6122604 4294444800
2.6160386 -2.523078 0.60522848 4294444800
2.621172 -2.5278761 0.59904021 4294444800
2.6186109 -2.5252614 0.59039724 4294444800
2.6111243 -2.5179026 0.57999587 4294444800
2.6068885 -2.5136776 0.56968182 4294444800
2.6102624 -2.5167842 0.56036729 4294444800
2.6260824 -2.5318799 0.55298913 4294444800
2.6211917 -2.5270264 0.54058874 4294444800
2.6169813 -2.52283 0.52774793 4294444800
2.5954099 -2.5011697 0.43304566 4294314240
2.6205246 -2.5252142 0.4211193 4294444800
2.6252997 -2.5296767 0.40528506 4294444800
2.6165376 -2.5211074 0.38694552 4294314240
2.5908651 -2.4962623 0.36591536 4294183680
2.6087708 -2.5133657 0.35064363 4294314240
2.6199517 -2.5239956 0.33388436 4294314240
2.6045172 -2.5090091 0.31341723 4294314240
2.5930586 -2.4978514 0.29327103 4294183680
2.6064472 -2.5106061 0.27557498 4294314240
2.6073279 -2.5113239 0.25615811 4294314240
2.6044536 -2.5084291 0.23610888 4294314240
2.5907676 -2.495132 0.214956 4294183680
2.6141524 -2.5175037 0.19653662 4294314240
2.621804 -2.5247366 0.17648964 4294314240
2.6032665 -2.5067742 0.15459391 4294183680
2.592334 -2.49613 0.13320909 4294183680
2.5992844 -2.5026891 0.11261493 4294183680
2.6001301 -2.5033758 0.091574773 4294183680
2.5913305 -2.4947851 0.070166439 4294183680
2.5837853 -2.487402 0.048846979 4294183680
2.5935426 -2.4966605 0.027769055 4294183680
2.5933123 -2.4963129 0.0064819795 4294183680
2.5735705 -2.4772019 -0.014684389 4294053120
2.5838687 -2.4869795 -0.035952371 4294183680
2.5941751 -2.4967639 -0.057352118 4294183680
2.5940433 -2.4965107 -0.078536764 4294183680
2.5853932 -2.4880676 -0.099303052 4294183680
2.6062388 -2.5079827 -0.12121548 4294183680
2.6132534 -2.5145988 -0.14257076 4294314240
2.6027534 -2.5043771 -0.16277868 4294183680
2.5841849 -2.4864004 -0.18207112 4294183680
2.6001852 -2.501653 -0.20360473 4294183680
2.5970547 -2.4985161 -0.22350921 4294183680
2.5932229 -2.494705 -0.24305749 4294183680
2.5871553 -2.4887452 -0.26205602 4294183680
2.6216881 -2.5218031 -0.28511935 4294314240
2.6237073 -2.5236127 -0.30458766 4294314240
2.617815 -2.5178194 -0.32277215 4294314240
2.5826192 -2.4838696 -0.33668077 4294183680
2.6102066 -2.5102456 -0.35838482 4294314240
2.6190267 -2.5185874 -0.37735665 4294314240
2.6198313 -2.519227 -0.39481691 4294314240
2.607511 -2.5072575 -0.40977976 4294314240
2.5382478 -2.440589 -0.41479126 4293922560
2.6379337 -2.5362115 -0.44722205 4294444800
2.6301813 -2.5286283 -0.46143904 4294444800
2.6269519 -2.5253894 -0.47587043 4294444800
2.6288505 -2.5270751 -0.49069044 4294444800
2.6010594 -2.500247 -0.49926227 4294314240
2.613122 -2.5116925 -0.51485527 4294314240
2.6166716 -2.5149615 -0.52826077 4294444800
2.6119118 -2.5102506 -0.5393787 4294444800
2.6214571 -2.5192738 -0.55286312 4294444800
2.6255579 -2.5230682 -0.5646233 4294444800
2.6174245 -2.5151162 -0.57308429 4294444800
2.6159906 -2.5135953 -0.58232039 4294444800
2.608012 -2.5057914 -0.58939356 4294444800
2.591321 -2.4896247 -0.59373403 4294314240
2.5849397 -2.4833541 -0.59968513 4294314240
2.5941739 -2.4920702 -0.60857832 4294314240
2.5754111 -2.4739156 -0.61016369 4294183680
2.5404489 -2.440217 -0.60707867 4294053120
2.5328639 -2.4327917 -0.60975873 4294053120
2.536026 -2.4356785 -0.61431295 4294053120
2.5428267 -2.4420545 -0.61904734 4294053120
2.5461609 -2.4451034 -0.62222534 4294183680
2.5424788 -2.4414194 -0.62295955 4294053120
2.538887 -2.4378216 -0.62298501 4294053120
2.5389388 -2.4377184 -0.62317765 4294053120
2.5355284 -2.434293 -0.62179172 4294053120
2.5736954 -2.4707441 -0.62987906 4294183680
2.574023 -2.4708998 -0.62793183 4294183680
2.5825942 -2.47896 -0.62725812 4294314240
2.58868 -2.4846349 -0.62523103 4294314240
2.5983195 -2.4937153 -0.62331212 4294314240
2.6021972 -2.4972692 -0.61926007 4294314240
2.6104374 -2.5050039 -0.61550379 4294444800
2.6147907 -2.5090103 -0.61008644 4294444800
2.6096115 -2.5038776 -0.60173738 4294444800
2.6150658 -2.5089369 -0.59514815 4294444800
2.6090038 -2.5029566 -0.58524913 4294444800
2.6056652 -2.4995863 -0.57532048 4294314240
2.6051059 -2.498879 -0.56536025 4294314240
2.5992045 -2.4930515 -0.55361617 4294314240
2.6129355 -2.5060356 -0.54539686 4294314240
2.6223073 -2.5148406 -0.5355432 4294444800
2.6165307 -2.5091302 -0.52196431 4294444800
2.6031351 -2.4961207 -0.50636375 4294314240
2.5902951 -2.4836445 -0.4904325 4294183680
2.6024063 -2.4950688 -0.478688 4294314240
2.6017964 -2.4943068 -0.4639971 4294314240
2.6132813 -2.5051277 -0.45088741 4294314240
2.5895512 -2.4822221 -0.43125427 4294183680
2.582372 -2.4751682 -0.41409385 4294183680
2.6039958 -2.4956942 -0.4010168 4294314240
2.6088004 -2.500113 -0.38472787 4294314240
2.6107996 -2.5018444 -0.36755505 4294314240
2.5814631 -2.4735773 -0.34573576 4294183680
2.585037 -2.4768169 -0.32814148 4294183680
2.5962396 -2.4873574 -0.3110576 4294183680
2.5875385 -2.4788458 -0.2912218 4294183680
2.5655608 -2.4576292 -0.26979303 4294053120
2.5935957 -2.4842751 -0.25331628 4294183680
2.60075 -2.4909363 -0.23424973 4294183680
2.6031084 -2.4930074 -0.21442433 4294183680
2.5785475 -2.4693227 -0.19230767 4294053120
2.5941777 -2.4840913 -0.17307858 4294183680
2.6014483 -2.4908605 -0.15292211 4294183680
2.5972524 -2.4866605 -0.1318983 4294183680
2.5775845 -2.4676623 -0.11013144 4294053120
2.6003916 -2.4892893 -0.090067774 4294183680
2.6075373 -2.4959359 -0.069115192 4294183680
2.5955658 -2.4843006 -0.047611672 4294183680
2.6010795 -2.4893858 -0.026446767 4294183680
2.6074476 -2.4952874 -0.0051697558 4294183680
2.6090164 -2.4965994 0.016186487 4294183680
2.5721827 -2.4612002 0.037022699 4294053120
2.61169 -2.4987798 0.058877636 4294183680
2.6360695 -2.5218942 0.080855362 4294314240
2.6304536 -2.5163374 0.10199654 4294314240
2.5543578 -2.4434266 0.11968553 4293922560
2.6234539 -2.5092711 0.14387017 4294314240
2.6376679 -2.522665 0.16559285 4294314240
2.620599 -2.5061681 0.18517058 4294314240
2.4967475 -2.387656 0.1959828 4293661440
2.6316671 -2.5163679 0.2267493 4294314240
2.6282494 -2.5129161 0.24646863 4294314240
2.6317632 -2.5160859 0.26655954 4294314240
2.5415444 -2.4297321 0.2762965 4293922560
2.6387053 -2.5223436 0.30597803 4294444800
2.6479239 -2.5309615 0.32596612 4294444800
2.6453257 -2.5282943 0.3441937 4294444800
2.6113763 -2.4956939 0.35773289 4294314240
2.509084 -2.3978488 0.36064893 4293792000
2.6295741 -2.5127032 0.39508724 4294314240
2.6325512 -2.515363 0.41233391 4294444800
2.6148419 -2.4982772 0.42580327 4294314240
2.5898697 -2.4742622 0.43735567 4294183680
2.5103371 -2.3981791 0.4386344 4293792000
2.6393156 -2.5210962 0.47592005 4294444800
2.6406763 -2.5222154 0.49049819 4294444800
2.6222379 -2.5044432 0.50076854 4294314240
2.6163273 -2.4986272 0.51272237 4294314240
2.5586858 -2.4434586 0.51369351 4294053120
2.5205617 -2.406918 0.5175274 4293922560
2.6339822 -2.5149462 0.55205321 4294444800
2.6308296 -2.5117655 0.56209111 4294444800
2.63517 -2.5157328 0.5730772 4294444800
2.6181319 -2.4993114 0.5787257 4294444800
2.614578 -2.4957526 0.58659834 4294314240
2.6145694 -2.4955759 0.59456933 4294444800
2.6063299 -2.4875517 0.5999608 4294314240
2.6084952 -2.4894505 0.60702038 4294314240
2.6150172 -2.4955034 0.61440057 4294444800
2.5735438 -2.4558005 0.60976356 4294183680
2.5759504 -2.4579339 0.61468977 4294183680
2.5791528 -2.4608269 0.61909318 4294183680
2.5617588 -2.4440885 0.61783087 4294183680
2.5822492 -2.4634609 0.62494117 4294183680
2.5785813 -2.4598086 0.62550926 4294183680
2.5750034 -2.4562428 0.62536108 4294183680
2.5750804 -2.456162 0.62536126 4294183680
2.5723948 -2.4534495 0.62395912 4294183680
2.6064415 -2.4857371 0.63067973 4294314240
2.6103573 -2.4893146 0.6293745 4294314240
2.5936732 -2.4732678 0.62239909 4294314240
2.6023796 -2.4814115 0.62076932 4294314240
2.6192932 -2.4973731 0.62032104 4294444800
2.6155016 -2.4936121 0.61424148 4294444800
2.6259093 -2.5033762 0.61074942 4294444800
2.6278362 -2.5050638 0.60455167 4294444800
2.632282 -2.5091505 0.59820938 4294444800
2.6261296 -2.5031455 0.58877897 4294444800
2.6257493 -2.5026383 0.57997382 4294444800
2.621489 -2.4984379 0.56965983 4294444800
2.6213021 -2.498117 0.55958456 4294444800
2.6428745 -2.5185137 0.55340183 4294444800
2.6339071 -2.5098345 0.5401659 4294444800
2.6280508 -2.5041189 0.52701032 4294444800
2.6099377 -2.4859958 0.43302378 4294314240
2.6315937 -2.5064695 0.42052531 4294314240
2.6435935 -2.5177536 0.40581253 4294444800
2.6174929 -2.4927857 0.38492224 4294314240
2.6082478 -2.4838576 0.36629596 4294183680
2.6125519 -2.4878216 0.34918496 4294314240
2.6310046 -2.5052454 0.33340812 4294314240
2.6085806 -2.4837832 0.3121464 4294183680
2.5959489 -2.4716384 0.29195222 4294183680
2.6175756 -2.4920809 0.27519271 4294314240
2.6312783 -2.5049849 0.25704327 4294314240
2.6163199 -2.4906292 0.23584539 4294183680
2.598027 -2.473104 0.21434319 4294183680
2.6182818 -2.4922392 0.19573842 4294183680
2.6220486 -2.4956937 0.1755136 4294314240
2.6170397 -2.4908035 0.15452611 4294183680
2.6032116 -2.4775283 0.13300505 4294183680
2.6101992 -2.484046 0.11243979 4294183680
2.6045277 -2.4785278 0.091205381 4294183680
2.6087089 -2.4823771 0.07022018 4294183680
2.5982332 -2.4722927 0.048825223 4294183680
2.6007967 -2.4746044 0.027675441 4294183680
2.604188 -2.4777026 0.0064538075 4294183680
2.577812 -2.4525068 -0.014641025 4294053120
2.5943267 -2.4680791 -0.03591606 4294053120
2.6050537 -2.4781489 -0.057291701 4294183680
2.6085441 -2.4813404 -0.078558594 4294183680
2.5897005 -2.4633074 -0.098930225 4294053120
2.6070411 -2.4796603 -0.12059128 4294183680
2.6177185 -2.4896798 -0.14203568 4294183680
2.6222961 -2.4939022 -0.16311467 4294183680
2.5921109 -2.4650958 -0.18163195 4294053120
2.6110969 -2.4830074 -0.20334241 4294183680
2.6075444 -2.4795051 -0.22318412 4294183680
2.6004798 -2.4726665 -0.24240042 4294183680
2.6021183 -2.4740951 -0.26212919 4294183680
2.621124 -2.4920199 -0.28348666 4294314240
2.6352715 -2.5053282 -0.30425063 4294314240
2.6306472 -2.5008056 -0.32257327 4294314240
2.576112 -2.4488816 -0.33397558 4294053120
2.6141222 -2.4848499 -0.35694408 4294314240
2.6197491 -2.490062 -0.37537777 4294314240
2.6174719 -2.4877679 -0.39228231 4294314240
2.6184609 -2.4885743 -0.40923482 4294314240
2.5387406 -2.4127498 -0.41258079 4293922560
2.6321075 -2.5012636 -0.44376662 4294314240
2.6372716 -2.506031 -0.46013141 4294444800
2.6435542 -2.5118587 -0.47624192 4294444800
2.6367767 -2.5052879 -0.48945543 4294444800
2.6218441 -2.4909761 -0.50048292 4294314240
2.6068876 -2.4766421 -0.51078576 4294314240
2.6095612 -2.4790416 -0.52391064 4294314240
2.6191316 -2.4879858 -0.53788501 4294314240
2.6244299 -2.4928737 -0.55043346 4294314240
2.6179841 -2.4866157 -0.55987978 4294314240
2.6184204 -2.4868875 -0.570135 4294314240
2.616339 -2.4847698 -0.57918006 4294314240
2.6021576 -2.4711709 -0.58481801 4294314240
2.6022034 -2.4710705 -0.59293854 4294314240
2.5957868 -2.4648385 -0.59887964 4294314240
2.5768402 -2.4467201 -0.60116279 4294183680
2.5451734 -2.416537 -0.59965235 4294053120
2.5446136 -2.4158614 -0.60471612 4294053120
2.5469947 -2.417974 -0.60978001 4294053120
2.5537472 -2.4242313 -0.61519694 4294053120
2.5534382 -2.4237902 -0.61820179 4294053120
2.5567906 -2.4268198 -0.62137657 4294053120
2.5602322 -2.4299331 -0.62385327 4294183680
2.5494745 -2.4195814 -0.62213272 4294053120
2.5495255 -2.4194779 -0.62232506 4294053120
2.5496678 -2.4194598 -0.621813 4294053120
2.5398962 -2.4100428 -0.61815697 4294053120
2.581228 -2.4490666 -0.62621588 4294183680
2.5969932 -2.4638517 -0.62727982 4294314240
2.5959623 -2.4627147 -0.62353182 4294314240
2.6063678 -2.4724152 -0.62179518 4294314240
2.6131365 -2.4786673 -0.61843616 4294314240
2.6109593 -2.4764397 -0.61222905 4294314240
2.6179028 -2.4828541 -0.60744309 4294314240
2.6202686 -2.4849291 -0.60086602 4294314240
2.6151261 -2.4798899 -0.59187794 4294314240
2.6018579 -2.4671519 -0.58042234 4294314240
2.6065631 -2.4714408 -0.57234436 4294314240
2.5923662 -2.457824 -0.55948561 4294183680
2.6036394 -2.4683321 -0.55150473 4294314240
2.6082952 -2.4725704 -0.54142374 4294314240
2.6266143 -2.4897466 -0.53346765 4294314240
2.6243925 -2.4874682 -0.52065092 4294314240
2.6078751 -2.4716532 -0.50449246 4294314240
2.5931478 -2.4575343 -0.48826855 4294183680
2.6008389 -2.4646416 -0.47576305 4294183680
2.605998 -2.4693501 -0.46218878 4294183680
2.6211433 -2.4835098 -0.44975778 4294314240
2.5977886 -2.4612248 -0.43024883 4294183680
2.5881009 -2.4518783 -0.41273135 4294183680
2.6081827 -2.4707062 -0.39945373 4294183680
2.6153448 -2.4773045 -0.38357502 4294183680
2.6250854 -2.486341 -0.36754233 4294314240
2.5784795 -2.4420605 -0.3434357 4294053120
2.5892966 -2.4521158 -0.32687849 4294053120
2.6069791 -2.4686639 -0.31063521 4294183680
2.6028194 -2.4645469 -0.29134282 4294183680
2.5798357 -2.4426239 -0.26981452 4294053120
2.6080256 -2.469106 -0.25333801 4294183680
2.6087835 -2.4696395 -0.23369095 4294183680
2.6130481 -2.4734888 -0.2140712 4294183680
2.5820076 -2.4439511 -0.19151483 4294053120
2.5977199 -2.4586258 -0.17237069 4294053120
2.6130123 -2.4729009 -0.15277217 4294183680
2.611696 -2.4714711 -0.13192004 4294183680
2.5919175 -2.4525881 -0.11015302 4294053120
2.6069157 -2.4665818 -0.089810684 4294183680
2.6120217 -2.4712226 -0.068866007 4294183680
2.5961883 -2.4560723 -0.047371633 4294053120
2.6017301 -2.4611251 -0.026318934 4294053120
2.6190341 -2.4772923 -0.0051837261 4294183680
2.6249804 -2.4827251 0.016172606 4294183680
2.5763025 -2.4365444 0.036863189 4294053120
2.6328018 -2.4897416 0.058998764 4294314240
2.646414 -2.5024142 0.080705255 4294314240
2.648416 -2.5041175 0.10210104 4294314240
2.5612845 -2.4216273 0.11933134 4293922560
2.6408443 -2.4965906 0.14399961 4294314240
2.6381567 -2.4938655 0.16469753 4294314240
2.6358085 -2.4914618 0.18519402 4294314240
2.5040824 -2.3668876 0.19545738 4293661440
2.6433234 -2.4981861 0.22647607 4294314240
2.6428452 -2.4975491 0.24644667 4294314240
2.6398504 -2.4945364 0.26588541 4294314240
2.5484073 -2.4080281 0.27549762 4293922560
2.6569793 -2.5103364 0.30637082 4294444800
2.6553807 -2.5086429 0.32506317 4294444800
2.6600106 -2.5128284 0.34417158 4294444800
2.6186342 -2.4735959 0.35673121 4294183680
2.4489582 -2.3132973 0.35010865 4293400320
2.6441686 -2.4973297 0.39506525 4294314240
2.6500521 -2.5027001 0.41275972 4294444800
2.6221285 -2.4761744 0.42461783 4294314240
2.6013525 -2.4563963 0.43685153 4294183680
2.4997272 -2.3603542 0.43437195 4293661440
2.6438594 -2.4961402 0.47409582 4294444800
2.6416261 -2.4938564 0.4879576 4294444800
2.623091 -2.4761989 0.49815831 4294314240
2.6200342 -2.4731419 0.51060438 4294314240
2.5656774 -2.4217105 0.51224118 4294053120
2.5237455 -2.3820028 0.51531214 4293922560
2.6399658 -2.4914172 0.55024159 4294444800
2.6454186 -2.4963863 0.56206912 4294444800
2.6397178 -2.4908407 0.5708878 4294444800
2.6326485 -2.4840064 0.57870388 4294444800
2.6254823 -2.477083 0.58577847 4294314240
2.6261919 -2.4775846 0.59390056 4294314240
2.6207781 -2.472316 0.59993905 4294314240
2.6200838 -2.4714966 0.60633689 4294314240
2.6223361 -2.4734552 0.61270887 4294314240
2.5806336 -2.4339964 0.60805851 4294183680
2.583771 -2.4367933 0.61314249 4294183680
2.58986 -2.4423716 0.61821908 4294183680
2.5867112 -2.4392471 0.62037903 4294183680
2.5893869 -2.4416113 0.62320071 4294183680
2.5928686 -2.4447351 0.6254878 4294183680
2.5892696 -2.4411905 0.62533963 4294183680
2.5864782 -2.4384077 0.62464982 4294183680
2.5758889 -2.428282 0.62135339 4294183680
2.6208794 -2.4705012 0.63065803 4294314240
2.6111879 -2.4612226 0.62609798 4294314240
2.6216686 -2.4709408 0.62561727 4294314240
2.6167922 -2.4661989 0.62074763 4294314240
2.6201625 -2.4692233 0.61710042 4294314240
2.6263957 -2.4749436 0.61338478 4294314240
2.6368589 -2.4846463 0.60990041 4294444800
2.6423862 -2.4897025 0.6045298 4294444800
2.6432629 -2.4903812 0.59737873 4294444800
2.6406686 -2.4877942 0.5887571 4294444800
2.6302173 -2.4778132 0.57774973 4294314240
2.6288064 -2.4763427 0.56808984 4294314240
2.625735 -2.4733107 0.55743271 4294314240
2.6438208 -2.4901893 0.55054313 4294444800
2.6448827 -2.4910476 0.53941256 4294444800
2.6389914 -2.4853647 0.52627295 4294444800
2.6171443 -2.4639347 0.431815 4294183680
2.6425335 -2.4876816 0.4199315 4294314240
2.6509769 -2.4954891 0.40469137 4294444800
2.6319716 -2.477483 0.38490045 4294314240
2.6197755 -2.4658825 0.36587182 4294183680
2.6233761 -2.4691379 0.34868434 4294183680
2.6346729 -2.4796305 0.33202383 4294314240
2.6226873 -2.4682312 0.31208691 4294183680
2.6016541 -2.4483273 0.29097027 4294053120
2.6291442 -2.4740446 0.27486947 4294183680
2.6283844 -2.473202 0.25534087 4294183680
2.6262338 -2.4710526 0.2354192 4294183680
2.6160281 -2.4613321 0.21461703 4294183680
2.6393628 -2.4831388 0.19620247 4294314240
2.6365442 -2.4803627 0.17549178 4294314240
2.6315069 -2.4755013 0.15450433 4294183680
2.6088724 -2.454103 0.13254662 4294053120
2.6174004 -2.461992 0.11211402 4294183680
2.6152811 -2.4598753 0.091059633 4294183680
2.6129375 -2.4575479 0.069933385 4294183680
2.6087015 -2.4534428 0.048733801 4294053120
2.6114357 -2.4558873 0.027617056 4294183680
2.6149352 -2.4590507 0.0064258361 4294183680
2.5884125 -2.4340086 -0.014639212 4294053120
2.5984588 -2.4433229 -0.035789803 4294053120
2.61216 -2.4560692 -0.057148796 4294183680
2.6069889 -2.451087 -0.078090839 4294053120
2.6049266 -2.4490254 -0.098987296 4294053120
2.6169825 -2.4602239 -0.12040465 4294183680
2.621254 -2.4641101 -0.14146049 4294183680
2.621563 -2.4642744 -0.16218485 4294183680
2.5958295 -2.4399824 -0.18090776 4294053120
2.6145115 -2.4574006 -0.20250437 4294183680
2.6155574 -2.458256 -0.22265783 4294183680
2.6162229 -2.4587543 -0.24255097 4294183680
2.6137395 -2.4562955 -0.26187366 4294183680
2.6319642 -2.4732783 -0.2831153 4294183680
2.6389258 -2.4796851 -0.30301455 4294314240
2.6422677 -2.4826927 -0.32223913 4294314240
2.576544 -2.4208682 -0.33221027 4294053120
2.62462 -2.4658668 -0.3564291 4294183680
2.6270165 -2.4679859 -0.37436989 4294314240
2.6331546 -2.4736156 -0.39248857 4294314240
2.6155272 -2.4569402 -0.40654376 4294183680
2.5805461 -2.4239807 -0.41711023 4294053120
2.6428125 -2.4822805 -0.44314528 4294314240
2.6487293 -2.4876983 -0.45961401 4294444800
2.6367702 -2.4763415 -0.47242257 4294314240
2.6433151 -2.4823465 -0.48799363 4294314240
2.6153641 -2.4559865 -0.49651623 4294183680
2.6150837 -2.4555874 -0.50959802 4294314240
2.6179709 -2.458159 -0.52273321 4294314240
2.6207864 -2.4606621 -0.53528631 4294314240
2.6216047 -2.4612908 -0.5468365 4294314240
2.6201839 -2.4598184 -0.55729103 4294314240
2.6220584 -2.4614358 -0.56781095 4294314240
2.6170883 -2.4566331 -0.57618219 4294314240
2.6064322 -2.4464979 -0.58258164 4294183680
2.6064811 -2.4464009 -0.59067172 4294314240
2.5993118 -2.4395351 -0.59641951 4294183680
2.5910513 -2.4316459 -0.60118419 4294183680
2.5484238 -2.391536 -0.59714055 4293922560
2.5514567 -2.3942361 -0.60303438 4294053120
2.5581639 -2.4003792 -0.60911506 4294053120
2.5642345 -2.4059238 -0.61435539 4294053120
2.5059383 -2.3511345 -0.60336417 4293792000
2.4985361 -2.3440521 -0.60387331 4293792000
2.5091841 -2.3538861 -0.60804969 4293792000
2.5534697 -2.395241 -0.61970764 4294053120
2.5635784 -2.4045632 -0.62234622 4294053120
2.5536618 -2.395119 -0.61938918 4294053120
2.5467088 -2.3884516 -0.61643505 4293922560
2.5918596 -2.4306004 -0.62536848 4294183680
2.5786214 -2.4180412 -0.61943364 4294183680
2.5974369 -2.4355104 -0.62048209 4294183680
2.6034706 -2.4410028 -0.61771333 4294183680
2.6138566 -2.4505703 -0.61523169 4294314240
2.6116731 -2.4483631 -0.60905582 4294314240
2.6215281 -2.4574296 -0.60496801 4294314240
2.6177309 -2.4537089 -0.59700859 4294314240
2.6232357 -2.4586983 -0.59047955 4294314240
2.6102083 -2.4463332 -0.57911414 4294314240
2.6117349 -2.4475958 -0.57035577 4294314240
2.6008818 -2.4372671 -0.55826765 4294183680
2.6057198 -2.441628 -0.54893774 4294183680
2.6186433 -2.4535565 -0.54061472 4294314240
2.626991 -2.4611993 -0.53063691 4294314240
2.6247485 -2.4589279 -0.51788461 4294314240
2.6227379 -2.4568732 -0.50461185 4294314240
2.6023672 -2.4376361 -0.48734069 4294183680
2.6046162 -2.4395676 -0.47386152 4294183680
