# .PCD v0.7 - Point Cloud Data file format
VERSION 0.7
FIELDS x y z rgba
SIZE 4 4 4 4
TYPE F F F U
COUNT 1 1 1 1
WIDTH 1107
HEIGHT 1
VIEWPOINT 0 0 0 1 0 0 0
POINTS 1107
DATA ascii
3.1953218 0.9673382 0.5746097 4293400320
3.1920989 0.9664765 0.56994313 4293400320
3.1896961 0.96586329 0.56476122 4293400320
3.195384 0.96769834 0.56034213 4293400320
3.2019231 0.96979189 0.55539376 4293400320
3.1888421 0.96594906 0.54641044 4293400320
3.1813412 0.96379471 0.53778923 4293269760
3.1712739 0.96086353 0.52815014 4293269760
3.1823606 0.96433604 0.52141178 4293269760
3.1831882 0.96470386 0.51235622 4293269760
3.206918 0.9720071 0.50631469 4293400320
3.1993961 0.96984833 0.49470961 4293400320
3.1888926 0.96678644 0.48213366 4293269760
2.6392014 0.80054075 0.32994118 4291311360
2.5658295 0.77840966 0.30893233 4291050240
2.5564928 0.77567893 0.29565746 4291050240
2.5226781 0.76552886 0.27943128 4290919680
2.4720259 0.75027245 0.26144662 4290789120
2.4820588 0.75341004 0.24977972 4290789120
2.473388 0.75087762 0.2359473 4290789120
2.4310327 0.73813027 0.21891408 4290528000
2.4139338 0.7330395 0.20422652 4290528000
2.4163935 0.73388022 0.19104268 4290528000
2.407294 0.73121464 0.17677121 4290528000
2.3551145 0.71547818 0.15949421 4290266880
2.3343718 0.70927685 0.14458245 4290266880
2.3599916 0.71714395 0.13234542 4290266880
2.3463049 0.71308303 0.11769265 4290266880
2.2379723 0.68029088 0.098900259 4289875200
2.2837903 0.69428968 0.087161906 4290005760
2.2789407 0.69290775 0.073151484 4290005760
2.2350826 0.67967957 0.058107696 4289875200
2.1163423 0.64370519 0.042054392 4289483520
2.2156374 0.67395061 0.030377997 4289744640
2.1975801 0.66855294 0.016569043 4289744640
2.1578643 0.65657336 0.0029344959 4289614080
2.1425409 0.65200275 -0.010335525 4289483520
2.1398211 0.65126133 -0.023548024 4289483520
2.0930426 0.637128 -0.035944361 4289352960
2.0930696 0.63721931 -0.048824504 4289352960
2.1884456 0.66629994 -0.064471252 4289744640
2.2071478 0.6720736 -0.078485422 4289744640
2.1967292 0.6689927 -0.091431379 4289744640
2.1215611 0.64621729 -0.10106729 4289483520
2.2417579 0.68286407 -0.12018044 4289875200
2.2043912 0.67158467 -0.13120708 4289744640
2.1857798 0.66600877 -0.14288205 4289744640
2.1874874 0.66661459 -0.15563487 4289744640
2.3349254 0.71157324 -0.1794458 4290266880
2.2973473 0.7002266 -0.18946724 4290136320
2.268981 0.69168127 -0.19967657 4290005760
2.2714062 0.6925084 -0.2122369 4290005760
2.2391613 0.6827783 -0.22116764 4289875200
2.3568432 0.71870488 -0.24511242 4290266880
2.3832469 0.72683859 -0.26004419 4290397440
2.3727984 0.72374803 -0.27075192 4290397440
2.3883204 0.72856867 -0.28414893 4290397440
2.2913582 0.69911641 -0.28346503 4290136320
2.6685865 0.81415987 -0.34240741 4291441920
2.7454767 0.83769619 -0.36450842 4291703040
2.8677142 0.87506062 -0.39309263 4292225280
3.0591538 0.93353027 -0.43204445 4292878080
3.0988562 0.94575095 -0.45003611 4293008640
3.1507537 0.96169287 -0.46964991 4293139200
3.1569605 0.96370405 -0.48214504 4293269760
3.1617978 0.96529758 -0.49392509 4293269760
3.1678004 0.96724653 -0.50536346 4293269760
3.1620431 0.96560764 -0.51435268 4293269760
3.1742911 0.96946156 -0.52570182 4293269760
3.1604564 0.96535665 -0.53212839 4293269760
3.1642005 0.96661502 -0.54087585 4293269760
3.154983 0.96391696 -0.54677439 4293269760
3.1483402 0.96200359 -0.55245328 4293269760
3.1178956 0.95282263 -0.55324459 4293139200
3.1095986 0.95040131 -0.55725163 4293139200
3.097986 0.94696629 -0.55998701 4293008640
3.1057649 0.9494521 -0.56557047 4293139200
3.0416918 0.92999154 -0.55735278 4292878080
3.0638113 0.93685555 -0.56422698 4292878080
3.0502431 0.93281758 -0.56388479 4292878080
3.0593851 0.93571693 -0.56707913 4292878080
3.0498011 0.93289423 -0.56614494 4292878080
3.1037707 0.94949293 -0.57634813 4293139200
3.1038218 0.94961476 -0.57587266 4293139200
3.1194925 0.95451069 -0.5776186 4293139200
3.1233861 0.95580667 -0.57650381 4293139200
3.1310351 0.95825052 -0.57540309 4293139200
3.1442332 0.96239114 -0.57463372 4293269760
3.1509576 0.96455216 -0.5719924 4293269760
3.1519902 0.96497238 -0.56764472 4293269760
3.1588397 0.96717131 -0.56367403 4293269760
3.1606386 0.967825 -0.55813551 4293269760
3.1574554 0.96695405 -0.55107588 4293269760
3.1503139 0.96487117 -0.54271281 4293269760
3.1452391 0.96341974 -0.53410983 4293269760
3.1285241 0.95840496 -0.52297378 4293139200
3.0989256 0.94944537 -0.50921357 4293008640
3.0382874 0.93098199 -0.4900392 4292878080
2.8822813 0.88331854 -0.45561087 4292225280
2.7418156 0.84040284 -0.42409882 4291703040
2.6513751 0.81279552 -0.40064237 4291441920
2.5409992 0.77907747 -0.37445614 4291050240
2.4183209 0.74158442 -0.34692675 4290528000
2.3968039 0.73506838 -0.33408552 4290528000
2.3705339 0.72709483 -0.32040575 4290397440
2.4081671 0.73869628 -0.31495127 4290528000
2.3407037 0.71809977 -0.29554102 4290266880
2.3333564 0.71591938 -0.28373227 4290266880
2.3117368 0.70936447 -0.2700116 4290136320
2.3446264 0.71951383 -0.26230195 4290266880
2.3362668 0.71702176 -0.24956864 4290266880
2.2504308 0.69077981 -0.22876939 4290005760
2.2286291 0.68416315 -0.21478909 4289875200
2.2480879 0.6901952 -0.20456265 4289875200
2.2309525 0.68500745 -0.19077225 4289875200
2.1724055 0.66711962 -0.17365281 4289614080
2.1598992 0.66334808 -0.16042489 4289614080
2.1829906 0.67049384 -0.14960811 4289744640
2.1837318 0.67078513 -0.13696137 4289744640
2.0841072 0.6402871 -0.11844975 4289352960
2.1258314 0.65314883 -0.10819124 4289483520
2.1531465 0.66159177 -0.096672393 4289614080
2.1536272 0.66180182 -0.083678424 4289614080
2.1323323 0.65532929 -0.069875643 4289483520
2.1768448 0.66905272 -0.058018509 4289614080
2.2134218 0.68034291 -0.045392539 4289744640
2.2030556 0.67722493 -0.031593218 4289744640
2.2106788 0.67962903 -0.01803882 4289744640
2.2826211 0.70178157 -0.0045061135 4290005760
2.2744718 0.69934529 0.0095882667 4290005760
2.1652851 0.66588104 0.022527762 4289614080
2.3152707 0.71200699 0.038360689 4290136320
2.3556213 0.72446769 0.053516731 4290266880
2.3532865 0.72381878 0.067880392 4290266880
2.3064713 0.70950532 0.080590047 4290136320
2.3958602 0.73703557 0.098209321 4290397440
2.4229574 0.74543136 0.11387638 4290528000
2.358881 0.72581178 0.12492351 4290266880
2.2979722 0.70716208 0.13525894 4290136320
2.4760587 0.76196426 0.16016017 4290789120
2.480202 0.76331043 0.17471567 4290789120
2.4566555 0.75614488 0.1870203 4290658560
2.39937 0.7386055 0.19609888 4290528000
2.5516107 0.78548563 0.22257255 4291050240
2.5733166 0.79223573 0.23838449 4291050240
2.5389535 0.78174466 0.24867907 4290919680
2.5703628 0.79148048 0.26510954 4291050240
2.7085106 0.83404988 0.29310191 4291572480
3.1091757 0.95738274 0.35182565 4293008640
3.1729336 0.97709143 0.37436506 4293269760
3.1724381 0.97703493 0.38921461 4293269760
3.1583524 0.97279704 0.40189201 4293139200
3.1414645 0.96769631 0.41361904 4293139200
3.1933897 0.98377359 0.43407443 4293269760
3.1982403 0.98536485 0.44788408 4293400320
3.2140806 0.99033988 0.46280244 4293400320
3.1961164 0.98490918 0.47232249 4293400320
3.1846209 0.98146951 0.48214602 4293269760
3.1668096 0.97608489 0.49035677 4293269760
3.1941888 0.98461634 0.50502133 4293400320
3.2002308 0.9865784 0.51583958 4293400320
3.1918237 0.98409075 0.52372766 4293400320
3.1946206 0.98505455 0.53282779 4293400320
3.1917999 0.98428839 0.54037249 4293400320
3.1992109 0.98667514 0.54902828 4293400320
3.1890898 0.9836604 0.55403262 4293400320
3.1863267 0.98291332 0.55963969 4293400320
3.1816931 0.98158997 0.56424981 4293400320
3.1856225 0.98290646 0.56971341 4293400320
3.171279 0.97859067 0.57123029 4293269760
3.1707044 0.97851962 0.57453471 4293269760
3.158263 0.9747901 0.57500339 4293269760
3.1673174 0.97768921 0.57870042 4293269760
3.1790369 0.9814114 0.5822131 4293400320
3.1788957 0.9814766 0.58287436 4293400320
3.1694531 0.97867322 0.58114451 4293269760
3.1869543 0.98418236 0.58366203 4293400320
3.1739683 0.98028636 0.57991463 4293400320
3.1780212 0.98164809 0.57859755 4293400320
3.1849267 0.98389107 0.57710952 4293400320
3.1803639 0.98259538 0.57286495 4293400320
3.1818554 0.9831689 0.56903946 4293400320
3.1841674 0.98399639 0.56468689 4293400320
3.1851349 0.98440957 0.55942845 4293400320
3.1869495 0.98508495 0.55365813 4293400320
3.1918044 0.98669994 0.54775417 4293400320
3.1843204 0.98450476 0.53910178 4293400320
3.1705005 0.98035228 0.52880108 4293269760
3.1636357 0.9783482 0.51909727 4293269760
3.1823993 0.98426288 0.51295638 4293400320
3.1966434 0.98878282 0.50539488 4293400320
3.191637 0.98735487 0.49418059 4293400320
3.1881015 0.98638165 0.48265213 4293400320
2.5959051 0.8043704 0.32514179 4291180800
2.5563967 0.79224133 0.30837542 4291050240
2.5565689 0.79239345 0.29622287 4291050240
2.5180678 0.78057224 0.27944854 4290919680
2.4713089 0.76619124 0.26186723 4290789120
2.4775212 0.76821148 0.24979962 4290789120
2.4774272 0.76827919 0.23678577 4290789120
2.4170702 0.74967968 0.21807936 4290528000
2.409519 0.74743515 0.20425059 4290528000
2.4034011 0.7456345 0.19039048 4290528000
2.4028902 0.7455709 0.17679851 4290528000
2.3412735 0.72656941 0.15887702 4290266880
2.3396354 0.72615421 0.1452028 4290266880
2.3556724 0.73121858 0.13237725 4290266880
2.3515508 0.73003423 0.11820444 4290266880
2.2338755 0.69363856 0.098933712 4289875200
2.2748368 0.70643055 0.087015703 4290005760
2.2747681 0.70649987 0.073188864 4290005760
2.2271707 0.69182569 0.058046855 4289875200
2.107692 0.65484715 0.041997552 4289483520
2.2068045 0.68568426 0.030353909 4289744640
2.1840045 0.67869699 0.016539954 4289744640
2.144361 0.66648042 0.0029652128 4289483520
2.1252453 0.66063255 -0.010225829 4289483520
2.1427991 0.6661669 -0.023579078 4289483520
2.1210806 0.6595093 -0.036448959 4289483520
2.0710936 0.64407188 -0.048352472 4289352960
2.1529331 0.6695708 -0.063489482 4289614080
2.1706522 0.67516029 -0.077275835 4289614080
2.0927987 0.65106219 -0.087208591 4289352960
2.0909615 0.6505748 -0.099739261 4289352960
2.2242975 0.69208831 -0.11940674 4289875200
2.2464752 0.69906867 -0.13390246 4289875200
2.1541343 0.67045814 -0.14101483 4289614080
2.1653759 0.67403781 -0.15428695 4289614080
2.3125508 0.71987718 -0.17799053 4290136320
2.2655294 0.70534855 -0.18712458 4290005760
2.2334208 0.69545341 -0.19684681 4289875200
2.2396603 0.69748163 -0.2095933 4289875200
2.2036846 0.68637973 -0.21800238 4289744640
2.3344686 0.72714978 -0.24316712 4290266880
2.3598831 0.73514766 -0.25790289 4290397440
2.3418694 0.72963452 -0.2676492 4290266880
2.3564281 0.73425597 -0.28080502 4290397440
2.2501757 0.70127803 -0.27882046 4290005760
2.5301104 0.78850013 -0.32516739 4290919680
2.5816545 0.80464357 -0.34331912 4291180800
2.665211 0.8307575 -0.36593589 4291441920
2.7880166 0.86909914 -0.3944039 4291964160
2.9451323 0.91813463 -0.42842296 4292486400
3.1025326 0.96727031 -0.46323457 4293008640
3.1219389 0.97343242 -0.47759649 4293139200
3.1494792 0.98212963 -0.49282992 4293269760
3.1543074 0.98375183 -0.50406277 4293269760
3.1425068 0.98019224 -0.51204419 4293269760
3.1507392 0.98287445 -0.52269268 4293269760
3.1455083 0.9813605 -0.53052008 4293269760
3.1456523 0.98152107 -0.5386318 4293269760
3.1262155 0.97557652 -0.54272658 4293139200
3.1225734 0.97455484 -0.54888439 4293139200
3.0892794 0.96428591 -0.54912406 4293008640
3.0977948 0.96705306 -0.55610955 4293139200
3.0467811 0.95125282 -0.5517019 4292878080
2.9786603 0.93011212 -0.54338646 4292616960
2.9921877 0.93443805 -0.5492568 4292747520
2.9870081 0.93292761 -0.5510664 4292747520
2.991333 0.93438214 -0.55398703 4292747520
2.9863622 0.93293536 -0.5545426 4292747520
2.9767983 0.93005413 -0.55359495 4292616960
2.9861386 0.93307251 -0.55551594 4292747520
3.0573335 0.95540094 -0.56828505 4292878080
3.0443316 0.951446 -0.56473863 4292878080
3.0947723 0.96729964 -0.57227755 4293139200
3.1049914 0.97059554 -0.57167655 4293139200
3.1043894 0.97051179 -0.56841153 4293139200
3.1352811 0.9802646 -0.57021493 4293269760
3.1411393 0.98219877 -0.56675833 4293269760
3.146971 0.98412442 -0.56262237 4293269760
3.1402576 0.98213029 -0.55559605 4293269760
3.1350732 0.98061281 -0.54822165 4293139200
3.1235921 0.97712672 -0.53915095 4293139200
3.110317 0.97307849 -0.5292089 4293139200
3.0854213 0.96539664 -0.51678097 4293008640
3.0181623 0.94446927 -0.49692371 4292747520
2.8396065 0.88874084 -0.458909 4292094720
2.6983318 0.84465748 -0.42739183 4291572480
2.6075444 0.81635261 -0.40414774 4291311360
2.5303283 0.7922858 -0.38313299 4291050240
2.4031861 0.75259846 -0.35487789 4290528000
2.3949347 0.75009203 -0.34428647 4290528000
2.3696628 0.74226016 -0.33099642 4290397440
2.3434293 0.73412555 -0.31741482 4290266880
2.3762455 0.74446529 -0.31144381 4290397440
2.300365 0.72079289 -0.29107898 4290136320
2.2968042 0.71974844 -0.27990228 4290136320
2.2704654 0.71157426 -0.26578274 4290005760
2.3175094 0.72636807 -0.25985539 4290266880
2.305356 0.72263312 -0.24683321 4290136320
2.219666 0.69587475 -0.22617009 4289875200
2.2064447 0.69180131 -0.21315838 4289744640
2.2258592 0.69794625 -0.20303333 4289875200
2.2135031 0.69414276 -0.18975201 4289875200
2.1503015 0.67441386 -0.17232531 4289614080
2.1282928 0.66758364 -0.15849273 4289483520
2.1656148 0.67933738 -0.14882073 4289614080
2.1568248 0.67664719 -0.13565493 4289614080
2.0573776 0.64555258 -0.11727436 4289222400
2.1037841 0.66015363 -0.10740053 4289483520
2.1439211 0.67279273 -0.096575491 4289614080
2.1448703 0.67315263 -0.083634131 4289614080
2.1283832 0.66804755 -0.070018582 4289483520
2.1766291 0.68323243 -0.058269147 4289614080
2.2093234 0.69354481 -0.045545388 4289744640
2.208518 0.69335645 -0.031885855 4289744640
2.2161281 0.69580656 -0.018274745 4289744640
2.2688544 0.71240437 -0.0046488773 4290005760
2.2740791 0.71410865 0.0094397357 4290005760
2.151737 0.67580444 0.022272639 4289614080
2.3062167 0.72432083 0.038113054 4290136320
2.3598492 0.74121165 0.05353757 4290266880
2.3584716 0.74084812 0.067980796 4290266880
2.2974377 0.72176754 0.080253579 4290136320
2.3914299 0.75132686 0.098032124 4290397440
2.408946 0.75689328 0.11325025 4290528000
2.3497558 0.73838776 0.1244976 4290266880
2.3070612 0.72505623 0.13587371 4290136320
2.4752917 0.77793014 0.16022505 4290789120
2.4851379 0.78109384 0.17520522 4290789120
2.4378421 0.7663185 0.18575725 4290658560
2.3996925 0.75441223 0.19631575 4290528000
2.5335858 0.79652709 0.22123156 4290919680
2.5647612 0.80639267 0.23785275 4291050240
2.5342634 0.79689062 0.2485043 4290919680
2.4636786 0.77479571 0.2544235 4290789120
2.5345109 0.79712015 0.2746343 4290919680
2.939817 0.92452705 0.33310497 4292486400
3.1276453 0.98362952 0.36950952 4293139200
3.175106 0.99863756 0.39006388 4293269760
3.147783 0.99014795 0.40109801 4293139200
3.1309283 0.98494714 0.41281095 4293139200
3.1922202 1.004308 0.43453595 4293400320
3.1961131 1.0056303 0.44823828 4293400320
3.1986902 1.0065395 0.46127087 4293400320
3.1902092 1.0039726 0.47216043 4293400320
3.1787338 1.0004642 0.48199183 4293269760
3.1609542 0.99497312 0.49021098 4293269760
3.1845086 1.0024809 0.50428522 4293400320
3.1848829 1.0026997 0.51418751 4293400320
3.1812057 1.0016448 0.5228315 4293400320
3.1887081 1.0041072 0.53271407 4293400320
3.1896577 1.0045089 0.54090619 4293400320
3.1932864 1.0057542 0.54893291 4293400320
3.1869459 1.0038633 0.55460161 4293400320
3.1804221 1.0019146 0.55956411 4293400320
3.1757948 1.0005631 0.56418443 4293400320
3.175477 1.0005686 0.56889969 4293400320
3.1747961 1.0004601 0.5728808 4293400320
3.1789179 1.0018646 0.57705808 4293400320
3.1477003 0.99214178 0.5741244 4293269760
3.1780815 1.0018165 0.58173341 4293400320
3.1731293 1.0003653 0.58221269 4293400320
3.1682882 0.99894935 0.5820232 4293400320
3.1598003 0.99638486 0.5804773 4293269760
3.173032 1.0006634 0.58223116 4293400320
3.1680598 0.99920756 0.57996082 4293400320
3.176801 1.0020734 0.57951218 4293400320
3.1695948 0.99991447 0.57547516 4293400320
3.1791353 1.0030342 0.57379502 4293400320
3.1806223 1.0036165 0.56997597 4293400320
3.1735253 1.0014931 0.56395924 4293400320
3.1791902 1.0033938 0.55954802 4293400320
3.1781733 1.0031884 0.55329859 4293400320
3.1905482 1.007207 0.54870731 4293400320
3.1737447 1.0020237 0.53847426 4293400320
3.1692827 1.0007329 0.52975565 4293269760
3.1661992 0.99987721 0.52067053 4293269760
3.1679633 1.0005515 0.5117805 4293269760
3.1868896 1.0066423 0.50500411 4293400320
3.1831634 1.0055857 0.49401116 4293400320
3.1774132 1.0038905 0.4821665 4293269760
2.5623264 0.8103748 0.32153943 4291050240
2.5517392 0.8071292 0.30838865 4291050240
2.5519104 0.80728239 0.29623613 4291050240
2.513479 0.79523718 0.27946156 4290919680
2.4630101 0.77938485 0.26147774 4290789120
2.4682596 0.78114063 0.24933378 4290789120
2.468163 0.78120703 0.23634465 4290789120
2.4296162 0.76911706 0.21962194 4290658560
2.4051251 0.76146883 0.20426308 4290528000
2.3990183 0.75963265 0.19040294 4290528000
2.3947031 0.75836295 0.17653102 4290528000
2.3331971 0.73900229 0.15863091 4290266880
2.3258493 0.73677057 0.14462434 4290266880
2.3551826 0.74614435 0.13260341 4290266880
2.3424983 0.74222445 0.11797739 4290266880
2.2297986 0.70665061 0.09894529 4289875200
2.2706847 0.71968114 0.087027498 4290005760
2.279192 0.72246516 0.073476195 4290005760
2.2533329 0.71436942 0.058844533 4290005760
2.1133752 0.67014331 0.042197749 4289483520
2.211354 0.70125622 0.030482749 4289744640
2.1933475 0.69564193 0.016651187 4289744640
2.1452107 0.68048209 0.0029825086 4289614080
2.1308959 0.6760332 -0.010261586 4289483520
2.1426826 0.67985332 -0.023610145 4289614080
2.1127403 0.6704511 -0.036360741 4289483520
2.0492008 0.65039879 -0.04791683 4289222400
2.1347048 0.67758256 -0.063055053 4289483520
2.1485832 0.68206757 -0.07661783 4289614080
2.1382134 0.67886597 -0.089256428 4289483520
2.0595236 0.65400028 -0.098407172 4289222400
2.1878636 0.69478214 -0.11765287 4289744640
2.2100105 0.70189369 -0.13195717 4289744640
2.1226056 0.67425668 -0.13919313 4289483520
2.1338365 0.67790413 -0.15230602 4289483520
2.2712467 0.72158664 -0.17511865 4290005760
2.307354 0.73313433 -0.19091803 4290136320
2.2150872 0.70394379 -0.19557688 4289875200
2.1899924 0.6960662 -0.20530838 4289744640
2.1626441 0.68747097 -0.21432255 4289614080
2.2932065 0.72900689 -0.2392945 4290136320
2.3328121 0.74167228 -0.25539947 4290266880
2.3101051 0.73455274 -0.26449081 4290136320
2.3066585 0.73354816 -0.27536604 4290136320
2.2006242 0.69995761 -0.27316904 4289875200
2.3960221 0.76211566 -0.30848667 4290528000
2.4174314 0.76901025 -0.3220574 4290658560
2.4756732 0.7876097 -0.34052357 4290789120
2.5735281 0.81880188 -0.36471727 4291180800
2.6366529 0.83896297 -0.38424125 4291441920
2.8920147 0.92023408 -0.43258169 4292355840
2.9952238 0.95315421 -0.45903832 4292747520
3.0521827 0.9713769 -0.47846702 4292878080
3.0634358 0.97506994 -0.49042547 4292878080
3.0752194 0.97893196 -0.50198531 4293008640
3.0717659 0.97794813 -0.51051247 4293008640
3.0522985 0.97186977 -0.51573062 4292878080
3.0055847 0.95712155 -0.5155803 4292747520
2.9511607 0.93991619 -0.51326549 4292616960
2.9764504 0.94807136 -0.52414775 4292616960
2.9942906 0.95385706 -0.53320414 4292747520
3.0112686 0.95936918 -0.54155624 4292747520
2.9322147 0.93431401 -0.5319199 4292486400
2.9446919 0.93839115 -0.53816265 4292486400
2.9394279 0.93682015 -0.54054993 4292486400
2.9577253 0.94275057 -0.54665267 4292616960
2.9526615 0.94124234 -0.54781628 4292616960
2.9608374 0.94394982 -0.55079913 4292616960
2.9522297 0.94131136 -0.55002093 4292616960
2.9427896 0.93840653 -0.54844445 4292486400
2.9297018 0.93433833 -0.54555118 4292486400
3.0211985 0.96359193 -0.56146324 4292878080
3.0036321 0.95809728 -0.55643272 4292747520
2.9720905 0.94814706 -0.54820222 4292616960
2.9594128 0.94420648 -0.54285175 4292616960
3.0085013 0.95995319 -0.54815179 4292747520
2.982877 0.95188463 -0.53918171 4292747520
3.043596 0.97134233 -0.54512894 4292878080
3.0292811 0.96687818 -0.53693461 4292878080
3.0290196 0.96689415 -0.53063804 4292878080
3.002322 0.95847833 -0.51915997 4292747520
2.9488604 0.94152373 -0.50264925 4292486400
2.8418198 0.90747398 -0.47684592 4292225280
2.7394619 0.87491083 -0.45185831 4291833600
2.6243696 0.8382777 -0.42489564 4291311360
2.5448065 0.81297356 -0.40380648 4291050240
2.5018437 0.79934382 -0.38846797 4290919680
2.3843853 0.76193583 -0.36168951 4290528000
2.3666906 0.75636262 -0.35012087 4290397440
2.3593817 0.75410318 -0.33978876 4290397440
2.3331959 0.74581665 -0.32649159 4290266880
2.3022699 0.73601478 -0.31240296 4290136320
2.3444588 0.74955654 -0.30783212 4290397440
2.2687032 0.72543693 -0.28759018 4290005760
2.2698658 0.72587723 -0.27711767 4290005760
2.248297 0.71905714 -0.26366132 4290005760
2.285773 0.73109585 -0.2567575 4290136320
2.2783666 0.72879851 -0.24438131 4290136320
2.1928229 0.70153701 -0.22383536 4289744640
2.1710782 0.69465482 -0.21011671 4289744640
2.1989832 0.70363641 -0.20093991 4289744640
2.1866395 0.69975704 -0.18778302 4289744640
2.1187959 0.67813873 -0.17010185 4289483520
2.1101182 0.67542768 -0.15741782 4289483520
2.158268 0.69088155 -0.14857832 4289614080
2.1347835 0.68343723 -0.13450457 4289483520
2.0269539 0.64902449 -0.11574147 4289222400
2.1049623 0.67402703 -0.1076485 4289483520
2.1390016 0.68497372 -0.096520662 4289614080
2.1361556 0.68412596 -0.083436742 4289483520
2.1244576 0.6804468 -0.070007488 4289483520
2.1773748 0.6974352 -0.058385812 4289744640
2.2052479 0.706415 -0.045533869 4289744640
2.1901581 0.70165157 -0.03166661 4289744640
2.2072771 0.70719254 -0.018223463 4289744640
2.2646677 0.72562075 -0.0046370467 4290005760
2.2746446 0.72887927 0.0094709825 4290005760
2.1477654 0.68833888 0.02228386 4289614080
2.3067214 0.73927838 0.038203467 4290136320
2.3421626 0.75069022 0.053248171 4290266880
2.3445973 0.75153786 0.067719124 4290266880
2.2884367 0.73362595 0.080099508 4290136320
2.3736911 0.76099008 0.097498849 4290397440
2.4092546 0.77244747 0.11348635 4290528000
2.3454161 0.75207406 0.12450986 4290266880
2.2932911 0.73544854 0.13532586 4290136320
2.4491262 0.78543055 0.15884019 4290658560
2.4805472 0.79556781 0.17521818 4290789120
2.4333382 0.78051704 0.18576996 4290658560
2.372472 0.76108801 0.1944637 4290397440
2.5383942 0.8143236 0.22207378 4291050240
2.5600214 0.82132959 0.23786613 4291050240
2.5343201 0.8131693 0.24898262 4291050240
2.4449089 0.78458786 0.2529676 4290658560
2.5165641 0.80762988 0.27320975 4290919680
2.8735166 0.92213476 0.32621852 4292225280
3.1038835 0.99607784 0.3673999 4293008640
3.1559944 1.0128807 0.38845235 4293269760
3.1514151 1.0115087 0.40232003 4293269760
3.125138 1.0031784 0.41282728 4293139200
3.186316 1.0228959 0.43455261 4293400320
3.1996393 1.0272681 0.44957989 4293400320
3.1927729 1.0251648 0.46128756 4293400320
3.1843069 1.0225486 0.47217709 4293400320
3.1681402 1.0174613 0.48129323 4293269760
3.1551049 1.0133785 0.49022746 4293269760
3.1823812 1.0222318 0.50489879 4293400320
3.1883988 1.0242646 0.51572508 4293400320
3.1800206 1.0216776 0.52362192 4293400320
3.1781032 1.0211645 0.53194451 4293400320
3.1818602 1.0224737 0.54060173 4293400320
3.1779773 1.0213306 0.5473327 4293400320
3.1772871 1.0212131 0.55396378 4293400320
3.1745317 1.0204328 0.55958074 4293400320
3.1699123 1.0190544 0.564201 4293400320
3.1602094 1.0160433 0.56723315 4293269760
3.1595311 1.0159312 0.57120246 4293269760
3.1636465 1.0173599 0.57536995 4293400320
3.1631758 1.0173159 0.57803136 4293400320
3.1368175 1.0089537 0.57526815 4293269760
3.1578698 1.0158269 0.58050674 4293269760
3.167104 1.0189037 0.58290201 4293400320
3.1576934 1.0159886 0.58118361 4293269760
3.1540198 1.0149177 0.57983613 4293269760
3.1715639 1.0206689 0.58169603 4293400320
3.1662199 1.0190624 0.57867241 4293400320
3.1730967 1.021386 0.5771966 4293400320
3.1732385 1.0215448 0.57381165 4293400320
3.1831675 1.0248523 0.57150763 4293400320
3.1723304 1.0214807 0.56481069 4293400320
3.1817408 1.0246232 0.56105334 4293400320
3.176971 1.0232043 0.55413353 4293400320
3.1846268 1.0257841 0.548724 4293400320
3.1725523 1.0220153 0.53928882 4293400320
3.1586993 1.0176735 0.5289858 4293269760
3.160321 1.0183129 0.52068704 4293269760
3.1658442 1.0202091 0.51240557 4293269760
3.1941488 1.0294414 0.50711089 4293400320
3.1640692 1.0198752 0.49197987 4293269760
3.1762218 1.0239087 0.48289859 4293400320
2.5443323 0.82103235 0.31989142 4291050240
2.5422676 0.82046568 0.3078303 4291050240
2.5471654 0.82214397 0.29624948 4291050240
2.5125909 0.81109583 0.2798959 4290919680
2.4669516 0.79647732 0.26239583 4290789120
2.4684052 0.79704326 0.24982542 4290789120
2.4730494 0.79863864 0.23726554 4290789120
2.4129155 0.77933818 0.21853323 4290528000
2.3959069 0.77394646 0.20387274 4290528000
2.3945537 0.77360511 0.1904155 4290528000
2.3902462 0.77231038 0.17654355 4290528000
2.3326528 0.75381786 0.15890139 4290266880
2.3310194 0.75338382 0.14522715 4290266880
2.3422451 0.75710106 0.13213433 4290266880
2.3428891 0.7574029 0.11822893 4290266880
2.225646 0.71963876 0.098956972 4289875200
2.2578967 0.73014331 0.086711697 4290005760
2.2616303 0.73144007 0.073059462 4290005760
2.2227681 0.71897769 0.05816922 4289875200
2.1046803 0.68091732 0.042114165 4289483520
2.2034273 0.71290779 0.030442141 4289744640
2.185468 0.7071932 0.016634194 4289744640
2.1278906 0.6886732 0.0029764052 4289483520
2.1435673 0.69382614 -0.010332166 4289614080
2.1495628 0.69585079 -0.023719862 4289614080
2.1218507 0.68697798 -0.036575705 4289483520
1.9854501 0.64295888 -0.046497531 4288961280
2.1330731 0.6907782 -0.063113548 4289483520
2.1459737 0.69503653 -0.076656602 4289614080
2.1114078 0.6839419 -0.088289604 4289483520
2.0233653 0.6555444 -0.096847512 4289091840
2.1946802 0.71105421 -0.11822913 4289744640
2.1878386 0.70892835 -0.13086513 4289744640
2.0873086 0.67648166 -0.13712193 4289352960
2.1032758 0.68173325 -0.15039322 4289483520
2.244235 0.72744673 -0.17334694 4290005760
2.2755418 0.73767167 -0.18862507 4290005760
2.1796668 0.70671904 -0.19279708 4289744640
2.1584229 0.69992626 -0.20271526 4289614080
2.1320853 0.69148183 -0.21167763 4289614080
2.3252549 0.75413483 -0.24308124 4290266880
2.2924993 0.74361533 -0.25144309 4290136320
2.2783642 0.73912585 -0.2613326 4290136320
2.2796638 0.73963618 -0.27264068 4290136320
2.1700602 0.70420682 -0.26986778 4289744640
2.3603857 0.76597607 -0.30445498 4290397440
2.3949831 0.77728206 -0.3196516 4290528000
2.3581481 0.76543349 -0.32495356 4290397440
2.328274 0.75583869 -0.33056715 4290266880
2.4354048 0.79066581 -0.35556665 4290658560
2.5758152 0.83629322 -0.38599613 4291180800
2.6422799 0.85794789 -0.40569562 4291441920
2.7312894 0.88692009 -0.42895466 4291703040
2.7296257 0.88648349 -0.43779472 4291703040
2.7866383 0.9050836 -0.45572066 4291964160
2.857744 0.92826051 -0.47582164 4292225280
2.8530674 0.92684937 -0.48295966 4292225280
2.796207 0.90850067 -0.48055193 4291964160
2.867415 0.93171757 -0.49962205 4292225280
2.9114444 0.94611621 -0.51364768 4292486400
2.8513632 0.92671621 -0.50869286 4292225280
2.8777232 0.93537909 -0.51849753 4292355840
2.899471 0.94254547 -0.52695203 4292355840
2.8419914 0.92398185 -0.52035528 4292225280
2.8639231 0.93120718 -0.52763975 4292225280
2.8409834 0.92385733 -0.52604944 4292225280
2.880897 0.93692511 -0.53549117 4292355840
2.8628421 0.93116015 -0.53355616 4292225280
2.8757925 0.93546867 -0.53677255 4292355840
2.8532615 0.92824644 -0.53274465 4292225280
2.8224044 0.91831601 -0.52654558 4292094720
2.8131838 0.915416 -0.52377772 4292094720
2.8608544 0.93100947 -0.5309664 4292225280
2.8115582 0.91507947 -0.51955521 4292094720
2.8710878 0.93453115 -0.52762622 4292355840
2.7957346 0.91012353 -0.51033276 4292094720
2.8379283 0.92393947 -0.51393306 4292225280
2.766464 0.9007895 -0.49641535 4291964160
2.7669623 0.90104312 -0.49135178 4291964160
2.7049804 0.88096988 -0.4747543 4291703040
2.7193885 0.88574612 -0.47111031 4291703040
2.6255786 0.85530978 -0.44837767 4291441920
2.5542965 0.83219796 -0.42939821 4291180800
2.4563556 0.80040491 -0.40591532 4290789120
2.4123051 0.78614569 -0.3912867 4290658560
2.3861234 0.77769989 -0.37932864 4290528000
2.3646588 0.77078766 -0.36784673 4290397440
2.3526173 0.76694179 -0.35752973 4290397440
2.3358834 0.76156676 -0.34620133 4290397440
2.3182123 0.75588518 -0.33447582 4290266880
2.2882864 0.74621111 -0.32079786 4290136320
2.3350794 0.76152259 -0.31743884 4290266880
2.3089206 0.75307357 -0.30372417 4290266880
2.3053892 0.75199389 -0.29277867 4290266880
2.2297125 0.72740901 -0.2727159 4289875200
2.2671084 0.73966146 -0.26635614 4290005760
2.2828679 0.74486548 -0.25690192 4290136320
2.2660167 0.73944277 -0.24350221 4290005760
2.2155564 0.7230649 -0.22657067 4289875200
2.1938646 0.71606088 -0.21271095 4289744640
2.1877172 0.71412253 -0.20027523 4289744640
2.1744459 0.7098611 -0.18707587 4289744640
2.1464536 0.70079917 -0.17263681 4289614080
2.1340108 0.69680554 -0.15949012 4289614080
2.162601 0.70619166 -0.14914609 4289614080
2.1369088 0.69787651 -0.13488121 4289614080
2.0136478 0.6577372 -0.11518722 4289091840
2.10833 0.68868017 -0.10801326 4289483520
2.1349773 0.69743472 -0.096509397 4289614080
2.1321361 0.69657028 -0.083425499 4289483520
2.1157086 0.6912728 -0.06983912 4289483520
2.1685255 0.70856875 -0.058246359 4289614080
2.2010972 0.71926123 -0.045522258 4289744640
2.1907885 0.71596098 -0.031724293 4289744640
2.1945665 0.71725792 -0.018140374 4289744640
2.2651575 0.74036407 -0.0046352674 4290005760
2.275115 0.74368066 0.0095023755 4290005760
2.148474 0.70240164 0.022344116 4289614080
2.3152156 0.75690633 0.038427431 4290136320
2.3377514 0.76433259 0.053260509 4290266880
2.3159785 0.75729054 0.067033544 4290136320
2.302177 0.75285077 0.080742642 4290136320
2.3953469 0.78334951 0.098583765 4290528000
2.4094636 0.78803092 0.1137226 4290528000
2.3457434 0.76728547 0.12477412 4290266880
2.2889695 0.74880582 0.13533795 4290136320
2.466063 0.80673677 0.16025098 4290789120
2.4711299 0.80846518 0.17489623 4290789120
2.3617277 0.7727859 0.18066479 4290397440
2.3812666 0.77924174 0.19556394 4290397440
2.5505128 0.83463216 0.22356667 4291050240
2.5589819 0.83747667 0.23823169 4291050240
2.5295413 0.82792866 0.24899597 4291050240
2.4592164 0.80501205 0.2549389 4290789120
2.5619268 0.83867025 0.27866626 4291050240
3.0071368 0.98433518 0.34203053 4292747520
3.1339197 1.0258894 0.37166831 4293139200
3.157347 1.0336472 0.38936904 4293269760
3.1454697 1.0298589 0.40233666 4293269760
3.1145265 1.0198332 0.41222033 4293139200
3.175591 1.0399073 0.43392605 4293269760
3.1936011 1.0458987 0.44959676 4293400320
3.1865406 1.0436878 0.46127453 4293400320
3.1782966 1.0410897 0.4721939 4293400320
3.1621594 1.0359083 0.48130995 4293269760
3.1444473 1.0302109 0.48951295 4293269760
3.1726134 1.039531 0.50431859 4293400320
3.1729851 1.0397542 0.51422095 4293400320
3.174015 1.0401933 0.52363867 4293400320
3.1721008 1.0396692 0.53196126 4293400320
3.1674066 1.0382349 0.53918242 4293400320
3.1719739 1.0398343 0.54734951 4293400320
3.1712842 1.0397127 0.55398053 4293400320
3.1685336 1.0389163 0.55959749 4293400320
3.1545527 1.0344414 0.56254822 4293269760
3.1504903 1.0332158 0.5665766 4293269760
3.158242 1.0358618 0.57206661 4293400320
3.1529844 1.0342456 0.57453424 4293269760
3.1359279 1.0287626 0.57415742 4293269760
3.1449285 1.0318202 0.57786262 4293269760
3.1399953 1.0303111 0.57833284 4293269760
3.156435 1.0358095 0.5820564 4293400320
3.1479774 1.0331463 0.58051044 4293269760
3.1480541 1.0332817 0.57985276 4293269760
3.1655643 1.0391349 0.58171278 4293400320
3.1602299 1.0374973 0.5786891 4293400320
3.1708379 1.0410895 0.57789534 4293400320
3.1672337 1.0400206 0.5738284 4293400320
3.1640308 1.0390837 0.56916761 4293400320
3.166326 1.0399513 0.56482744 4293400320
3.1719699 1.0419186 0.56040847 4293400320
3.1709566 1.041702 0.55415028 4293400320
3.1692212 1.0412489 0.54712355 4293400320
3.1627119 1.039229 0.53865331 4293400320
3.1574087 1.0376054 0.52978897 4293269760
3.1543355 1.036714 0.52070373 4293269760
3.1560917 1.0374088 0.51181376 4293269760
3.1787035 1.0449541 0.50563478 4293400320
3.166533 1.0410767 0.49331316 4293269760
3.1655023 1.0408583 0.48219988 4293269760
2.5768585 0.84772307 0.32458875 4291180800
2.5470023 0.83801192 0.30898562 4291050240
2.5424531 0.83661658 0.29625997 4291050240
2.507942 0.82537222 0.27990484 4290919680
2.4576607 0.80894107 0.26190031 4290789120
2.4553268 0.80827087 0.24896955 4290789120
2.459012 0.80958003 0.23636186 4290789120
2.403717 0.79149282 0.21810715 4290528000
2.3999934 0.79036379 0.20459902 4290528000
2.3901205 0.78721201 0.19041488 4290528000
2.3896108 0.78713995 0.17682122 4290528000
2.3283331 0.76707345 0.15889749 4290266880
2.31722 0.76350993 0.14463095 4290266880
2.3379068 0.77041137 0.13212703 4290266880
2.3385491 0.77071697 0.1182199 4290266880
2.2215226 0.73228705 0.098946773 4289875200
2.2622559 0.7457875 0.087027341 4290005760
2.266933 0.747419 0.07335192 4290005760
2.2233958 0.73317337 0.05827808 4289875200
2.1055269 0.69444281 0.04219301 4289483520
2.199342 0.72543031 0.030424062 4289744640
2.1946979 0.72398943 0.016714588 4289744640
2.1324923 0.70358318 0.002967068 4289483520
2.1134808 0.69740504 -0.010225405 4289483520
2.1347201 0.7044903 -0.023622245 4289614080
2.1096358 0.69630915 -0.036456447 4289483520
2.0235429 0.66801518 -0.047505904 4289222400
2.132911 0.70415336 -0.063253589 4289614080
2.1684196 0.71594751 -0.07763315 4289744640
2.107487 0.6959421 -0.088318743 4289483520
2.1167183 0.69907171 -0.10154092 4289483520
2.1811192 0.72039908 -0.11774896 4289744640
2.1984417 0.7262013 -0.13177828 4289744640
2.1599145 0.71357894 -0.14219324 4289614080
2.076628 0.68618447 -0.14879633 4289352960
2.2509265 0.74378622 -0.17422454 4290005760
2.2821698 0.75418788 -0.18956485 4290136320
2.233995 0.73837757 -0.19800985 4289875200
2.2379837 0.73978335 -0.2106192 4290005760
2.1892295 0.72377574 -0.21779479 4289744640
2.3029757 0.7614215 -0.24123989 4290136320
2.2655671 0.74915886 -0.24899074 4290005760
2.2420297 0.74147445 -0.25768235 4290005760
2.2442865 0.74230814 -0.26894802 4290005760
2.1207583 0.70158786 -0.26426399 4289614080
2.4015849 0.79445463 -0.31038699 4290528000
2.3500197 0.77750927 -0.31427413 4290397440
2.3038597 0.76234597 -0.31810218 4290266880
2.2787721 0.7541433 -0.32417873 4290136320
2.2774999 0.75381064 -0.33316934 4290136320
2.4306068 0.80451357 -0.36495325 4290658560
2.4660151 0.81631351 -0.37937587 4290789120
2.4331546 0.80554163 -0.38288251 4290658560
2.4770405 0.8201471 -0.39806116 4290919680
2.530308 0.83785844 -0.41460884 4291050240
2.4782109 0.82072097 -0.41343406 4290919680
2.54934 0.84434438 -0.43238425 4291180800
2.5023382 0.82888854 -0.43088162 4290919680
2.5782042 0.85408461 -0.45009735 4291311360
2.5795166 0.85461408 -0.4559651 4291311360
2.5496609 0.84482753 -0.45574188 4291180800
2.5938358 0.85954255 -0.4682419 4291311360
2.5657637 0.85034382 -0.46719426 4291180800
2.6278429 0.87098926 -0.48205805 4291441920
2.5695531 0.85178339 -0.47430262 4291180800
2.556052 0.84740442 -0.47418308 4291180800
2.5734911 0.85327077 -0.47925097 4291311360
2.5816696 0.85607052 -0.48205334 4291311360
2.5637672 0.85023117 -0.47942469 4291180800
2.6083844 0.8651017 -0.48792458 4291441920
2.5729079 0.85343826 -0.48088485 4291311360
2.6219161 0.86976624 -0.48906013 4291441920
2.5510983 0.8463881 -0.47434261 4291180800
2.5757318 0.85463929 -0.47684011 4291311360
2.5870173 0.85846746 -0.47628114 4291311360
2.5201693 0.83639532 -0.46085772 4291050240
2.5479293 0.84568304 -0.46223992 4291180800
2.4905615 0.82674736 -0.4477002 4290919680
2.5421455 0.84393477 -0.45222324 4291180800
2.489573 0.8265844 -0.43771085 4290919680
2.4360976 0.80893064 -0.42276552 4290789120
2.459188 0.81666893 -0.42068353 4290789120
2.428278 0.80649519 -0.40890738 4290658560
2.4020846 0.79788387 -0.39761433 4290658560
2.3674753 0.78647804 -0.38465437 4290528000
2.3460164 0.77943325 -0.37356722 4290397440
2.4009809 0.79774773 -0.37410462 4290658560
2.3974357 0.79664701 -0.36492664 4290528000
2.3675997 0.78681946 -0.35145941 4290528000
2.3687849 0.787287 -0.34230807 4290528000
2.3380017 0.77714151 -0.32827374 4290397440
2.3081386 0.76729929 -0.31425366 4290266880
2.323895 0.77260226 -0.30615085 4290266880
2.2831907 0.75915712 -0.29038453 4290136320
2.2796464 0.75804991 -0.27922383 4290136320
2.2675984 0.75411785 -0.26678708 4290136320
2.2701194 0.75502414 -0.25581568 4290136320
2.2665124 0.75389457 -0.24387793 4290136320
2.2161474 0.73723072 -0.22692102 4289875200
2.2039475 0.73324382 -0.21395145 4289875200
2.2015991 0.73252952 -0.20178279 4289875200
2.184576 0.72693831 -0.18815617 4289744640
2.1613722 0.71929181 -0.17401737 4289744640
2.1527455 0.71648866 -0.16104424 4289614080
2.1632979 0.72006005 -0.14932156 4289744640
2.1471267 0.7147482 -0.13562652 4289614080
2.037365 0.67832047 -0.11661468 4289222400
2.1103461 0.70264566 -0.10816219 4289483520
2.1271951 0.70831025 -0.096176356 4289483520
2.142374 0.71342027 -0.083819248 4289614080
2.1164947 0.70487618 -0.069831088 4289483520
2.1559319 0.71805519 -0.057845414 4289614080
2.196979 0.73177177 -0.045346294 4289744640
2.1866882 0.72841257 -0.031547185 4289744640
2.1989973 0.73257154 -0.01803194 4289744640
2.2609153 0.75323713 -0.0044486583 4290005760
2.2613645 0.7534526 0.0096516442 4290005760
2.1539354 0.71776861 0.022622356 4289614080
2.3028049 0.76737642 0.038487885 4290136320
2.3286247 0.77603751 0.053349607 4290266880
2.3211186 0.77360708 0.067504421 4290266880
2.2845809 0.76151192 0.080471776 4290136320
2.3695126 0.78985465 0.097907797 4290397440
2.4049394 0.80171978 0.11392703 4290528000
2.3365996 0.7790345 0.12472051 4290266880
2.2941415 0.76496428 0.13609201 4290136320
2.4614284 0.82074559 0.1604584 4290789120
2.4495909 0.81687576 0.17390579 4290658560
2.3572865 0.7862016 0.18086103 4290397440
2.3815165 0.79434347 0.19614905 4290528000
2.5457139 0.84911877 0.22377485 4291050240
2.5588908 0.85358542 0.23887876 4291050240
2.5200565 0.84072173 0.24873216 4290919680
2.5691688 0.85716438 0.2670252 4291180800
2.7562926 0.91960692 0.30055839 4291833600
3.1156497 1.0394684 0.35526448 4293139200
3.1540248 1.0523553 0.37499124 4293269760
3.1572971 1.0535426 0.39032826 4293269760
3.130125 1.0445803 0.40135491 4293139200
3.113363 1.0390878 0.41306096 4293139200
3.179013 1.0610762 0.43542853 4293400320
3.1781785 1.0608969 0.4484812 4293400320
3.1805336 1.0617816 0.46147749 4293400320
3.167608 1.0575702 0.47169062 4293400320
3.1655862 1.0569957 0.48292813 4293400320
3.1347654 1.0468137 0.48910651 4293269760
3.1666322 1.0575461 0.50449097 4293400320
3.1763785 1.0609 0.51590657 4293400320
3.1717801 1.0594678 0.52441365 4293400320
3.1754887 1.0608084 0.53368109 4293400320
3.1651819 1.0574716 0.53995848 4293400320
3.170676 1.0594095 0.54828662 4293400320
3.1690509 1.0589715 0.55475408 4293400320
3.1625631 1.0569104 0.55970639 4293400320
3.1486094 1.0523566 0.56264663 4293269760
3.1398807 1.0495472 0.56582284 4293269760
3.1438808 1.0509892 0.57061863 4293269760
3.1610663 1.056836 0.57715863 4293400320
3.130024 1.0465742 0.57421303 4293269760
3.1249936 1.045001 0.57532924 4293269760
3.1387575 1.0497078 0.57922769 4293269760
3.1420879 1.0509298 0.58052647 4293269760
3.1457927 1.0522776 0.58121085 4293269760
3.1421337 1.0511652 0.57985169 4293269760
3.1549406 1.0555571 0.58084047 4293400320
3.1589611 1.0570133 0.57952052 4293400320
3.1611404 1.0578548 0.57717621 4293400320
3.1612825 1.0580158 0.57377911 4293400320
3.1627612 1.0586245 0.56994772 4293400320
3.1603792 1.0579427 0.56475359 4293400320
3.1613369 1.0583786 0.55949521 4293400320
3.1603253 1.0581563 0.55323344 4293400320
3.1595285 1.0580063 0.54636574 4293400320
3.1520951 1.0556363 0.53773236 4293269760
3.146801 1.0539824 0.52886748 4293269760
3.1446693 1.0533868 0.5199374 4293269760
3.1501706 1.0553464 0.5116542 4293269760
3.1821172 1.0661592 0.50695437 4293400320
3.1746645 1.0637851 0.49532238 4293400320
3.1595647 1.0588506 0.48200372 4293269760
2.6146495 0.87747359 0.33001029 4291311360
2.5278285 0.8484686 0.30728549 4291050240
2.5411856 0.85304683 0.29671606 4291050240
2.4992013 0.83906823 0.27950135 4290919680
2.4527905 0.82360202 0.26191908 4290789120
2.4542353 0.82418418 0.24937285 4290789120
2.4541378 0.82424921 0.23638372 4290789120
2.3989515 0.80583239 0.2181301 4290528000
2.382005 0.80024225 0.20349519 4290528000
2.3986158 0.80591202 0.19149575 4290528000
2.3848717 0.80139565 0.17684895 4290528000
2.3199306 0.77969378 0.15866786 4290266880
2.3173549 0.77892274 0.14495654 4290266880
2.3285353 0.7827701 0.1318917 4290266880
2.32444 0.78148925 0.11777518 4290266880
2.2218497 0.74713159 0.09919145 4289875200
2.2539768 0.758012 0.086917788 4290005760
2.2576959 0.75935286 0.073236637 4290005760
2.2142441 0.74484736 0.058192834 4289875200
2.0918691 0.70382166 0.04204182 4289483520
2.1902363 0.73696047 0.030400263 4289744640
2.1856008 0.73549181 0.016721739 4289744640
2.132997 0.71790051 0.0030165063 4289614080
2.1092837 0.71001625 -0.010181179 4289483520
2.1266894 0.71595377 -0.023533896 4289483520
2.1027489 0.70799094 -0.03636273 4289483520
2.0280521 0.68295848 -0.047660865 4289222400
2.1428862 0.72166067 -0.063626707 4289614080
2.1604693 0.72766185 -0.077450357 4289614080
2.1222415 0.7148903 -0.089063294 4289483520
2.1314495 0.71807426 -0.10239895 4289614080
2.1995029 0.74105871 -0.11892301 4289875200
2.2082675 0.74409717 -0.13257428 4289875200
2.1688657 0.7309258 -0.14301039 4289744640
2.0951951 0.70621639 -0.15037085 4289483520
2.2691383 0.76485574 -0.17592357 4290136320
2.2908618 0.77226079 -0.19060385 4290136320
2.2427769 0.75616193 -0.19912295 4290005760
2.2514708 0.75917953 -0.2122488 4290005760
2.1980875 0.74129039 -0.21905088 4289875200
2.3078287 0.77834249 -0.24216576 4290266880
2.2704895 0.76585567 -0.24996571 4290136320
2.2469938 0.75802976 -0.25870496 4290005760
2.2530072 0.76014483 -0.27046862 4290005760
2.2087843 0.74533105 -0.27572078 4289875200
2.4052753 0.8116411 -0.31141746 4290658560
2.3632083 0.79755586 -0.31660351 4290397440
2.3180697 0.78243154 -0.32063979 4290266880
2.3882077 0.80616844 -0.34036028 4290528000
2.3678412 0.79939371 -0.34701309 4290528000
2.5316343 0.85472006 -0.38081437 4291050240
2.5791073 0.87082815 -0.39749914 4291311360
2.6308098 0.88836616 -0.41474375 4291441920
2.7054219 0.91363597 -0.43556085 4291703040
2.7084985 0.91477662 -0.44462594 4291703040
2.7709367 0.93594646 -0.46312302 4291964160
2.7475996 0.92817545 -0.46687675 4291833600
2.826921 0.95504844 -0.48767751 4292225280
2.7843962 0.94080037 -0.4870044 4291964160
2.8507061 0.96328729 -0.50484735 4292225280
2.7955413 0.94476873 -0.50063401 4292094720
2.8395545 0.95973182 -0.51356953 4292225280
2.7775347 0.9388929 -0.50671697 4291964160
2.8039711 0.94792145 -0.51535076 4292094720
2.8398206 0.96013063 -0.52519339 4292225280
2.8477614 0.96291476 -0.5293138 4292225280
2.8427367 0.96131897 -0.53041315 4292225280
2.8564696 0.96605957 -0.53439814 4292355840
2.8339221 0.95854187 -0.53097528 4292225280
2.8161411 0.95263273 -0.52781981 4292094720
2.7891328 0.94360322 -0.52232367 4292094720
2.8449104 0.96255243 -0.53170395 4292225280
2.8143682 0.95232642 -0.52433223 4292094720
2.8549032 0.9661262 -0.529576 4292355840
2.8021538 0.94838917 -0.51692408 4292094720
2.8534207 0.965819 -0.52284783 4292225280
2.7821662 0.94181943 -0.50575799 4291964160
2.8227384 0.95563406 -0.50844359 4292225280
2.7385356 0.92724818 -0.48815921 4291833600
2.7397416 0.92774671 -0.48268819 4291833600
2.6864583 0.90981144 -0.46718088 4291703040
2.613076 0.88507205 -0.44794425 4291441920
2.5634363 0.86836106 -0.43257728 4291180800
2.5066161 0.84921652 -0.41579878 4291050240
2.4768028 0.83920765 -0.40327832 4290919680
2.4175336 0.81922686 -0.38578573 4290658560
2.4139733 0.81809878 -0.3769477 4290658560
2.3926308 0.81095046 -0.36499465 4290528000
2.3900535 0.81015337 -0.35557768 4290528000
2.3724813 0.80427873 -0.34360787 4290528000
2.3473966 0.7958588 -0.33033586 4290397440
2.3260541 0.78870422 -0.31741393 4290266880
2.34179 0.79410559 -0.30921829 4290397440
2.3011782 0.78042227 -0.29335344 4290266880
2.302356 0.7808919 -0.28266984 4290266880
2.285639 0.77529907 -0.26955143 4290136320
2.288166 0.77622479 -0.25847346 4290136320
2.2751551 0.77188563 -0.24540932 4290136320
2.2343237 0.75811833 -0.22935374 4290005760
2.2259309 0.75534135 -0.21663529 4289875200
2.2103896 0.75014091 -0.20311387 4289875200
2.2075653 0.74924976 -0.19064066 4289875200
2.1749759 0.73826849 -0.17558841 4289744640
2.1663735 0.73541695 -0.1625163 4289744640
2.1685522 0.73621988 -0.15011501 4289744640
2.1655056 0.73525113 -0.137196 4289744640
2.046515 0.69496554 -0.11750268 4289222400
2.116662 0.71881473 -0.10883986 4289483520
2.1186769 0.71956044 -0.096121587 4289483520
2.1333437 0.72459757 -0.083774999 4289614080
2.1122482 0.71750426 -0.069973655 4289483520
2.1601272 0.73380893 -0.058223203 4289614080
2.1878381 0.74327391 -0.045400146 4289744640
2.1728334 0.73824686 -0.031562563 4289744640
2.1898525 0.74408561 -0.018148659 4289744640
2.251647 0.76512045 -0.0046009799 4290005760
2.2568305 0.7669456 0.0094877454 4290005760
2.1448829 0.72901428 0.022416059 4289614080
2.3109777 0.78545803 0.038530622 4290266880
2.3381584 0.79475302 0.053501133 4290266880
2.3117344 0.78585047 0.067195341 4290266880
2.2800035 0.77514446 0.080302089 4290136320
2.373281 0.80688554 0.098082624 4290397440
2.4048519 0.81767672 0.11397195 4290528000
2.3319197 0.79297793 0.12454722 4290266880
2.2848201 0.77704918 0.13564241 4290136320
2.447994 0.83254462 0.15972342 4290658560
2.4662693 0.8388257 0.1752577 4290789120
2.4240525 0.82455605 0.18617076 4290658560
2.3767488 0.80855578 0.19597791 4290528000
2.5359004 0.86270732 0.22317934 4291050240
2.5452807 0.86597121 0.23790693 4291050240
2.5832441 0.87895018 0.25529149 4291180800
2.7534907 0.93689418 0.28654194 4291833600
2.8886185 0.98291099 0.31540743 4292355840
3.1444702 1.0699772 0.35905913 4293269760
3.1643643 1.0768368 0.37676984 4293269760
3.1556799 1.073981 0.39071253 4293269760
3.150162 1.0722018 0.40453878 4293269760
3.1024344 1.0560682 0.41225362 4293139200
3.1679552 1.0784488 0.43460339 4293400320
3.1718159 1.0798608 0.44830582 4293400320
3.1788549 1.0823548 0.46198952 4293400320
3.157515 1.0751951 0.47097057 4293269760
3.1545613 1.0742902 0.482059 4293269760
3.132232 1.0667926 0.48954657 4293269760
3.1640317 1.0777143 0.50494957 4293400320
3.1746912 1.0814438 0.51653641 4293400320
3.1616812 1.0771184 0.52367258 4293400320
3.1632688 1.0777617 0.53258324 4293400320
3.1550958 1.0750828 0.53921628 4293400320
3.1689861 1.0799158 0.54900044 4293400320
3.1589561 1.0766053 0.55401444 4293400320
3.1515467 1.0741874 0.55880439 4293400320
3.1600201 1.0771786 0.56575418 4293400320
3.1382389 1.0698664 0.56661028 4293269760
3.141295 1.0710137 0.57125288 4293269760
3.1195323 1.063707 0.57069498 4293269760
3.1153362 1.0623842 0.57264942 4293269760
3.137356 1.0699944 0.57875562 4293269760
3.1277785 1.0668395 0.57836646 4293269760
3.1183109 1.063722 0.57730997 4293269760
3.1394565 1.0710386 0.58123404 4293269760
3.1395316 1.071175 0.58057559 4293269760
3.1392565 1.0711925 0.57916844 4293269760
3.1525905 1.0758506 0.57957941 4293400320
3.154763 1.0767045 0.57724726 4293400320
3.154902 1.0768658 0.57386231 4293400320
3.1563752 1.0774827 0.57004327 4293400320
3.1493294 1.0751946 0.56402642 4293400320
3.1549487 1.077227 0.55961531 4293400320
3.1539366 1.0769981 0.55336589 4293400320
3.1484692 1.0752496 0.5457018 4293400320
3.1579452 1.0786004 0.53997797 4293400320
3.1357598 1.0711473 0.52824968 4293269760
3.1383035 1.0721334 0.52011824 4293269760
3.1522098 1.0769989 0.51321691 4293400320
3.162571 1.0806558 0.50507158 4293400320
3.1541893 1.0779148 0.49334708 4293269760
3.1625273 1.0808828 0.4836649 4293400320
2.6772723 0.91543138 0.33856907 4291572480
2.5538459 0.87337536 0.31105372 4291180800
2.5231307 0.86298311 0.29518825 4291050240
2.4943945 0.85326493 0.2795105 4290919680
2.4480727 0.83753544 0.26192662 4290789120
2.4495144 0.83812588 0.24937889 4290789120
2.4494164 0.8381905 0.23638821 4290789120
2.394336 0.81946051 0.21813291 4290528000
2.3821373 0.81538647 0.20389938 4290528000
2.3807905 0.81502205 0.19044049 4290528000
2.3802817 0.81494427 0.17684683 4290528000
2.3192422 0.79416543 0.15892245 4290266880
2.3081713 0.79047292 0.14465581 4290266880
2.3193281 0.79438317 0.13161711 4290266880
