# .PCD v0.7 - Point Cloud Data file format
VERSION 0.7
FIELDS x y z rgba
SIZE 4 4 4 4
TYPE F F F U
COUNT 1 1 1 1
WIDTH 1101
HEIGHT 1
VIEWPOINT 0 0 0 1 0 0 0
POINTS 1101
DATA ascii
1.9119104 -1.2436838 0.14047159 4289744640
1.9431314 -1.2638917 0.1555209 4289875200
1.9589686 -1.2740952 0.16947499 4289875200
1.9284625 -1.2541705 0.17914623 4289744640
1.9611588 -1.2753323 0.19448744 4289875200
1.9885665 -1.2930537 0.20946121 4290005760
1.9922302 -1.2953405 0.22189432 4290005760
1.9769202 -1.2852963 0.23190001 4290005760
1.9463476 -1.2653354 0.23958986 4289875200
1.9694653 -1.2802651 0.25356156 4290005760
1.9839982 -1.2896148 0.26635388 4290005760
1.9832026 -1.2890044 0.27686566 4290005760
1.9766859 -1.2846776 0.28622779 4290005760
1.9440064 -1.263356 0.29128358 4289875200
1.9816784 -1.287735 0.30655161 4290005760
1.9807141 -1.2870158 0.31567976 4290005760
1.9822899 -1.2879467 0.32485327 4290005760
1.988124 -1.291643 0.33438307 4290005760
1.9777181 -1.2847931 0.34078282 4290005760
1.9384903 -1.2592297 0.34163356 4289875200
1.9092158 -1.2401325 0.34357879 4289744640
1.8812971 -1.2219185 0.34516308 4289614080
1.8805486 -1.2213455 0.35122433 4289614080
1.8609153 -1.2085142 0.35329214 4289614080
1.8474463 -1.1996861 0.35601801 4289483520
1.8468381 -1.1992066 0.36076313 4289483520
1.8021055 -1.1700904 0.35636997 4289352960
1.7974733 -1.1670021 0.35936061 4289352960
1.7970314 -1.1666335 0.36275536 4289352960
1.8049139 -1.1716664 0.36741462 4289352960
1.7930071 -1.1638592 0.36761516 4289352960
1.7334665 -1.1251496 0.35754052 4289091840
1.7925247 -1.1633843 0.37145618 4289352960
1.7331166 -1.1247666 0.36043337 4289091840
1.7247665 -1.1192725 0.35954097 4288961280
1.7955654 -1.1651151 0.37471271 4289352960
1.733041 -1.1244848 0.36167565 4289091840
1.7957014 -1.1650431 0.37428397 4289352960
1.7999961 -1.1677483 0.37428468 4289352960
1.7960871 -1.165134 0.37214136 4289352960
1.7930648 -1.1630949 0.36974886 4289352960
1.8449944 -1.1966834 0.37817594 4289483520
1.841273 -1.1941897 0.37470838 4289483520
1.8628179 -1.2080752 0.37590396 4289614080
1.873983 -1.2152309 0.37450811 4289614080
1.8828536 -1.2208986 0.37217429 4289614080
1.9064547 -1.2361127 0.37223646 4289744640
1.9382205 -1.2566164 0.37331516 4289875200
1.9476916 -1.2626698 0.36955917 4289875200
1.9664264 -1.2747253 0.3670435 4290005760
1.971568 -1.277972 0.36149287 4290005760
1.9815643 -1.2843636 0.35636011 4290005760
1.9742031 -1.2795095 0.34769011 4290005760
1.9623317 -1.2717345 0.33789957 4290005760
1.9562719 -1.2672718 0.27842554 4289875200
1.9813222 -1.2834089 0.2715458 4290005760
1.9827162 -1.284228 0.26098254 4290005760
1.9366943 -1.2543495 0.24414207 4289744640
1.9355429 -1.2535226 0.23293708 4289744640
1.9493906 -1.2624054 0.22319837 4289875200
1.9507533 -1.2632056 0.21169348 4289875200
1.8861336 -1.2212995 0.19318976 4289614080
1.8915249 -1.2247099 0.18198834 4289614080
1.9161954 -1.2405965 0.17224616 4289744640
1.9177501 -1.2415227 0.16007274 4289744640
1.9245435 -1.2458385 0.14810351 4289744640
1.7945335 -1.1616378 0.12627782 4289222400
1.645574 -1.0651876 0.10483274 4288569600
1.6282436 -1.0539073 0.092743292 4288569600
1.6180503 -1.0472456 0.081142172 4288439040
1.6246765 -1.0514646 0.070315085 4288569600
1.6206411 -1.048787 0.058932178 4288439040
1.6153181 -1.0452769 0.047501337 4288439040
1.6167018 -1.0461049 0.036240242 4288439040
1.6097779 -1.0415602 0.024791421 4288439040
1.6101186 -1.0417137 0.013470383 4288439040
1.6116095 -1.0426111 0.0021289296 4288439040
1.5919439 -1.029829 -0.0091145672 4288308480
1.5897841 -1.0283667 -0.020299386 4288308480
1.5993576 -1.03449 -0.031667985 4288439040
1.6157711 -1.0450342 -0.043323278 4288439040
1.6042502 -1.0375201 -0.054217082 4288439040
1.6081837 -1.039996 -0.06552548 4288439040
1.622455 -1.0491532 -0.077313401 4288439040
1.6257846 -1.0512377 -0.088619158 4288569600
1.6081079 -1.0397466 -0.098587528 4288439040
1.6118379 -1.0420902 -0.10967024 4288439040
1.6290115 -1.05312 -0.12169115 4288569600
1.6171635 -1.045397 -0.13144885 4288439040
1.6220863 -1.0485102 -0.14238365 4288569600
1.6289904 -1.0529028 -0.15341537 4288569600
1.6386293 -1.0590614 -0.16464393 4288569600
1.6313524 -1.0542924 -0.17400968 4288569600
1.6001641 -1.0340792 -0.180401 4288439040
1.6060798 -1.037833 -0.1906254 4288439040
1.613318 -1.0424402 -0.20087555 4288439040
1.6111246 -1.0409559 -0.20976058 4288439040
1.6065936 -1.0379622 -0.2180728 4288439040
1.567607 -1.0127208 -0.2212324 4288308480
1.5621079 -1.009104 -0.2286339 4288308480
1.5609655 -1.0083004 -0.23638439 4288308480
1.5647397 -1.0106708 -0.24462849 4288308480
1.5563769 -1.005206 -0.2506808 4288308480
1.5703738 -1.0141746 -0.26007682 4288308480
1.4941705 -0.96492243 -0.2539762 4288047360
1.4874258 -0.9605056 -0.25903264 4288047360
1.4769764 -0.95369834 -0.26308137 4287916800
1.4842677 -0.95834023 -0.26997674 4288047360
1.4923245 -0.96347529 -0.27676028 4288047360
1.4890825 -0.96131921 -0.28115118 4288047360
1.4910389 -0.9625172 -0.28619707 4288047360
1.4916655 -0.96285701 -0.29066777 4288047360
1.5007253 -0.96863681 -0.29647356 4288047360
1.4986577 -0.96723789 -0.29975995 4288047360
1.4979314 -0.96670419 -0.30296224 4288047360
1.4921551 -0.96291322 -0.30478042 4288047360
1.4959666 -0.96530604 -0.3081989 4288047360
1.4762104 -0.95249999 -0.30638337 4288047360
1.4770306 -0.95296401 -0.30845249 4288047360
1.4809768 -0.95544338 -0.31082126 4288047360
1.4808352 -0.95528668 -0.31197542 4288047360
1.4807456 -0.95516336 -0.3127777 4288047360
1.4691231 -0.94760501 -0.31077749 4287916800
1.4879375 -0.95966774 -0.3148495 4288047360
1.5033218 -0.96951777 -0.31782818 4288047360
1.499294 -0.96685451 -0.31633365 4288047360
1.5081644 -0.97250414 -0.31718752 4288177920
1.500881 -0.96774262 -0.31427747 4288047360
1.5062355 -0.97112548 -0.31364843 4288177920
1.5063972 -0.97116172 -0.31156829 4288177920
1.5020174 -0.96827161 -0.3081952 4288047360
1.5040181 -0.9694925 -0.30577776 4288047360
1.5139439 -0.97581851 -0.30459303 4288177920
1.5090927 -0.97262448 -0.30007547 4288177920
1.510002 -0.97314137 -0.29636663 4288177920
1.5161964 -0.97706187 -0.29333466 4288177920
1.5251349 -0.9827491 -0.29045287 4288177920
1.5314844 -0.98676807 -0.28669849 4288177920
1.5375743 -0.99061906 -0.28252694 4288177920
1.549952 -0.99851811 -0.27912265 4288308480
1.570639 -1.0117658 -0.27677244 4288308480
1.6030631 -1.0325679 -0.27596518 4288439040
1.6080639 -1.0357127 -0.2699737 4288439040
1.592922 -1.0258911 -0.26034355 4288439040
1.5958809 -1.0277214 -0.2534329 4288439040
1.6104923 -1.0370512 -0.2480053 4288439040
1.6190517 -1.0424846 -0.2412567 4288569600
1.6154088 -1.0400646 -0.23239823 4288439040
1.6035391 -1.0323511 -0.22218077 4288439040
1.6119249 -1.0376716 -0.21454185 4288439040
1.6221989 -1.044206 -0.20681512 4288569600
1.6275829 -1.0475935 -0.19814995 4288569600
1.6131761 -1.038249 -0.18691252 4288439040
1.5872568 -1.0215007 -0.17437778 4288308480
1.618104 -1.0412666 -0.16785847 4288439040
1.6154989 -1.0395147 -0.15751418 4288439040
1.6057467 -1.0331666 -0.1463813 4288439040
1.5985132 -1.0284393 -0.13542949 4288439040
1.6207063 -1.0426338 -0.12672924 4288439040
1.6213071 -1.0429434 -0.11605597 4288439040
1.6162475 -1.0396136 -0.10488411 4288439040
1.6042135 -1.0318006 -0.093263671 4288439040
1.6070546 -1.0335509 -0.082473166 4288439040
1.6118833 -1.0365783 -0.071646363 4288439040
1.5866768 -1.020301 -0.059548911 4288308480
1.5976301 -1.027265 -0.048848942 4288439040
1.604171 -1.0313925 -0.037842479 4288439040
1.6182626 -1.0403712 -0.026833132 4288439040
1.6029025 -1.0304248 -0.015315786 4288439040
1.6245978 -1.0442874 -0.004099092 4288439040
1.6204191 -1.0415258 0.0073101483 4288439040
1.6322291 -1.0490353 0.018831696 4288569600
1.6268158 -1.0454806 0.030178113 4288439040
1.644961 -1.0570579 0.042011011 4288569600
1.7563295 -1.1285058 0.057063408 4288961280
1.8924924 -1.2158661 0.074568771 4289614080
1.9375331 -1.2446994 0.089663148 4289744640
1.9527279 -1.254364 0.10369255 4289875200
1.9476242 -1.2509947 0.11659963 4289744640
1.9226638 -1.2348776 0.12798864 4289744640
1.9437215 -1.248305 0.14226276 4289744640
1.9713904 -1.265974 0.1571808 4289875200
1.9812504 -1.2722098 0.17075059 4289875200
1.9284253 -1.238212 0.17846565 4289744640
1.9727516 -1.2665685 0.19489586 4289875200
2.0036139 -1.2862808 0.2102464 4290005760
2.0039353 -1.2863928 0.22235325 4290005760
1.9969414 -1.2818111 0.23336069 4290005760
1.9440856 -1.2478058 0.23840903 4289744640
2.0007415 -1.2840618 0.25661042 4290005760
2.00225 -1.2849358 0.26778689 4290005760
2.0065653 -1.2876104 0.27906635 4290005760
1.9958378 -1.2806361 0.28790772 4290005760
1.9596881 -1.2573584 0.29252338 4289875200
1.9933233 -1.2788378 0.30718878 4290005760
2.0040343 -1.2856138 0.31818816 4290136320
2.0018561 -1.2841241 0.32681984 4290136320
1.9997855 -1.282704 0.33507529 4290005760
1.9893379 -1.2759136 0.34149185 4290005760
1.9582882 -1.2559167 0.34381881 4289875200
1.9205729 -1.23165 0.34431899 4289744640
1.9008681 -1.2189314 0.34743643 4289744640
1.8917933 -1.213028 0.35199219 4289614080
1.872084 -1.20031 0.35407248 4289614080
1.8502505 -1.1862327 0.35521644 4289483520
1.8019642 -1.1552067 0.35068572 4289352960
1.8014179 -1.1547748 0.35489455 4289352960
1.8125482 -1.1618245 0.36100757 4289352960
1.8004788 -1.1540102 0.36208379 4289352960
1.7405782 -1.1155554 0.35300449 4289091840
1.8072284 -1.1581717 0.36913395 4289352960
1.751611 -1.122466 0.35991958 4289091840
1.7356402 -1.1121584 0.35833296 4289091840
1.7396421 -1.1146439 0.36042887 4289091840
1.7395557 -1.1145111 0.36125675 4289091840
1.7436777 -1.1170733 0.36253211 4289091840
1.7395649 -1.1143626 0.36167112 4289091840
1.7908458 -1.1471189 0.37187091 4289222400
1.7993037 -1.1524549 0.37273529 4289352960
1.8111446 -1.159956 0.37384713 4289352960
1.8114315 -1.1600602 0.37212777 4289352960
1.7960073 -1.150108 0.36676571 4289222400
1.848201 -1.1834359 0.37470362 4289483520
1.873979 -1.1998532 0.37673277 4289614080
1.8976476 -1.2149187 0.37780657 4289744640
1.8982465 -1.2152197 0.37380359 4289744640
1.9177822 -1.2276379 0.37303892 4289744640
1.9413655 -1.2426443 0.37251577 4289875200
1.9633359 -1.2566172 0.37112454 4289875200
1.982144 -1.2685652 0.36858392 4290005760
1.985708 -1.2707601 0.36271471 4290005760
1.9965124 -1.2775862 0.35769632 4290005760
1.9932935 -1.2754422 0.3497293 4290005760
1.9813827 -1.2677395 0.33989421 4290005760
1.9847227 -1.2693342 0.28140751 4290005760
1.9929532 -1.2745123 0.27211124 4290005760
1.9943542 -1.2753243 0.26152566 4290005760
1.957389 -1.2516136 0.24581937 4289875200
1.9587442 -1.252398 0.23483865 4289875200
1.9768451 -1.2638844 0.22548561 4289875200
1.9696465 -1.2592018 0.21293648 4289875200
1.9276309 -1.2322716 0.1966897 4289744640
1.9301887 -1.2338258 0.18500246 4289744640
1.9527382 -1.248153 0.17486386 4289875200
1.9539567 -1.2488506 0.16247454 4289875200
1.9396722 -1.2396441 0.14870289 4289744640
1.8295062 -1.1691898 0.12824748 4289352960
1.6593285 -1.0604119 0.10530778 4288569600
1.641935 -1.0492338 0.093167633 4288569600
1.6274951 -1.0399436 0.081305668 4288439040
1.6349887 -1.0446621 0.070491754 4288569600
1.6385205 -1.04685 0.059353337 4288569600
1.6331793 -1.0433718 0.047840904 4288569600
1.6303561 -1.0415019 0.036404304 4288439040
1.6200355 -1.0348454 0.024851311 4288439040
1.6203774 -1.0349969 0.013500771 4288439040
1.6294597 -1.0407281 0.0021387637 4288439040
1.6055057 -1.02537 -0.0091628972 4288439040
1.6159804 -1.0319899 -0.020563211 4288439040
1.6137886 -1.0305244 -0.031839307 4288439040
1.6260488 -1.0382826 -0.043440446 4288439040
1.62291 -1.0362126 -0.054648016 4288439040
1.6386508 -1.0461904 -0.066523604 4288569600
1.6403356 -1.0471978 -0.077878408 4288569600
1.6445167 -1.049798 -0.089310296 4288569600
1.6141413 -1.0303501 -0.098591685 4288439040
1.6298854 -1.0403277 -0.11048864 4288569600
1.6477436 -1.0516527 -0.12263537 4288569600
1.6358466 -1.0439955 -0.13247538 4288569600
1.639942 -1.04654 -0.14341778 4288569600
1.6465117 -1.0506622 -0.15449069 4288569600
1.6531763 -1.0548444 -0.16548942 4288569600
1.6534263 -1.054935 -0.1757099 4288569600
1.6179165 -1.0322222 -0.18172531 4288439040
1.6448239 -1.0493121 -0.19449927 4288569600
1.6522566 -1.0539826 -0.20495985 4288569600
1.6532083 -1.0545204 -0.21444 4288569600
1.641102 -1.0467331 -0.22192894 4288569600
1.5935811 -1.016371 -0.22406198 4288439040
1.6642132 -1.0613275 -0.24267164 4288700160
1.6630176 -1.0604955 -0.25090069 4288700160
1.6569426 -1.0565535 -0.25807828 4288700160
1.6583143 -1.0573579 -0.26610383 4288700160
1.63974 -1.045451 -0.27055311 4288569600
1.6279867 -1.0378921 -0.27568817 4288569600
1.6392454 -1.044997 -0.28440404 4288569600
1.6381316 -1.0442176 -0.2906943 4288569600
1.6467487 -1.0496378 -0.29840901 4288700160
1.6398029 -1.0451428 -0.30297253 4288569600
1.636071 -1.0426953 -0.30774701 4288569600
1.6380107 -1.0438607 -0.31322983 4288569600
1.6287678 -1.0379033 -0.31619513 4288569600
1.6218239 -1.0334108 -0.31919801 4288569600
1.6162105 -1.029766 -0.322063 4288569600
1.6149733 -1.0289083 -0.32541198 4288569600
1.609146 -1.0251278 -0.32744619 4288569600
1.5938289 -1.0153053 -0.3271327 4288439040
1.5897695 -1.0126514 -0.32871714 4288439040
1.5747881 -1.0030445 -0.32763752 4288308480
1.5820597 -1.0076046 -0.33079416 4288439040
1.5712374 -1.0006465 -0.32978353 4288308480
1.5669887 -0.99787313 -0.32975787 4288308480
1.5817719 -1.0072128 -0.33335462 4288439040
1.5784656 -1.0050387 -0.33275709 4288439040
1.5932548 -1.0143801 -0.33558294 4288439040
1.6162227 -1.0289242 -0.33972818 4288569600
1.6138351 -1.0273331 -0.33814245 4288569600
1.6161722 -1.0287482 -0.33715299 4288569600
1.6245357 -1.0339966 -0.33701709 4288569600
1.6325051 -1.0389935 -0.33638784 4288569600
1.6326118 -1.038988 -0.33373803 4288569600
1.6349006 -1.0403703 -0.33114365 4288569600
1.640168 -1.0436467 -0.32875448 4288569600
1.6472514 -1.0480773 -0.32632253 4288700160
1.6435156 -1.0456271 -0.32136539 4288700160
1.6403534 -1.0435419 -0.31616965 4288569600
1.6335427 -1.0391369 -0.3099378 4288569600
1.6255759 -1.0339973 -0.30317849 4288569600
1.6150485 -1.0272306 -0.29565781 4288569600
1.6199968 -1.0303023 -0.2906512 4288569600
1.6354305 -1.0400382 -0.28711817 4288569600
1.6608412 -1.056114 -0.2848492 4288700160
1.650009 -1.0491533 -0.27598727 4288700160
1.6314847 -1.0373051 -0.26565653 4288569600
1.61774 -1.0284957 -0.25595146 4288439040
1.6248809 -1.0329583 -0.24929348 4288569600
1.6334764 -1.0383443 -0.24250406 4288569600
1.6340137 -1.0386099 -0.2342038 4288569600
1.6254597 -1.0330999 -0.22438379 4288569600
1.6263351 -1.0335805 -0.21565834 4288569600
1.6366514 -1.0400574 -0.2078854 4288569600
1.6496172 -1.048216 -0.20008956 4288569600
1.6225617 -1.0309566 -0.18730466 4288439040
1.6175616 -1.0277056 -0.17705058 4288439040
1.6243631 -1.0319488 -0.16788502 4288439040
1.6375172 -1.0402249 -0.15907179 4288569600
1.6235266 -1.0312655 -0.1474562 4288439040
1.6120601 -1.0239099 -0.13607366 4288439040
1.6269407 -1.0332806 -0.12674774 4288439040
1.6349438 -1.0382842 -0.11660148 4288569600
1.6307105 -1.0355203 -0.10543384 4288439040
1.6177905 -1.0272439 -0.093707927 4288439040
1.6214874 -1.029514 -0.082909241 4288439040
1.625492 -1.0319787 -0.071987413 4288439040
1.5925972 -1.01103 -0.05955296 4288308480
1.6162524 -1.0259634 -0.049239989 4288439040
1.6228193 -1.0300535 -0.038145546 4288439040
1.6285211 -1.0335941 -0.026907478 4288439040
1.6179664 -1.0268222 -0.01540745 4288439040
1.6306572 -1.0347955 -0.0041032364 4288439040
1.6467298 -1.0449126 0.0073944321 4288569600
1.6509827 -1.0475322 0.018971389 4288569600
1.637104 -1.0386534 0.030251384 4288569600
1.6713583 -1.0602968 0.042519394 4288700160
1.7958024 -1.1391215 0.058119889 4289091840
1.9198052 -1.2176551 0.075356349 4289614080
1.9574138 -1.2414069 0.090240046 4289744640
1.9725959 -1.2509389 0.10435181 4289875200
1.9751275 -1.2524509 0.1177991 4289875200
1.9466946 -1.2343371 0.12909964 4289744640
1.9754126 -1.2524463 0.14403658 4289875200
1.9939711 -1.2641146 0.15838352 4290005760
1.9886312 -1.2606375 0.17074555 4289875200
1.9665306 -1.2465409 0.18130617 4289875200
1.9971207 -1.2658303 0.19656311 4290005760
2.0152836 -1.2772437 0.21068038 4290005760
2.0273795 -1.2848125 0.22411181 4290136320
2.0119443 -1.2749407 0.23423509 4290005760
1.9672912 -1.2465641 0.24035162 4289875200
2.0116162 -1.2745459 0.25704235 4290005760
2.0222974 -1.281217 0.26945722 4290136320
2.0182309 -1.2785481 0.27964172 4290136320
2.003267 -1.2689795 0.28790265 4290005760
1.9787188 -1.2533441 0.29426119 4289875200
2.0040939 -1.2693181 0.30769756 4290005760
2.0232172 -1.2813324 0.32003516 4290136320
2.0134909 -1.2750823 0.32749456 4290136320
2.0105736 -1.2731434 0.33562812 4290136320
2.0000851 -1.2664127 0.34205812 4290005760
1.965574 -1.2444799 0.34381384 4289875200
1.9352381 -1.2251924 0.34565544 4289744640
1.9079394 -1.2078298 0.3474316 4289744640
1.89228 -1.1978346 0.35077485 4289614080
1.887393 -1.1946568 0.35563815 4289614080
1.868812 -1.182816 0.35744262 4289483520
1.8203419 -1.1520689 0.35294175 4289352960
1.8156209 -1.1490004 0.3563607 4289352960
1.8192881 -1.1512384 0.36100298 4289352960
1.8105068 -1.1456028 0.36274612 4289352960
1.7470499 -1.1053895 0.35300007 4289091840
1.7508928 -1.1077417 0.356316 4289091840
1.7464628 -1.1048625 0.35753161 4289091840
1.7504199 -1.1072869 0.360039 4289091840
1.7461087 -1.1044835 0.36042446 4289091840
1.7501847 -1.1069833 0.36211249 4289091840
1.745995 -1.1042576 0.36166659 4289091840
1.8173856 -1.1493084 0.37642586 4289352960
1.8174852 -1.1492916 0.37599501 4289352960
1.8176482 -1.1493151 0.3751336 4289352960
1.8295341 -1.1567475 0.37623712 4289352960
1.8181612 -1.1494808 0.37212318 4289352960
1.8101778 -1.144357 0.36828461 4289352960
1.8592331 -1.1752747 0.37553942 4289483520
1.8892751 -1.1941755 0.37839529 4289614080
1.8963574 -1.1985683 0.37615013 4289614080
1.9128027 -1.2088758 0.3752695 4289744640
1.9249039 -1.2164378 0.37303406 4289744640
1.9569207 -1.2365787 0.37410435 4289875200
1.974295 -1.2474687 0.37180969 4290005760
2.0001447 -1.2637101 0.37054777 4290005760
2.0180855 -1.274955 0.36725432 4290136320
2.0081043 -1.2685664 0.35843647 4290136320
2.0090573 -1.269083 0.35118446 4290136320
1.9929215 -1.2588099 0.34060335 4290005760
1.9920865 -1.2577426 0.2814025 4290005760
2.0079083 -1.2676444 0.27313322 4290005760
2.0143616 -1.2716331 0.26316538 4290005760
1.9688551 -1.2428348 0.24633974 4289875200
1.9786316 -1.2489215 0.23633887 4289875200
1.9841775 -1.2523384 0.22548062 4289875200
1.9779786 -1.2483455 0.21304193 4289875200
1.9465773 -1.2284547 0.19788195 4289744640
1.9491495 -1.2299968 0.18612252 4289744640
1.9710096 -1.2437047 0.17584109 4289875200
1.9725915 -1.2446212 0.16341123 4289875200
1.9595253 -1.2362994 0.14966297 4289744640
1.8768201 -1.1840627 0.13106659 4289483520
1.6736274 -1.0558553 0.10581721 4288700160
1.6522472 -1.0423054 0.093401574 4288569600
1.6462063 -1.0384287 0.081930354 4288569600
1.6495035 -1.04044 0.070849352 4288569600
1.6488221 -1.0399427 0.059501112 4288569600
1.6434615 -1.0364958 0.047959547 4288569600
1.6406281 -1.0346426 0.036493655 4288569600
1.62604 -1.0253804 0.02484723 4288439040
1.6297667 -1.0276625 0.013524322 4288439040
1.6354983 -1.031208 0.002134661 4288439040
1.6156852 -1.0186553 -0.009191514 4288439040
1.6177384 -1.0198828 -0.02051316 4288439040
1.6358409 -1.0312228 -0.032161068 4288439040
1.6405318 -1.0341114 -0.043670539 4288569600
1.6289226 -1.0267302 -0.054652099 4288439040
1.6404932 -1.0339525 -0.066356339 4288569600
1.6506389 -1.0402764 -0.078082837 4288569600
1.6506082 -1.0401893 -0.089314431 4288569600
1.6361755 -1.0310311 -0.099573925 4288569600
1.6477489 -1.0382528 -0.11129227 4288569600
1.6538459 -1.0420249 -0.12263951 4288569600
1.6452814 -1.0365635 -0.13275212 4288569600
1.6502343 -1.0396146 -0.14378974 4288569600
1.6610442 -1.0463529 -0.15528378 4288569600
1.6668864 -1.0499625 -0.16625072 4288700160
1.6679765 -1.0505799 -0.17660671 4288700160
1.6365438 -1.0307235 -0.18314387 4288569600
1.6584917 -1.0444715 -0.19539644 4288569600
1.6625812 -1.0469768 -0.2054842 4288700160
1.6635338 -1.0475074 -0.2149878 4288700160
1.6589483 -1.0445523 -0.22351922 4288569600
1.5994788 -1.0070585 -0.22406599 4288439040
1.6784171 -1.0566652 -0.24384455 4288700160
1.6775676 -1.0560606 -0.25216681 4288700160
1.6737635 -1.0535969 -0.25974113 4288700160
1.668644 -1.0503057 -0.26677841 4288700160
1.6625738 -1.046417 -0.27331313 4288700160
1.6541203 -1.0410293 -0.27908471 4288700160
1.6620605 -1.0459541 -0.28730312 4288700160
1.6567485 -1.0425428 -0.29291809 4288700160
1.6603707 -1.0447508 -0.2997725 4288700160
1.66176 -1.0455542 -0.30590135 4288700160
1.6621877 -1.0457525 -0.31151068 4288700160
1.6599475 -1.0442731 -0.31625846 4288700160
1.6514997 -1.0388906 -0.31943008 4288700160
1.6595567 -1.0438857 -0.32542336 4288700160
1.6455632 -1.0350171 -0.32670686 4288569600
1.6409757 -1.0320625 -0.32943621 4288569600
1.6392936 -1.0309346 -0.33235472 4288569600
1.631422 -1.0259162 -0.3336173 4288569600
1.6198343 -1.0185627 -0.33370247 4288569600
1.608129 -1.0111362 -0.33334404 4288439040
1.6120881 -1.0135543 -0.33583385 4288439040
1.6053919 -1.0092764 -0.33571333 4288439040
1.6011254 -1.0065255 -0.3357029 4288439040
1.6117935 -1.0131582 -0.33843327 4288439040
1.5959697 -1.0031463 -0.33521163 4288439040
1.6233194 -1.0202572 -0.34065902 4288569600
1.6422048 -1.0320487 -0.34392166 4288569600
1.6398102 -1.0304722 -0.34232301 4288569600
1.6379884 -1.0292554 -0.34044951 4288569600
1.6538929 -1.0391711 -0.34184724 4288700160
1.6543871 -1.0394081 -0.33964542 4288700160
1.6586705 -1.042024 -0.3378202 4288700160
1.6567991 -1.0407749 -0.33434755 4288700160
1.6620904 -1.0440229 -0.33192614 4288700160
1.6700402 -1.0489393 -0.32962316 4288700160
1.6612824 -1.0433666 -0.32364804 4288700160
1.6622928 -1.043926 -0.31922317 4288700160
1.6470997 -1.0343149 -0.31136438 4288569600
1.6432899 -1.0318493 -0.30535865 4288569600
1.6327288 -1.025147 -0.29779881 4288569600
1.633513 -1.025565 -0.29200229 4288569600
1.6498448 -1.0357387 -0.28858757 4288569600
1.6711613 -1.0490384 -0.28556946 4288700160
1.6560972 -1.039511 -0.27599138 4288700160
1.645057 -1.0325093 -0.26688573 4288569600
1.6321049 -1.0243092 -0.25727895 4288569600
1.6468372 -1.0334754 -0.25173727 4288569600
1.6479074 -1.034071 -0.24375138 4288569600
1.6476098 -1.0338086 -0.23528875 4288569600
1.635662 -1.02624 -0.22496651 4288569600
1.6399102 -1.0288286 -0.21666354 4288569600
1.6468985 -1.0331347 -0.20842256 4288569600
1.6599138 -1.0412189 -0.20060301 4288569600
1.6411929 -1.0294054 -0.18876375 4288569600
1.6193064 -1.015609 -0.17659447 4288439040
1.6387919 -1.0277482 -0.16875853 4288569600
1.6393307 -1.0280099 -0.15866704 4288569600
1.6252862 -1.0191314 -0.1470778 4288439040
1.6306794 -1.0224357 -0.13714451 4288439040
1.6456194 -1.0317221 -0.12773694 4288569600
1.6536561 -1.0366814 -0.11750787 4288569600
1.6443342 -1.0307636 -0.10592896 4288569600
1.6279829 -1.0204426 -0.0939565 4288439040
1.6350808 -1.0248133 -0.083302066 4288439040
1.6399485 -1.0277863 -0.07236585 4288569600
1.623028 -1.0171111 -0.060474418 4288439040
1.6222054 -1.0165201 -0.049244009 4288439040
1.628796 -1.0205719 -0.03814958 4288439040
1.6387554 -1.0267329 -0.026981752 4288439040
1.6323994 -1.0226762 -0.015492888 4288439040
1.6400515 -1.0273913 -0.0041162097 4288439040
1.6570303 -1.0379452 0.0074087512 4288569600
1.6660419 -1.0435094 0.019068895 4288569600
1.6549956 -1.0365165 0.030464062 4288569600
1.6794268 -1.0517322 0.042563546 4288700160
1.8229331 -1.1414759 0.05877424 4289222400
1.9353415 -1.2117432 0.075681739 4289744640
1.9722393 -1.2347442 0.090584271 4289875200
1.9925561 -1.247366 0.10501459 4289875200
1.9950931 -1.2488607 0.11854694 4289875200
1.9657053 -1.2303805 0.1298759 4289744640
1.9947102 -1.2484356 0.14490381 4289875200
2.0097635 -1.2577599 0.15904661 4290005760
2.0096943 -1.2576234 0.17191452 4290005760
1.9822147 -1.2403419 0.18207625 4289875200
2.0076585 -1.2561638 0.19687083 4290005760
2.0387399 -1.2755091 0.21234389 4290136320
2.0348327 -1.2729715 0.22410679 4290136320
2.0235596 -1.2658284 0.23471871 4290005760
1.9787399 -1.2377111 0.24085924 4289875200
2.0307078 -1.2701111 0.2585243 4290136320
2.0213037 -1.2641383 0.26833528 4290005760
2.03407 -1.2720261 0.28079766 4290136320
2.0224137 -1.2646468 0.28958273 4290136320
1.9944034 -1.2470467 0.29550111 4290005760
2.0282767 -1.2681258 0.31026185 4290136320
2.0306501 -1.2695166 0.32003015 4290136320
2.0334899 -1.2711986 0.32952902 4290136320
2.0246663 -1.2655927 0.33673722 4290136320
2.0124803 -1.2578869 0.34291232 4290005760
1.9887341 -1.2429601 0.34658331 4290005760
1.9316806 -1.2072279 0.34375542 4289744640
1.9224905 -1.2014 0.34879377 4289744640
1.8992286 -1.1867834 0.35077018 4289614080
1.876339 -1.1724017 0.35226184 4289483520
1.872324 -1.1698101 0.35680062 4289483520
1.8153062 -1.1341192 0.35067666 4289352960
1.8264703 -1.1410094 0.35717326 4289352960
1.8217835 -1.1380016 0.36017269 4289352960
1.8255161 -1.140251 0.36440888 4289352960
1.7651689 -1.1024946 0.35534906 4289091840
1.7573189 -1.0975158 0.35631168 4289091840
1.7528721 -1.0946624 0.35752729 4289091840
1.7526641 -1.0944554 0.35917947 4289091840
1.7566944 -1.0968937 0.3612783 4289091840
1.7524277 -1.0941538 0.36124805 4289091840
1.8156599 -1.1335369 0.374699 4289352960
1.7524352 -1.0940052 0.36166242 4289091840
1.7525308 -1.0939885 0.36124846 4289091840
1.7526875 -1.0940101 0.36042085 4289091840
1.8245412 -1.1387616 0.37383807 4289352960
1.820649 -1.1362547 0.37126744 4289352960
1.8134713 -1.1316986 0.36760306 4289352960
1.8735783 -1.169112 0.37704766 4289483520
1.8962023 -1.1831421 0.37839064 4289614080
1.8883759 -1.1781797 0.373198 4289614080
1.9240009 -1.2003152 0.37608185 4289744640
1.9204737 -1.1980337 0.37081441 4289744640
1.964507 -1.225408 0.37417814 4289875200
2.0016444 -1.2484792 0.37557378 4290005760
2.0234046 -1.2619607 0.37347928 4290136320
2.0212874 -1.2605553 0.36648995 4290136320
2.027211 -1.2641624 0.36051804 4290136320
2.0298488 -1.2657213 0.35351533 4290136320
2.0161827 -1.2571182 0.34331226 4290136320
2.0109968 -1.2533441 0.28302976 4290005760
2.0312831 -1.2658985 0.27529639 4290136320
2.0293314 -1.2645985 0.26414728 4290136320
1.9921029 -1.2413256 0.24833098 4289875200
1.9816539 -1.2347354 0.23583229 4289875200
2.0117872 -1.2534207 0.22777539 4290005760
2.0126934 -1.2539021 0.21598016 4290005760
1.9697732 -1.2270921 0.19950177 4289875200
1.9689769 -1.2265154 0.18732297 4289875200
1.9874698 -1.237949 0.17665645 4289875200
1.9844706 -1.2360003 0.16379014 4289875200
1.9785577 -1.2322379 0.15055875 4289875200
1.9167408 -1.193675 0.13335618 4289614080
1.6924098 -1.0539569 0.10660813 4288700160
1.6667745 -1.0379314 0.09387365 4288569600
1.6598651 -1.0335631 0.082303569 4288569600
1.6589338 -1.0329157 0.070989981 4288569600
1.6590987 -1.0329508 0.059648957 4288569600
1.665602 -1.0369298 0.048421953 4288569600
1.6593646 -1.0329809 0.036769975 4288569600
1.64812 -1.0259171 0.025086557 4288569600
1.648465 -1.0260645 0.013623913 4288569600
1.6425862 -1.0223402 0.0021319473 4288439040
1.625841 -1.0118567 -0.009220059 4288439040
1.6321466 -1.0157126 -0.020625383 4288439040
1.6503143 -1.0269462 -0.032332309 4288569600
1.6499276 -1.0266384 -0.043764971 4288569600
1.6520422 -1.0278863 -0.055231448 4288569600
1.6549792 -1.0296453 -0.066703148 4288569600
1.6685542 -1.0380191 -0.078647755 4288569600
1.6685201 -1.0379298 -0.089959674 4288569600
1.6506389 -1.0267442 -0.10009279 4288569600
1.6580124 -1.0312608 -0.11158187 4288569600
1.659892 -1.0323615 -0.12264357 4288569600
1.6597689 -1.0322171 -0.13343777 4288569600
1.6638894 -1.0347104 -0.14445592 4288569600
1.6755822 -1.0419097 -0.1560768 4288700160
1.6814418 -1.0454826 -0.16709611 4288700160
1.6656127 -1.0355766 -0.17571811 4288569600
1.6543624 -1.0285171 -0.18446811 4288569600
1.67723 -1.0426582 -0.19688892 4288700160
1.6804831 -1.0446104 -0.20694482 4288700160
1.6738337 -1.0404098 -0.21553552 4288700160
1.6650093 -1.0348585 -0.22352327 4288569600
1.6179755 -1.0055718 -0.22583592 4288439040
1.6806893 -1.0444604 -0.24329008 4288700160
1.6912795 -1.0509685 -0.25330669 4288700160
1.6977848 -1.0549384 -0.26251382 4288830720
1.6823149 -1.0452603 -0.26798922 4288700160
1.6720114 -1.0387917 -0.27386838 4288700160
1.664366 -1.0339743 -0.27979553 4288700160
1.6681297 -1.0362415 -0.28730717 4288700160
1.6661589 -1.034948 -0.29351404 4288700160
1.6790305 -1.0428691 -0.30204222 4288700160
1.6720244 -1.0384489 -0.30667508 4288700160
1.6724514 -1.0386435 -0.31229797 4288700160
1.6735563 -1.0392586 -0.3176952 4288700160
1.6702094 -1.0371103 -0.32187733 4288700160
1.6656141 -1.0341874 -0.32542741 4288700160
1.6683278 -1.0358007 -0.33002505 4288700160
1.6548342 -1.0273563 -0.33101389 4288700160
1.6494631 -1.0239528 -0.33320433 4288569600
1.6336017 -1.0140409 -0.33285266 4288569600
1.64165 -1.0189641 -0.33697012 4288569600
1.6223662 -1.0069304 -0.33507606 4288569600
1.6114037 -1.0000602 -0.33447537 4288439040
1.6187795 -1.0045656 -0.33728588 4288439040
1.6153334 -1.0023581 -0.3374542 4288439040
1.6260399 -1.0089279 -0.3401871 4288569600
1.6176885 -1.0036781 -0.33854139 4288439040
1.6325868 -1.012846 -0.3413626 4288569600
1.6448588 -1.020384 -0.34323004 4288569600
1.6457897 -1.0208892 -0.342327 4288569600
1.660702 -1.030062 -0.34391931 4288700160
1.6641089 -1.0321009 -0.34271306 4288700160
1.6687924 -1.0349307 -0.34136185 4288700160
1.6617106 -1.0304674 -0.33721432 4288700160
1.6731862 -1.0375063 -0.33643159 4288700160
1.6647961 -1.0322323 -0.33126333 4288700160
1.6761268 -1.0391799 -0.32962722 4288700160
1.6673367 -1.0336584 -0.32365206 4288700160
1.6683503 -1.0342119 -0.31922722 4288700160
1.6656922 -1.0324904 -0.31373927 4288700160
1.6492773 -1.0222462 -0.30536264 4288569600
1.6405774 -1.0167828 -0.29814804 4288569600
1.6478692 -1.0212257 -0.29350302 4288569600
1.6600595 -1.0287019 -0.28932425 4288700160
1.6856623 -1.0444839 -0.28700581 4288700160
1.666338 -1.0324402 -0.27669418 4288700160
1.6510482 -1.0228963 -0.26688972 4288569600
1.6498466 -1.0220773 -0.25913572 4288569600
1.6528339 -1.023852 -0.25174126 4288569600
1.6611435 -1.0289214 -0.24482173 4288569600
1.6620494 -1.0294064 -0.23649375 4288569600
1.6449949 -1.0187733 -0.22543344 4288569600
1.6455796 -1.01906 -0.21662797 4288569600
1.6689569 -1.0334538 -0.21045226 4288700160
1.6701847 -1.0341372 -0.20111638 4288700160
1.6513975 -1.0224342 -0.18925275 4288569600
1.6379006 -1.0140065 -0.17797884 4288439040
1.6523795 -1.0228902 -0.16954502 4288569600
1.653771 -1.0236751 -0.15948868 4288569600
1.6439183 -1.0175034 -0.14822908 4288569600
1.6366117 -1.0129076 -0.13714845 4288439040
1.6592431 -1.0268313 -0.12833203 4288569600
1.6596711 -1.0270194 -0.11751187 4288569600
1.6664499 -1.0311353 -0.10696968 4288569600
1.6423984 -1.0161841 -0.09444955 4288439040
1.6452754 -1.0178872 -0.083522029 4288569600
1.6501614 -1.0208323 -0.072557032 4288569600
1.6127769 -0.99764144 -0.059877187 4288439040
1.6281031 -1.0070422 -0.049247935 4288439040
1.6423709 -1.0157872 -0.038332943 4288439040
1.6520648 -1.0217035 -0.027107147 4288569600
1.6383328 -1.0131391 -0.015496837 4288439040
1.6630249 -1.0283245 -0.0041648257 4288569600
1.6707081 -1.0329958 0.0074378639 4288569600
1.6763492 -1.0364045 0.019112797 4288569600
1.665262 -1.0294759 0.030537462 4288569600
1.6809736 -1.0391067 0.042445131 4288700160
1.8574325 -1.1480507 0.05966147 4289352960
1.9500235 -1.2051662 0.075974174 4289744640
1.9836527 -1.2258501 0.090773433 4289875200
2.0066581 -1.2399688 0.10536934 4289875200
2.0184827 -1.2471795 0.11949555 4290005760
1.9728428 -1.2188993 0.12987116 4289744640
2.0060124 -1.2392923 0.14519222 4290005760
2.0254827 -1.251223 0.15970455 4290005760
2.0320439 -1.2551811 0.17319028 4290005760
1.9820151 -1.2241991 0.18139598 4289875200
2.0315316 -1.254678 0.19848362 4290005760
2.0553966 -1.2693172 0.21329805 4290136320
2.0581293 -1.2709098 0.22584511 4290136320
2.0430927 -1.2615346 0.23612042 4290136320
1.9943844 -1.2313789 0.24187945 4289875200
2.0499208 -1.2655616 0.2600196 4290136320
2.0489328 -1.2648585 0.27101097 4290136320
2.0532823 -1.2674489 0.28241807 4290136320
2.0424223 -1.2606549 0.29138321 4290136320
2.0100813 -1.240609 0.29674113 4290005760
2.0558891 -1.2687774 0.31333998 4290136320
2.0506682 -1.2654637 0.32200956 4290136320
2.0568845 -1.2692055 0.33210739 4290266880
2.0438068 -1.2610464 0.33868498 4290136320
2.0315704 -1.253408 0.34490708 4290136320
1.9893376 -1.227272 0.34543294 4290005760
1.9428915 -1.198542 0.34449592 4289744640
1.9144453 -1.1809151 0.34607881 4289614080
1.9019077 -1.1730993 0.34999287 4289614080
1.8831395 -1.1614437 0.35225731 4289483520
1.8824711 -1.1609478 0.3574335 4289483520
1.8252451 -1.1255889 0.35131818 4289352960
1.8288896 -1.1277543 0.35635182 4289352960
1.8367807 -1.132537 0.36181989 4289352960
1.764393 -1.0878441 0.35095057 4289091840
1.7682073 -1.090117 0.35467246 4289091840
1.7594899 -1.0846676 0.35546112 4289091840
1.7634166 -1.0870098 0.35837433 4289091840
1.7632068 -1.0868034 0.36003044 4289091840
1.7630571 -1.0866342 0.36127409 4289091840
1.7671617 -1.0890859 0.36296406 4289091840
1.7629406 -1.086409 0.36251917 4289091840
1.7629747 -1.0863535 0.36251932 4289091840
1.830757 -1.1280242 0.37598613 4289352960
1.8309203 -1.1280457 0.37512475 4289352960
1.8110119 -1.115707 0.36972877 4289222400
1.8196882 -1.1209718 0.36973083 4289352960
1.8233927 -1.1231748 0.36827579 4289352960
1.8770021 -1.1561031 0.37637082 4289483520
1.8934342 -1.1661392 0.37647375 4289614080
1.9069682 -1.1743902 0.37550572 4289614080
1.9267625 -1.1864935 0.37526017 4289744640
1.9358271 -1.1919913 0.37242454 4289744640
1.9833853 -1.22118 0.37640426 4289875200
2.0039246 -1.2337368 0.37464261 4290005760
2.030364 -1.2499229 0.37340826 4290136320
2.0370171 -1.2539314 0.36800388 4290136320
2.0513871 -1.2626879 0.36349386 4290136320
2.039721 -1.2554244 0.35394901 4290136320
2.0319045 -1.2505302 0.34473574 4290136320
2.022496 -1.2442005 0.28361714 4290005760
2.0478692 -1.2597191 0.27653781 4290136320
2.0407147 -1.2552359 0.26466662 4290136320
2.0060699 -1.2338514 0.24916533 4290005760
2.0045574 -1.2328393 0.23769104 4290005760
2.0236571 -1.2444985 0.22828855 4290005760
2.0246344 -1.2450165 0.21647355 4290005760
1.9853793 -1.220805 0.2003521 4289875200
1.9837344 -1.219713 0.18804139 4289875200
2.0065448 -1.2336508 0.17770302 4290005760
2.0120382 -1.2369449 0.16545945 4290005760
1.9942081 -1.2259065 0.1511973 4289875200
1.9345003 -1.1891373 0.13410097 4289614080
1.7090364 -1.0505295 0.10726201 4288700160
1.684711 -1.0355151 0.094536223 4288700160
1.6701177 -1.0264815 0.082509182 4288569600
1.6734412 -1.0284554 0.071347699 4288569600
1.6770151 -1.0305828 0.060070265 4288569600
1.663951 -1.0224906 0.04819705 4288569600
1.6600235 -1.0200109 0.036649019 4288569600
1.660718 -1.0203701 0.025182493 4288569600
1.6429902 -1.0094165 0.013527395 4288439040
1.6021299 -0.98425943 0.0020739324 4288308480
1.638469 -1.0065072 -0.0092629436 4288439040
1.6457087 -1.0108858 -0.020726724 4288439040
1.6520119 -1.014689 -0.032252621 4288569600
1.6644039 -1.0222293 -0.043994948 4288569600
1.6537462 -1.0156196 -0.055093091 4288569600
1.6686188 -1.0246816 -0.067015618 4288569600
1.6788344 -1.0308839 -0.07885205 4288569600
1.675499 -1.0287688 -0.090015136 4288569600
1.6565959 -1.0171001 -0.10009672 4288569600
1.6682502 -1.0241845 -0.11187138 4288569600
1.6735375 -1.0273609 -0.12321159 4288569600
1.6776628 -1.0298241 -0.134396 4288569600
1.6741431 -1.0275962 -0.14482775 4288569600
1.685026 -1.0342047 -0.15639639 4288700160
1.6993989 -1.0429529 -0.16827798 4288700160
1.6842824 -1.0336109 -0.17705338 4288700160
1.6603299 -1.0188506 -0.18447204 4288569600
1.6786797 -1.0300369 -0.19635481 4288700160
1.6950223 -1.0399908 -0.20798923 4288700160
1.6959713 -1.0405031 -0.21760544 4288700160
1.6794837 -1.0303233 -0.22466023 4288700160
1.6280428 -0.99871278 -0.22642845 4288439040
1.7028261 -1.0444967 -0.2456128 4288700160
1.6973774 -1.041086 -0.25331071 4288700160
1.7157398 -1.0522726 -0.26434088 4288830720
1.6926039 -1.0380194 -0.26866364 4288700160
1.682261 -1.0316094 -0.27456135 4288700160
1.6779617 -1.0289046 -0.28107169 4288700160
1.6901714 -1.0363176 -0.29006144 4288700160
1.6805964 -1.0303793 -0.29499784 4288700160
1.688453 -1.0351236 -0.30265039 4288700160
1.6940572 -1.0384868 -0.30960384 4288700160
1.6868994 -1.0340302 -0.31386846 4288700160
1.6880046 -1.0346364 -0.31929109 4288700160
1.6804346 -1.0299278 -0.32268903 4288700160
1.6762916 -1.0273191 -0.3263416 4288700160
1.6777017 -1.0281119 -0.33069184 4288700160
1.6532289 -1.0130514 -0.32951021 4288569600
1.6554172 -1.0143214 -0.3332108 4288569600
1.6478885 -1.0096403 -0.334562 4288569600
1.632678 -1.0002558 -0.3339307 4288569600
1.6366087 -1.0025929 -0.336808 4288569600
1.6247655 -0.99527138 -0.33604205 4288439040
1.6288075 -0.99767631 -0.33816117 4288569600
1.6287073 -0.99754488 -0.33903071 4288569600
1.6394516 -1.0040518 -0.34176591 4288569600
1.6277109 -0.9967944 -0.33942044 4288569600
1.6468614 -1.0084453 -0.34311551 4288569600
1.6541388 -1.0128276 -0.34393221 4288569600
1.6634725 -1.0184677 -0.34476727 4288700160
1.6784397 -1.0275542 -0.34634936 4288700160
1.6732392 -1.0242987 -0.34336153 4288700160
1.682361 -1.0298065 -0.34290695 4288700160
1.6794583 -1.0279568 -0.3395972 4288700160
1.6867738 -1.0323583 -0.3379513 4288700160
1.682561 -1.029707 -0.33360133 4288700160
1.694153 -1.0367231 -0.3319813 4288830720
1.6859599 -1.0316372 -0.32609737 4288700160
1.6869818 -1.0321873 -0.32163864 4288700160
1.6792645 -1.0273931 -0.31516573 4288700160
1.6754352 -1.0249767 -0.30909711 4288700160
1.6549087 -1.0123513 -0.29967836 4288569600
1.6557026 -1.0127628 -0.29384544 4288569600
1.6702482 -1.0215812 -0.29006088 4288700160
1.6959445 -1.0372149 -0.28772596 4288700160
1.6841563 -1.029933 -0.27865478 4288700160
1.6730437 -1.0230651 -0.26948014 4288700160
1.6512474 -1.0096684 -0.25843084 4288569600
1.6714677 -1.0219511 -0.25367132 4288700160
1.6801715 -1.0271945 -0.24674314 4288700160
1.6798819 -1.0269415 -0.2381791 4288700160
1.6551437 -1.0117506 -0.22601601 4288569600
1.6599725 -1.0146257 -0.21774429 4288569600
1.6707104 -1.0211102 -0.2099231 4288569600
1.684674 -1.0295641 -0.20213903 4288700160
1.6692208 -1.0200484 -0.19061476 4288569600
1.6556809 -1.0117025 -0.17927115 4288569600
1.6668162 -1.0184277 -0.17041843 4288569600
1.6716185 -1.0212843 -0.16063732 4288569600
1.6617351 -1.015173 -0.14930384 4288569600
1.6501503 -1.0080234 -0.13779245 4288569600
1.6694587 -1.0197366 -0.12866434 4288569600
1.6732973 -1.0220037 -0.11805721 4288569600
1.6690232 -1.0193179 -0.10675534 4288569600
1.6525567 -1.0091901 -0.094697982 4288569600
1.6597086 -1.0134796 -0.083957933 4288569600
1.6576499 -1.0121471 -0.07262966 4288569600
1.6351935 -0.99836659 -0.060497694 4288439040
1.6325219 -0.99666131 -0.049208716 4288439040
1.6666765 -1.0174268 -0.038766939 4288569600
1.6673214 -1.0177437 -0.027264589 4288569600
1.6518934 -1.0082548 -0.015574005 4288439040
1.6689906 -1.0186089 -0.0041687386 4288569600
1.6862783 -1.0290778 0.007475195 4288700160
1.6823617 -1.0266114 0.019108854 4288569600
1.6786137 -1.0242482 0.030667344 4288569600
1.6997452 -1.0370585 0.042759944 4288700160
1.8677611 -1.1394383 0.059774023 4289352960
1.9732279 -1.2036625 0.076596797 4289744640
2.0067868 -1.2240336 0.091497146 4289875200
2.0308437 -1.2386086 0.10625131 4290005760
2.025352 -1.2351677 0.11946932 4290005760
1.9894227 -1.2131733 0.1304888 4289875200
2.0213485 -1.2325422 0.14577381 4290005760
2.0450957 -1.2469236 0.16066849 4290136320
2.03896 -1.243091 0.17315459 4290005760
2.0138056 -1.227669 0.18363856 4290005760
2.0430646 -1.2454062 0.19889235 4290136320
2.0704153 -1.2619781 0.21408354 4290136320
2.0740039 -1.2640706 0.22676848 4290266880
2.0665586 -1.2594405 0.2379722 4290136320
2.0091727 -1.224389 0.24279723 4290005760
2.0572615 -1.25359 0.2600148 4290136320
2.0647564 -1.258062 0.27212307 4290136320
2.0691168 -1.2606244 0.28357413 4290266880
2.0573654 -1.2533745 0.2924616 4290136320
2.0291417 -1.2360952 0.29847914 4290005760
2.0590129 -1.2541926 0.31269288 4290136320
2.0740943 -1.2632824 0.3245182 4290266880
2.0718622 -1.2618306 0.33332619 4290266880
2.0528867 -1.2501861 0.33897135 4290136320
2.0316486 -1.2371663 0.3436873 4290136320
2.0082867 -1.2228558 0.34747246 4290005760
1.9456199 -1.1846254 0.34374624 4289744640
1.9297382 -1.1748735 0.34759307 4289744640
1.9163078 -1.1666149 0.35137931 4289614080
1.8898762 -1.1504464 0.35225293 4289483520
1.8365965 -1.1179446 0.34748957 4289352960
1.8317739 -1.1149294 0.35131392 4289352960
1.8438593 -1.1222012 0.35798162 4289352960
1.8391367 -1.1192474 0.36098981 4289352960
1.7707028 -1.0775399 0.35094643 4289091840
1.7703192 -1.0772291 0.35382786 4289091840
1.7657813 -1.074392 0.35545701 4289091840
1.765512 -1.0741513 0.35751897 4289091840
1.7695106 -1.0765063 0.36002633 4289091840
1.7769358 -1.0809444 0.36281461 4289091840
1.7650616 -1.0736479 0.36123973 4289091840
1.7650336 -1.0735546 0.36165395 4289091840
1.7650673 -1.0734992 0.3616541 4289091840
1.7735804 -1.0785984 0.36296037 4289091840
1.7653197 -1.0735011 0.36041254 4289091840
1.8334802 -1.1148539 0.37297425 4289352960
1.8379792 -1.11751 0.37211007 4289352960
1.8341186 -1.1150856 0.36911786 4289352960
1.8345282 -1.1152565 0.36655363 4289352960
1.8841878 -1.1453537 0.37330166 4289483520
1.9179943 -1.1658146 0.37632707 4289614080
1.9185977 -1.1661003 0.37233958 4289614080
1.9587661 -1.1904222 0.37548792 4289744640
1.9870932 -1.2075477 0.37576225 4289875200
2.0068729 -1.2194788 0.37385514 4290005760
2.0401363 -1.2395986 0.37386519 4290136320
2.0649886 -1.2546073 0.37172034 4290266880
2.0663173 -1.2553282 0.36483037 4290266880
2.0596864 -1.2512155 0.3561345 4290136320
2.0476177 -1.2438016 0.34615931 4290136320
2.0373523 -1.2370261 0.28467834 4290005760
2.0594223 -1.250337 0.27710357 4290136320
2.0683892 -1.2556945 0.26729333 4290136320
2.0166273 -1.2241995 0.24958088 4290005760
2.0236168 -1.2283584 0.23909111 4290005760
2.0351305 -1.2352618 0.22876136 4290005760
2.0316694 -1.233079 0.21644899 4290005760
1.997646 -1.2123556 0.20086797 4289875200
2.0095472 -1.2194941 0.18980335 4289875200
2.0260642 -1.2294315 0.17878732 4290005760
2.0147614 -1.2224936 0.16509074 4290005760
2.0082312 -1.2184516 0.15171376 4289875200
1.9453003 -1.1802051 0.13436539 4289614080
1.7128682 -1.0391746 0.10711696 4288700160
1.6949885 -1.0282634 0.094770357 4288700160
1.6770327 -1.0173076 0.082552411 4288569600
1.6794074 -1.0186797 0.071343817 4288569600
1.6949598 -1.0280408 0.06049161 4288700160
1.6790801 -1.0183458 0.048457265 4288569600
1.6779108 -1.0175693 0.03690676 4288569600
1.6693329 -1.0123023 0.025218995 4288569600
1.6402979 -0.99463695 0.013454592 4288439040
1.5102826 -0.91577399 0.001957075 4287916800
1.6540151 -1.0028176 -0.0093226014 4288439040
1.660125 -1.0064535 -0.020838838 4288569600
1.6652906 -1.0095167 -0.032401048 4288569600
1.6758156 -1.0158267 -0.044143733 4288569600
1.6716073 -1.0132095 -0.055495378 4288569600
1.684153 -1.0207425 -0.067404099 4288569600
1.6933613 -1.0262527 -0.079256609 4288700160
1.6857394 -1.0215676 -0.090248033 4288569600
1.6744554 -1.0146649 -0.10082141 4288569600
1.6861475 -1.0216786 -0.11267488 4288700160
1.6929507 -1.0257306 -0.12420318 4288700160
1.6836375 -1.0200222 -0.13439989 4288569600
1.6886355 -1.0229805 -0.14556737 4288700160
1.7038174 -1.0321046 -0.1575838 4288700160
1.7054497 -1.0330238 -0.16828191 4288700160
1.6987993 -1.0289283 -0.17794999 4288700160
1.6688821 -1.0107483 -0.18476833 4288569600
1.7011894 -1.030237 -0.19828606 4288700160
1.7044594 -1.0321469 -0.20840934 4288700160
1.7035037 -1.031499 -0.21780062 4288700160
1.6901376 -1.0233401 -0.22528745 4288700160
1.6372356 -0.99125636 -0.22690317 4288439040
1.7173777 -1.0396855 -0.24683714 4288830720
1.7161485 -1.0388713 -0.25520766 4288830720
1.7099687 -1.0350617 -0.26252177 4288830720
1.7086287 -1.0341806 -0.27024937 4288830720
1.6887205 -1.0220665 -0.27464235 4288700160
1.6881665 -1.0216616 -0.28178236 4288700160
1.7080368 -1.0336109 -0.29209191 4288830720
1.698422 -1.0277247 -0.29707351 4288700160
1.698688 -1.0278152 -0.30340952 4288700160
1.6955544 -1.0258495 -0.30878335 4288700160
1.7018546 -1.0295886 -0.31553236 4288830720
1.6993309 -1.0279915 -0.32029808 4288700160
1.6897882 -1.0221506 -0.3233391 4288700160
1.6940711 -1.0246692 -0.3286376 4288700160
1.686188 -1.0198323 -0.33119076 4288700160
1.6827302 -1.0176711 -0.33420444 4288700160
1.6613023 -1.0046479 -0.33321464 4288569600
1.6621794 -1.0051076 -0.33627129 4288569600
1.6426972 -0.99326265 -0.33479336 4288569600
1.6542276 -1.0001612 -0.33923113 4288569600
1.6347545 -0.98832327 -0.33691406 4288569600
1.6345962 -0.98815793 -0.33816493 4288569600
1.6344953 -0.9880271 -0.33903447 4288569600
1.6344521 -0.98793107 -0.33952174 4288569600
1.6452925 -0.99440992 -0.34187487 4288569600
1.6645111 -1.0059488 -0.34556797 4288700160
1.6600153 -1.0031614 -0.343936 4288569600
1.6719956 -1.0103257 -0.34531078 4288700160
1.6801864 -1.0152001 -0.34548673 4288700160
1.6867712 -1.0191039 -0.34491667 4288700160
1.688336 -1.0199755 -0.34291083 4288700160
1.6896405 -1.0206897 -0.3404507 4288700160
1.705421 -1.0301439 -0.34048146 4288830720
1.7003527 -1.0270095 -0.33593926 4288830720
1.7043899 -1.0293722 -0.33280939 4288830720
1.6953243 -1.0238249 -0.32675228 4288700160
1.6971956 -1.0248799 -0.32244503 4288700160
1.6890949 -1.0199158 -0.31589305 4288700160
1.6813819 -1.0151864 -0.30910099 4288700160
1.6650131 -1.005234 -0.30044541 4288569600
1.6691976 -1.0076852 -0.29519632 4288569600
1.6922677 -1.0215312 -0.29284894 4288700160
1.7138258 -1.0344629 -0.28973508 4288830720
1.6982517 -1.0249908 -0.27999717 4288700160
1.6789794 -1.0132891 -0.26948398 4288700160
1.6655928 -1.0051394 -0.25975814 4288569600
1.6892856 -1.0193554 -0.25547293 4288700160
1.6895297 -1.0194269 -0.24724431 4288700160
1.6781887 -1.0125117 -0.23710203 4288700160
1.6737726 -1.0097734 -0.22775592 4288569600
1.6701144 -1.0074923 -0.21830432 4288569600
1.6885556 -1.018536 -0.21141961 4288700160
1.694055 -1.0217754 -0.2025504 4288700160
1.6668346 -1.0052893 -0.1896735 4288569600
1.6707255 -1.0075594 -0.18026511 4288569600
1.6769907 -1.0112603 -0.170857 4288569600
1.6818115 -1.0140899 -0.16104999 4288569600
1.6633548 -1.0028906 -0.14892517 4288569600
1.6688133 -1.0061047 -0.13886318 4288569600
1.6839215 -1.0151327 -0.12932499 4288569600
1.6877762 -1.0173789 -0.11866264 4288700160
1.6841383 -1.0151105 -0.10734626 4288569600
1.6661112 -1.0041739 -0.095142007 4288569600
1.669867 -1.0063607 -0.084177762 4288569600
1.6720817 -1.0076187 -0.073007911 4288569600
1.6375735 -0.98675829 -0.06037534 4288439040
1.6502928 -0.99434406 -0.049573738 4288439040
1.6785772 -1.0113021 -0.0389104 4288569600
1.6767122 -1.0101026 -0.027325599 4288569600
1.666309 -1.0037625 -0.015659263 4288569600
1.6868936 -1.01608 -0.0042038667 4288569600
1.6956749 -1.0212898 0.0074860421 4288700160
1.7045945 -1.0265821 0.019287072 4288700160
1.6934264 -1.0197821 0.030823765 4288700160
1.7192597 -1.035254 0.043092497 4288700160
1.9022676 -1.1453183 0.060655572 4289483520
1.9820545 -1.1932476 0.076663397 4289744640
2.0181675 -1.2148887 0.091686465 4289875200
2.0551481 -1.2370486 0.10713679 4290136320
2.0444973 -1.2305472 0.12016717 4290005760
2.0084372 -1.20876 0.13126527 4289875200
2.0408483 -1.2281666 0.14665481 4290005760
2.060878 -1.2401227 0.1613318 4290136320
2.058136 -1.2383801 0.17416056 4290136320
2.0209265 -1.2159078 0.18363395 4290005760
2.0583506 -1.2383231 0.19966839 4290136320
2.0862715 -1.2550204 0.21495689 4290266880
2.0890155 -1.2565763 0.22759908 4290266880
2.0823925 -1.2525002 0.2389446 4290266880
2.029062 -1.2203435 0.24433005 4290005760
2.0807223 -1.2513089 0.26204601 4290266880
2.0797186 -1.2506121 0.27312353 4290266880
2.0845664 -1.2534329 0.28467917 4290266880
2.0681243 -1.2434573 0.29295051 4290136320
2.0296385 -1.2202355 0.2974979 4290005760
2.0705373 -1.2447227 0.31333044 4290136320
2.0873654 -1.2547425 0.32543901 4290266880
2.0874865 -1.2547225 0.33465123 4290266880
2.0681117 -1.2429891 0.34027693 4290136320
2.0464597 -1.2298896 0.34496811 4290136320
2.0272515 -1.2182603 0.34951204 4290005760
1.9643579 -1.1803919 0.34582821 4289744640
