# .PCD v0.7 - Point Cloud Data file format
VERSION 0.7
FIELDS x y z rgba
SIZE 4 4 4 4
TYPE F F F U
COUNT 1 1 1 1
WIDTH 1129
HEIGHT 1
VIEWPOINT 0 0 0 1 0 0 0
POINTS 1129
DATA ascii
1.8598547 2.1197071 -0.46262437 4291572480
1.83453 2.0909934 -0.44980729 4291441920
1.8477788 2.1061974 -0.44596463 4291572480
1.9200088 2.1885648 -0.45549083 4291964160
1.9273136 2.1970046 -0.44876781 4291964160
1.9753593 2.251842 -0.45075825 4292225280
2.0441408 2.3303003 -0.45640251 4292486400
2.1423759 2.442313 -0.46725541 4293008640
2.2145379 2.5246382 -0.47099394 4293400320
2.3267765 2.6526222 -0.48169461 4293922560
2.3403301 2.6682017 -0.47071093 4294053120
2.3523464 2.6820307 -0.45873404 4294053120
2.3596835 2.6905291 -0.44520906 4294183680
2.3413916 2.6698272 -0.42642352 4294053120
2.3261826 2.6526356 -0.40794501 4293922560
2.3433924 2.67238 -0.39467925 4294053120
2.3550909 2.6858456 -0.37984371 4294053120
2.3491714 2.679235 -0.36170575 4294053120
2.3207281 2.6469543 -0.33995625 4293922560
2.3158441 2.6415195 -0.32153305 4293922560
2.3329504 2.6611469 -0.30571342 4293922560
2.3341849 2.6626844 -0.28733554 4293922560
2.3111277 2.6365333 -0.26582932 4293792000
2.327198 2.6549802 -0.24858847 4293922560
2.3396246 2.6692743 -0.23045273 4293922560
2.3413851 2.6714103 -0.21089779 4293922560
2.3329918 2.6619697 -0.19025616 4293922560
2.3206117 2.6479826 -0.16926168 4293792000
2.3389068 2.6689689 -0.15027089 4293922560
2.3406205 2.6710501 -0.12987842 4293922560
2.315604 2.6426513 -0.10806734 4293792000
2.3295467 2.6586761 -0.088057823 4293922560
2.3410714 2.6719449 -0.067636505 4293922560
2.3033853 2.6290925 -0.045952201 4293792000
1.6369596 1.8691633 -0.017933656 4290397440
1.5435793 1.7627472 -0.0030452381 4289875200
1.776998 2.0290682 0.01241479 4291050240
2.2138636 2.527477 0.035265561 4293269760
2.3512764 2.6843445 0.05848157 4294053120
2.3575373 2.6916139 0.079669625 4294053120
2.3612094 2.695931 0.10077187 4294053120
2.2821071 2.6058135 0.11757495 4293661440
2.3468542 2.6798091 0.14151283 4294053120
2.3541992 2.6883178 0.16247465 4294053120
2.3459494 2.6790333 0.18217778 4294053120
2.2389045 2.5570142 0.19303705 4293400320
2.3498185 2.6837063 0.22246763 4294053120
2.357492 2.6925931 0.24289788 4294053120
2.3478022 2.6816657 0.26125982 4294053120
2.2379925 2.5564697 0.26723835 4293400320
2.3616421 2.6977246 0.3008559 4294053120
2.3658075 2.7026122 0.31996074 4294183680
2.3536482 2.6888666 0.33644605 4294053120
2.2807221 2.6057529 0.34323975 4293661440
2.1339569 2.4383373 0.33692214 4293008640
2.1907372 2.5032837 0.36165059 4293269760
2.1106765 2.4120049 0.3632611 4292878080
2.1050572 2.4057124 0.37666067 4292878080
2.2086022 2.5240667 0.40979257 4293400320
2.1472242 2.4541111 0.41219112 4293008640
1.8816361 2.1509521 0.37293234 4291703040
1.8805146 2.1497846 0.38394481 4291703040
1.886938 2.1572347 0.39609009 4291703040
1.9201922 2.1953306 0.41362906 4291964160
1.9516488 2.2313786 0.43065751 4292094720
2.0081034 2.2959852 0.45315006 4292355840
1.8004256 2.0588782 0.41488832 4291311360
1.8082324 2.0679104 0.42478904 4291311360
1.8214406 2.0831153 0.43555793 4291441920
1.8311163 2.0942874 0.44507384 4291441920
1.8423254 2.1072137 0.45452571 4291572480
1.8689761 2.1377866 0.46738574 4291703040
1.868966 2.1378987 0.47313341 4291703040
1.8962724 2.1692286 0.48531276 4291833600
1.8924549 2.1649935 0.48903689 4291833600
1.8955072 2.168611 0.4939602 4291833600
1.9138705 2.1897299 0.50233209 4291964160
1.9167179 2.1931171 0.50608736 4291964160
1.9098984 2.1854558 0.50669616 4291964160
1.9161165 2.1926992 0.51016271 4291964160
1.9249927 2.2029834 0.51374906 4291964160
1.8937323 2.1673808 0.50602883 4291833600
1.8845866 2.1570611 0.50360638 4291833600
1.8748586 2.1460755 0.50044006 4291703040
1.874602 2.1459203 0.49921417 4291703040
1.865651 2.1358235 0.49509832 4291703040
1.8437815 2.1109514 0.48701295 4291572480
1.8219779 2.0861528 0.47843489 4291441920
1.807297 2.0694995 0.47122541 4291311360
1.7859888 2.0452638 0.46181196 4291311360
1.7772642 2.0354214 0.45517582 4291180800
1.7606437 2.0165453 0.44605607 4291180800
1.7516937 2.006444 0.43843037 4291050240
1.7614777 2.0177784 0.4349716 4291180800
1.7619295 2.0184364 0.42867169 4291180800
1.7817781 2.0412934 0.42650807 4291180800
1.7842386 2.0442541 0.41960606 4291180800
1.8016719 2.0643535 0.41564769 4291311360
1.795783 2.0577612 0.40578708 4291311360
1.8081977 2.0721216 0.39955613 4291311360
1.9653373 2.2530787 0.35947099 4292094720
2.1222763 2.4330001 0.3738876 4292878080
2.31601 2.6550963 0.39196578 4293922560
2.3164487 2.6558008 0.37558699 4293922560
2.3038535 2.6415746 0.35676479 4293792000
2.3122926 2.6514461 0.34082544 4293922560
2.3326204 2.6749418 0.32603788 4293922560
2.3171692 2.6574435 0.30585772 4293922560
2.3011379 2.6392779 0.28550777 4293792000
2.3183324 2.6591895 0.26894587 4293922560
2.3296132 2.6723266 0.25116962 4293922560
2.3332961 2.6767573 0.23217413 4293922560
2.3108015 2.6511812 0.21047947 4293792000
2.3290279 2.6722848 0.19228892 4293922560
2.3388479 2.6837542 0.17295291 4293922560
2.3374534 2.6823671 0.15252511 4293922560
1.7921337 2.0572636 0.10129636 4291180800
1.5207449 1.7462016 0.072566971 4289744640
1.5349598 1.762643 0.059601869 4289875200
2.1659057 2.4864578 0.064656444 4293139200
2.3183799 2.6615524 0.048414912 4293922560
2.3309355 2.676167 0.027731264 4293922560
2.3303955 2.6757603 0.0067512686 4293922560
2.3053071 2.6471884 -0.014078321 4293792000
2.3278883 2.6733091 -0.035169166 4293922560
2.3341746 2.6807351 -0.056238201 4293922560
2.3256817 2.6712017 -0.076873854 4293922560
2.3136952 2.6576569 -0.097131833 4293792000
2.3313215 2.6780989 -0.11858337 4293922560
2.3402066 2.6885099 -0.13970047 4294053120
2.3379896 2.6861775 -0.16006605 4294053120
2.3168194 2.6620848 -0.17876032 4293922560
2.3379817 2.6865923 -0.2005305 4294053120
2.3347619 2.6831064 -0.22014925 4293922560
2.3280745 2.6756377 -0.23912136 4293922560
2.3319013 2.6802418 -0.258892 4293922560
2.3478549 2.6987739 -0.27989221 4294053120
2.3558843 2.7082067 -0.29983997 4294053120
2.3466375 2.6977949 -0.31725475 4294053120
2.2736728 2.6141832 -0.3250694 4293661440
2.3418319 2.6926906 -0.35265648 4294053120
2.3504581 2.7028081 -0.37147567 4294053120
2.3521171 2.704921 -0.38886151 4294183680
2.3244967 2.6733875 -0.40079433 4294053120
2.2305524 2.5656276 -0.40000504 4293530880
2.1515779 2.4750552 -0.40027764 4293139200
2.0789268 2.3917365 -0.40027902 4292747520
2.0077105 2.3100536 -0.3991898 4292355840
2.0002816 2.3016851 -0.40984008 4292355840
1.9763819 2.2743788 -0.41647112 4292225280
1.8299943 2.1062393 -0.39587089 4291441920
1.8346637 2.111762 -0.40669581 4291441920
1.865312 2.1471577 -0.42299706 4291703040
1.8570465 2.1378071 -0.43011141 4291572480
1.8623013 2.1440036 -0.43984923 4291703040
1.8549439 2.135694 -0.44609824 4291572480
1.8599311 2.1415813 -0.45479158 4291703040
1.8565581 2.1378515 -0.46092588 4291703040
1.8356025 2.113893 -0.46208021 4291572480
1.8356618 2.1141074 -0.46791664 4291572480
1.7904928 2.0622833 -0.46155769 4291311360
1.7558503 2.0225632 -0.45715708 4291180800
1.7618126 2.0295603 -0.46271738 4291180800
1.7736444 2.0433121 -0.46931741 4291180800
1.7887598 2.0608435 -0.47628784 4291311360
1.7222985 1.9844867 -0.46092662 4290919680
1.7220361 1.9843142 -0.46264613 4290919680
1.7218343 1.9842104 -0.46384135 4290919680
1.7877973 2.0602715 -0.48233777 4291311360
1.7689884 2.038749 -0.47743481 4291180800
1.7657416 2.0351396 -0.47617117 4291180800
1.7599747 2.0286269 -0.47367561 4291180800
1.7876558 2.0606256 -0.47960448 4291311360
1.8216562 2.0999043 -0.48660511 4291441920
1.8343703 2.1146731 -0.48729602 4291572480
1.8522583 2.1354015 -0.48874211 4291703040
1.8551968 2.1389132 -0.4856379 4291703040
1.8556194 2.1395266 -0.4813033 4291703040
1.8535223 2.1372364 -0.47576088 4291703040
1.8605213 2.1454227 -0.47198516 4291703040
1.86466 2.1503141 -0.46690306 4291703040
1.8503906 2.1339974 -0.45671102 4291572480
1.8721825 2.1592252 -0.45485634 4291703040
1.894925 2.1855497 -0.45253062 4291833600
1.8956969 2.1865606 -0.44434261 4291833600
1.9631629 2.2644231 -0.45095354 4292225280
2.0340288 2.346211 -0.45716351 4292616960
2.1225052 2.448302 -0.46599874 4293008640
2.2024834 2.5406086 -0.47154295 4293400320
2.2991788 2.6521916 -0.4791443 4293922560
2.3126354 2.6678421 -0.46823102 4293922560
2.3296885 2.687639 -0.45733297 4294053120
2.3294547 2.6875093 -0.44242427 4294053120
2.322871 2.6800585 -0.42585862 4294053120
2.3080618 2.6631231 -0.40745303 4293922560
2.319221 2.6761246 -0.39319932 4293922560
2.3366454 2.6963499 -0.37936741 4294053120
2.3383338 2.6984322 -0.36242294 4294053120
2.3073702 2.6628633 -0.34023818 4293922560
2.3114307 2.6676781 -0.32304451 4293922560
2.3186448 2.6761291 -0.30584848 4293922560
2.315695 2.672859 -0.28694338 4293922560
2.2957308 2.6499646 -0.26580179 4293792000
2.3151042 2.6724384 -0.2489275 4293922560
2.3277493 2.6871533 -0.23079303 4293922560
2.3247726 2.6838498 -0.2107781 4293922560
2.3393037 2.7007411 -0.19202325 4294053120
2.313623 2.6712456 -0.16985655 4293922560
2.3246882 2.6841388 -0.15033151 4293922560
2.3279283 2.688005 -0.13001296 4293922560
2.3001711 2.6561074 -0.10803972 4293792000
2.3231864 2.6827893 -0.088379316 4293922560
2.3312793 2.6922548 -0.067777947 4293922560
2.2970982 2.6529396 -0.046107396 4293792000
1.626097 1.8787384 -0.017914705 4290397440
1.4723713 1.7014216 -0.0028985997 4289614080
1.6524664 1.9093492 0.011655798 4290528000
2.2056513 2.5478985 0.035396378 4293269760
2.3139935 2.6730685 0.057970606 4293922560
2.3071222 2.6652641 0.078520767 4293922560
2.3264837 2.6877398 0.099986486 4293922560
2.2538011 2.6039653 0.11692485 4293530880
2.2742858 2.6277373 0.13809226 4293661440
2.2567425 2.6076095 0.15683231 4293661440
2.2518408 2.6020753 0.1760817 4293530880
2.1925964 2.5337975 0.19034487 4293269760
1.9157548 2.2142653 0.18267651 4291833600
1.8629775 2.1534305 0.19333237 4291572480
1.8447151 2.1324468 0.2067562 4291441920
1.8754796 2.1680782 0.22553797 4291703040
1.7412527 2.0131695 0.2234367 4290919680
1.7176329 1.9859898 0.23399097 4290919680
1.7038081 1.9701209 0.24532503 4290789120
1.7235229 1.9929907 0.26125079 4290919680
1.761548 2.0370138 0.28008914 4291050240
1.6640353 1.9244739 0.27667511 4290658560
1.6595694 1.9194126 0.28765941 4290528000
1.6633132 1.923836 0.29973665 4290658560
1.6789775 1.9420328 0.31375232 4290658560
1.7035657 1.9705429 0.32934299 4290789120
1.6481198 1.9065806 0.32892579 4290528000
1.6489468 1.9076368 0.33900905 4290528000
1.6477194 1.9063197 0.34828377 4290528000
1.664418 1.9257196 0.361031 4290658560
1.6768275 1.9401654 0.37259543 4290658560
1.6800483 1.9439937 0.38177681 4290789120
1.6270391 1.8828307 0.37752414 4290397440
1.6342306 1.8912477 0.38656464 4290528000
1.6335379 1.8905528 0.39332697 4290528000
1.6421307 1.9005929 0.40189868 4290528000
1.6499183 1.9097042 0.40987107 4290658560
1.6460655 1.9053594 0.41449612 4290528000
1.6551541 1.9159784 0.4219088 4290658560
1.6484739 1.9083661 0.42482585 4290658560
1.6576493 1.919089 0.43133223 4290658560
1.6662251 1.9291205 0.43722087 4290658560
1.6658252 1.9287741 0.44026446 4290658560
1.6687016 1.9322178 0.44366118 4290658560
1.6716323 1.9357259 0.4465608 4290789120
1.6713976 1.9355741 0.44809583 4290789120
1.6712204 1.9354899 0.44912019 4290789120
1.6711013 1.9354738 0.44963279 4290789120
1.6613796 1.9243493 0.44703716 4290658560
1.6555805 1.9177629 0.44497234 4290658560
1.652415 1.9142241 0.44309571 4290658560
1.6428648 1.9032978 0.43900019 4290528000
1.6307919 1.8894517 0.43374053 4290528000
1.6339153 1.8931917 0.43201858 4290528000
1.6277349 1.8861651 0.42734075 4290528000
1.6196145 1.8768932 0.4216834 4290397440
1.6216089 1.8793292 0.41817561 4290397440
1.614574 1.8713142 0.4118692 4290397440
1.6193581 1.876982 0.4080981 4290397440
1.6134117 1.8702277 0.40115705 4290397440
1.607862 1.863933 0.3938888 4290397440
1.60735 1.8634716 0.38741842 4290397440
1.6170048 1.8747845 0.38290781 4290397440
1.6193888 1.8776797 0.37618431 4290397440
1.6259842 1.8854535 0.36996201 4290397440
1.6202191 1.8789127 0.36050367 4290397440
1.6085869 1.8663318 0.29630741 4290397440
1.6290854 1.8902289 0.28906286 4290397440
1.6538382 1.9190609 0.28193578 4290528000
1.6588508 1.9250175 0.2709243 4290528000
1.6680973 1.9358833 0.26019579 4290658560
1.6726779 1.9413424 0.24834752 4290658560
1.7003497 1.9735739 0.23939787 4290789120
1.7238483 2.0009725 0.22919887 4290919680
1.7465508 2.0274525 0.21827435 4291050240
1.7747017 2.0602555 0.20737776 4291180800
1.8547699 2.1532736 0.20141841 4291572480
2.0146644 2.3388903 0.20189188 4292355840
2.017276 2.3421037 0.18504916 4292355840
2.0474119 2.3772459 0.17024127 4292616960
2.1725292 2.5225809 0.16178465 4293269760
2.2924271 2.6618836 0.15062779 4293792000
1.7529035 2.0360999 0.099773228 4291050240
1.5170729 1.762612 0.072897546 4289875200
1.5155307 1.7609624 0.059264589 4289875200
2.1794484 2.5316122 0.065522879 4293269760
2.3119738 2.6856284 0.04863397 4293922560
2.3250971 2.7010746 0.027875639 4293922560
2.321439 2.6970437 0.0067981314 4293922560
2.3056543 2.6789336 -0.01414902 4293922560
2.3096662 2.683805 -0.035101388 4293922560
2.3217819 2.6980865 -0.056289554 4293922560
2.3257399 2.7028973 -0.077367865 4294053120
2.3105681 2.6854937 -0.097628489 4293922560
2.3217599 2.698705 -0.11886693 4293922560
2.324182 2.7017324 -0.13965292 4294053120
2.3249099 2.7027922 -0.16021779 4294053120
2.3165026 2.6932395 -0.17991589 4293922560
2.3259113 2.7043827 -0.20081499 4294053120
2.3279331 2.7069447 -0.22096051 4294053120
2.3227971 2.7011902 -0.24016353 4294053120
2.3187711 2.6967237 -0.25914589 4294053120
2.3435326 2.7257104 -0.28123674 4294183680
2.3394701 2.7212017 -0.29973495 4294053120
2.3338752 2.7149103 -0.31763378 4294053120
2.2519138 2.6198497 -0.32410765 4293661440
2.3280571 2.7085667 -0.35292384 4294053120
2.3339458 2.715621 -0.37133148 4294053120
2.3306561 2.7120042 -0.38789049 4294053120
2.312125 2.6906643 -0.40132868 4294053120
2.2155704 2.5785918 -0.39997828 4293530880
2.1641383 2.5189753 -0.40530998 4293269760
2.0899172 2.4328451 -0.4050903 4292878080
2.0324626 2.3662019 -0.40681809 4292616960
2.0113933 2.3418705 -0.41487888 4292486400
2.0576138 2.3958106 -0.43649125 4292747520
1.9039829 2.2172601 -0.41463396 4291964160
1.8345888 2.1366866 -0.40940788 4291572480
1.8412691 2.1446145 -0.42034897 4291572480
1.8542293 2.1598499 -0.43234202 4291703040
1.8465619 2.1510825 -0.43906143 4291703040
1.8514763 2.156955 -0.44825482 4291703040
1.8474262 2.1523938 -0.45476925 4291703040
1.837643 2.1411581 -0.45929658 4291572480
1.8346502 2.1378236 -0.46494374 4291572480
1.8168904 2.1172974 -0.46624595 4291572480
1.8088907 2.10813 -0.46943244 4291441920
1.7318374 2.0185637 -0.45393872 4291050240
1.7403306 2.0285892 -0.46015075 4291180800
1.7527266 2.0431592 -0.46690312 4291180800
1.7677416 2.06078 -0.47385889 4291311360
1.7731853 2.0672555 -0.4777303 4291311360
1.7697066 2.0633392 -0.47864529 4291311360
1.7759134 2.0707021 -0.48162085 4291311360
1.7635801 2.0564697 -0.47900751 4291311360
1.7634983 2.0565054 -0.47915554 4291311360
1.7358992 2.0244839 -0.4712764 4291050240
1.7327356 2.0209248 -0.46948531 4291050240
1.7692093 2.0635452 -0.47785121 4291311360
1.8199608 2.1228058 -0.48942339 4291572480
1.8162483 2.118609 -0.48573032 4291572480
1.8275973 2.1319618 -0.48548239 4291572480
1.8427076 2.1496985 -0.48561561 4291703040
1.8463365 2.1540551 -0.48211882 4291703040
1.8410429 2.1480119 -0.47573858 4291703040
1.8361065 2.1423831 -0.46892804 4291572480
1.8432908 2.1508811 -0.46465978 4291703040
1.8036211 2.1047604 -0.44816703 4291441920
1.8295491 2.1351058 -0.44749263 4291572480
1.900817 2.2183127 -0.4569909 4291964160
1.9352957 2.258635 -0.45667246 4292094720
1.9744036 2.3043585 -0.4565852 4292355840
2.0319963 2.3716395 -0.45977828 4292616960
2.1311212 2.4873571 -0.47103602 4293139200
2.2149158 2.5852089 -0.47739205 4293530880
2.2834153 2.6652329 -0.47905871 4293922560
2.3002832 2.6850464 -0.46886066 4294053120
2.3049562 2.6906378 -0.45551917 4294053120
2.3228037 2.7115955 -0.44412485 4294053120
2.3045857 2.690485 -0.42534438 4294053120
2.289278 2.6727664 -0.40685084 4293922560
2.306828 2.6933765 -0.39372334 4294053120
2.3299601 2.7204998 -0.38081995 4294053120
2.3264587 2.7165518 -0.36300054 4294053120
2.2918203 2.6762729 -0.34021044 4293922560
2.3016851 2.6879165 -0.32383722 4293922560
2.3095002 2.6971688 -0.30668145 4293922560
2.3168712 2.7059033 -0.28900933 4294053120
2.2923901 2.6774666 -0.26718855 4293922560
2.2990699 2.6853926 -0.2488533 4293922560
2.3126206 2.7013381 -0.23082125 4293922560
2.3165998 2.7061131 -0.21143484 4294053120
2.3216398 2.7121265 -0.19183868 4294053120
2.3071215 2.6953096 -0.17050141 4293922560
2.316107 2.7059278 -0.1507656 4294053120
2.3154817 2.705327 -0.13016784 4293922560
2.3002656 2.6876922 -0.10875072 4293922560
2.3140228 2.7038815 -0.088600755 4293922560
2.3214104 2.7126353 -0.067921549 4294053120
2.2842071 2.6693251 -0.046132483 4293792000
1.7226866 2.0137842 -0.01909929 4290919680
1.5027643 1.757072 -0.0029658389 4289744640
1.5122442 1.7682256 0.010774394 4289875200
1.940424 2.2683506 0.031401124 4292094720
1.6891587 1.9750091 0.042689241 4290789120
1.6486073 1.9277411 0.056581773 4290528000
1.6266044 1.9021336 0.070481911 4290397440
1.64952 1.9289907 0.086251341 4290528000
1.5971299 1.8678855 0.097741321 4290266880
1.605516 1.8777711 0.112441 4290266880
1.6024737 1.8743073 0.12626743 4290266880
1.5662737 1.8321059 0.13700984 4290136320
1.6010401 1.8728131 0.15377943 4290266880
1.603934 1.8762852 0.16764899 4290266880
1.5926012 1.8631347 0.17978095 4290266880
1.5449945 1.8075972 0.18714303 4290005760
1.6071293 1.8802943 0.2076758 4290397440
1.6143717 1.8888509 0.2214607 4290397440
1.6125878 1.8868599 0.23380871 4290397440
1.584433 1.8540486 0.24185222 4290266880
1.5196508 1.7784249 0.24334732 4289875200
1.6030988 1.8760532 0.26838905 4290397440
1.5975744 1.8696913 0.2788305 4290266880
1.5852143 1.8553386 0.28764424 4290266880
1.5714958 1.8393968 0.29571167 4290136320
1.5499793 1.8143378 0.30174968 4290136320
1.5949819 1.867048 0.32051831 4290266880
1.5920211 1.8636848 0.32956582 4290266880
1.5998614 1.8729514 0.34049952 4290397440
1.5881686 1.8593791 0.34687555 4290266880
1.5672745 1.8350459 0.35067287 4290136320
1.5672255 1.8350887 0.35861441 4290136320
1.5923443 1.864567 0.37201533 4290397440
1.5845541 1.8555592 0.37739718 4290266880
1.5805238 1.850949 0.38318583 4290266880
1.5877392 1.8594936 0.39126587 4290266880
1.5807223 1.8513913 0.39539385 4290266880
1.5791487 1.8496568 0.40039152 4290266880
1.5792321 1.8498619 0.40533841 4290266880
1.5726178 1.8422314 0.40807855 4290266880
1.575345 1.8455315 0.41275164 4290266880
1.5667738 1.8356119 0.41397479 4290266880
1.5753597 1.8457699 0.41923803 4290266880
1.5732107 1.8433671 0.42117083 4290266880
1.5633368 1.8319242 0.42052916 4290266880
1.5695151 1.8392689 0.42369941 4290266880
1.5693481 1.8391883 0.42466792 4290266880
1.5742548 1.8450478 0.42651042 4290266880
1.5684394 1.8383573 0.42495307 4290266880
1.5684364 1.8384718 0.42446923 4290266880
1.5734245 1.8444307 0.42483276 4290266880
1.5645732 1.8341875 0.42097166 4290266880
1.5669751 1.8371209 0.41964543 4290266880
1.57735 1.8493922 0.41994002 4290266880
1.5773605 1.8495283 0.41697109 4290266880
1.5782657 1.8507133 0.41374832 4290266880
1.5793496 1.8521088 0.4100841 4290266880
1.5796261 1.8525597 0.40572834 4290266880
1.5755153 1.8478724 0.39978638 4290266880
1.5760067 1.8485767 0.39455631 4290266880
1.565716 1.83665 0.38620886 4290266880
1.5664095 1.8375924 0.38015407 4290266880
1.5735613 1.8461033 0.37519118 4290266880
1.5809004 1.854836 0.36977598 4290266880
1.5883505 1.8637009 0.36389163 4290266880
1.5794005 1.8533467 0.35384691 4290266880
1.5548427 1.8254393 0.28839329 4290136320
1.582486 1.8579938 0.28273967 4290266880
1.5900877 1.8670501 0.27295163 4290266880
1.5805346 1.8559885 0.25993267 4290266880
1.561536 1.8338469 0.24528053 4290136320
1.5754806 1.8503456 0.2355541 4290266880
1.5817676 1.8578641 0.22426802 4290266880
1.5691009 1.8431479 0.21010105 4290136320
1.554758 1.826463 0.19569133 4290136320
1.5747588 1.8500745 0.18533008 4290136320
1.575498 1.8510869 0.17233166 4290136320
1.5709128 1.8458515 0.15859368 4290136320
1.5657694 1.8399603 0.14470641 4290136320
1.5778852 1.8543266 0.1321896 4290136320
1.5873389 1.8655707 0.11911702 4290266880
1.5817325 1.8591371 0.10475235 4290266880
1.510726 1.7759205 0.086632945 4289875200
1.4584066 1.714632 0.07058391 4289614080
1.4864513 1.7476994 0.058545928 4289744640
2.1925375 2.5770073 0.06639006 4293400320
2.3053658 2.7097197 0.048853319 4293922560
2.3157494 2.7221317 0.02798079 4294053120
2.3211045 2.7286391 0.0068704565 4294053120
2.2931087 2.6959708 -0.014140504 4293922560
2.3076024 2.713213 -0.035282589 4293922560
2.3079975 2.7138939 -0.056309715 4293922560
2.3064868 2.7123353 -0.077223361 4293922560
2.2904499 2.693707 -0.09741161 4293922560
2.3102412 2.7171798 -0.11905761 4294053120
2.3219516 2.7311587 -0.14044483 4294053120
2.3194189 2.7283988 -0.16090408 4294053120
2.2927165 2.697228 -0.1792575 4293922560
2.3007023 2.7068293 -0.19996811 4293922560
2.3003325 2.7066083 -0.21980518 4293922560
2.2967558 2.7026165 -0.23906647 4293922560
2.2980664 2.7043698 -0.25856 4293922560
2.3094463 2.7179639 -0.2790131 4294053120
2.3135755 2.7230322 -0.29841623 4294053120
2.3054464 2.7136838 -0.31588256 4294053120
2.1910222 2.5793111 -0.3174744 4293400320
2.2960515 2.7030537 -0.35042512 4293922560
2.3030305 2.7114718 -0.36889163 4294053120
2.2857037 2.6912959 -0.3829844 4293922560
2.2638752 2.6658194 -0.39561555 4293792000
2.1314623 2.510221 -0.38740352 4293139200
2.228909 2.6250787 -0.42026681 4293661440
2.1746461 2.5614195 -0.42436713 4293400320
2.1355031 2.5155442 -0.43033624 4293139200
2.1151521 2.4917791 -0.4392345 4293139200
2.1141737 2.4908121 -0.45152959 4293139200
1.8974463 2.2358735 -0.41601583 4291964160
1.825316 2.1511223 -0.41010514 4291572480
1.8124374 2.1361167 -0.4165794 4291572480
1.8238791 2.1497428 -0.42815685 4291572480
1.8285601 2.1554093 -0.43773684 4291572480
1.8299402 2.1571884 -0.44605365 4291572480
1.8348585 2.1631334 -0.45474684 4291703040
1.8193915 2.1450694 -0.4578281 4291572480
1.812589 2.1372073 -0.46247855 4291572480
1.8045276 2.1278598 -0.46622393 4291572480
1.7940291 2.115639 -0.46874386 4291441920
1.7683393 2.0855188 -0.46665516 4291311360
1.7227465 2.031945 -0.45860246 4291050240
1.7376091 2.049593 -0.46602726 4291180800
1.7461476 2.0597908 -0.47125813 4291180800
1.7490063 2.0632954 -0.4744257 4291180800
1.7551103 2.0706241 -0.4779301 4291311360
1.7574515 2.0735178 -0.47986045 4291311360
1.7573065 2.0734804 -0.48055336 4291311360
1.7393868 2.0524909 -0.47582453 4291180800
1.7266269 2.0375795 -0.47195151 4291180800
1.71138 2.0197337 -0.46685869 4291050240
1.7539752 2.0700753 -0.47696391 4291311360
1.8043803 2.1296301 -0.48853913 4291572480
1.8038779 2.1291678 -0.4857083 4291572480
1.8208851 2.1493502 -0.48699367 4291572480
1.8276058 2.1574042 -0.48491696 4291703040
1.8248423 2.1542733 -0.47975314 4291572480
1.8316897 2.1624753 -0.47654554 4291703040
1.829339 2.1598289 -0.4703815 4291703040
1.8161529 2.1444008 -0.46093872 4291572480
1.7913316 2.1152456 -0.44814512 4291441920
1.868616 2.2065313 -0.46015605 4291833600
1.906391 2.2512178 -0.46145067 4292094720
1.9809057 2.3392518 -0.47061318 4292486400
2.0498223 2.4206901 -0.47724658 4292747520
2.1563156 2.5464714 -0.49121952 4293400320
2.2224979 2.624701 -0.4945696 4293661440
2.2450516 2.6514559 -0.48717785 4293792000
2.2451577 2.6517227 -0.47423846 4293792000
2.2596369 2.6689506 -0.46371025 4293922560
2.2687669 2.6798658 -0.45141757 4293922560
2.2754624 2.6879082 -0.43803266 4293922560
2.2658679 2.676723 -0.42104205 4293922560
2.2606015 2.6706443 -0.40448496 4293792000
2.2655015 2.6765649 -0.38929713 4293922560
2.2795191 2.6932483 -0.37510619 4293922560
2.2891355 2.7047369 -0.35960144 4293922560
2.2554646 2.6651201 -0.33708498 4293792000
2.2677355 2.6797407 -0.32122374 4293792000
2.2717276 2.6845872 -0.30370921 4293922560
2.2790947 2.6934185 -0.28622124 4293922560
2.2563829 2.6667316 -0.26476997 4293792000
2.2825758 2.6977932 -0.24873678 4293922560
2.2936218 2.7109692 -0.23046911 4293922560
2.2864294 2.7026057 -0.21008611 4293922560
2.2641461 2.6764181 -0.1883439 4293792000
2.2799766 2.6952446 -0.16962439 4293922560
2.3074045 2.7277715 -0.15120298 4294053120
2.3087234 2.7294598 -0.13065174 4294053120
2.2907443 2.7083511 -0.10901693 4293922560
2.3021061 2.7219026 -0.088722154 4294053120
2.3250284 2.7491126 -0.068467692 4294053120
2.2750793 2.6902297 -0.046236508 4293792000
1.6766886 1.9833415 -0.018692827 4290789120
1.4057508 1.6632994 -0.002764584 4289352960
1.4889994 1.7617483 0.010701779 4289744640
1.4870445 1.7595218 0.024300063 4289744640
1.572408 1.8604839 0.040046297 4290136320
1.5769076 1.8658901 0.054521829 4290266880
1.5831461 1.8733519 0.069095269 4290266880
1.5692526 1.8570203 0.082649618 4290136320
1.5630165 1.849738 0.096334882 4290136320
1.5728694 1.861473 0.1109356 4290136320
1.5714135 1.8598415 0.12469488 4290136320
1.5578576 1.843906 0.13722944 4290136320
1.5707092 1.8591886 0.15192729 4290136320
1.5797237 1.8699362 0.1662765 4290266880
1.5755211 1.8650587 0.17909698 4290266880
1.5553873 1.8413441 0.18971163 4290136320
1.5837426 1.8749632 0.2060841 4290266880
1.5885541 1.8807454 0.21944146 4290266880
1.5803832 1.8711765 0.23074082 4290266880
1.5713503 1.8605876 0.2415254 4290266880
1.5281328 1.8095691 0.24640246 4290005760
1.5801364 1.8711671 0.26638785 4290266880
1.5785568 1.8693942 0.27742893 4290266880
1.5664862 1.8552125 0.28622368 4290266880
1.5572244 1.8443525 0.29506308 4290136320
1.5249543 1.8062737 0.29894453 4290005760
1.5715946 1.8615457 0.31801555 4290266880
1.5696001 1.8592845 0.32718399 4290266880
1.5748053 1.8655422 0.33749798 4290266880
1.5693244 1.8591573 0.34514126 4290266880
1.5586176 1.8465887 0.35115516 4290266880
1.5500259 1.8365228 0.35714206 4290136320
1.5661403 1.8556941 0.36843726 4290266880
1.557822 1.8459526 0.37360996 4290266880
1.5604323 1.8491457 0.3809424 4290266880
1.5590366 1.8475982 0.3868641 4290266880
1.5609925 1.8500189 0.39317024 4290266880
1.5600047 1.8489562 0.39828405 4290266880
1.5563352 1.8447196 0.40223652 4290266880
1.5526372 1.8404498 0.40569153 4290266880
1.5493003 1.8366082 0.40874889 4290136320
1.540791 1.8266426 0.40993908 4290136320
1.5435991 1.8300779 0.41364303 4290136320
1.5489986 1.8365831 0.41757029 4290136320
1.5455495 1.8326114 0.41863081 4290136320
1.5453312 1.8324666 0.42006966 4290136320
1.5515201 1.8399115 0.42275864 4290266880
1.5425131 1.8293591 0.420818 4290136320
1.5424557 1.8294076 0.4208183 4290136320
1.5360986 1.8219944 0.41861036 4290136320
1.5474048 1.835507 0.42071223 4290136320
1.5535486 1.8429062 0.42090595 4290266880
1.5505276 1.8394483 0.41812453 4290266880
1.5570167 1.84726 0.4174073 4290266880
1.5576606 1.8481469 0.41462499 4290266880
1.5553781 1.8455669 0.4105835 4290266880
1.5564512 1.8469646 0.40694895 4290266880
1.5535414 1.8436428 0.40180507 4290266880
1.5551802 1.845713 0.39737061 4290266880
1.5556644 1.8464159 0.3921724 4290266880
1.5485448 1.8381053 0.38462937 4290136320
1.5376652 1.8253369 0.37577781 4290136320
1.5408478 1.8292406 0.3699525 4290136320
1.5620215 1.854479 0.36790279 4290266880
1.5613323 1.8537959 0.3601945 4290266880
1.5598339 1.8521538 0.35189667 4290266880
1.5364276 1.825272 0.28696623 4290136320
1.5573252 1.8502077 0.28018862 4290136320
1.578009 1.8748939 0.27276814 4290266880
1.5566876 1.8497338 0.25780138 4290136320
1.5328512 1.8215854 0.24246143 4290005760
1.5537338 1.846513 0.23392899 4290136320
1.5572318 1.8508084 0.22233686 4290136320
1.5449849 1.8364137 0.20832324 4290136320
1.5276887 1.8160225 0.19363539 4290005760
1.5472153 1.8393494 0.1833695 4290136320
1.5570233 1.85114 0.17150836 4290136320
1.5507361 1.8438197 0.15765955 4290136320
1.5400845 1.8313155 0.14333831 4290005760
1.5607622 1.8560195 0.1316791 4290136320
1.5617408 1.8573292 0.11802812 4290136320
1.5593781 1.8546703 0.104007 4290136320
1.446709 1.7209685 0.083563507 4289614080
1.4065466 1.6733894 0.068569876 4289352960
1.4408303 1.7142582 0.057165436 4289483520
2.2025957 2.61958 0.067179732 4293530880
2.2930837 2.7273228 0.048956711 4293922560
2.3095102 2.7470634 0.028125733 4294053120
2.3087494 2.7463791 0.0069091781 4294053120
2.2835195 2.7166092 -0.014151172 4293922560
2.2943332 2.7296815 -0.035294231 4294053120
2.2976725 2.73387 -0.056417547 4294053120
2.2041533 2.6229 -0.07427457 4293530880
2.2406194 2.6664691 -0.095921688 4293661440
2.2540677 2.6826739 -0.11693616 4293792000
2.264621 2.6954379 -0.13789466 4293792000
2.243726 2.6708019 -0.15669958 4293792000
2.252311 2.6812255 -0.17728789 4293792000
2.2656696 2.6973283 -0.19825703 4293922560
2.2702572 2.7029994 -0.21840388 4293922560
2.2363312 2.6628511 -0.23435913 4293661440
2.2625997 2.6943152 -0.25630295 4293922560
2.2799299 2.7151477 -0.27732497 4293922560
2.2778914 2.7129347 -0.29581872 4293922560
2.2443986 2.6732879 -0.30961886 4293792000
2.1469076 2.5574658 -0.31320933 4293269760
2.2622678 2.6949723 -0.34763134 4293922560
2.2610662 2.6937504 -0.36464968 4293922560
2.2406039 2.6695983 -0.37799984 4293792000
2.1680729 2.5834527 -0.38147277 4293400320
2.088649 2.4890862 -0.38222596 4293008640
2.2528381 2.6847768 -0.42769092 4293922560
2.2244539 2.6511796 -0.43706262 4293792000
2.187469 2.6073339 -0.44383082 4293530880
2.158597 2.5731428 -0.45133129 4293400320
2.0707362 2.4686859 -0.44529223 4292878080
1.8506514 2.2067132 -0.40854675 4291833600
1.7974857 2.1435421 -0.40662956 4291441920
1.8193419 2.1697366 -0.42103988 4291572480
1.8145052 2.1641314 -0.42888546 4291572480
1.8185163 2.1690664 -0.43832678 4291572480
1.8151181 2.1651723 -0.44548494 4291572480
1.8165257 2.1670039 -0.45330188 4291572480
1.8040076 2.1522384 -0.45708168 4291572480
1.7983875 2.1456907 -0.4620139 4291572480
1.7921036 2.13835 -0.46620184 4291572480
1.7478495 2.0857463 -0.45982653 4291311360
1.7018716 2.0310795 -0.45221409 4291050240
1.7140495 2.0457354 -0.45942977 4291050240
1.7288082 2.0634692 -0.46686056 4291180800
1.7404516 2.0774899 -0.47295624 4291311360
1.7458202 2.084029 -0.4768233 4291311360
1.7398565 2.0770543 -0.47704145 4291311360
1.7548362 2.0950534 -0.48244712 4291311360
1.7363424 2.0731325 -0.47809404 4291180800
1.742587 2.080713 -0.47998363 4291311360
1.7210567 2.0551639 -0.47367078 4291180800
1.7059143 2.03723 -0.46857473 4291050240
1.7450522 2.0840459 -0.47780824 4291311360
1.7758294 2.120892 -0.48412526 4291441920
1.7946106 2.1434295 -0.48654369 4291572480
1.8092808 2.161063 -0.48722577 4291572480
1.8213497 2.1755939 -0.48658773 4291703040
1.8100436 2.1622314 -0.4791432 4291572480
1.8130422 2.1659374 -0.47494638 4291572480
1.8086715 2.1608477 -0.468274 4291572480
1.8036323 2.1549582 -0.46091649 4291572480
1.7758114 2.1218755 -0.44732502 4291441920
1.8316327 2.188627 -0.45415986 4291703040
1.8596207 2.2221599 -0.45323494 4291833600
1.9520141 2.3325813 -0.46694627 4292355840
2.1118853 2.5235722 -0.49507836 4293139200
2.193851 2.6215703 -0.50320971 4293661440
2.2339294 2.6695654 -0.50053591 4293792000
2.2349813 2.6709654 -0.48833242 4293792000
2.2242723 2.6583207 -0.47306234 4293792000
2.219799 2.6531203 -0.45867234 4293792000
2.226433 2.6611822 -0.44604477 4293792000
2.2338955 2.670234 -0.43299118 4293792000
2.2205117 2.6543875 -0.41545361 4293661440
2.2241464 2.6588652 -0.40069968 4293792000
2.2397146 2.6775973 -0.38751215 4293792000
2.2589676 2.700732 -0.3742789 4293922560
2.2568388 2.6983249 -0.35696334 4293922560
2.2307084 2.6672435 -0.33567393 4293792000
2.2345731 2.671994 -0.31869811 4293792000
2.25438 2.6957915 -0.30345634 4293922560
2.2555499 2.6973224 -0.28520486 4293922560
2.2372985 2.6756461 -0.26432726 4293792000
2.2508442 2.6919634 -0.24695544 4293792000
2.2705238 2.7156119 -0.22970557 4293922560
2.2612915 2.7047102 -0.20919226 4293922560
2.2069631 2.6399112 -0.18483448 4293530880
2.2651713 2.7096081 -0.16966638 4293922560
2.2956736 2.7461958 -0.1514518 4294053120
2.2981064 2.7492352 -0.13092688 4294053120
2.274929 2.7216613 -0.10898884 4293922560
2.2958333 2.7467804 -0.089067802 4294053120
2.3066804 2.7598786 -0.06837102 4294053120
2.2345457 2.6737707 -0.045699015 4293661440
1.515982 1.8147932 -0.016983293 4290005760
1.3806415 1.6530606 -0.0027148239 4289222400
1.4218459 1.7024072 0.010316043 4289483520
1.4703557 1.7604939 0.024213664 4289744640
1.538608 1.8421944 0.039480664 4290005760
1.5506206 1.8566476 0.054007631 4290136320
1.5600241 1.8679821 0.068581223 4290136320
1.5491811 1.8551031 0.082181036 4290136320
1.5464472 1.851922 0.095997095 4290136320
1.5492297 1.8553392 0.11005034 4290136320
1.5515856 1.8582462 0.12399936 4290136320
1.5198715 1.820399 0.13483982 4290005760
1.5476907 1.8537666 0.15076458 4290136320
1.5545731 1.8620902 0.16479065 4290136320
1.552478 1.8596746 0.17772806 4290136320
1.5292912 1.832024 0.18784988 4290005760
1.5624021 1.8717318 0.20474441 4290266880
1.5654356 1.8754543 0.21777588 4290266880
1.5617379 1.8711228 0.22962742 4290266880
1.5474017 1.8540606 0.23952314 4290136320
1.4256781 1.7084821 0.23152791 4289483520
1.5531836 1.861168 0.26369119 4290136320
1.5528252 1.8608341 0.2748307 4290136320
1.5405607 1.8462501 0.28347063 4290136320
1.5222807 1.8244647 0.29047731 4290005760
1.5080462 1.8075204 0.2977097 4290005760
1.545467 1.8524125 0.31493092 4290136320
1.5546696 1.8635278 0.32634965 4290266880
1.5454956 1.8526437 0.3335492 4290136320
1.5400618 1.8462375 0.3410905 4290136320
1.5297507 1.8339915 0.34707791 4290136320
1.5112035 1.8118827 0.35065177 4290005760
1.5354197 1.8409818 0.36375311 4290136320
1.5420142 1.8489819 0.37241659 4290136320
1.5422516 1.8493699 0.37914941 4290136320
1.528999 1.8336021 0.38208067 4290136320
1.5318459 1.837117 0.38854384 4290136320
1.5257422 1.8299116 0.39227927 4290136320
1.5170728 1.819633 0.3948518 4290136320
1.5254158 1.8297348 0.40138239 4290136320
1.5281122 1.8330737 0.40599224 4290136320
1.5116094 1.8134111 0.40500486 4290005760
1.5144018 1.8168665 0.40867436 4290005760
1.5109292 1.8128163 0.41017726 4290005760
1.5138198 1.8163918 0.41292265 4290005760
1.5136054 1.8162477 0.41434184 4290005760
1.513443 1.8161669 0.41528887 4290005760
1.5070235 1.8085876 0.41403189 4290005760
1.5069666 1.808635 0.41403219 4290005760
1.5132717 1.8163096 0.41528973 4290005760
1.5038556 1.8051394 0.41175583 4290005760
1.5263369 1.8322103 0.41644362 4290136320
1.5208102 1.8257052 0.4129982 4290136320
1.5228091 1.8282237 0.41111317 4290136320
1.5199054 1.8248649 0.40742737 4290136320
1.5342369 1.8421749 0.4078517 4290136320
1.5314192 1.8389214 0.40322262 4290136320
1.526446 1.8330835 0.39757746 4290136320
1.5318801 1.8397288 0.39417258 4290136320
1.52189 1.8278741 0.38636345 4290136320
1.5175073 1.8227453 0.37957767 4290136320
1.5176972 1.8231026 0.37350935 4290005760
1.5238385 1.8306012 0.36844394 4290136320
1.5423304 1.852921 0.36582333 4290136320
1.5384753 1.8484293 0.35742283 4290136320
1.5338137 1.84297 0.34846702 4290136320
1.5191252 1.8262223 0.2857376 4290005760
1.5369855 1.8478065 0.27848303 4290136320
1.5486165 1.8619145 0.26958239 4290136320
1.5337967 1.8442602 0.25580785 4290136320
1.5133022 1.8197887 0.24106325 4290005760
1.5281163 1.8377228 0.23170297 4290005760
1.5358052 1.8471014 0.22083205 4290136320
1.5160978 1.8235716 0.20588063 4290005760
1.5056363 1.811146 0.19219586 4290005760
1.5222878 1.8312947 0.1816988 4290005760
1.533452 1.8448535 0.17011487 4290136320
1.5266949 1.8368795 0.15632254 4290005760
1.5204521 1.8295227 0.14252143 4290005760
1.5314032 1.8428295 0.13012855 4290005760
1.5413581 1.8549412 0.11732338 4290136320
1.5303762 1.8418884 0.10280906 4290005760
1.3842051 1.6663182 0.080540299 4289222400
1.40892 1.6961644 0.069181114 4289352960
1.3847952 1.6672943 0.055352274 4289222400
2.0412555 2.4567711 0.062736288 4292747520
2.2622218 2.7226846 0.048665222 4293922560
2.2893412 2.7555172 0.028103914 4294053120
2.2629128 2.7239525 0.0068501579 4293922560
2.241694 2.6986492 -0.013959123 4293792000
2.2309074 2.6858907 -0.034527201 4293792000
2.2137129 2.6654212 -0.054703884 4293661440
2.1494091 2.5882709 -0.072907232 4293269760
2.2348642 2.6912975 -0.096317694 4293792000
2.2399292 2.6976078 -0.1169882 4293792000
2.2305923 2.6865873 -0.13674465 4293792000
2.1537225 2.5942905 -0.15143669 4293400320
2.2226717 2.6774831 -0.17615142 4293661440
2.2305143 2.6871359 -0.19651882 4293792000
2.2130482 2.6663241 -0.21436225 4293661440
2.1410439 2.5798519 -0.22591625 4293269760
2.2054758 2.6576293 -0.25155348 4293661440
2.1850741 2.6332738 -0.26762044 4293530880
2.1685228 2.6135504 -0.28356063 4293400320
2.1587422 2.6019769 -0.29986161 4293400320
2.1134787 2.5476673 -0.31046605 4293139200
2.1686435 2.6143079 -0.33555308 4293530880
2.1674814 2.6131105 -0.3519803 4293530880
2.1412911 2.5817628 -0.36375168 4293400320
2.1288712 2.5669987 -0.37717396 4293269760
2.0652354 2.490526 -0.38056415 4293008640
2.188992 2.6398294 -0.41845673 4293661440
2.1584666 2.6032469 -0.42704487 4293400320
2.1323516 2.5719724 -0.43565542 4293269760
2.1037018 2.5376372 -0.44291252 4293139200
2.0666714 2.4931948 -0.44750705 4293008640
1.840535 2.2208066 -0.40913898 4291833600
1.8092191 2.1832209 -0.41212913 4291572480
1.809831 2.1841183 -0.42175296 4291703040
1.7937616 2.1649036 -0.426934 4291572480
1.7954031 2.1670392 -0.43576923 4291572480
1.778494 2.1468058 -0.43953785 4291441920
1.7776915 2.1459911 -0.44670305 4291441920
1.7769306 2.1452253 -0.45335865 4291441920
1.7432282 2.1047292 -0.45096776 4291311360
1.7005841 2.0534418 -0.44548497 4291050240
1.7031382 2.0566647 -0.45119008 4291050240
1.7296472 2.0887833 -0.46279296 4291311360
1.7348096 2.0951533 -0.46823165 4291311360
1.6794355 2.0284882 -0.45669401 4291050240
1.6878623 2.0387912 -0.46186841 4291050240
1.6938288 2.0461259 -0.46585411 4291050240
1.6935678 2.0459454 -0.4675923 4291050240
1.6933662 2.0458357 -0.46880051 4291050240
1.6900834 2.0420063 -0.46860695 4291050240
1.6868615 2.0382485 -0.46788087 4291050240
1.6717634 2.0201545 -0.46331859 4290919680
1.7241765 2.0835485 -0.47689083 4291180800
1.7123408 2.069391 -0.47212502 4291180800
1.7062182 2.0621276 -0.46839997 4291180800
1.6913549 2.0443091 -0.46175957 4291050240
1.7423503 2.106004 -0.4724817 4291311360
1.7762464 2.1470587 -0.47785237 4291441920
1.7829361 2.1552646 -0.47526187 4291572480
1.7802486 2.1521463 -0.46961153 4291572480
1.7999271 2.1760373 -0.46926069 4291572480
1.7973439 2.1730435 -0.46251303 4291572480
1.8193579 2.1997571 -0.46148551 4291703040
1.8216116 2.2026045 -0.45482543 4291703040
1.8342842 2.2180364 -0.45017913 4291833600
1.9027652 2.3008862 -0.45834264 4292094720
2.002471 2.4214661 -0.47270933 4292747520
2.123662 2.5680153 -0.49051017 4293269760
2.1492405 2.5990593 -0.48492181 4293400320
2.155925 2.6072764 -0.4743461 4293530880
2.1408024 2.589143 -0.45848665 4293400320
2.1449962 2.5943484 -0.44630718 4293400320
2.1293044 2.5755224 -0.42956147 4293269760
2.1430006 2.5922093 -0.41826919 4293400320
2.1071007 2.5489559 -0.39698321 4293139200
2.1328251 2.5801792 -0.3869243 4293269760
2.1306872 2.5777273 -0.37121597 4293269760
2.1253626 2.5714223 -0.35459426 4293269760
2.1326954 2.5804164 -0.33967456 4293269760
2.1700683 2.6257262 -0.32881835 4293530880
2.1896322 2.6495094 -0.31445727 4293661440
2.2103889 2.6747365 -0.29959944 4293661440
2.205884 2.6694217 -0.28085852 4293661440
2.1930339 2.6540155 -0.26089203 4293661440
2.2051783 2.6688304 -0.24361868 4293661440
2.2171967 2.6834939 -0.22585967 4293792000
2.2105403 2.6755745 -0.20590708 4293661440
2.1433802 2.5944819 -0.18074368 4293269760
2.1932943 2.6549747 -0.16540867 4293530880
2.2090781 2.6741929 -0.14673336 4293661440
2.1448576 2.5966432 -0.12302196 4293269760
2.2057669 2.6704438 -0.10638826 4293661440
2.2605479 2.7368381 -0.088286504 4293922560
1.8938541 2.29337 -0.056478649 4291964160
1.5189976 1.8399845 -0.031210592 4290005760
1.3724644 1.6627905 -0.015450151 4289222400
1.3890131 1.6828917 -0.0027358285 4289352960
1.3647525 1.6536175 0.0099957092 4289222400
1.3965685 1.692194 0.023187835 4289352960
1.5189344 1.8403457 0.039270598 4290005760
1.5368217 1.8620795 0.053923544 4290136320
1.5393741 1.8652571 0.068170793 4290136320
1.5294366 1.8533195 0.081725642 4290136320
1.5235412 1.8462731 0.095262513 4290005760
1.5214797 1.8438666 0.10886262 4290005760
1.5065629 1.8258998 0.12127519 4290005760
1.4309607 1.7344733 0.12788144 4289614080
1.5169044 1.8385953 0.14882986 4290005760
1.5308441 1.8555602 0.16344041 4290136320
1.5244994 1.8479697 0.17577763 4290136320
1.5090708 1.8293808 0.18669318 4290005760
1.5345052 1.8602664 0.20252883 4290136320
1.5398515 1.8668321 0.21574901 4290136320
1.5332689 1.8589545 0.22705384 4290136320
1.4707378 1.7833254 0.22929761 4289744640
1.3565235 1.6451002 0.22188556 4289222400
1.5088829 1.8297027 0.25800407 4290005760
1.5094355 1.8304657 0.26906276 4290005760
1.4959701 1.8142505 0.27723506 4290005760
1.4912633 1.8086433 0.28658944 4289875200
1.488649 1.8055712 0.29597336 4289875200
1.5220249 1.8460975 0.31236327 4290136320
1.5286458 1.8542163 0.32317293 4290136320
1.5250804 1.849996 0.33148578 4290136320
1.5137734 1.8363963 0.33765611 4290136320
1.4934901 1.8119199 0.34126779 4290005760
1.4193566 1.7221905 0.33171022 4289614080
1.488855 1.8065027 0.35524046 4290005760
1.4872243 1.8046274 0.36175191 4290005760
1.4655622 1.7784762 0.36288002 4289875200
1.4737242 1.7884696 0.37090084 4289875200
1.4312203 1.7370547 0.36563393 4289614080
1.4306669 1.7364845 0.37048033 4289614080
1.4452164 1.7542228 0.37884536 4289744640
1.4390881 1.746897 0.38138646 4289744640
1.4355148 1.7426686 0.38413221 4289744640
1.4319869 1.7384961 0.3864246 4289614080
1.4765944 1.7926874 0.40131262 4289875200
1.4794198 1.7962229 0.40448412 4289875200
1.4697582 1.7846177 0.40376505 4289875200
1.4726826 1.7882754 0.40601519 4289875200
1.4725239 1.7881953 0.40694314 4289875200
1.4755491 1.7919778 0.40827295 4289875200
1.4249341 1.7306992 0.39430496 4289614080
1.4305681 1.7376451 0.39541218 4289614080
1.430613 1.7378129 0.3945111 4289614080
1.4401059 1.7494435 0.3957392 4289744640
1.4308498 1.7383294 0.39136183 4289614080
1.43104 1.7386764 0.38911691 4289614080
1.4730847 1.7898116 0.39769781 4289875200
1.4645973 1.7796339 0.39213029 4289875200
1.4523883 1.764939 0.3851597 4289744640
1.4799701 1.7985362 0.38822734 4289875200
1.4819405 1.801053 0.38404953 4290005760
1.4918585 1.8132182 0.38144061 4290005760
1.4919828 1.8134972 0.37585366 4290005760
1.489189 1.8102347 0.36910781 4290005760
1.5017904 1.8256638 0.36570132 4290005760
1.519568 1.847381 0.36299413 4290136320
1.5157342 1.84286 0.35465091 4290136320
1.5167611 1.8442417 0.34704897 4290136320
1.4994 1.8240395 0.28404289 4290005760
1.5100075 1.8370671 0.2755532 4290005760
1.525745 1.8563313 0.26750153 4290136320
1.5047045 1.830905 0.25275466 4290005760
1.491928 1.815519 0.23936088 4289875200
1.4965812 1.8213155 0.22855088 4290005760
1.4929322 1.8170222 0.21621323 4289875200
1.4538592 1.7696668 0.19885761 4289744640
1.4544246 1.770493 0.18700099 4289744640
1.4970232 1.8224241 0.17996973 4290005760
1.499447 1.8255152 0.16754377 4290005760
1.5096312 1.8380436 0.15568937 4290005760
1.4945533 1.8198535 0.14110723 4289875200
1.5054226 1.8332174 0.12884827 4290005760
1.5153031 1.8453813 0.11617853 4290005760
1.5139112 1.8438357 0.10244284 4290005760
1.3687645 1.6674151 0.080224 4289222400
1.3169581 1.6045221 0.065156214 4288961280
1.3477658 1.6421338 0.054275695 4289091840
1.4029423 1.7094033 0.043518282 4289483520
1.4616959 1.7810363 0.031767778 4289744640
1.7353601 2.1142206 0.02152844 4291180800
2.1673021 2.6400936 0.0066417041 4293530880
2.1278772 2.5923193 -0.013308985 4293269760
2.1501331 2.6196191 -0.033480462 4293400320
2.1194022 2.5824192 -0.052711681 4293269760
2.1463525 2.615438 -0.07329306 4293400320
2.1154859 2.5780663 -0.091785491 4293269760
2.1541433 2.6253445 -0.11327364 4293400320
2.1119258 2.5741448 -0.13035536 4293269760
2.1009412 2.5609732 -0.14874381 4293139200
2.1620204 2.6355691 -0.1725297 4293530880
2.1517625 2.6232846 -0.19089454 4293400320
2.1266463 2.5928986 -0.20742415 4293269760
2.0580158 2.509496 -0.21866694 4292878080
2.091342 2.5502973 -0.2401983 4293139200
2.0967236 2.557056 -0.25859261 4293139200
2.0624192 2.5154567 -0.27157167 4293008640
2.0542264 2.5056703 -0.28734085 4292878080
1.9744022 2.4085829 -0.29206842 4292486400
2.0527756 2.5042934 -0.31985235 4292878080
2.0396876 2.4885349 -0.33355272 4292878080
2.0537047 2.5058141 -0.35132262 4293008640
2.053385 2.5056174 -0.36635569 4293008640
1.9520352 2.3822448 -0.36223468 4292486400
2.1005588 2.563519 -0.40437573 4293269760
2.0971627 2.5595725 -0.41783449 4293269760
2.0824192 2.5417867 -0.42844707 4293139200
2.0379837 2.4877858 -0.43209711 4292878080
2.0251074 2.4722672 -0.44159395 4292878080
1.8109154 2.2111919 -0.40538934 4291703040
1.8036685 2.2025151 -0.41375682 4291703040
1.7867514 2.182039 -0.41930765 4291572480
1.7586542 2.1479194 -0.42152849 4291441920
1.7160075 2.0960417 -0.41943955 4291180800
1.7120652 2.091382 -0.42610765 4291180800
1.7238088 2.1058619 -0.43622056 4291311360
1.7168143 2.0974753 -0.44111371 4291180800
1.7248759 2.1074617 -0.44936693 4291311360
1.669616 2.0401626 -0.44045913 4291050240
1.6746575 2.0464578 -0.44677606 4291050240
1.6891152 2.0642469 -0.45513943 4291050240
1.6948733 2.0714171 -0.46068323 4291180800
1.7094232 2.0893207 -0.46812305 4291180800
1.6459477 2.0119607 -0.45358092 4290919680
1.6574937 2.0261927 -0.45908111 4290919680
1.6628534 2.032871 -0.46235484 4290919680
1.6626548 2.0327613 -0.46354961 4290919680
1.6537812 2.0220561 -0.46178147 4290919680
1.6474632 2.0144696 -0.46018252 4290919680
1.7017652 2.0809236 -0.47495735 4291180800
1.6837136 2.0590048 -0.46899062 4291050240
1.6750782 2.0485847 -0.46511507 4291050240
1.6689957 2.041281 -0.4614197 4291050240
1.7274681 2.1128438 -0.47494271 4291311360
1.7190096 2.1026375 -0.46944505 4291311360
1.7131011 2.0955448 -0.46412489 4291180800
1.7134879 2.0961423 -0.45998123 4291180800
1.7076813 2.0891707 -0.45365646 4291180800
1.7560817 2.148443 -0.46106559 4291441920
1.7447574 2.1347275 -0.45215508 4291441920
1.7812161 2.1794116 -0.45500308 4291572480
1.7921617 2.1929145 -0.45063284 4291703040
1.8078656 2.2122347 -0.44682866 4291703040
1.8404195 2.2521539 -0.4464581 4291833600
1.9005017 2.3257298 -0.45181134 4292225280
2.0278659 2.4815702 -0.47169456 4292878080
2.0770392 2.5418274 -0.47194159 4293139200
2.0574949 2.5180678 -0.45588812 4293008640
2.0535514 2.5133812 -0.44290668 4293008640
2.0545423 2.5147266 -0.43050516 4293008640
2.0301337 2.4850104 -0.41244671 4292878080
2.0399222 2.4971116 -0.4009608 4292878080
2.0230861 2.4766505 -0.38384336 4292878080
2.0154595 2.4674504 -0.36821187 4292747520
2.0044796 2.4541469 -0.35169023 4292747520
2.0291586 2.4844599 -0.34092873 4292878080
2.047735 2.5073099 -0.328439 4292878080
2.0461457 2.5054917 -0.31222281 4292878080
2.02877 2.4843597 -0.29340434 4292878080
2.0386968 2.4966285 -0.27826905 4292878080
1.9941103 2.4421995 -0.25567603 4292616960
1.9494483 2.3876717 -0.23353793 4292355840
1.8999566 2.3272283 -0.21136463 4292094720
1.8002032 2.2052729 -0.18465576 4291572480
1.7950855 2.1991172 -0.16836497 4291572480
1.9094273 2.3391583 -0.16212979 4292225280
1.7371957 2.1284795 -0.13190478 4291311360
1.6222985 1.987954 -0.10847808 4290658560
1.5211793 1.8642793 -0.087818928 4290136320
1.5461463 1.8949296 -0.075046979 4290266880
1.4976546 1.8356606 -0.058841307 4290005760
1.4592593 1.7887454 -0.043774355 4289744640
1.4251602 1.7470853 -0.029463699 4289614080
1.3931199 1.7079418 -0.015781011 4289352960
1.3519865 1.6576614 -0.0026608978 4289222400
1.3430792 1.646834 0.0099258693 4289091840
1.389851 1.7041832 0.023257693 4289352960
1.4961727 1.8344584 0.038978487 4290005760
1.5139349 1.8562973 0.053520061 4290005760
1.5164707 1.8594915 0.067656264 4290005760
1.5034449 1.8436277 0.080931015 4290005760
1.4975942 1.8365505 0.094329283 4290005760
1.5012637 1.8411334 0.10820252 4290005760
1.4109718 1.7306252 0.11442614 4289483520
1.3070691 1.6034343 0.11768593 4288961280
1.4068388 1.7257302 0.1390558 4289483520
1.4939772 1.8325641 0.16066638 4290005760
1.5012742 1.8415935 0.17435567 4290005760
