# .PCD v0.7 - Point Cloud Data file format
VERSION 0.7
FIELDS x y z rgba
SIZE 4 4 4 4
TYPE F F F U
COUNT 1 1 1 1
WIDTH 1103
HEIGHT 1
VIEWPOINT 0 0 0 1 0 0 0
POINTS 1103
DATA ascii
2.530879 0.48104268 -0.034562193 4290658560
2.5258226 0.48015964 -0.019294851 4290658560
2.4787309 0.47129089 -0.0039704242 4290528000
2.4737957 0.47042894 0.010943387 4290397440
2.3920903 0.45497817 0.025041714 4290136320
2.4165173 0.45969388 0.03979231 4290266880
2.465204 0.4690226 0.055315804 4290397440
2.4398282 0.46427351 0.069314107 4290397440
2.4167309 0.45995614 0.083010308 4290266880
2.6041625 0.49567622 0.1046406 4290919680
2.974746 0.56624556 0.13664354 4292225280
3.3008959 0.62838435 0.17053856 4293269760
3.278466 0.62421775 0.18820904 4293269760
3.3071036 0.62976807 0.2086051 4293269760
3.3124783 0.63089257 0.22750981 4293400320
3.3149815 0.63147086 0.24601103 4293400320
3.2736354 0.62370062 0.26080149 4293269760
3.3303096 0.63459367 0.28312752 4293400320
3.3522463 0.63887423 0.30262625 4293530880
3.3345447 0.63560569 0.31825852 4293400320
3.3199196 0.63292223 0.33366203 4293400320
3.258276 0.62127864 0.34361857 4293139200
3.3240726 0.63391912 0.36655882 4293400320
3.3205302 0.63334692 0.38178667 4293400320
3.3246303 0.63423163 0.39746043 4293400320
3.3009126 0.6298126 0.40929168 4293400320
3.2824297 0.62639052 0.42112082 4293269760
3.3242445 0.6344685 0.4402619 4293400320
3.3233798 0.63440734 0.45344815 4293400320
3.326031 0.6350171 0.46660146 4293530880
3.3298554 0.6358512 0.47940949 4293530880
3.3142123 0.63297004 0.48883733 4293400320
3.3092425 0.63212556 0.49919897 4293400320
3.3104498 0.63246036 0.50990057 4293400320
3.3195765 0.63430756 0.52125913 4293530880
3.3075335 0.6321125 0.52869838 4293400320
3.3239341 0.63535017 0.540061 4293530880
3.3084137 0.63249058 0.54563689 4293400320
3.3135948 0.63358581 0.55395132 4293530880
3.3135571 0.63368428 0.56076247 4293530880
3.3177838 0.63459808 0.56764513 4293530880
3.3111675 0.63343936 0.5720129 4293530880
3.3190808 0.63505876 0.57821119 4293530880
3.2961328 0.63077682 0.57835913 4293400320
3.2994184 0.63151151 0.58238751 4293400320
3.3086195 0.63337833 0.58678263 4293530880
3.2985783 0.63156408 0.58708984 4293400320
3.3080037 0.63347489 0.59015495 4293530880
3.3030303 0.63263053 0.58996964 4293530880
3.3030105 0.6327343 0.58996999 4293530880
3.3117993 0.63452494 0.590841 4293530880
3.30814 0.63393259 0.58880419 4293530880
3.2996581 0.63241649 0.5852263 4293400320
3.309391 0.63438946 0.58417511 4293530880
3.3108349 0.6347751 0.58097029 4293530880
3.3167467 0.63601732 0.57785523 4293530880
3.3094723 0.63473278 0.57177734 4293530880
3.3091676 0.63478404 0.56623983 4293530880
3.3129158 0.63561261 0.56072402 4293530880
3.3179288 0.63668418 0.55474901 4293530880
3.3005633 0.63346416 0.5444296 4293400320
3.3057008 0.63455993 0.53719896 4293400320
3.2880754 0.63128895 0.52569455 4293400320
3.3083596 0.63529176 0.51960438 4293400320
3.3317683 0.63989586 0.51327419 4293530880
3.3192215 0.63759941 0.50080627 4293530880
3.3150773 0.63691568 0.48907712 4293400320
3.2708545 0.62914127 0.39916241 4293269760
3.3019218 0.63522577 0.38807321 4293400320
3.3243725 0.63965559 0.3752954 4293400320
3.3018734 0.6354422 0.35705286 4293400320
3.2625542 0.62799197 0.3369002 4293269760
3.286454 0.63270193 0.3229292 4293269760
3.3033271 0.63606167 0.3077057 4293400320
3.2819281 0.63205671 0.28862342 4293269760
3.242034 0.6244902 0.26792797 4293139200
3.0000482 0.57801265 0.23188116 4292225280
2.6145637 0.50388598 0.18800445 4290919680
2.4580836 0.47383851 0.16318971 4290397440
2.4466214 0.47171539 0.14863612 4290397440
2.4413373 0.47078186 0.13438317 4290397440
2.3942566 0.46179375 0.11801718 4290136320
2.3231759 0.44817677 0.10104283 4290005760
2.4522889 0.47314635 0.092148051 4290397440
2.4380236 0.47048083 0.077206194 4290397440
2.4161177 0.46634093 0.062157109 4290266880
2.5083346 0.48421091 0.049461629 4290528000
2.5144992 0.48548704 0.034492213 4290658560
2.5529208 0.49298739 0.019632926 4290789120
2.5768251 0.49768892 0.0042742277 4290789120
2.6187003 0.50586069 -0.011471272 4290919680
2.6323054 0.50857788 -0.027397102 4291050240
2.7836304 0.53788728 -0.045818396 4291572480
3.0139661 0.58246535 -0.067835763 4292355840
3.1689389 0.61250293 -0.090346269 4292878080
3.2217801 0.62282091 -0.1110312 4293008640
3.2553151 0.62941211 -0.13143556 4293139200
3.2634947 0.63110554 -0.1509098 4293139200
3.2375574 0.62620503 -0.16852537 4293139200
3.2484968 0.62843186 -0.18781388 4293139200
3.2677734 0.63227141 -0.2075614 4293139200
3.2700188 0.63281852 -0.22611836 4293269760
3.2534442 0.6297254 -0.24304178 4293139200
3.2840941 0.63576722 -0.26333177 4293269760
3.2944973 0.63789332 -0.28192687 4293269760
3.295449 0.63819098 -0.29946369 4293269760
3.2495875 0.62942708 -0.31216368 4293139200
3.2780101 0.63504136 -0.33160335 4293269760
3.2915962 0.6377846 -0.34938386 4293269760
3.289145 0.63742268 -0.36512604 4293269760
3.2797358 0.63571274 -0.37963343 4293269760
3.2336667 0.62689966 -0.38920251 4293139200
3.3075297 0.64132255 -0.41295272 4293400320
3.3063526 0.64120728 -0.42716399 4293400320
3.3073277 0.64150894 -0.44117653 4293400320
3.3112926 0.64239007 -0.45511544 4293400320
3.2927701 0.63891089 -0.46538576 4293400320
3.2806892 0.63667953 -0.47592813 4293400320
3.2793252 0.63652605 -0.48744246 4293400320
3.2897089 0.63865137 -0.50018668 4293400320
3.2863529 0.63811111 -0.51029152 4293400320
3.2883635 0.63861203 -0.5206461 4293400320
3.28987 0.63901496 -0.53033632 4293400320
3.2844658 0.63807613 -0.53829193 4293400320
3.2883022 0.63893104 -0.54714346 4293400320
3.278837 0.63720274 -0.55313414 4293400320
3.2768555 0.63692725 -0.55972707 4293400320
3.2456052 0.63096511 -0.56059694 4293269760
3.2506318 0.63204962 -0.56704944 4293269760
3.2203307 0.62626863 -0.56662905 4293139200
3.2331505 0.62886703 -0.57312918 4293269760
3.2286685 0.62810242 -0.57590044 4293269760
3.1813967 0.61901718 -0.57030278 4293008640
3.1761761 0.61810648 -0.57155287 4293008640
3.1710677 0.61721706 -0.5721516 4293008640
3.1709046 0.61728913 -0.5729757 4293008640
3.2224402 0.62742013 -0.58250064 4293139200
3.2273364 0.62847793 -0.58289707 4293269760
3.2424669 0.63152778 -0.58446109 4293269760
3.2416449 0.631473 -0.58245665 4293269760
3.2591784 0.63499171 -0.58306712 4293269760
3.2679088 0.63679713 -0.58139807 4293400320
3.2835331 0.63994551 -0.58025539 4293400320
3.285583 0.64045042 -0.57601255 4293400320
3.2737727 0.63825488 -0.56868166 4293400320
3.2780545 0.63919407 -0.56350607 4293400320
3.2797487 0.63962901 -0.55722183 4293400320
3.2788434 0.63955712 -0.54985029 4293400320
3.2754953 0.63900864 -0.54144454 4293400320
3.2645242 0.63697344 -0.53118926 4293269760
3.2527468 0.63477999 -0.52025408 4293269760
3.2389553 0.63219285 -0.50847387 4293269760
3.2473066 0.63392431 -0.49961427 4293269760
3.2777514 0.63996691 -0.49346867 4293400320
3.2923579 0.64292037 -0.4842194 4293400320
3.2809646 0.6408 -0.47057658 4293400320
3.2536614 0.63557291 -0.45425844 4293269760
3.2513525 0.63522393 -0.4410435 4293269760
3.2600636 0.63702649 -0.42880699 4293269760
3.2725203 0.639561 -0.41649622 4293269760
3.2560024 0.63643628 -0.40003878 4293269760
3.2376664 0.63295525 -0.38306817 4293139200
3.2438436 0.63426274 -0.3686398 4293139200
3.2743649 0.64032805 -0.35640749 4293269760
3.2726641 0.64009696 -0.34012118 4293269760
3.2197895 0.62986165 -0.31839153 4293008640
3.2280245 0.63157117 -0.30261132 4293139200
3.2375278 0.63352907 -0.28652826 4293139200
3.2420206 0.63450754 -0.26961368 4293139200
3.1841755 0.62329203 -0.24747989 4292878080
3.1655941 0.61975461 -0.22856751 4292878080
3.062542 0.59968716 -0.20394206 4292486400
2.9189684 0.57168305 -0.17776462 4291964160
2.8623781 0.56069577 -0.15788262 4291833600
2.6465807 0.51853758 -0.13052467 4291050240
2.6002035 0.50953817 -0.11301563 4290919680
2.5402908 0.49788517 -0.095412098 4290658560
2.5924764 0.5081839 -0.082040936 4290919680
2.5271697 0.4954704 -0.064862885 4290658560
2.5039487 0.49099821 -0.049255602 4290528000
2.4858398 0.48752636 -0.033949364 4290528000
2.4758797 0.48565036 -0.018894721 4290528000
2.4239326 0.47554383 -0.0038425338 4290266880
2.4376478 0.47830671 0.010826161 4290397440
2.3521104 0.46160972 0.024685515 4290005760
2.3667004 0.46454281 0.039058287 4290136320
2.4512081 0.48118997 0.055077475 4290397440
2.4321768 0.4775317 0.069183394 4290266880
2.2989054 0.45145899 0.07915093 4289875200
2.5150957 0.49395138 0.10124648 4290658560
2.6902902 0.52841139 0.12391128 4291180800
3.2412393 0.63663769 0.1676859 4293139200
3.2708542 0.642551 0.18799274 4293269760
3.308275 0.64999878 0.2089179 4293400320
3.3087461 0.65019292 0.22751638 4293400320
3.3052523 0.64960837 0.24557605 4293400320
3.2660325 0.64200574 0.26049837 4293269760
3.321666 0.65303665 0.28272107 4293400320
3.3347824 0.65571642 0.30140474 4293400320
3.3356698 0.6559937 0.31872883 4293530880
3.3112926 0.65130514 0.33318049 4293400320
3.2497203 0.63930285 0.34311301 4293139200
3.3252003 0.65424478 0.36710078 4293400320
3.3167834 0.65269268 0.38179329 4293400320
3.3160055 0.65264267 0.39688703 4293400320
3.3108237 0.65172654 0.41098204 4293400320
3.2787242 0.64551407 0.42112738 4293269760
3.3204913 0.65383536 0.44026852 4293400320
3.3244896 0.65472609 0.45411578 4293530880
3.3222742 0.65439415 0.46660808 4293530880
3.3212361 0.65429395 0.47871915 4293530880
3.3104677 0.65227801 0.48884395 4293400320
3.2957966 0.64949292 0.49774629 4293400320
3.3164105 0.65365726 0.51139665 4293530880
3.3197031 0.65441072 0.52187288 4293530880
3.3076715 0.65214527 0.5293228 4293400320
3.3017652 0.65108627 0.53708559 4293400320
3.3182328 0.65443695 0.54787314 4293530880
3.2953231 0.65002662 0.55153716 4293400320
3.3059368 0.65222442 0.56011575 4293530880
3.3043532 0.65201801 0.566001 4293530880
3.2977464 0.65082097 0.57035321 4293400320
3.3104885 0.65344042 0.5773778 4293530880
3.2962692 0.65074176 0.57904243 4293400320
3.2956827 0.65073252 0.58239412 4293400320
3.309706 0.65360671 0.58764398 4293530880
3.2948422 0.65078014 0.58709645 4293400320
3.3042562 0.65274578 0.59016156 4293530880
3.3041201 0.65282655 0.59083694 4293530880
3.2944355 0.6510219 0.58911592 4293400320
3.3041799 0.65305442 0.59015989 4293530880
3.2947252 0.65129501 0.58709538 4293400320
3.2959173 0.65163887 0.58523291 4293400320
3.3056383 0.65366852 0.58418173 4293530880
3.30708 0.65406257 0.5809769 4293530880
3.2994454 0.65266281 0.57550979 4293400320
3.3008814 0.65305614 0.57095075 4293400320
3.3054128 0.65406191 0.56624645 4293530880
3.3091559 0.65491235 0.56073064 4293530880
3.3044813 0.65409809 0.55314177 4293400320
3.3016586 0.65365016 0.54523247 4293400320
3.2913659 0.6517241 0.53549141 4293400320
3.2756186 0.648718 0.52431095 4293400320
3.2949057 0.65264606 0.51809305 4293400320
3.3241031 0.65853763 0.51268506 4293530880
3.3067157 0.65520698 0.4994995 4293400320
3.3025718 0.6544981 0.48779905 4293400320
3.2611682 0.64701492 0.39844421 4293269760
3.3030369 0.65542924 0.38864994 4293400320
3.3205891 0.6590237 0.37530205 4293400320
3.2857757 0.65223175 0.35573167 4293269760
3.2599366 0.64721811 0.33701944 4293269760
3.2827115 0.65184975 0.32293579 4293269760
3.2897966 0.65336907 0.30680758 4293269760
3.2596214 0.64749253 0.28700706 4293139200
3.1865225 0.63309187 0.26368061 4293008640
2.6841726 0.53344685 0.20792501 4291180800
2.5234058 0.5016095 0.18173143 4290658560
2.3942244 0.47603554 0.15918741 4290266880
2.4340401 0.48402908 0.14805365 4290397440
2.4421933 0.48573369 0.13458568 4290397440
2.4266462 0.48272851 0.11972571 4290266880
2.3019059 0.45801628 0.10025274 4289875200
2.4161649 0.48081315 0.090926193 4290266880
2.4117124 0.48001173 0.076484129 4290266880
2.3800223 0.47379279 0.061330277 4290136320
2.3592806 0.46974954 0.046693537 4290136320
2.4743612 0.49272788 0.034013979 4290528000
2.502929 0.4984988 0.019310795 4290528000
2.5405354 0.50607067 0.0042485376 4290658560
2.5774591 0.51350921 -0.011270817 4290789120
2.5684943 0.51181406 -0.026715176 4290789120
2.6290646 0.52396488 -0.043217562 4291050240
2.5806394 0.51441163 -0.057881471 4290789120
2.6851883 0.53532779 -0.076359972 4291180800
2.7082012 0.54000616 -0.093146376 4291311360
2.8016715 0.55872625 -0.11299466 4291572480
3.0174685 0.60183322 -0.13955429 4292355840
3.0864727 0.61569345 -0.16075809 4292616960
3.1832225 0.63509011 -0.18421109 4292878080
3.2330306 0.64513278 -0.20556681 4293139200
3.2408254 0.64679945 -0.22433645 4293139200
3.2523062 0.64920193 -0.24323002 4293139200
3.2715356 0.65315104 -0.26261428 4293269760
3.2850602 0.655963 -0.28143203 4293269760
3.2813609 0.65533817 -0.29851347 4293269760
3.2370784 0.64661193 -0.31130764 4293139200
3.2758124 0.65445685 -0.33175531 4293269760
3.2839231 0.65618926 -0.34896073 4293269760
3.2853751 0.65659231 -0.3651194 4293269760
3.272079 0.65404922 -0.37917328 4293269760
3.22509 0.6447736 -0.38860688 4293139200
3.2988706 0.65962726 -0.41233543 4293400320
3.2938056 0.65872788 -0.42602074 4293400320
3.3022687 0.66053218 -0.44100031 4293400320
3.2929177 0.65877533 -0.45309621 4293400320
3.2792795 0.65616041 -0.46400028 4293400320
3.2672167 0.6538595 -0.47450709 4293269760
3.2668288 0.65389287 -0.48613232 4293269760
3.2762344 0.65588534 -0.49869934 4293400320
3.2769601 0.6561414 -0.50940877 4293400320
3.2894311 0.65874791 -0.52140951 4293400320
3.2773752 0.65644562 -0.52891904 4293400320
3.2855325 0.658189 -0.53908169 4293400320
3.270009 0.65519106 -0.54471236 4293400320
3.2750688 0.65631396 -0.55312747 4293400320
3.2643864 0.65428388 -0.55822831 4293400320
3.2370405 0.64891469 -0.55975235 4293269760
3.2372303 0.64906049 -0.56535077 4293269760
3.2364039 0.64900255 -0.57011539 4293269760
3.215909 0.64500207 -0.57071662 4293139200
3.2336454 0.64866406 -0.57744992 4293269760
3.15939 0.63388288 -0.56699538 4293008640
3.1676934 0.63565207 -0.5706746 4293008640
3.1674178 0.63570094 -0.57214516 4293008640
3.1720808 0.63674021 -0.57384461 4293008640
3.2139034 0.64523488 -0.58161849 4293139200
3.2139664 0.64535248 -0.5811407 4293139200
3.2300439 0.64868379 -0.5828827 4293269760
3.2330832 0.64939892 -0.58157951 4293269760
3.241905 0.6512748 -0.58063322 4293269760
3.2689717 0.65681452 -0.58225363 4293400320
3.2662258 0.65636861 -0.57785022 4293400320
3.2682695 0.65688431 -0.5736258 4293400320
3.2661328 0.65656018 -0.56800103 4293400320
3.2675111 0.65694189 -0.56233239 4293400320
3.2660053 0.65674382 -0.55551636 4293400320
3.272783 0.6582104 -0.54946005 4293400320
3.2668781 0.65712774 -0.54063499 4293400320
3.2568853 0.65522259 -0.53055012 4293269760
3.2489929 0.65373898 -0.52024752 4293269760
3.2429712 0.65263087 -0.50968963 4293269760
3.2518837 0.65452605 -0.50089401 4293269760
3.2652392 0.65731543 -0.49214244 4293269760
3.2837048 0.66113359 -0.48349616 4293400320
3.2723217 0.6589461 -0.46987069 4293269760
3.2507899 0.65471512 -0.45437619 4293269760
3.2330208 0.65123999 -0.43905041 4293139200
3.2562966 0.65602726 -0.42880034 4293269760
3.2687385 0.65863413 -0.41648957 4293269760
3.24348 0.65364915 -0.39895049 4293139200
3.2193937 0.64889854 -0.38133332 4293139200
3.2388253 0.65291309 -0.36848834 4293139200
3.2569325 0.65666193 -0.35490704 4293269760
3.264003 0.65818769 -0.33960474 4293269760
3.207284 0.64685708 -0.31751117 4293008640
3.1979315 0.64507091 -0.30011731 4293008640
3.1213017 0.62972039 -0.27649716 4292747520
2.992451 0.60383523 -0.24901251 4292225280
2.7944012 0.56398666 -0.21722463 4291572480
2.7485664 0.55482775 -0.19845606 4291441920
2.6840465 0.54189652 -0.17872632 4291180800
2.6888828 0.54295474 -0.16380095 4291180800
2.5908196 0.52324879 -0.14289923 4290919680
2.6063104 0.52645469 -0.12865739 4290919680
2.5648732 0.51817036 -0.11158187 4290789120
2.5001245 0.50517708 -0.093980879 4290528000
2.4584849 0.49684599 -0.077794023 4290397440
2.4860244 0.50248277 -0.063848101 4290528000
2.4677248 0.49886277 -0.048569772 4290397440
2.4447329 0.49429375 -0.033393111 4290397440
2.4543848 0.49631861 -0.018733311 4290397440
2.3975961 0.48491848 -0.0037819543 4290266880
2.4024737 0.48597756 0.010712524 4290266880
2.3121357 0.46779111 0.024329288 4289875200
2.4039874 0.48643059 0.03969194 4290266880
2.4385631 0.49349508 0.054869797 4290397440
2.434252 0.49269789 0.069323927 4290397440
2.2913377 0.46386775 0.078990988 4289875200
2.4940491 0.50494289 0.1005354 4290528000
2.5874362 0.52391279 0.11939212 4290919680
2.9039443 0.58803552 0.15062422 4291964160
3.2213373 0.65235686 0.18539706 4293008640
3.29954 0.66828442 0.20861842 4293269760
3.3097911 0.67046094 0.22785673 4293400320
3.30251 0.6690886 0.24566385 4293400320
3.2622364 0.66103494 0.26050505 4293269760
3.308037 0.67041141 0.28190169 4293400320
3.3260236 0.67415679 0.30097294 4293400320
3.322032 0.67345089 0.3178083 4293400320
3.3074415 0.67059726 0.33318725 4293400320
3.2410655 0.65724844 0.34260759 4293139200
3.3262038 0.67460501 0.36764294 4293400320
3.3141916 0.67227322 0.38194528 4293400320
3.3121464 0.67196161 0.3968938 4293400320
3.2836196 0.66628021 0.40810227 4293269760
3.2661552 0.66284078 0.4200145 4293269760
3.3117654 0.6721943 0.43963343 4293400320
3.3157609 0.67310852 0.45346156 4293400320
3.3086956 0.67177892 0.46525612 4293400320
3.312515 0.67265791 0.47802898 4293400320
3.3017612 0.67057955 0.48813698 4293400320
3.2871084 0.66770923 0.49702337 4293400320
3.3028548 0.67101002 0.50991392 4293400320
3.3119593 0.67296326 0.52127254 4293530880
3.3086567 0.67239761 0.5301019 4293530880
3.3075938 0.67228693 0.53866184 4293530880
3.3008184 0.67101586 0.54565024 4293400320
3.3059864 0.67217129 0.55396467 4293530880
3.3020802 0.67148328 0.56012255 4293530880
3.3053308 0.67224979 0.56683314 4293530880
3.2842357 0.66806775 0.56869358 4293400320
3.2979305 0.67095792 0.57587248 4293530880
3.2788999 0.6671946 0.57668066 4293400320
3.3014915 0.67189533 0.58410251 4293530880
3.2874968 0.66915572 0.58440268 4293400320
3.2909944 0.66997415 0.58710319 4293400320
3.3003967 0.67199451 0.59016836 4293530880
3.2906072 0.67011005 0.58912235 4293400320
3.2818985 0.66844517 0.58757341 4293400320
3.2906656 0.67033762 0.58844727 4293400320
3.2908742 0.6704883 0.58710212 4293400320
3.2968917 0.67182213 0.58609444 4293530880
3.2930832 0.67115533 0.58265704 4293400320
3.3032129 0.67332786 0.5809837 4293530880
3.2955863 0.6718837 0.57551652 4293400320
3.29702 0.67228538 0.57095754 4293400320
3.2976799 0.67252976 0.56559294 4293400320
3.3052838 0.67418987 0.56073743 4293530880
3.3006139 0.67334849 0.55314857 4293400320
3.2929573 0.67189795 0.54444295 4293400320
3.2875125 0.67089826 0.53549814 4293400320
3.2804956 0.66957772 0.5257079 4293400320
3.2862046 0.67085308 0.51734084 4293400320
3.3202095 0.67790258 0.51269192 4293530880
3.3028419 0.67447084 0.49950632 4293400320
3.2841556 0.67076886 0.48566464 4293400320
3.2670715 0.66800231 0.39963445 4293269760
3.2991619 0.67467266 0.38865677 4293400320
3.3127973 0.67757326 0.37487063 4293400320
3.2780223 0.67057824 0.35531855 4293269760
3.2512362 0.66521448 0.33652487 4293139200
3.2788577 0.67097539 0.32294255 4293269760
3.2908123 0.67353392 0.30726674 4293269760
3.2509127 0.66548556 0.28658667 4293139200
2.9015353 0.59411401 0.24057132 4291964160
2.5668631 0.52572757 0.19916546 4290789120
2.4886856 0.50981581 0.17947298 4290528000
2.4435959 0.50067204 0.16262153 4290397440
2.4409583 0.50021702 0.14864607 4290397440
2.4344301 0.49896517 0.13432489 4290397440
2.4030917 0.49263147 0.11872531 4290266880
2.3240228 0.47651812 0.10131843 4290005760
2.3761199 0.48727298 0.089559987 4290136320
2.3765612 0.48744634 0.075489454 4290136320
2.3400064 0.48003727 0.060405586 4290005760
2.319284 0.47587118 0.045991469 4290005760
2.4479389 0.50232935 0.033713803 4290397440
2.4715738 0.50726134 0.019118184 4290528000
2.4954205 0.51223844 0.0042146537 4290528000
2.5469947 0.52290493 -0.011125415 4290789120
2.5419598 0.52196091 -0.026447995 4290658560
2.4999144 0.51342213 -0.041048881 4290528000
2.5354869 0.52081007 -0.056900546 4290658560
2.6585233 0.5461539 -0.075669408 4291050240
2.6668282 0.54795176 -0.091800556 4291180800
2.6489124 0.54436606 -0.10685839 4291050240
2.7163808 0.5583145 -0.12559606 4291311360
2.7499042 0.56529516 -0.14320041 4291441920
2.9631143 0.60919309 -0.17155051 4292225280
3.1538281 0.64848328 -0.2007205 4292878080
3.2292693 0.66409701 -0.22378974 4293139200
3.2396767 0.66634852 -0.24256039 4293139200
3.2659571 0.67186379 -0.26246861 4293269760
3.2763021 0.67410427 -0.28100416 4293269760
3.2774868 0.67446154 -0.29850668 4293269760
3.2186294 0.66246903 -0.30988511 4293139200
3.2616155 0.67142355 -0.33069614 4293269760
3.2751732 0.67432582 -0.34843332 4293269760
3.2677779 0.67291707 -0.36357969 4293269760
3.2652807 0.67251575 -0.37882492 4293269760
3.2164154 0.66256899 -0.38801107 4293139200
3.2949712 0.67885351 -0.4123286 4293400320
3.3035142 0.68072593 -0.42778188 4293400320
3.2935088 0.67877847 -0.44034195 4293400320
3.2982426 0.67986637 -0.45436379 4293400320
3.2851014 0.67727172 -0.46537229 4293400320
3.2707636 0.67442936 -0.47558153 4293269760
3.2581179 0.6719346 -0.48540136 4293269760
3.2652373 0.67351294 -0.49760416 4293269760
3.2730815 0.67524099 -0.50940198 4293400320
3.2749765 0.67574263 -0.51972187 4293400320
3.2638218 0.67355299 -0.52734494 4293269760
3.2623043 0.6733501 -0.53588939 4293269760
3.2709687 0.67524743 -0.54551375 4293400320
3.2576632 0.67261207 -0.55082744 4293269760
3.2508607 0.67131758 -0.55656362 4293269760
3.2332048 0.66778225 -0.55974567 4293269760
3.2247066 0.66613597 -0.5638212 4293269760
3.2238829 0.66607338 -0.568573 4293269760
3.2120962 0.66374665 -0.57070994 4293139200
3.2163072 0.66472298 -0.57502276 4293139200
3.1691451 0.65508741 -0.56942105 4293008640
3.1591146 0.6531198 -0.56979614 4293008640
3.1549821 0.65237004 -0.57056516 4293008640
3.2101417 0.66387331 -0.58143252 4293139200
3.2052686 0.66297144 -0.58073616 4293139200
3.2053308 0.66308922 -0.58025908 4293139200
3.2262094 0.66751081 -0.58287603 4293269760
3.2340662 0.66924071 -0.5824433 4293269760
3.2510819 0.67286515 -0.58296824 4293269760
3.251585 0.67307466 -0.57983261 4293269760
3.2575221 0.6744082 -0.57698679 4293400320
3.2595618 0.67493546 -0.57276893 4293400320
3.2622519 0.67559719 -0.56799424 4293400320
3.2636282 0.67598689 -0.56232554 4293400320
3.2669525 0.67677975 -0.55633414 4293400320
3.2640617 0.67628574 -0.54863906 4293400320
3.2542953 0.67436749 -0.53918296 4293269760
3.248178 0.67320412 -0.52975261 4293269760
3.235456 0.67067206 -0.51868552 4293269760
3.2245977 0.6685251 -0.50739199 4293139200
3.2431741 0.67247641 -0.50013846 4293269760
3.2700715 0.67815316 -0.4934552 4293400320
3.2693708 0.67811108 -0.48194745 4293269760
3.2684269 0.67801827 -0.46986386 4293269760
3.2323692 0.67064482 -0.45232621 4293139200
3.2262566 0.6694786 -0.43864593 4293139200
3.2436798 0.67319316 -0.42763713 4293269760
3.2512438 0.67486352 -0.41474101 4293269760
3.2347562 0.67154437 -0.39834282 4293139200
3.2155583 0.66766167 -0.38132659 4293139200
3.2301009 0.67077965 -0.36792496 4293139200
3.2464714 0.67427772 -0.35417905 4293139200
3.2562168 0.67640144 -0.33919013 4293269760
3.1937158 0.66352594 -0.3165336 4293008640
3.1241159 0.64917237 -0.29349679 4292747520
2.9271226 0.60835737 -0.25949675 4292094720
2.7196512 0.56535369 -0.22642381 4291311360
2.6420012 0.54930645 -0.20552631 4291050240
2.6837609 0.55806428 -0.19396418 4291180800
2.637857 0.54860789 -0.17582718 4291050240
2.6299675 0.54704928 -0.16036165 4291050240
2.5544879 0.53144062 -0.14103577 4290789120
2.5562599 0.53188735 -0.12630019 4290789120
2.523663 0.52518809 -0.1098884 4290658560
2.450177 0.50998354 -0.092174426 4290397440
2.42717 0.50527352 -0.076868899 4290266880
2.4507568 0.51025438 -0.062988669 4290397440
2.4412839 0.5083586 -0.04808414 4290397440
2.4144011 0.50283962 -0.032992326 4290266880
2.4181654 0.50369692 -0.018448435 4290266880
2.3614433 0.49196479 -0.0036981846 4290136320
2.3761051 0.4950892 0.010631245 4290136320
2.2476962 0.46842709 0.023735462 4289744640
2.385299 0.49714917 0.039448261 4290136320
2.4307525 0.50668842 0.054768555 4290397440
2.4225323 0.50505066 0.06908498 4290266880
2.2934883 0.47824204 0.079160437 4289875200
2.481282 0.51743996 0.10015361 4290528000
2.517839 0.52513397 0.11637672 4290658560
2.6623323 0.55532581 0.13842869 4291180800
3.1531215 0.65771061 0.18173574 4292878080
3.277025 0.68363845 0.20746158 4293269760
3.3009446 0.6887266 0.22753008 4293400320
3.2936733 0.68731189 0.24531025 4293269760
3.2534492 0.67902386 0.26012483 4293139200
3.3089526 0.6907022 0.28232172 4293400320
3.3220391 0.69353461 0.30097991 4293400320
3.3180516 0.69280529 0.31781527 4293400320
3.2986069 0.68884999 0.332706 4293400320
3.232312 0.67511493 0.34210229 4293139200
3.3076177 0.69093567 0.36604381 4293400320
3.3102181 0.69158137 0.38195226 4293400320
3.2897015 0.68740022 0.39469659 4293400320
3.2893994 0.68743968 0.40931192 4293400320
3.2573812 0.68085456 0.41939935 4293269760
3.3126464 0.69250184 0.44028229 4293400320
3.3069313 0.69141155 0.45280749 4293400320
3.3095739 0.69206762 0.46594247 4293400320
3.2949691 0.68911928 0.47608444 4293400320
3.3026419 0.69082695 0.48885766 4293400320
3.2928457 0.68888319 0.49848962 4293400320
3.2988889 0.69025099 0.5099209 4293400320
3.3079817 0.69225717 0.52127951 4293530880
3.2998471 0.69066083 0.52933651 4293400320
3.3036203 0.69155526 0.53866881 4293530880
3.2871895 0.68822289 0.54406458 4293400320
3.3020136 0.69143015 0.55397165 4293530880
3.2932835 0.68970877 0.55931282 4293400320
3.2917039 0.68948394 0.5651893 4293400320
3.2899382 0.68922031 0.57036686 4293400320
3.2891407 0.68915945 0.57503939 4293400320
3.2701335 0.68528539 0.57584161 4293400320
3.2878757 0.6891076 0.58240783 4293400320
3.2738984 0.68628645 0.58270001 4293400320
3.2918558 0.69015545 0.58796787 4293530880
3.2867835 0.68920004 0.58845592 4293400320
3.2866468 0.68927902 0.58912927 4293400320
3.2866251 0.68938226 0.58912957 4293400320
3.281883 0.68849623 0.58759451 4293400320
3.2917325 0.69066966 0.5879668 4293530880
3.2842424 0.68920761 0.58456278 4293400320
3.2891166 0.69033879 0.58266395 4293400320
3.2944105 0.69155848 0.58014476 4293530880
3.2916155 0.6910817 0.5755235 4293400320
3.2882218 0.69047934 0.5701313 4293400320
3.2937052 0.6917401 0.56559986 4293400320
3.2868164 0.69040436 0.55829448 4293400320
3.2869761 0.69054824 0.55154163 4293400320
3.27546 0.68824071 0.54222018 4293400320
3.2787149 0.6890347 0.5347203 4293400320
3.2765384 0.68868834 0.52571481 4293400320
3.2822399 0.68999702 0.51734775 4293400320
3.3016875 0.69419461 0.51046461 4293400320
3.3036966 0.69472903 0.50024295 4293400320
3.2898774 0.69193697 0.48709908 4293400320
3.2534068 0.68499136 0.3984578 4293269760
3.2854531 0.69184732 0.38752344 4293400320
3.294203 0.69380248 0.37323415 4293400320
3.2691936 0.68865168 0.35480061 4293269760
3.2413425 0.68290102 0.33591777 4293139200
3.2700219 0.6890527 0.32247236 4293269760
3.2868319 0.69270653 0.30727369 4293269760
3.1953075 0.67354149 0.2820662 4293008640
2.6957157 0.56839794 0.22392887 4291311360
2.5164425 0.53071606 0.19553357 4290658560
2.485673 0.52431905 0.17947826 4290528000
2.4406371 0.5149129 0.1626267 4290397440
2.4331181 0.51341295 0.14835753 4290397440
2.4217103 0.5110926 0.13379836 4290266880
2.4184737 0.51049471 0.11962 4290266880
2.2742813 0.48016545 0.099315353 4289744640
2.3448832 0.49513933 0.088518523 4290005760
2.3453183 0.49531329 0.074615948 4290005760
2.3136938 0.4887217 0.059823375 4289875200
2.2881019 0.48340127 0.045456819 4289875200
2.4068146 0.50854182 0.033222824 4290266880
2.4450943 0.51670849 0.018959695 4290397440
2.3550599 0.4977816 0.0040919171 4290136320
2.4969413 0.52783042 -0.01087998 4290528000
2.5007195 0.52871615 -0.026017139 4290528000
2.4685106 0.52199888 -0.040556181 4290528000
2.4903491 0.52670014 -0.055919666 4290528000
2.6083524 0.551727 -0.07429383 4290919680
2.6215446 0.55460703 -0.090317309 4291050240
2.6075697 0.55174434 -0.10528707 4290919680
2.6661694 0.56422663 -0.12338789 4291180800
2.6996648 0.5714038 -0.14071926 4291311360
2.7222588 0.57627732 -0.15765134 4291311360
2.9242749 0.61911017 -0.18620637 4292094720
3.1328998 0.66335541 -0.21731925 4292747520
3.2259824 0.68316346 -0.24181695 4293139200
3.2668633 0.69192892 -0.26285657 4293269760
3.2723188 0.69319767 -0.28099719 4293269760
3.2598598 0.69067365 -0.29724881 4293269760
3.2147148 0.68122685 -0.30987826 4293139200
3.2527809 0.68940097 -0.33019266 4293269760
3.2663238 0.69238269 -0.34790573 4293269760
3.2589393 0.69093132 -0.36302868 4293269760
3.2545154 0.69010675 -0.37802574 4293269760
3.2125003 0.68131465 -0.38800424 4293139200
3.2925103 0.69838542 -0.41251656 4293400320
3.2810538 0.69607008 -0.42537552 4293400320
3.2894979 0.69797349 -0.44033495 4293400320
3.2845314 0.69703323 -0.45301512 4293400320
3.266566 0.69333529 -0.46329713 4293269760
3.2619364 0.69246507 -0.4748674 4293269760
3.2541478 0.69092393 -0.48539445 4293269760
3.2525508 0.69069612 -0.49626464 4293269760
3.264257 0.69329149 -0.5086394 4293400320
3.2661512 0.69380456 -0.5189448 4293400320
3.2541211 0.69136119 -0.5264098 4293269760
3.2544627 0.691544 -0.53524536 4293269760
3.2582908 0.69246697 -0.54405212 4293400320
3.2585137 0.69262421 -0.5516395 4293400320
3.2382123 0.68842083 -0.55506456 4293269760
3.2424867 0.68943781 -0.56203759 4293269760
3.2159503 0.68390703 -0.56296831 4293139200
3.2286215 0.68670779 -0.5701018 4293269760
3.2033565 0.68144459 -0.56984383 4293139200
3.2171965 0.68449378 -0.57588029 4293269760
3.2070591 0.68244487 -0.57695043 4293139200
3.1465874 0.66968983 -0.56822002 4293008640
3.1463122 0.66973531 -0.56968433 4293008640
3.2158492 0.6846329 -0.58317637 4293269760
3.2061665 0.6826784 -0.58160496 4293139200
3.2220891 0.68617219 -0.58400917 4293269760
3.2174501 0.68529028 -0.5819959 4293269760
3.2204807 0.68604052 -0.58069533 4293269760
3.224463 0.6869933 -0.57888585 4293269760
3.2476082 0.69202673 -0.57982564 4293269760
3.2535374 0.69339484 -0.57697988 4293400320
3.2459357 0.69188088 -0.57106197 4293269760
3.2625971 0.69553524 -0.56874526 4293400320
3.2509551 0.69315964 -0.56081742 4293269760
3.2533073 0.6937654 -0.55467802 4293269760
3.2600658 0.69531018 -0.54863209 4293400320
3.2503109 0.69333494 -0.53917599 4293269760
3.2442005 0.69213593 -0.52974564 4293269760
3.2215412 0.68740749 -0.51707655 4293139200
3.2158153 0.68628871 -0.50662142 4293139200
3.2295313 0.68931627 -0.49863395 4293269760
3.2573578 0.6953547 -0.49212864 4293269760
3.2573879 0.69546396 -0.48075941 4293269760
3.25314 0.69466013 -0.4682278 4293269760
3.2332511 0.69051772 -0.45300037 4293269760
3.2164881 0.6870411 -0.43784493 4293139200
3.2374225 0.69161111 -0.42732817 4293269760
3.2424047 0.69277614 -0.414112 4293269760
3.2285018 0.6899085 -0.39805278 4293139200
3.2019 0.68432754 -0.38016152 4293008640
3.2212784 0.68856668 -0.36736143 4293139200
3.2376258 0.6921593 -0.35363862 4293139200
3.242492 0.69329959 -0.33816361 4293139200
3.1722002 0.67837846 -0.31477159 4293008640
2.9650497 0.63420147 -0.27880624 4292225280
2.7053883 0.57878649 -0.24000305 4291311360
2.6783009 0.57307887 -0.22322594 4291180800
2.5958548 0.55553228 -0.20215152 4290919680
2.5783415 0.55186695 -0.18650331 4290919680
2.6024153 0.55709547 -0.17365144 4290919680
2.5984285 0.55632269 -0.15860911 4290919680
2.5044806 0.53630239 -0.13840725 4290658560
2.5296767 0.54177082 -0.12511888 4290658560
2.4932058 0.53404325 -0.10867107 4290528000
2.4285977 0.52029091 -0.09145622 4290397440
2.4708018 0.52940017 -0.07837671 4290528000
2.4193943 0.51846939 -0.06223277 4290266880
2.405041 0.51546997 -0.047398306 4290266880
2.3684101 0.50769866 -0.032365467 4290136320
2.3682559 0.50773817 -0.018048419 4290136320
2.3311579 0.49986339 -0.003628317 4290005760
2.3350456 0.50076777 0.010496015 4290005760
2.2892818 0.49103272 0.024171451 4289875200
2.3872502 0.51209921 0.039530382 4290136320
2.4228711 0.51980758 0.054667424 4290266880
2.4195483 0.51916957 0.069090188 4290266880
2.2906625 0.49160942 0.079165369 4289875200
2.4831102 0.5329482 0.10035247 4290528000
2.4886396 0.53421026 0.11519515 4290528000
2.5247545 0.54203343 0.13154455 4290658560
2.8285718 0.60728961 0.1634437 4291703040
3.2534678 0.69854361 0.2062436 4293139200
3.2919977 0.70691198 0.22720358 4293269760
3.2993646 0.7085945 0.24603842 4293400320
3.2445636 0.69693291 0.25974476 4293139200
3.3 0.70893455 0.28191572 4293400320
3.313072 0.71184325 0.3005484 4293400320
3.3139586 0.71213621 0.3178224 4293400320
3.2906449 0.70723158 0.33232257 4293400320
3.2331862 0.69499099 0.34262136 4293139200
3.3083961 0.71124959 0.3665863 4293400320
3.2964165 0.70877844 0.38084328 4293400320
3.3002067 0.7096957 0.39644384 4293400320
3.2804852 0.70555985 0.40871763 4293400320
3.245748 0.69819516 0.41843036 4293269760
3.2988594 0.7097156 0.43900564 4293400320
3.3125372 0.71276027 0.4541367 4293530880
3.3006423 0.71030629 0.46527019 4293400320
3.2996109 0.71018839 0.47734612 4293400320
3.2937224 0.7090258 0.48815104 4293400320
3.2791042 0.70598477 0.49703735 4293400320
3.2861106 0.70759636 0.50858742 4293400320
3.2893977 0.70840818 0.51900965 4293400320
3.2957668 0.70988381 0.52934366 4293400320
3.2850525 0.70768237 0.53632158 4293400320
3.3014607 0.71132028 0.54709768 4293530880
3.2795982 0.70671803 0.55091238 4293400320
3.2940309 0.70993185 0.56013662 4293530880
3.2837739 0.7078284 0.56453609 4293400320
3.2762272 0.70630854 0.56870759 4293400320
3.2850692 0.70831966 0.57504648 4293400320
3.2843907 0.70827997 0.57906324 4293400320
3.2799513 0.70742983 0.58173424 4293400320
3.2833281 0.70826459 0.58510047 4293400320
3.2925937 0.71036953 0.58883274 4293530880
3.282712 0.70834643 0.58846301 4293400320
3.2825747 0.70842451 0.58913636 4293400320
3.2825525 0.70852768 0.58913666 4293400320
3.2874451 0.70969146 0.58932102 4293530880
3.2732072 0.70672798 0.58540064 4293400320
3.2888386 0.71020979 0.58610851 4293530880
3.2898545 0.71053821 0.5835219 4293530880
3.2816544 0.70887762 0.57862914 4293400320
3.2913873 0.71108848 0.57620263 4293530880
3.2889616 0.71067482 0.57097161 4293400320
3.2896187 0.71092695 0.56560701 4293400320
3.2972028 0.71267563 0.56075156 4293530880
3.2742147 0.70782048 0.55009621 4293400320
3.2800789 0.709198 0.5436607 4293400320
3.2794709 0.70917755 0.53551221 4293400320
3.2637787 0.70589703 0.52433169 4293400320
3.2781637 0.70911753 0.51735491 4293400320
3.2975864 0.71342838 0.51047176 4293400320
3.2947578 0.71292919 0.49952042 4293400320
3.2809529 0.71005613 0.48639244 4293400320
3.2493603 0.70394504 0.39846486 4293269760
3.2813661 0.71098769 0.38753057 4293400320
3.2904499 0.71306866 0.37328026 4293400320
3.2677007 0.70825541 0.35508585 4293269760
3.2324464 0.70073175 0.3354235 4293139200
3.2610872 0.70704985 0.32200232 4293269760
3.2593806 0.70679361 0.30510932 4293269760
2.899554 0.62891912 0.25647622 4291964160
2.5863142 0.56111848 0.21519697 4290919680
2.4952719 0.54147023 0.19415075 4290528000
2.4728265 0.53669041 0.17878692 4290528000
2.4375954 0.52913618 0.162632 4290397440
2.4252071 0.5265345 0.1480691 4290397440
2.4186912 0.52520597 0.13380364 4290266880
2.4154582 0.52458936 0.11962526 4290266880
2.32778 0.50564653 0.10173409 4290005760
2.3472109 0.50994587 0.088717721 4290005760
2.3052745 0.50092453 0.073469773 4289875200
2.2873602 0.49711603 0.059241183 4289875200
2.2520266 0.4895235 0.044829126 4289744640
2.3803592 0.5174759 0.03292267 4290136320
2.4039319 0.5226804 0.018698867 4290266880
2.4238091 0.52708369 0.0041641137 4290266880
2.390538 0.51993924 -0.010346214 4290266880
2.4604654 0.53522116 -0.025597224 4290397440
2.5071442 0.54545432 -0.041268319 4290658560
2.4491379 0.53293175 -0.055029571 4290397440
2.5718832 0.55970776 -0.073317856 4290789120
2.5811586 0.56181538 -0.089005902 4290919680
2.5720906 0.55993384 -0.10395665 4290789120
2.6208637 0.57063466 -0.12140918 4291050240
2.6543288 0.57800812 -0.13849601 4291180800
2.6671517 0.58089185 -0.15461418 4291180800
2.7647338 0.60222435 -0.1761689 4291572480
2.8809907 0.6276288 -0.19995219 4291964160
3.2065043 0.69860095 -0.24064271 4293008640
3.2432954 0.70672476 -0.2612699 4293139200
3.2561948 0.7096476 -0.27994958 4293269760
3.2657254 0.71183741 -0.29815477 4293269760
3.2019365 0.69805431 -0.3090218 4293008640
3.2389865 0.70623899 -0.32919249 4293139200
3.2573755 0.71035933 -0.34737799 4293269760
3.2500865 0.70888394 -0.36248696 4293269760
3.2455857 0.70801568 -0.37745175 4293269760
3.1948929 0.69707549 -0.3863478 4293008640
3.2819881 0.71617901 -0.4117038 4293400320
3.2720964 0.71413511 -0.42473698 4293400320
3.2718136 0.71418643 -0.43850362 4293400320
3.2760589 0.71522546 -0.45240441 4293400320
3.2673094 0.71342903 -0.46397936 4293400320
3.2491419 0.70957643 -0.47358736 4293269760
3.2436898 0.70849788 -0.48443192 4293269760
3.2533026 0.71070749 -0.49699786 4293269760
3.2553332 0.71126205 -0.50787663 4293269760
3.2533653 0.71094334 -0.51755154 4293269760
3.2596865 0.71243471 -0.52797002 4293400320
3.2542362 0.71135485 -0.53587532 4293269760
3.2542009 0.71145749 -0.54404497 4293400320
3.2399666 0.70845717 -0.54917538 4293269760
3.2341464 0.70729452 -0.55505747 4293269760
3.2287834 0.70623124 -0.56035459 4293269760
3.2022827 0.70054626 -0.56126922 4293139200
3.2159023 0.70363152 -0.56855911 4293269760
3.1993318 0.70011544 -0.5698368 4293139200
3.1987209 0.70008862 -0.57327998 4293139200
3.2030284 0.70113736 -0.5769434 4293139200
3.142632 0.68803012 -0.56821311 4293008640
3.1423566 0.68807399 -0.56967741 4293008640
3.2021875 0.70127177 -0.58141863 4293139200
3.1925166 0.69926059 -0.57984668 4293139200
3.1887302 0.69853669 -0.57867038 4293139200
3.2085936 0.70299035 -0.58111566 4293139200
3.2125812 0.70396858 -0.57999188 4293269760
3.2252159 0.70684063 -0.57974565 4293269760
3.2387099 0.70990151 -0.57895637 4293269760
3.2435837 0.71107447 -0.57592982 4293269760
3.2514756 0.7129088 -0.57275486 4293400320
3.2445292 0.71149176 -0.56629521 4293269760
3.2507138 0.71295196 -0.56147748 4293400320
3.2443929 0.71167099 -0.55384636 4293269760
3.2511406 0.71325457 -0.54781073 4293269760
3.2462161 0.7122789 -0.53916889 4293269760
3.2330232 0.70948946 -0.52857614 4293269760
3.2213409 0.7070303 -0.51769155 4293269760
3.2214153 0.70714909 -0.50814164 4293269760
3.2219937 0.70737833 -0.49808937 4293269760
3.2484202 0.71327919 -0.49138844 4293269760
3.2532804 0.71444857 -0.48075226 4293269760
3.2370925 0.71099812 -0.46649358 4293269760
3.2059498 0.70426351 -0.44972423 4293139200
3.2075899 0.70472443 -0.43717575 4293139200
3.2188084 0.7072885 -0.42539373 4293139200
3.2414544 0.71236283 -0.4145081 4293269760
3.219579 0.70765924 -0.39744481 4293139200
3.1977382 0.70296174 -0.38014013 4293008640
3.211585 0.7061038 -0.36670905 4293139200
3.2303903 0.71033603 -0.35328567 4293139200
3.2099354 0.70594096 -0.33517 4293139200
3.0633585 0.67382234 -0.30429429 4292616960
2.7847521 0.61266971 -0.26207832 4291572480
2.6552675 0.58428657 -0.23581979 4291180800
2.6330605 0.57948542 -0.21970071 4291050240
2.5507007 0.56145346 -0.19885334 4290789120
2.5331926 0.55768108 -0.18343586 4290789120
2.5659912 0.56497455 -0.17140995 4290789120
2.5580978 0.56331688 -0.15631443 4290789120
2.5543261 0.56256557 -0.14137232 4290789120
2.5030663 0.55136275 -0.12393754 4290658560
2.4568777 0.541273 -0.10719404 4290397440
2.3874638 0.52606744 -0.089987546 4290266880
2.3557172 0.51915091 -0.074733153 4290136320
2.3831389 0.52526158 -0.061347466 4290136320
2.3746574 0.52346677 -0.046832588 4290136320
2.3419759 0.51634097 -0.03202121 4290005760
2.3515854 0.51852971 -0.017928073 4290136320
2.2950022 0.50613499 -0.0035445751 4289875200
2.3422234 0.51661086 0.010538529 4290005760
2.2531803 0.4970586 0.023853261 4289744640
2.3793435 0.5249365 0.03945864 4290136320
2.419801 0.53392833 0.054672763 4290266880
2.4164822 0.53327078 0.069095522 4290266880
2.2740951 0.50194705 0.078709349 4289875200
2.4702046 0.54526716 0.099970885 4290528000
2.475729 0.54656154 0.11475633 4290528000
2.4460866 0.54009849 0.12767336 4290397440
2.6188917 0.57830036 0.15167376 4291050240
3.1050222 0.68565273 0.19718088 4292747520
3.2644391 0.72093099 0.22560948 4293269760
3.271805 0.7226575 0.24431503 4293269760
3.2404478 0.71583611 0.25975195 4293139200
3.2958133 0.72816032 0.281923 4293400320
3.3088679 0.73114496 0.30055571 4293400320
3.3097529 0.73144293 0.31782973 4293400320
3.2864683 0.72640246 0.33232984 4293400320
3.2242253 0.71275431 0.34211639 4293139200
3.3041956 0.73052347 0.3665936 4293400320
3.2958198 0.72877556 0.38126338 4293400320
3.2911661 0.7278499 0.39587107 4293400320
3.2675943 0.72274256 0.40764236 4293269760
3.2492259 0.71878421 0.41941357 4293269760
3.2898264 0.72786283 0.438371 4293400320
3.2938104 0.72884721 0.45216089 4293400320
3.2925782 0.72867835 0.46473396 4293400320
3.300251 0.73047942 0.47805038 4293400320
3.2808375 0.72628903 0.48687357 4293400320
3.2614119 0.72209489 0.49500149 4293400320
3.2819319 0.72673923 0.50859469 4293400320
3.2852142 0.72757006 0.51901692 4293400320
3.2877159 0.72822857 0.52873307 4293400320
3.2905159 0.72895348 0.53789842 4293400320
3.2837656 0.72756422 0.54487526 4293400320
3.2754247 0.72582257 0.55091959 4293400320
3.2802062 0.726987 0.5585106 4293400320
3.2795939 0.72695714 0.56454337 4293400320
3.2720563 0.72539324 0.5687148 4293400320
3.2808862 0.72745585 0.57505375 4293400320
3.2715478 0.72549295 0.57754779 4293400320
3.2757738 0.72653615 0.58174151 4293400320
3.2752979 0.72653759 0.58442396 4293400320
3.2749333 0.72656399 0.5864383 4293400320
3.2785287 0.72746873 0.58847028 4293400320
3.2697358 0.72562653 0.58759439 4293400320
3.2745214 0.72679579 0.58845538 4293400320
3.2736368 0.72670782 0.58760887 4293400320
3.2690337 0.72579497 0.58540791 4293400320
3.2759876 0.72744673 0.58457714 4293400320
3.2760384 0.72756708 0.58182746 4293400320
3.2774682 0.72799385 0.57863647 4293400320
3.2785268 0.72833854 0.57469785 4293400320
3.284765 0.7298336 0.57097888 4293400320
3.2806063 0.72902054 0.56478888 4293400320
3.2881787 0.73081297 0.55994219 4293530880
3.2787056 0.72881967 0.55155605 4293400320
3.2758908 0.72830534 0.54366797 4293400320
3.2617857 0.72528225 0.53332204 4293400320
3.2596102 0.72490966 0.5243389 4293400320
3.2691519 0.72714162 0.51660317 4293400320
3.2933736 0.73263794 0.51047909 4293400320
3.2857192 0.73104876 0.49879804 4293400320
3.2798545 0.72985727 0.486857 4293400320
3.2316339 0.71985424 0.39681503 4293139200
3.2723188 0.72902441 0.38696772 4293269760
3.2862391 0.73223794 0.37328759 4293400320
3.2586648 0.72621149 0.35456821 4293269760
3.2331643 0.72064519 0.33593202 4293139200
3.2335932 0.72085369 0.31971928 4293139200
3.1627927 0.70519173 0.29651451 4292878080
2.703254 0.60289651 0.23956531 4291311360
2.5156679 0.56118214 0.20964737 4290658560
2.4602315 0.54891282 0.19170198 4290528000
2.4696572 0.55110079 0.17879243 4290528000
2.4344709 0.54334158 0.16263743 4290397440
2.4220982 0.54066789 0.14807451 4290397440
2.4204631 0.54038852 0.13407488 4290397440
2.3977368 0.53540385 0.11891763 4290266880
2.3286948 0.52008337 0.10190663 4290005760
2.33588 0.52176905 0.088415109 4290005760
2.3251231 0.5194506 0.074183255 4290005760
2.2658868 0.50630927 0.058781359 4289744640
2.2120554 0.49437058 0.044126969 4289614080
2.3499789 0.52524751 0.032571636 4290136320
2.36376 0.52840841 0.018444827 4290136320
2.3875146 0.53379816 0.0041383621 4290266880
2.355262 0.52667713 -0.010176 4290136320
2.4290047 0.54323781 -0.025275489 4290397440
2.3871243 0.53396428 -0.039251518 4290266880
2.4089158 0.53891939 -0.054162201 4290266880
2.5363865 0.56750059 -0.072370425 4290789120
2.5398035 0.56835425 -0.087660171 4290789120
2.5171037 0.56336778 -0.1018234 4290658560
2.5609524 0.5732637 -0.11874232 4290789120
2.6129069 0.5849759 -0.13647906 4291050240
2.6266992 0.58815372 -0.15243496 4291050240
2.6124594 0.58505994 -0.16658074 4291050240
2.7984242 0.62677038 -0.19441831 4291703040
3.0872178 0.69151008 -0.23192036 4292616960
3.2115984 0.71946329 -0.25902814 4293139200
3.245544 0.72717661 -0.27938277 4293269760
3.2469435 0.72760391 -0.29680729 4293269760
3.2198837 0.72165704 -0.31115869 4293139200
3.2331088 0.72473234 -0.32901058 4293139200
3.2516317 0.72899526 -0.34720448 4293269760
3.2493827 0.72860491 -0.36287025 4293269760
3.2326798 0.72497487 -0.37642407 4293139200
3.1935346 0.71631318 -0.38667592 4293008640
3.2777598 0.73530602 -0.41169646 4293400320
3.2543285 0.73016614 -0.42296177 4293269760
3.267597 0.73325443 -0.43849632 4293400320
3.2674835 0.73334205 -0.45179316 4293400320
3.249567 0.72943598 -0.4620418 4293269760
3.2449524 0.7285127 -0.47358009 4293269760
3.2410483 0.72774839 -0.48465592 4293269760
3.2442815 0.72858536 -0.49625027 4293269760
3.2463114 0.7291522 -0.5071137 4293269760
3.2443476 0.72882247 -0.51677424 4293269760
3.2371709 0.72732198 -0.5249849 4293269760
3.240828 0.72825354 -0.53434551 4293269760
3.2471242 0.72977781 -0.54355484 4293269760
3.2357838 0.7273407 -0.54916811 4293269760
3.2299705 0.72614419 -0.55505025 4293269760
3.2294233 0.72613037 -0.5611853 4293269760
3.1943002 0.71834606 -0.56058526 4293139200
3.1973279 0.71913397 -0.56599253 4293139200
3.1903925 0.71768224 -0.56897038 4293139200
3.1993923 0.71981245 -0.57413721 4293139200
3.1293476 0.7041688 -0.56436223 4292878080
3.1337664 0.70526683 -0.56733423 4293008640
3.1334913 0.70530903 -0.56879628 4293008640
3.133327 0.70537597 -0.5696156 4293008640
3.1845462 0.71700364 -0.57913899 4293139200
3.1846061 0.71712214 -0.57866323 4293139200
3.1948371 0.71952951 -0.57936203 4293139200
3.208425 0.72269291 -0.57998466 4293269760
3.2114346 0.72347552 -0.57800472 4293269760
3.2393236 0.72985983 -0.57981128 4293269760
3.2393856 0.72997928 -0.57592255 4293269760
3.237653 0.72969431 -0.57104754 4293269760
3.2446547 0.73137641 -0.56704587 4293269760
3.2378476 0.72994781 -0.55996901 4293269760
3.2401912 0.73058027 -0.55383909 4293269760
3.2446673 0.73169321 -0.54742068 4293269760
3.2275679 0.72794342 -0.536753 4293269760
3.2214661 0.7266714 -0.52735925 4293269760
3.2171667 0.72580504 -0.51768428 4293269760
3.2075996 0.72375041 -0.50660717 4293139200
3.2129951 0.72506917 -0.49733335 4293139200
3.2442091 0.73221135 -0.49138111 4293269760
3.2538896 0.73449779 -0.48146147 4293269760
3.2242019 0.72790283 -0.46522778 4293269760
3.2105734 0.72492945 -0.45095474 4293139200
3.1937606 0.72123641 -0.4358443 4293139200
3.2146327 0.72604769 -0.42538649 4293139200
3.2275701 0.72906888 -0.41325679 4293139200
3.2154012 0.72642267 -0.39743754 4293139200
3.193588 0.72159779 -0.38013291 4293008640
3.200726 0.72330946 -0.36593351 4293139200
3.1931703 0.72170264 -0.3496452 4293008640
3.0878367 0.69800818 -0.32277262 4292747520
2.859745 0.64657342 -0.28432351 4291833600
2.6690722 0.60357922 -0.25144488 4291180800
2.6148934 0.59141845 -0.23250686 4291050240
2.5878379 0.58538449 -0.21617553 4290919680
2.5104301 0.56796682 -0.19593807 4290658560
2.4929297 0.56408793 -0.18072446 4290658560
2.5159388 0.56936741 -0.16824789 4290658560
2.5216699 0.57074094 -0.15426072 4290658560
2.4182005 0.5474171 -0.13391542 4290397440
2.4627919 0.55757809 -0.12207033 4290528000
2.4166534 0.54721594 -0.10554392 4290266880
2.3570676 0.53380829 -0.088931628 4290136320
2.3243816 0.52648419 -0.073808037 4290005760
2.3517628 0.53275251 -0.060591582 4290136320
2.3384125 0.5298028 -0.046146784 4290005760
2.3067453 0.52270567 -0.031549811 4289875200
2.3153646 0.524728 -0.017643245 4290005760
2.3060374 0.52268696 -0.0035726014 4289875200
2.3394816 0.53033197 0.010544958 4290005760
2.2453694 0.50908685 0.023810806 4289744640
2.3811204 0.53990823 0.039541028 4290136320
2.4166489 0.54803091 0.054678231 4290266880
2.4084592 0.54624933 0.068965368 4290266880
2.3806558 0.54002225 0.082415223 4290136320
2.4669855 0.55966282 0.099976465 4290528000
2.4676309 0.55988491 0.11453976 4290528000
2.4292617 0.55126178 0.12697743 4290397440
2.3904884 0.54254472 0.13880652 4290266880
2.785651 0.6322341 0.17734465 4291572480
3.2134762 0.72935617 0.22241406 4293139200
3.2675388 0.74171907 0.24432242 4293269760
3.2313602 0.73361206 0.25937217 4293139200
3.2866552 0.74625874 0.28151733 4293400320
3.3045516 0.75042188 0.30056319 4293400320
3.30058 0.74962288 0.31737348 4293400320
3.2773273 0.74444705 0.33184907 4293400320
3.2200174 0.731538 0.34212369 4293139200
3.2894516 0.74740398 0.36544904 4293400320
