# .PCD v0.7 - Point Cloud Data file format
VERSION 0.7
FIELDS x y z rgba
SIZE 4 4 4 4
TYPE F F F U
COUNT 1 1 1 1
WIDTH 1090
HEIGHT 1
VIEWPOINT 0 0 0 1 0 0 0
POINTS 1090
DATA ascii
1.7164005 -1.0202943 -0.28796038 4288830720
1.7021441 -1.0117627 -0.27848566 4288700160
1.6773514 -0.99697959 -0.26714551 4288569600
1.6767454 -0.9965511 -0.25945413 4288569600
1.6920669 -1.0055734 -0.25385836 4288700160
1.7090081 -1.0155556 -0.24806641 4288700160
1.6898427 -1.0041153 -0.23678958 4288700160
1.6789519 -0.99758542 -0.22655752 4288569600
1.695922 -1.0075835 -0.21978553 4288700160
1.7126533 -1.0174385 -0.21255787 4288700160
1.7102988 -1.0159724 -0.2026585 4288700160
1.6733625 -0.99399692 -0.18868122 4288569600
1.6889479 -1.0031716 -0.18051443 4288569600
1.6916001 -1.0046756 -0.17066744 4288700160
1.6966548 -1.0076042 -0.16082957 4288700160
1.6735389 -0.99382985 -0.14827257 4288569600
1.6957396 -1.0069242 -0.13955292 4288700160
1.7028182 -1.0110519 -0.12926061 4288700160
1.7122431 -1.01657 -0.11890068 4288700160
1.697626 -1.0078366 -0.10678908 4288700160
1.690366 -1.0034651 -0.09516678 4288569600
1.684592 -0.99997467 -0.083612874 4288569600
1.6910195 -1.0037159 -0.072566509 4288569600
1.6805549 -0.99744642 -0.060753409 4288569600
1.6928605 -1.0046704 -0.049678039 4288569600
1.6978706 -1.0075706 -0.038222231 4288700160
1.6925944 -1.0043762 -0.026501717 4288569600
1.6956207 -1.0061009 -0.014897129 4288569600
1.7056888 -1.0119967 -0.0032480853 4288700160
1.7089188 -1.0138413 0.0085041774 4288700160
1.7080592 -1.0132633 0.020239541 4288700160
1.7154249 -1.0175569 0.032095626 4288700160
1.7559652 -1.0414968 0.044873737 4288830720
1.9713355 -1.1689647 0.06386511 4289744640
1.9264667 -1.1423165 0.075444549 4289483520
2.0427492 -1.21109 0.093772627 4290005760
2.0551803 -1.2183677 0.10806792 4290005760
2.0564752 -1.2190512 0.12174667 4290005760
1.9529613 -1.1576899 0.12839217 4289614080
2.0577166 -1.2196201 0.14863813 4290005760
2.0776241 -1.2313203 0.16337727 4290136320
2.0701058 -1.2267864 0.17585279 4290136320
1.9708134 -1.1679393 0.17965387 4289744640
2.0872264 -1.2367505 0.2030589 4290136320
2.1021943 -1.2455229 0.21715052 4290266880
2.1128998 -1.251772 0.23071209 4290266880
2.0750482 -1.2292911 0.23855016 4290136320
1.9470421 -1.153476 0.23480105 4289614080
2.1042571 -1.2464017 0.26538071 4290266880
2.1015546 -1.2447174 0.27631837 4290266880
2.0972161 -1.2420654 0.28669244 4290266880
2.0689104 -1.2252382 0.29329699 4290136320
2.0354004 -1.2053355 0.29852375 4290005760
2.0940027 -1.239908 0.31704867 4290266880
2.1006091 -1.2437288 0.32764056 4290266880
2.0835035 -1.2335281 0.33411241 4290266880
2.0710833 -1.2260991 0.34082717 4290136320
2.0359793 -1.20526 0.34322247 4290005760
2.017622 -1.194324 0.34783792 4290005760
1.9524496 -1.1557155 0.34366995 4289744640
1.931206 -1.143078 0.3465347 4289614080
1.9045147 -1.1272223 0.34786215 4289483520
1.8388585 -1.0883403 0.341382 4289222400
1.8381984 -1.0878739 0.34638116 4289222400
1.8494775 -1.0944625 0.35325545 4289352960
1.8412659 -1.0895333 0.35600251 4289352960
1.7679944 -1.046165 0.34557292 4288961280
1.8402917 -1.0888039 0.36319074 4289352960
1.7671655 -1.0455273 0.35168225 4288961280
1.7583501 -1.0402458 0.35243347 4288961280
1.7665617 -1.0450222 0.35618293 4288961280
1.7578663 -1.039812 0.35610464 4288961280
1.769588 -1.0466605 0.35974619 4288961280
1.7694963 -1.0465317 0.36057004 4288961280
1.7618341 -1.0419322 0.35942432 4288961280
1.7694997 -1.0463836 0.36098245 4288961280
1.7619616 -1.0418578 0.35901442 4288961280
1.8390493 -1.0872934 0.37384108 4289352960
1.7742127 -1.0489399 0.35937244 4289091840
1.8429611 -1.0894455 0.37153506 4289352960
1.8433141 -1.0895749 0.3693994 4289352960
1.8479717 -1.0922449 0.36768636 4289352960
1.893765 -1.1191908 0.37364873 4289483520
1.9061981 -1.1264465 0.37248835 4289614080
1.9369348 -1.1445012 0.3743825 4289614080
1.9494998 -1.1518314 0.37223077 4289744640
1.9823979 -1.1711565 0.37341601 4289875200
2.0069969 -1.1855828 0.37244973 4289875200
2.042913 -1.2066827 0.37297633 4290136320
2.0901318 -1.2344463 0.37487623 4290266880
2.1046555 -1.2429217 0.37027377 4290266880
2.0945554 -1.2368734 0.3608965 4290266880
2.0938053 -1.2363397 0.35275596 4290266880
2.0634551 -1.2178576 0.28756106 4290136320
2.0866764 -1.2314534 0.28008381 4290266880
2.0963438 -1.237059 0.27029991 4290266880
2.0628135 -1.2172067 0.25476685 4290136320
2.0464277 -1.20746 0.24134222 4290005760
2.0577931 -1.2140664 0.23095243 4290136320
2.0628464 -1.2169527 0.21950176 4290136320
1.9615399 -1.1571782 0.19704205 4289744640
2.0057023 -1.1831068 0.18934068 4289875200
2.0495794 -1.2088636 0.18086563 4290005760
2.0587795 -1.2141916 0.16879605 4290005760
2.0536952 -1.2111058 0.15534091 4290005760
1.9963589 -1.1772484 0.13815162 4289744640
1.7885171 -1.0547681 0.11207993 4288961280
1.7259115 -1.0178249 0.096787505 4288700160
1.7166116 -1.0122725 0.084866047 4288700160
1.7058527 -1.0058619 0.072912283 4288700160
1.7248442 -1.0169661 0.062102862 4288700160
1.711154 -1.0088305 0.050003055 4288700160
1.7037451 -1.0043935 0.038176537 4288700160
1.7006991 -1.0025249 0.026477836 4288700160
1.7083958 -1.0069788 0.01488814 4288700160
1.7170966 -1.0120227 0.0031777262 4288700160
1.6826054 -0.99165076 -0.0084554739 4288569600
1.6891912 -0.99545074 -0.020080987 4288569600
1.6953537 -0.99900115 -0.031768683 4288569600
1.6981573 -1.0005749 -0.043423127 4288569600
1.6906794 -0.99610054 -0.054741435 4288569600
1.7046092 -1.0042187 -0.066730112 4288700160
1.7150669 -1.0102937 -0.078678027 4288700160
1.7078462 -1.0059708 -0.089760438 4288700160
1.7036958 -1.0034541 -0.10083142 4288700160
1.7072963 -1.0054955 -0.11224597 4288700160
1.7163721 -1.0107563 -0.12397998 4288700160
1.7118464 -1.0080191 -0.13463363 4288700160
1.7184724 -1.0118386 -0.14602683 4288700160
1.7287965 -1.0178314 -0.15768057 4288830720
1.7370954 -1.022633 -0.16909432 4288830720
1.7300831 -1.0184345 -0.178849 4288830720
1.7059765 -1.0041902 -0.18646431 4288700160
1.730095 -1.0182886 -0.19912033 4288830720
1.7303255 -1.0183476 -0.20896056 4288830720
1.7347754 -1.0208861 -0.21910384 4288830720
1.7197142 -1.0119606 -0.22649355 4288700160
1.6954526 -0.99763137 -0.23221642 4288700160
1.7344362 -1.0204577 -0.24638201 4288830720
1.7455417 -1.0269051 -0.25658014 4288830720
1.7416542 -1.0245452 -0.26433122 4288830720
1.7318945 -1.0187368 -0.27083397 4288830720
1.7248244 -1.014509 -0.2773748 4288830720
1.7100588 -1.0057629 -0.28227511 4288700160
1.7132947 -1.0075884 -0.28976798 4288700160
1.7199938 -1.0114471 -0.29755476 4288830720
1.7279373 -1.016036 -0.30527252 4288830720
1.7208192 -1.0117823 -0.30999374 4288830720
1.7248603 -1.0140798 -0.31635284 4288830720
1.7205309 -1.0114639 -0.32081863 4288830720
1.7236898 -1.0132437 -0.32630357 4288830720
1.7192225 -1.0105475 -0.32997063 4288830720
1.718852 -1.0102561 -0.33402827 4288830720
1.7092556 -1.0045509 -0.33589044 4288700160
1.7143888 -1.0074896 -0.34023881 4288830720
1.7033561 -1.0009432 -0.34098479 4288700160
1.7022566 -1.0002252 -0.34329686 4288700160
1.6934927 -0.99501133 -0.34365609 4288700160
1.6932712 -0.99480927 -0.34533268 4288700160
1.7016027 -0.99962401 -0.34835261 4288700160
1.6853579 -0.99002427 -0.34594771 4288700160
1.692958 -0.99440998 -0.34801328 4288700160
1.7014544 -0.99932081 -0.34985965 4288700160
1.7022932 -0.99974084 -0.34972847 4288700160
1.706341 -1.0020425 -0.34984511 4288700160
1.7149694 -1.0070294 -0.35048315 4288830720
1.7175101 -1.0084469 -0.34946454 4288830720
1.7171091 -1.0081398 -0.34744057 4288830720
1.7183683 -1.0088061 -0.34534633 4288830720
1.7277162 -1.0142134 -0.34445527 4288830720
1.7194366 -1.0092889 -0.33966064 4288830720
1.7307465 -1.0158454 -0.33832297 4288830720
1.7249324 -1.0123665 -0.3332465 4288830720
1.7221574 -1.010669 -0.32839105 4288830720
1.7143135 -1.0060019 -0.32222199 4288830720
1.7107645 -1.0038518 -0.3165192 4288700160
1.6963074 -0.99531186 -0.30849743 4288700160
1.6978756 -0.99616069 -0.30306834 4288700160
1.7013822 -0.99814481 -0.29762048 4288700160
1.7182175 -1.0079356 -0.29408216 4288830720
1.734272 -1.0172678 -0.28994989 4288830720
1.7199724 -1.0088227 -0.28042659 4288830720
1.69168 -0.99218476 -0.26849476 4288700160
1.691076 -0.9917621 -0.26076552 4288700160
1.7141577 -1.0052077 -0.25627801 4288700160
1.7183199 -1.0075748 -0.24855693 4288700160
1.7085153 -1.0017651 -0.23857452 4288700160
1.6847339 -0.98777449 -0.22655436 4288569600
1.7103394 -1.0026944 -0.22088581 4288700160
1.7262741 -1.0119517 -0.21350615 4288830720
1.7196219 -1.0079887 -0.2030592 4288700160
1.6868553 -0.98874342 -0.18954307 4288569600
1.6904647 -0.99078757 -0.18005559 4288569600
1.7058003 -0.99969292 -0.17150259 4288700160
1.7110975 -1.0027237 -0.16163507 4288700160
1.6827415 -0.98606479 -0.1485718 4288569600
1.7012694 -0.99683636 -0.13952477 4288700160
1.7129847 -1.0036212 -0.12958132 4288700160
1.7095182 -1.0015248 -0.11830489 4288700160
1.703467 -0.99791688 -0.10678589 4288700160
1.6993241 -0.99542558 -0.095338583 4288569600
1.6990118 -0.99517488 -0.084032729 4288569600
1.7023668 -0.99706876 -0.072797589 4288700160
1.6881548 -0.98869026 -0.060815066 4288569600
1.7078638 -1.0001465 -0.049939778 4288700160
1.7124296 -1.0027478 -0.038411353 4288700160
1.7007022 -0.99582309 -0.026533371 4288569600
1.7103912 -1.0014191 -0.014968956 4288700160
1.7245035 -1.0095999 -0.0032648649 4288700160
1.7214751 -1.0077609 0.0085428292 4288700160
1.7225645 -1.0083287 0.020347616 4288700160
1.718958 -1.0061522 0.032053992 4288700160
1.7767791 -1.0398729 0.045258027 4288961280
1.9694797 -1.1524048 0.063587815 4289614080
1.9408531 -1.1355994 0.075753383 4289614080
2.0583954 -1.2041972 0.094173312 4290005760
2.0741279 -1.2133061 0.10869756 4290136320
2.04983 -1.1990285 0.12093842 4290005760
1.8605305 -1.0883688 0.12187655 4289222400
2.0234175 -1.1834366 0.14565487 4289875200
2.092325 -1.2236017 0.16397564 4290136320
2.0978844 -1.2267646 0.1776108 4290136320
1.9939384 -1.1659778 0.18114698 4289744640
2.106441 -1.2315925 0.20423321 4290266880
2.1180139 -1.2382652 0.21804157 4290266880
2.1240847 -1.2417244 0.23114452 4290266880
2.0778751 -1.2146608 0.238061 4290136320
1.9537264 -1.1421014 0.2348047 4289614080
2.1235001 -1.2411261 0.26689738 4290266880
2.1250727 -1.2419581 0.27846143 4290266880
2.1087027 -1.2323174 0.28728133 4290266880
2.0922992 -1.2226588 0.29560468 4290266880
2.0727787 -1.2111821 0.30297467 4290136320
2.109678 -1.23263 0.31833491 4290266880
2.12023 -1.2387012 0.32957584 4290397440
2.1172502 -1.2368764 0.33837071 4290266880
2.0786102 -1.2142467 0.34090027 4290136320
2.0557854 -1.2008466 0.34538209 4290136320
2.0365047 -1.1895152 0.3498984 4290005760
1.9557304 -1.1423168 0.3430739 4289744640
1.9118181 -1.1166247 0.34188348 4289483520
1.9110464 -1.116096 0.34786573 4289483520
1.8528419 -1.0820743 0.34280679 4289352960
1.8487656 -1.0796208 0.34718579 4289352960
1.8558193 -1.0836574 0.35325894 4289352960
1.8475791 -1.0787762 0.35600597 4289352960
1.7774639 -1.0378221 0.34624043 4288961280
1.7693541 -1.0330206 0.34799248 4288961280
1.7689661 -1.0327208 0.35084066 4288961280
1.7643777 -1.0299727 0.35243678 4288961280
1.7598487 -1.0272593 0.35361919 4288961280
1.7638912 -1.0295416 0.35610795 4288961280
1.7679933 -1.0318583 0.35819688 4288961280
1.7636464 -1.0292511 0.35815263 4288961280
1.7551066 -1.024201 0.35683101 4288961280
1.7636487 -1.029104 0.35856229 4288961280
1.7722536 -1.0340427 0.35988227 4288961280
1.7638996 -1.0291011 0.35733518 4288961280
1.7760345 -1.036095 0.35851616 4288961280
1.8458682 -1.076695 0.37085396 4289352960
1.8496275 -1.0788059 0.36940286 4289352960
1.8543006 -1.0814487 0.36768985 4289352960
1.8505156 -1.0791656 0.36386746 4289352960
1.9169862 -1.1177915 0.37332219 4289614080
1.9175925 -1.1180625 0.36937991 4289614080
1.9484996 -1.1359745 0.3707732 4289744640
1.9773731 -1.1526999 0.37120116 4289744640
2.0104532 -1.1718713 0.37182179 4289875200
2.0584428 -1.1997184 0.37453458 4290136320
2.0998366 -1.223722 0.37533653 4290266880
2.1203363 -1.2355617 0.37176529 4290397440
2.1101978 -1.2295699 0.36235678 4290266880
2.1129444 -1.231077 0.35477203 4290266880
2.0868192 -1.215288 0.28983226 4290136320
2.0985367 -1.2220114 0.28072041 4290266880
2.1198363 -1.2343061 0.27240416 4290266880
2.0870593 -1.2151536 0.25688976 4290136320
2.0740659 -1.2075071 0.24377577 4290136320
2.0816591 -1.2118307 0.23284191 4290136320
2.0539732 -1.1956439 0.21781383 4290005760
1.8384565 -1.0702707 0.18402587 4289222400
1.9336222 -1.1255066 0.18190187 4289614080
2.0605154 -1.199175 0.18121599 4290005760
2.0783224 -1.2094333 0.16982448 4290136320
2.0667422 -1.2026119 0.15580054 4290005760
2.0074966 -1.1680934 0.13845399 4289875200
1.8095647 -1.0529966 0.11302003 4289091840
1.7479118 -1.017096 0.097695239 4288830720
1.7259332 -1.0042499 0.085040547 4288700160
1.7160021 -0.9984045 0.073100843 4288700160
1.7264161 -1.0043777 0.061949722 4288700160
1.7193673 -1.0002072 0.050075967 4288700160
1.7217371 -1.0015075 0.038455527 4288700160
1.7075011 -0.99316382 0.02649677 4288700160
1.7143711 -0.99707764 0.014892622 4288700160
1.7168682 -0.99845171 0.0031676046 4288700160
1.6853663 -0.98008543 -0.0084384335 4288569600
1.7012397 -0.9892264 -0.020149879 4288569600
1.704602 -0.99110293 -0.03182878 4288569600
1.7126024 -0.99567151 -0.043636952 4288700160
1.7042331 -0.99073786 -0.054986261 4288569600
1.714751 -0.99676698 -0.066893794 4288700160
1.7243789 -1.0022787 -0.078831449 4288700160
1.7387335 -1.0105324 -0.091059342 4288830720
1.705192 -0.99099296 -0.10057528 4288700160
1.7260773 -1.0030355 -0.11308595 4288700160
1.7265465 -1.0032315 -0.12428561 4288700160
1.7297707 -1.0050257 -0.13557209 4288700160
1.7243365 -1.0017973 -0.14602359 4288700160
1.7346953 -1.0077299 -0.15767731 4288830720
1.7430221 -1.0124829 -0.16909105 4288830720
1.7480489 -1.0153215 -0.18008293 4288830720
1.7290221 -1.0042111 -0.1883292 4288700160
1.7239442 -1.0011907 -0.19774041 4288700160
1.74053 -1.0107317 -0.20947301 4288830720
1.7449926 -1.0132427 -0.21963976 4288830720
1.7341758 -1.0068955 -0.22761434 4288830720
1.7180802 -0.99748933 -0.23450394 4288700160
1.7523737 -1.0172923 -0.24807474 4288830720
1.7525396 -1.0173119 -0.25672957 4288830720
1.751882 -1.0168545 -0.26497456 4288830720
1.7455165 -1.0130894 -0.27202943 4288830720
1.7384181 -1.0089003 -0.2786037 4288830720
1.7201715 -0.99825239 -0.28297421 4288700160
1.7319785 -1.0050186 -0.29192263 4288830720
1.7344148 -1.006355 -0.29902241 4288830720
1.7381037 -1.0084171 -0.30602002 4288830720
1.7437859 -1.0116335 -0.31305137 4288830720
1.7427046 -1.0109322 -0.31853023 4288830720
1.7383554 -1.0083383 -0.32303157 4288830720
1.7338332 -1.0056448 -0.32710361 4288830720
1.7327641 -1.0049515 -0.33143285 4288830720
1.7366574 -1.0071317 -0.33633253 4288830720
1.7236111 -0.99950379 -0.33755344 4288830720
1.7202282 -0.99747181 -0.34023556 4288830720
1.7134222 -0.99345851 -0.34182987 4288700160
1.7157284 -0.99472076 -0.34483162 4288830720
1.7111831 -0.99201703 -0.34605718 4288700160
1.7075619 -0.98984867 -0.34705707 4288700160
1.7073965 -0.98968089 -0.34834942 4288700160
1.715814 -0.99448007 -0.35098627 4288830720
1.6987216 -0.98451728 -0.34801009 4288700160
1.7106558 -0.99135119 -0.35055307 4288700160
1.7200208 -0.99669778 -0.35216144 4288830720
1.7206732 -0.99700326 -0.35157862 4288830720
1.7293315 -1.00194 -0.35221127 4288830720
1.7233551 -0.99841094 -0.34946129 4288830720
1.7314804 -1.0030389 -0.34915206 4288830720
1.7326711 -1.0036557 -0.3470318 4288830720
1.7335947 -1.004118 -0.34445199 4288830720
1.7372347 -1.0061511 -0.34200278 4288830720
1.7366344 -1.0057323 -0.33831969 4288830720
1.7393399 -1.007225 -0.33488265 4288830720
1.7314324 -1.0025816 -0.32903525 4288830720
1.7276491 -1.0003233 -0.32362032 4288830720
1.7251327 -0.99879777 -0.31808764 4288830720
1.7106298 -0.99034399 -0.3100397 4288700160
1.7036493 -0.98623937 -0.30306512 4288700160
1.7148727 -0.99265641 -0.2989563 4288700160
1.7272983 -0.99976742 -0.29462963 4288830720
1.7487382 -1.0120866 -0.29136997 4288830720
1.721532 -0.99629509 -0.27972901 4288700160
1.7051517 -0.98676085 -0.26970869 4288700160
1.7088412 -0.98882347 -0.26260266 4288700160
1.7242777 -0.9976722 -0.25691235 4288700160
1.7327524 -1.0024981 -0.249788 4288830720
1.7177601 -0.99376827 -0.23904811 4288700160
1.6990607 -0.98289853 -0.22769959 4288700160
1.7195934 -0.99468875 -0.22132395 4288700160
1.7407502 -1.0068378 -0.21456008 4288830720
1.7340794 -1.0029159 -0.20406567 4288830720
1.7012054 -0.98386401 -0.19050096 4288700160
1.7091429 -0.98837888 -0.18141936 4288700160
1.7204446 -0.9948355 -0.17238206 4288700160
1.7246776 -0.9972105 -0.16235964 4288700160
1.6927741 -0.97872472 -0.14894657 4288569600
1.7156857 -0.99188244 -0.1402238 4288700160
1.7274436 -0.99860054 -0.13022585 4288700160
1.7239681 -0.99652582 -0.11889421 4288700160
1.717034 -0.99245548 -0.10726565 4288700160
1.7094184 -0.98799247 -0.095575422 4288700160
1.7082405 -0.98724473 -0.084198713 4288700160
1.7168008 -0.99211597 -0.073159777 4288700160
1.684002 -0.97312456 -0.060461007 4288569600
1.7129701 -0.98976964 -0.049916714 4288700160
1.7170236 -0.99203992 -0.038381364 4288700160
1.7249657 -0.996553 -0.026810816 4288700160
1.7118633 -0.98892719 -0.014929511 4288700160
1.7307204 -0.99973506 -0.0032621648 4288700160
1.7273149 -0.99770242 0.008546086 4288700160
1.7405348 -1.0052574 0.02049771 4288700160
1.741246 -1.0055983 0.032368496 4288700160
1.7949303 -1.0364832 0.045572959 4288961280
1.9424721 -1.1214774 0.06249842 4289483520
1.9638848 -1.133745 0.076401427 4289614080
2.0816319 -1.2015449 0.09492255 4290136320
2.0937603 -1.2084533 0.10936265 4290136320
2.0611176 -1.1895552 0.12119848 4290005760
1.820992 -1.0510759 0.11887544 4289091840
1.9717677 -1.1378975 0.14144801 4289614080
2.0994155 -1.2113792 0.1639796 4290136320
2.109314 -1.2169994 0.17798023 4290266880
2.0136518 -1.1617953 0.18232664 4289875200
2.1308467 -1.2292373 0.20590924 4290266880
2.1415877 -1.2353402 0.21973111 4290397440
2.1390445 -1.2337894 0.23199201 4290397440
2.1099205 -1.2169274 0.24092475 4290266880
1.9810297 -1.1426026 0.23728989 4289744640
2.132412 -1.2297125 0.26711714 4290266880
2.1327012 -1.2297934 0.27852193 4290397440
2.1278923 -1.2269384 0.28892314 4290266880
2.107986 -1.2153901 0.29682118 4290266880
2.0664961 -1.1914155 0.30103898 4290136320
2.1271298 -1.2262422 0.31989071 4290266880
2.1319945 -1.2289571 0.33029106 4290397440
2.1068144 -1.2143751 0.33556861 4290266880
2.0790243 -1.1982931 0.33982101 4290136320
2.0443289 -1.1782383 0.34230027 4290005760
2.0062089 -1.1562153 0.34352964 4289875200
1.9362389 -1.1158651 0.33850938 4289614080
1.9225709 -1.1079206 0.34265095 4289614080
1.8683852 -1.0766622 0.3389506 4289352960
1.8591115 -1.0712498 0.3428103 4289352960
1.8584434 -1.0707892 0.34783021 4289352960
1.8578217 -1.0703554 0.35245064 4289352960
1.7839762 -1.0277983 0.34258667 4288961280
1.7834771 -1.0274377 0.3462438 4288961280
1.7753394 -1.0226835 0.34799585 4288961280
1.7664057 -1.017472 0.3491542 4288961280
1.7660741 -1.0172082 0.35158932 4288961280
1.7700709 -1.0194334 0.35447821 4288961280
1.7579004 -1.0123615 0.35370433 4288961280
1.761163 -1.0141643 0.35561246 4288961280
1.761071 -1.014038 0.35642686 4288961280
1.7610407 -1.013947 0.35683435 4288961280
1.7696112 -1.0188001 0.35856563 4288961280
1.7654359 -1.016326 0.35729197 4288961280
1.7860879 -1.0281219 0.36061639 4289091840
1.8475446 -1.0633675 0.37170586 4289222400
1.7865891 -1.0282595 0.35773149 4289091840
1.8601501 -1.0704552 0.37025717 4289352960
1.8486023 -1.0637412 0.36532763 4289222400
1.8533491 -1.0663902 0.36320052 4289352960
1.8615756 -1.0710378 0.36130729 4289352960
1.9240706 -1.1068603 0.36938354 4289614080
1.9452674 -1.1189544 0.36891457 4289614080
1.9926114 -1.1460651 0.37280726 4289875200
2.0182316 -1.1606948 0.37200788 4289875200
2.0420737 -1.174301 0.37030685 4290005760
2.0996273 -1.2072639 0.3740392 4290266880
2.1191635 -1.218392 0.37031233 4290266880
2.1276131 -1.2231523 0.3641232 4290397440
2.1210425 -1.2192883 0.35493758 4290266880
2.0964336 -1.2045742 0.29019272 4290136320
2.1219881 -1.2191465 0.28290951 4290266880
2.134747 -1.2263749 0.27340308 4290266880
2.1104882 -1.212364 0.25890684 4290266880
2.0776112 -1.1934112 0.24337475 4290136320
2.0843644 -1.1971945 0.23236383 4290136320
2.0563931 -1.1810595 0.21734038 4290005760
1.8097185 -1.0394905 0.18053606 4289091840
1.9514712 -1.1207067 0.18296997 4289614080
2.0804389 -1.1945788 0.18235983 4290136320
2.0896573 -1.1997737 0.17018169 4290136320
2.0780394 -1.1930207 0.1561306 4290136320
1.9934818 -1.1444503 0.13702439 4289744640
1.8422621 -1.0576713 0.11468598 4289091840
1.7589437 -1.009829 0.097986229 4288830720
1.7404201 -0.99913412 0.085472003 4288700160
1.7260615 -0.99082798 0.073286854 4288700160
1.7367617 -0.99688441 0.062116239 4288700160
1.7436044 -1.0007293 0.050620355 4288700160
1.7283401 -0.99190599 0.038476858 4288700160
1.7200687 -0.98709065 0.026607651 4288700160
1.7231158 -0.98876065 0.014922574 4288700160
1.712922 -0.98284495 0.0031495825 4288700160
1.6992875 -0.97495919 -0.0084733721 4288569600
1.7147813 -0.98375922 -0.020235963 4288700160
1.7233598 -0.98859721 -0.032062862 4288700160
1.7298266 -0.99222499 -0.043920219 4288700160
1.7140031 -0.9830873 -0.055111002 4288700160
1.7292002 -0.99171424 -0.067224316 4288700160
1.7388586 -0.99716836 -0.079219781 4288700160
1.743798 -0.99992001 -0.091015041 4288700160
1.7317364 -0.99293828 -0.10178607 4288700160
1.735356 -0.99493426 -0.11330751 4288700160
1.7410226 -0.99810171 -0.12490006 4288700160
1.7399246 -0.99739695 -0.1359051 4288700160
1.7379326 -0.99618071 -0.14667436 4288700160
1.7448617 -1.00007 -0.15806399 4288830720
1.7661883 -1.0121974 -0.17075238 4288830720
1.7480565 -1.0017455 -0.17947897 4288830720
1.7443588 -0.99955344 -0.18935455 4288830720
1.7418394 -0.99803597 -0.19911376 4288830720
1.7584748 -1.0074764 -0.2109137 4288830720
1.7586313 -1.0074894 -0.22060695 4288830720
1.747849 -1.0012457 -0.22863244 4288830720
1.7273093 -0.98942268 -0.23496802 4288700160
1.753961 -1.0045893 -0.2474657 4288830720
1.761692 -1.0089341 -0.25720003 4288830720
1.7612184 -1.0085871 -0.26548851 4288830720
1.7677354 -1.0122371 -0.2745567 4288961280
1.7614645 -1.0085757 -0.28133845 4288830720
1.7345523 -0.99311489 -0.28437555 4288830720
1.7378032 -0.9948985 -0.29191935 4288830720
1.7522695 -1.0030925 -0.30107835 4288830720
1.7482399 -1.0007142 -0.30676746 4288830720
1.7554303 -1.0047486 -0.31407928 4288830720
1.7485636 -1.0007495 -0.31852692 4288830720
1.7527723 -1.0030797 -0.32461122 4288830720
1.7439466 -0.99796212 -0.32790357 4288830720
1.7581862 -1.0060233 -0.33515444 4288961280
1.7424943 -0.99698418 -0.33632922 4288830720
1.7413903 -0.99627954 -0.33988285 4288830720
1.7345688 -0.99230939 -0.34191462 4288830720
1.7311605 -0.99028939 -0.34420177 4288830720
1.7393744 -0.99490738 -0.34839964 4288830720
1.7254869 -0.98690343 -0.3477731 4288830720
1.7175753 -0.9823131 -0.34791762 4288700160
1.7216849 -0.98458755 -0.35008019 4288830720
1.7249985 -0.98640734 -0.35167843 4288830720
1.7087034 -0.9770323 -0.34887737 4288700160
1.7206773 -0.98379636 -0.35142061 4288830720
1.7257973 -0.98664737 -0.35215816 4288830720
1.7341491 -0.99134266 -0.35313842 4288830720
1.7436923 -0.99671727 -0.35393932 4288830720
1.7411187 -0.99517637 -0.35187164 4288830720
1.7458503 -0.99780452 -0.35086349 4288830720
1.7548236 -1.0028528 -0.35027993 4288961280
1.751399 -1.0008266 -0.34681517 4288830720
1.7473475 -0.99844301 -0.3428371 4288830720
1.7501724 -0.99998289 -0.33980882 4288830720
1.753746 -1.0019498 -0.3365187 4288830720
1.7458147 -0.99735403 -0.3306506 4288830720
1.7379216 -0.99278086 -0.32444999 4288830720
1.7309213 -0.98871756 -0.31808436 4288830720
1.7249517 -0.98524284 -0.31158191 4288700160
1.7179513 -0.98118091 -0.30457941 4288700160
1.7249207 -0.98508531 -0.29969695 4288700160
1.7451247 -0.99653506 -0.29666531 4288830720
1.758903 -1.0043199 -0.29207832 4288830720
1.7402109 -0.99359292 -0.2818087 4288830720
1.7179642 -0.98084122 -0.27081993 4288700160
1.7231841 -0.98374754 -0.2639139 4288700160
1.7464318 -0.99692869 -0.25933182 4288830720
1.7549433 -1.0017096 -0.25212985 4288830720
1.7278324 -0.98618925 -0.23964086 4288700160
1.7211554 -0.98231536 -0.22987832 4288700160
1.7296755 -0.98710138 -0.22187239 4288700160
1.746585 -0.99666679 -0.21455677 4288830720
1.7519937 -0.99967861 -0.20547596 4288830720
1.7190152 -0.98082161 -0.19184321 4288700160
1.7226583 -0.9828285 -0.18223627 4288700160
1.7262098 -0.98478299 -0.17237878 4288700160
1.7347869 -0.98959976 -0.16276067 4288700160
1.7149086 -0.97820979 -0.15037952 4288700160
1.7425456 -0.99388069 -0.14193086 4288700160
1.7410349 -0.99295145 -0.13080555 4288700160
1.7418876 -0.99336809 -0.11972049 4288700160
1.7358016 -0.98983407 -0.10806733 4288700160
1.7241325 -0.98312199 -0.096069321 4288700160
1.7313267 -0.98714948 -0.085041426 4288700160
1.729141 -0.98583698 -0.073433809 4288700160
1.7047035 -0.97185862 -0.060990766 4288569600
1.7187055 -0.97976094 -0.049913451 4288700160
1.7305468 -0.98643243 -0.03854838 4288700160
1.7307403 -0.98647434 -0.026807528 4288700160
1.7242299 -0.98270142 -0.014981532 4288700160
1.7372051 -0.99001652 -0.0032599235 4288700160
1.7433834 -0.99346328 0.0086036287 4288700160
1.7463598 -0.99508798 0.020501027 4288700160
1.7545856 -0.99969876 0.032513443 4288830720
1.8108629 -1.0316433 0.045830626 4288961280
1.9524461 -1.1121066 0.062614538 4289614080
1.9704545 -1.1222723 0.076405168 4289614080
2.0931275 -1.1919632 0.095133662 4290136320
2.1051044 -1.1986918 0.1095937 4290136320
2.0845053 -1.1868949 0.12217299 4290136320
1.9104002 -1.0878133 0.12432142 4289352960
1.9682195 -1.1206126 0.1407243 4289614080
2.1147263 -1.2038295 0.16463082 4290266880
2.1069164 -1.199306 0.17718762 4290136320
2.0281839 -1.1544663 0.18303603 4289875200
2.1334479 -1.2142203 0.20547695 4290266880
2.1567838 -1.2273993 0.22055866 4290397440
2.1419303 -1.2188718 0.23153448 4290266880
2.1093185 -1.2002535 0.24005644 4290266880
1.9997569 -1.1379099 0.23874122 4289744640
2.1369839 -1.2158056 0.26680201 4290266880
2.140121 -1.217503 0.2785643 4290397440
2.132827 -1.2132735 0.28863263 4290266880
2.1161356 -1.2037059 0.29698077 4290266880
2.0394299 -1.1600477 0.29610574 4290005760
2.1398799 -1.2170237 0.32074168 4290397440
2.1307545 -1.2117549 0.32900304 4290266880
2.1022291 -1.1954685 0.3337262 4290266880
2.0912657 -1.1891578 0.34068885 4290136320
2.0181291 -1.1475421 0.3367883 4289875200
2.0258102 -1.1518222 0.3457371 4289875200
1.9131461 -1.0877719 0.33335885 4289483520
1.8874129 -1.0730846 0.33526385 4289352960
1.8746231 -1.0657473 0.33895418 4289352960
1.8859277 -1.0720884 0.34660414 4289352960
1.8732314 -1.064805 0.34943613 4289352960
1.8076453 -1.0275034 0.34178746 4289091840
1.7985096 -1.0222447 0.3442331 4289091840
1.7937177 -1.0194519 0.34707749 4289091840
1.7932682 -1.0191233 0.35034582 4289091840
1.7885879 -1.016394 0.35236824 4288961280
1.7848234 -1.0141846 0.35414508 4288961280
1.7716923 -1.0066614 0.35362589 4288961280
1.7637655 -1.0020915 0.35370767 4288961280
1.7713224 -1.0063052 0.35647842 4288961280
1.7712293 -1.0061791 0.3572948 4288961280
1.7711984 -1.0060881 0.35770327 4288961280
1.7840807 -1.0133204 0.36030012 4288961280
1.7798916 -1.0108706 0.35902447 4288961280
1.7963285 -1.0201167 0.36148238 4289091840
1.8008341 -1.0225962 0.36110187 4289091840
1.8011172 -1.0226814 0.35944632 4289091840
1.8091761 -1.0271746 0.35891154 4289091840
1.8873476 -1.0714121 0.3717525 4289352960
1.880111 -1.0672306 0.36722678 4289352960
1.8840808 -1.0694014 0.36446586 4289352960
1.8889666 -1.0720909 0.36143854 4289352960
1.9560426 -1.1100234 0.36973009 4289614080
1.977378 -1.1220305 0.36872974 4289744640
2.0030744 -1.1365067 0.36798921 4289875200
2.050729 -1.1634216 0.37064561 4290005760
2.0899487 -1.1855537 0.37108085 4290136320
2.1355634 -1.211305 0.37194431 4290397440
2.1272364 -1.206497 0.36285326 4290266880
2.1282828 -1.2069986 0.35497096 4290266880
2.1086724 -1.1953061 0.29092315 4290266880
2.1284816 -1.2064286 0.28283772 4290266880
2.1339319 -1.2094218 0.27239478 4290266880
2.1231887 -1.2032487 0.25960585 4290266880
2.0910158 -1.1849482 0.24413757 4290136320
2.0985005 -1.1890932 0.23316906 4290136320
2.053962 -1.1637992 0.21636559 4290005760
1.8751434 -1.0625291 0.18645902 4289222400
2.0126288 -1.1402347 0.18809365 4289744640
2.0984163 -1.1886809 0.18333197 4290136320
2.1042328 -1.1918797 0.1708061 4290136320
2.1014545 -1.1902167 0.15737395 4290136320
2.0209656 -1.1445996 0.13846165 4289875200
1.8512576 -1.0485301 0.11486815 4289222400
1.7698016 -1.0023839 0.098268986 4288830720
1.7549059 -0.99388343 0.085903525 4288830720
1.7448506 -0.98812115 0.073846236 4288700160
1.7530602 -0.99268651 0.062497869 4288830720
1.7583491 -0.99559999 0.050885346 4288830720
1.7423573 -0.9864828 0.038666323 4288700160
1.7344928 -0.98196119 0.026748035 4288700160
1.7339988 -0.98160613 0.014972105 4288700160
1.7459894 -0.98830712 0.0032125737 4288700160
1.7168062 -0.97173834 -0.0085248416 4288569600
1.7228653 -0.97508723 -0.020259853 4288700160
1.7369229 -0.98295498 -0.032201942 4288700160
1.735576 -0.98211807 -0.043916907 4288700160
1.7365452 -0.98258978 -0.055641036 4288700160
1.7471294 -0.98849308 -0.067688271 4288700160
1.7591994 -0.99523473 -0.079871923 4288830720
1.7582904 -0.99464452 -0.091460682 4288830720
1.7340117 -0.98085558 -0.10158043 4288700160
1.7541617 -0.99215943 -0.11414734 4288830720
1.7468063 -0.98792934 -0.12489672 4288700160
1.7500482 -0.98968381 -0.13623807 4288830720
1.7437052 -0.98602635 -0.14667103 4288700160
1.7671518 -0.99918759 -0.15954258 4288830720
1.7720538 -1.001878 -0.17074899 4288830720
1.766873 -0.99887663 -0.18080115 4288830720
1.7544863 -0.99180841 -0.18981823 4288830720
1.7562894 -0.99274999 -0.20009372 4288830720
1.764313 -0.99720204 -0.21091034 4288830720
1.7644697 -0.99721408 -0.22060359 4288830720
1.7579781 -0.9934749 -0.22919109 4288830720
1.7416928 -0.98421049 -0.2361331 4288830720
1.768428 -0.9992187 -0.24867374 4288830720
1.7796363 -1.0054655 -0.25895089 4288961280
1.7757 -1.0031685 -0.26677832 4288961280
1.7822337 -1.0067775 -0.27588516 4288961280
1.7707605 -1.0002302 -0.2818827 4288961280
1.7564707 -0.99209541 -0.28700474 4288830720
1.7632059 -0.99581838 -0.29519323 4288830720
1.7623906 -0.99528331 -0.30181044 4288830720
1.7626512 -0.99535513 -0.30826563 4288830720
1.7698613 -0.99934506 -0.31560636 4288961280
1.7672703 -0.99780911 -0.32085991 4288961280
1.7585855 -0.99283838 -0.32460788 4288830720
1.7617675 -0.99455744 -0.33014938 4288830720
1.7640164 -0.99575043 -0.33515108 4288961280
1.7613494 -0.99417293 -0.33883429 4288830720
1.7557541 -0.99094552 -0.3415457 4288830720
1.7446134 -0.98459393 -0.34275249 4288830720
1.7580255 -0.99207771 -0.34837285 4288830720
1.7451401 -0.98474425 -0.3483963 4288830720
1.7475137 -0.98600835 -0.35103625 4288830720
1.7429929 -0.98338872 -0.35188514 4288830720
1.7351136 -0.97887778 -0.35163751 4288830720
1.7427144 -0.98308671 -0.35410637 4288830720
1.7426668 -0.98298746 -0.35461679 4288830720
1.74002 -0.98142469 -0.35418618 4288830720
1.752628 -0.98845243 -0.35643649 4288830720
1.7466842 -0.98503327 -0.35450926 4288830720
1.7575599 -0.99108475 -0.35556832 4288830720
1.7549891 -0.98956513 -0.35349581 4288830720
1.7585679 -0.99150777 -0.3522453 4288830720
1.7606354 -0.99259949 -0.35027659 4288961280
1.7594705 -0.99187177 -0.34725881 4288830720
1.7679462 -0.99657035 -0.34572202 4288961280
1.7602645 -0.9921751 -0.34063458 4288830720
1.7595526 -0.99170285 -0.33651534 4288830720
1.7634465 -0.99382257 -0.33287793 4288961280
1.7555314 -0.98929763 -0.32664618 4288830720
1.7487007 -0.98538339 -0.32028133 4288830720
1.7341056 -0.97710174 -0.31219679 4288830720
1.7313905 -0.9755044 -0.30594185 4288700160
1.7426956 -0.981794 -0.30177656 4288830720
1.7595227 -0.99118865 -0.29811835 4288830720
1.7690368 -0.99646908 -0.2927866 4288961280
1.7580532 -0.9902212 -0.28374946 4288830720
1.7357388 -0.97760242 -0.27270991 4288700160
1.7401787 -0.9800297 -0.26562867 4288830720
1.7565317 -0.98915511 -0.25996602 4288830720
1.7564231 -0.9890241 -0.25150934 4288830720
1.742202 -0.98095936 -0.24082956 4288830720
1.7297949 -0.97391552 -0.23026584 4288700160
1.7483915 -0.98430026 -0.22352418 4288830720
1.7566948 -0.98889798 -0.21508199 4288830720
1.7697389 -0.99615973 -0.20686407 4288830720
1.7246988 -0.97077763 -0.1918399 4288700160
1.7318871 -0.97474903 -0.1826039 4288700160
1.7438521 -0.98140401 -0.17355792 4288700160
1.744866 -0.98190498 -0.16316167 4288700160
1.7170995 -0.96623617 -0.15007389 4288700160
1.7526531 -0.9861424 -0.14227864 4288830720
1.7544285 -0.98707086 -0.13137102 4288830720
1.7563469 -0.98807955 -0.12030967 4288830720
1.7519876 -0.98556209 -0.10870811 4288830720
1.7376671 -0.97745049 -0.096498072 4288700160
1.7370466 -0.97703385 -0.085038103 4288700160
1.7380762 -0.97754395 -0.073565632 4288700160
1.7242497 -0.96971202 -0.06147822 4288700160
1.7323655 -0.97420138 -0.050138164 4288700160
1.7334529 -0.97474408 -0.038483728 4288700160
1.7409047 -0.97885966 -0.026871257 4288700160
1.7285849 -0.97187567 -0.014967106 4288700160
1.7436801 -0.98028141 -0.0032577123 4288700160
1.7707298 -0.99539572 0.0087205004 4288830720
1.7713122 -0.99565339 0.020735232 4288830720
1.7769448 -0.99874508 0.032828126 4288830720
1.8317313 -1.02942 0.046214268 4289091840
1.920486 -1.0791513 0.061380148 4289352960
1.9231818 -1.0805886 0.07431633 4289483520
2.0174415 -1.1333979 0.091375954 4289744640
2.0501025 -1.151642 0.10636862 4289875200
2.026458 -1.1382978 0.11836915 4289875200
1.9718242 -1.1075723 0.12791401 4289614080
2.0239689 -1.1367427 0.14424978 4289875200
2.060698 -1.157263 0.15988851 4290005760
2.0446894 -1.1482041 0.17137894 4289875200
2.0020938 -1.1242371 0.18008463 4289744640
2.1173108 -1.1887648 0.20325214 4290136320
2.1290956 -1.1952893 0.21700934 4290266880
2.1029694 -1.1805574 0.22657171 4290136320
2.0565104 -1.1544287 0.23327079 4290005760
1.9383614 -1.0881155 0.23064253 4289483520
2.1341257 -1.1977726 0.26557222 4290266880
2.1352987 -1.1983457 0.27702573 4290266880
2.1304274 -1.1955308 0.28736341 4290266880
2.093395 -1.1746926 0.29282382 4290136320
2.0548055 -1.1529846 0.29736346 4290005760
2.1327887 -1.1966001 0.31863099 4290266880
2.1218512 -1.190387 0.32655427 4290266880
2.1059432 -1.1813897 0.33322155 4290136320
2.0882475 -1.171392 0.33908278 4290136320
2.0454986 -1.1473612 0.34024155 4290005760
2.0445652 -1.1467564 0.34779775 4290005760
1.915135 -1.0741802 0.3326129 4289483520
1.8979408 -1.0644734 0.33603132 4289352960
1.9057921 -1.0687939 0.34346554 4289483520
1.9050621 -1.0683082 0.34897673 4289483520
1.8219569 -1.0216972 0.33875224 4289091840
1.8135978 -1.0169432 0.34179091 4289091840
1.8130386 -1.0165566 0.34587958 4289091840
1.7996235 -1.0089729 0.34708092 4289091840
1.7948709 -1.0062393 0.34951118 4288961280
1.7910357 -1.0040195 0.35169575 4288961280
1.7820997 -0.99894482 0.35244691 4288961280
1.7732251 -0.99390525 0.35277358 4288961280
1.7730092 -0.99371171 0.35439879 4288961280
1.7814498 -0.99836206 0.35734442 4288961280
1.7813557 -0.99823618 0.35816276 4288961280
1.7770267 -0.99574065 0.35770667 4288961280
1.7813556 -0.99808908 0.35857242 4288961280
1.7857476 -1.0004723 0.35902789 4288961280
1.7979398 -1.0072182 0.36062324 4289091840
1.806758 -1.0120759 0.36110532 4289091840
1.8147807 -1.0164877 0.36099008 4289091840
1.8151265 -1.0166055 0.358915 4289091840
1.8241346 -1.021567 0.35811952 4289091840
1.8897355 -1.0581722 0.36790088 4289352960
1.8945795 -1.0608014 0.36529976 4289352960
1.8994823 -1.063463 0.36226368 4289483520
1.9044415 -1.0661554 0.35879394 4289483520
1.9838784 -1.1104798 0.36873356 4289744640
2.017416 -1.1291422 0.36941445 4289875200
2.0475783 -1.1459149 0.36886659 4290005760
2.0944734 -1.1720363 0.37066981 4290136320
2.1395447 -1.1971344 0.37142095 4290397440
2.1390269 -1.1967542 0.36367413 4290397440
2.1357589 -1.1948375 0.35505548 4290266880
2.106492 -1.1779039 0.28967366 4290136320
2.1253982 -1.1883711 0.28150606 4290266880
2.1221828 -1.1864843 0.27000946 4290266880
2.0846641 -1.1654451 0.25405759 4290136320
2.0740001 -1.1594018 0.24135828 4290005760
2.0580986 -1.1504353 0.22792707 4290005760
2.0460598 -1.1436263 0.21482907 4289875200
1.990286 -1.1124072 0.19728802 4289744640
1.9843619 -1.1090147 0.18484184 4289614080
1.9546152 -1.0923281 0.17018314 4289614080
1.9421095 -1.0852648 0.15709908 4289483520
1.9271518 -1.0768344 0.14381364 4289483520
1.868577 -1.0440694 0.12756962 4289222400
1.8182294 -1.0158993 0.11244325 4288961280
1.7799704 -0.99447727 0.098514982 4288830720
1.7774985 -0.99302107 0.086733095 4288830720
1.7541279 -0.97990841 0.074000508 4288700160
1.7682462 -0.98770642 0.062839352 4288830720
1.76396 -0.98523927 0.05088415 4288830720
1.7499244 -0.97733575 0.038711231 4288700160
1.6923958 -0.94518179 0.026001137 4288569600
1.7536901 -0.97928327 0.015100686 4288700160
1.7509753 -0.97769344 0.0032143272 4288700160
1.7252277 -0.96326381 -0.0085343551 4288700160
1.7490608 -0.97647405 -0.020489899 4288700160
1.7371492 -0.96975869 -0.032099549 4288700160
1.7493827 -0.97650141 -0.044115219 4288700160
1.7487701 -0.97608405 -0.055843789 4288700160
1.756158 -0.98012501 -0.067811102 4288830720
1.7691053 -0.98726308 -0.080054224 4288830720
1.7704138 -0.98791528 -0.0917845 4288830720
1.7516844 -0.97740394 -0.10227218 4288700160
1.7642715 -0.98434007 -0.114425 4288830720
1.7606879 -0.98226738 -0.12547123 4288830720
1.7663212 -0.98532879 -0.13704787 4288830720
1.7614266 -0.98252636 -0.14766914 4288830720
1.7820197 -0.99391866 -0.16035208 4288830720
1.7854704 -0.99576318 -0.17147318 4288961280
1.7914975 -0.99904209 -0.18271038 4288961280
1.773654 -0.98903 -0.19125587 4288830720
1.7742146 -0.98926568 -0.2014669 4288830720
1.777723 -0.99114227 -0.21181263 4288830720
1.7835867 -0.99432987 -0.22225599 4288961280
1.7790065 -0.99170387 -0.23116472 4288830720
1.7542623 -0.97785592 -0.23705421 4288830720
1.7785548 -0.99129993 -0.24927601 4288961280
1.7984666 -1.0023042 -0.26082695 4288961280
1.7979764 -1.0019546 -0.26923192 4288961280
1.7880677 -0.99636465 -0.27588174 4288961280
1.7756939 -0.98940432 -0.28174284 4288961280
1.7665457 -0.98423946 -0.28770363 4288830720
1.7689763 -0.98551649 -0.29518983 4288830720
1.7759377 -0.98931336 -0.30313081 4288961280
1.7805153 -0.9917841 -0.31036431 4288961280
1.7756523 -0.98900425 -0.31560293 4288961280
1.7722498 -0.98703718 -0.3207117 4288961280
1.7743917 -0.98815334 -0.3264485 4288961280
1.7793478 -0.9908343 -0.33234671 4288961280
1.7697866 -0.98544371 -0.33514768 4288961280
1.7757311 -0.98867422 -0.34047905 4288961280
1.7649437 -0.98260331 -0.34220877 4288830720
1.7623813 -0.98110515 -0.34510434 4288830720
1.76722 -0.98372102 -0.34904808 4288961280
1.7672099 -0.98364174 -0.35163966 4288961280
1.7532274 -0.97579795 -0.35103285 4288830720
1.7529963 -0.97559679 -0.35274556 4288830720
1.7528254 -0.97542924 -0.35405916 4288830720
1.7527155 -0.97529566 -0.35497224 4288830720
1.7449198 -0.97089249 -0.35391703 4288830720
1.7620628 -0.9803437 -0.35749173 4288830720
1.7583559 -0.97821224 -0.35643312 4288830720
1.7610015 -0.97960949 -0.3562426 4288830720
1.7676082 -0.98320669 -0.35643059 4288961280
1.769335 -0.98409343 -0.35521641 4288961280
1.76862 -0.98362428 -0.35309926 4288961280
1.7772329 -0.98833472 -0.35241774 4288961280
1.7695267 -0.98398381 -0.34810057 4288961280
1.7780309 -0.98863345 -0.34655622 4288961280
1.7823958 -0.99098462 -0.3437818 4288961280
1.7773741 -0.98812509 -0.33880705 4288961280
1.7769707 -0.98782945 -0.33433127 4288961280
1.7655799 -0.98143584 -0.32744083 4288830720
1.7630458 -0.97995847 -0.32184958 4288830720
1.7487135 -0.97193408 -0.31379381 4288830720
1.7492038 -0.97213614 -0.30807364 4288830720
1.7527082 -0.97401071 -0.30251709 4288830720
1.7739173 -0.98570812 -0.29957134 4288961280
1.7782731 -0.98805398 -0.29335251 4288961280
1.7637911 -0.97994941 -0.28374606 4288830720
1.7500679 -0.97226709 -0.27405888 4288830720
1.7505002 -0.97243744 -0.26632926 4288830720
1.7698799 -0.98311663 -0.26108232 4288830720
1.7708323 -0.98357481 -0.25274023 4288830720
1.7563453 -0.97547114 -0.24198747 4288830720
1.7461339 -0.96973962 -0.23167631 4288700160
1.7616938 -0.97829837 -0.22448541 4288830720
1.7706196 -0.98317772 -0.21607473 4288830720
1.7802296 -0.98843586 -0.20740819 4288830720
1.7410417 -0.96664214 -0.19301975 4288700160
1.7465545 -0.9696297 -0.1835442 4288700160
1.7571905 -0.97545654 -0.17431013 4288830720
1.7634073 -0.97883344 -0.16435038 4288830720
1.7442534 -0.96814948 -0.15193865 4288700160
1.7605312 -0.9771018 -0.14244942 4288830720
1.7692453 -0.98186165 -0.13204275 4288830720
1.7651485 -0.97952276 -0.12051505 4288830720
1.7648802 -0.97930527 -0.10914595 4288830720
1.7498664 -0.97091889 -0.096853815 4288700160
1.7536526 -0.97294819 -0.085564427 4288700160
1.7553715 -0.97383213 -0.0740484 4288700160
1.7210855 -0.95477349 -0.061166186 4288569600
1.7328311 -0.96121174 -0.049987387 4288700160
1.7318097 -0.9605788 -0.03832176 4288700160
1.6359539 -0.90742981 -0.025206123 4288308480
1.754494 -0.97300506 -0.015131517 4288700160
1.7733397 -0.98337162 -0.0032906742 4288830720
1.7775006 -0.98560631 0.0087291878 4288830720
1.7819606 -0.98800641 0.020797189 4288830720
1.779232 -0.98642665 0.032766014 4288830720
1.8521794 -1.0267364 0.046586417 4289091840
1.9764543 -1.0954497 0.062981598 4289614080
1.9425589 -1.0766133 0.074828841 4289483520
2.1095617 -1.1689597 0.095263973 4290136320
2.1174474 -1.1732416 0.10952512 4290136320
2.0981884 -1.1625024 0.12218104 4290136320
1.9616429 -1.0868702 0.12684059 4289614080
2.1369617 -1.1837907 0.15183701 4290266880
2.1528211 -1.1924812 0.16651712 4290266880
2.1539047 -1.1929966 0.17997338 4290266880
2.0589397 -1.1403832 0.1846118 4289875200
2.1729248 -1.2033485 0.20792811 4290397440
2.1798408 -1.2070886 0.2214736 4290397440
2.1794288 -1.2067754 0.2340651 4290397440
2.1474042 -1.1889808 0.24281073 4290266880
2.0294125 -1.1236534 0.24071354 4289875200
2.177063 -1.2052109 0.27004746 4290397440
2.1829901 -1.2084023 0.28230593 4290397440
2.1785531 -1.2058636 0.29291323 4290397440
2.1532209 -1.1917744 0.30022857 4290397440
2.1464462 -1.1879447 0.30963585 4290266880
2.1747377 -1.2034969 0.3238546 4290397440
2.1586776 -1.1945349 0.3311539 4290397440
2.1368179 -1.182369 0.33701897 4290266880
2.1214387 -1.1737858 0.34336406 4290266880
2.1061764 -1.1652683 0.34921095 4290136320
2.0468795 -1.1324221 0.34706715 4290005760
1.9718786 -1.0909045 0.34136924 4289614080
1.9459563 -1.0765054 0.34342596 4289614080
1.8869075 -1.0438094 0.33896142 4289352960
1.8905059 -1.0457214 0.34519005 4289352960
1.8811846 -1.0404973 0.34864217 4289352960
1.8805541 -1.0400734 0.35327321 4289352960
1.7982033 -0.99452078 0.34193978 4288961280
1.7976989 -0.99416971 0.34558991 4288961280
1.7765347 -0.98241121 0.34482142 4288961280
1.783909 -0.98641068 0.34916443 4288961280
1.7671818 -0.97710371 0.34836647 4288830720
1.762594 -0.97449929 0.34952527 4288830720
1.7623789 -0.97430879 0.35113552 4288830720
1.7665361 -0.97653139 0.35320735 4288830720
1.7621309 -0.97402793 0.35315162 4288830720
1.7707223 -0.97869712 0.35528651 4288961280
1.770753 -0.97864145 0.35528669 4288961280
1.7829193 -0.98528183 0.35730216 4288961280
1.7917 -0.99005312 0.3582114 4288961280
1.7876067 -0.98772091 0.35612279 4288961280
1.7999644 -0.99446434 0.35688612 4288961280
1.8742505 -1.0353676 0.3694171 4289352960
1.8746688 -1.0355206 0.3668592 4289352960
1.8837795 -1.0404676 0.36555788 4289352960
1.8800004 -1.0383049 0.36131805 4289352960
1.9517497 -1.077793 0.37103775 4289614080
1.9558762 -1.0799869 0.36730215 4289614080
1.9859892 -1.0965085 0.36793619 4289744640
2.0381994 -1.1252104 0.37201959 4289875200
2.0762508 -1.1461021 0.37282977 4290136320
2.1165965 -1.1682551 0.37338057 4290266880
2.1659775 -1.195385 0.37480128 4290397440
2.1772432 -1.2015028 0.36898372 4290397440
2.1765826 -1.2010468 0.36068171 4290397440
2.1531959 -1.1875677 0.29515037 4290266880
2.1834891 -1.2041614 0.28827864 4290397440
2.1836641 -1.2041645 0.27694798 4290397440
2.1617622 -1.1920093 0.2626192 4290397440
2.1399081 -1.1798823 0.24823892 4290266880
2.1517472 -1.1863096 0.23754926 4290266880
2.1637671 -1.1928355 0.22647998 4290397440
2.1034901 -1.1595572 0.20786203 4290136320
2.0121534 -1.1091857 0.18683404 4289744640
2.1258342 -1.1716759 0.18453339 4290136320
2.1352031 -1.1767414 0.17220749 4290266880
2.1422868 -1.1805481 0.15940514 4290266880
2.0761375 -1.1440518 0.14133655 4290005760
1.9175833 -1.0567119 0.11823305 4289352960
1.8081312 -0.99640363 0.099760354 4288961280
1.7876279 -0.98504472 0.08695066 4288830720
1.7811292 -0.98139226 0.074906908 4288830720
1.7794875 -0.98041213 0.063039951 4288830720
1.7840155 -0.98282605 0.051304542 4288830720
1.771649 -0.97594702 0.039073929 4288830720
1.7590836 -0.96895969 0.026962467 4288700160
1.7625407 -0.97078484 0.015132418 4288830720
1.7647115 -0.97190243 0.0032352519 4288830720
1.7405088 -0.95851815 -0.0085754003 4288700160
1.7550886 -0.9664591 -0.020490699 4288700160
1.7546167 -0.96612388 -0.032310069 4288700160
1.7644275 -0.97144133 -0.044344291 4288830720
1.7621176 -0.9700954 -0.056082323 4288830720
1.7709655 -0.97488248 -0.068155527 4288830720
1.7781364 -0.97874719 -0.080198847 4288830720
1.7856345 -0.98279107 -0.092268057 4288830720
1.7617236 -0.96957475 -0.10252168 4288830720
1.7767833 -0.97777373 -0.11485893 4288830720
1.7775218 -0.97810292 -0.12625462 4288830720
1.7862732 -0.98283428 -0.13813992 4288830720
1.7797269 -0.9791612 -0.14871377 4288830720
1.7965165 -0.98830718 -0.16112854 4288961280
1.8076444 -0.99434203 -0.17303281 4288961280
1.7938397 -0.98668277 -0.18235812 4288961280
1.7848482 -0.981668 -0.19183716 4288830720
1.7799466 -0.9788999 -0.20146346 4288830720
1.7878251 -0.98314971 -0.21232486 4288961280
1.8015484 -0.99060792 -0.22376214 4288961280
1.7891077 -0.98370105 -0.23172325 4288961280
1.7686342 -0.9723857 -0.23821914 4288830720
1.8008317 -0.98998398 -0.25157413 4288961280
1.8042741 -0.99179679 -0.26082346 4288961280
1.8124748 -0.99622089 -0.27052158 4288961280
1.7938409 -0.98591793 -0.27587825 4288961280
1.7892426 -0.98331869 -0.28297147 4288961280
1.7800606 -0.97820479 -0.2889643 4288961280
1.7790247 -0.97756118 -0.29590565 4288961280
1.786006 -0.98131615 -0.30386278 4288961280
1.7982078 -0.98793447 -0.31243005 4288961280
1.781383 -0.97862995 -0.31559947 4288961280
1.7987549 -0.98808348 -0.32444635 4288961280
1.7965664 -0.98680776 -0.3294526 4288961280
1.7885507 -0.98233676 -0.33298585 4288961280
1.7910717 -0.98364443 -0.33807564 4288961280
1.7849193 -0.98019624 -0.34113485 4288961280
1.7890192 -0.9823699 -0.34574774 4288961280
1.7784497 -0.97650087 -0.34712178 4288961280
1.7729201 -0.97339582 -0.34904462 4288961280
1.7729095 -0.97331661 -0.35163623 4288961280
1.7682967 -0.97071499 -0.35290313 4288830720
1.7629681 -0.96772164 -0.35360593 4288830720
1.7714323 -0.97228777 -0.35665673 4288961280
1.7626847 -0.96742135 -0.35583809 4288830720
1.7583178 -0.96495622 -0.35548052 4288830720
1.7677433 -0.97004861 -0.3574883 4288830720
1.7761148 -0.97456288 -0.3588658 4288961280
1.7813715 -0.97737026 -0.35919371 4288961280
1.7787133 -0.9758417 -0.35751107 4288961280
1.7795463 -0.97622573 -0.35611275 4288961280
1.7863095 -0.97985786 -0.3554751 4288961280
1.787281 -0.98031771 -0.353266 4288961280
1.7861633 -0.97963351 -0.35023522 4288961280
1.788083 -0.9806127 -0.34739035 4288961280
1.7905065 -0.98186785 -0.34423241 4288961280
1.7830998 -0.97774071 -0.33880359 4288961280
1.7826946 -0.97744745 -0.33432782 4288961280
1.7755963 -0.97349042 -0.32823539 4288961280
1.7730553 -0.97202867 -0.32263196 4288830720
1.7630117 -0.96646065 -0.31533581 4288830720
1.7635071 -0.96666169 -0.30958769 4288830720
1.7713637 -0.97089136 -0.30474532 4288830720
1.7831002 -0.97724372 -0.30015042 4288961280
1.7926813 -0.9824158 -0.29477236 4288961280
1.7816319 -0.97629929 -0.28568667 4288961280
1.7600476 -0.96442002 -0.27473161 4288830720
1.7645223 -0.96679866 -0.26759356 4288830720
1.779927 -0.97515613 -0.26171643 4288830720
1.7899586 -0.98057342 -0.25464034 4288961280
1.7741923 -0.97187984 -0.24365284 4288830720
1.7639543 -0.96621102 -0.2332806 4288830720
1.7760823 -0.97277451 -0.22558537 4288830720
1.7894032 -0.97998947 -0.21765698 4288961280
