# .PCD v0.7 - Point Cloud Data file format
VERSION 0.7
FIELDS x y z rgba
SIZE 4 4 4 4
TYPE F F F U
COUNT 1 1 1 1
WIDTH 1078
HEIGHT 1
VIEWPOINT 0 0 0 1 0 0 0
POINTS 1078
DATA ascii
2.6086512 -0.65129513 -0.081279814 4290919680
2.631078 -0.65680653 -0.066128895 4291050240
2.6424189 -0.65954942 -0.050424479 4291050240
2.5992501 -0.64868772 -0.033819195 4290919680
2.6430664 -0.65953457 -0.018304925 4291050240
2.8091369 -0.70088106 -0.0023393759 4291703040
2.9058092 -0.72490388 0.015287155 4291964160
2.771699 -0.69135535 0.03145545 4291572480
2.924289 -0.7293188 0.05095388 4292094720
2.9551101 -0.73690701 0.069389075 4292225280
2.8636129 -0.7139951 0.084511757 4291833600
2.7554126 -0.68692517 0.097848959 4291441920
2.9365935 -0.73199564 0.12178732 4292094720
2.9262021 -0.72930777 0.13866711 4292094720
2.8746259 -0.71635735 0.15308067 4291833600
2.7283218 -0.67980731 0.16113132 4291441920
2.9419851 -0.73294693 0.19064306 4292094720
2.9322412 -0.73042154 0.20664142 4292094720
2.8755803 -0.71621138 0.21873531 4291964160
2.7195246 -0.67725235 0.22185202 4291311360
2.9606452 -0.73720062 0.25757304 4292225280
2.9588597 -0.73665732 0.27317584 4292225280
2.9173975 -0.72623724 0.28458813 4292094720
2.8280826 -0.70390952 0.29034433 4291703040
2.7790763 -0.69161916 0.2992149 4291572480
2.7183199 -0.67640823 0.30594605 4291441920
2.6847758 -0.66797173 0.31494281 4291311360
2.7492397 -0.68391865 0.33522332 4291572480
2.7040682 -0.67259121 0.34185547 4291311360
2.6192586 -0.65140891 0.34252089 4291050240
2.8985565 -0.72077358 0.39121923 4292094720
2.894716 -0.71972203 0.40241781 4292094720
2.8659921 -0.71248466 0.40957394 4291964160
2.8331707 -0.70423079 0.41544515 4291833600
2.778645 -0.6905849 0.41734406 4291703040
2.698561 -0.67059135 0.41446194 4291311360
2.9329352 -0.72873545 0.45988354 4292225280
2.9290564 -0.72767395 0.46816066 4292225280
2.9289482 -0.72754931 0.47648981 4292225280
2.9263871 -0.72681558 0.48386344 4292225280
2.8837516 -0.7161302 0.48393968 4292094720
2.896162 -0.7191155 0.49261615 4292094720
2.9230003 -0.7256819 0.5032593 4292225280
2.853538 -0.70834166 0.49666271 4291964160
2.862361 -0.71043628 0.50299799 4291964160
2.8750935 -0.71350062 0.50946766 4291964160
2.8793051 -0.71444982 0.51385701 4292094720
2.8922155 -0.71755677 0.51921737 4292094720
2.8918345 -0.7173658 0.52159798 4292094720
2.8963325 -0.71838504 0.52425081 4292094720
2.8827684 -0.71492463 0.5230177 4292094720
2.8779099 -0.7136237 0.52274466 4292094720
2.8779323 -0.71353328 0.52274489 4292094720
2.8646734 -0.71015048 0.5197233 4291964160
2.8505576 -0.70655608 0.51594645 4291964160
2.9098682 -0.72116011 0.52482378 4292094720
2.9016907 -0.71903676 0.5208841 4292094720
2.879262 -0.7133829 0.51380789 4292094720
2.8655283 -0.70988464 0.5077244 4291964160
2.9077392 -0.72024465 0.51091617 4292094720
2.906122 -0.71974719 0.50575215 4292094720
2.9145229 -0.72173065 0.50173002 4292094720
2.9276762 -0.72489017 0.49790007 4292225280
2.9330504 -0.72612309 0.49213019 4292225280
2.9116523 -0.72072858 0.48133931 4292094720
2.9092798 -0.72004426 0.47319692 4292094720
2.9066954 -0.71930772 0.46448845 4292094720
2.899514 -0.71743393 0.45454049 4292094720
2.877826 -0.7119717 0.44188851 4291964160
2.8364973 -0.70165241 0.42592493 4291833600
2.9090905 -0.71911144 0.36176169 4292094720
2.9162893 -0.72079378 0.34937978 4292094720
2.9385662 -0.72620177 0.33827648 4292094720
2.9424701 -0.72706848 0.32455784 4292225280
2.8972192 -0.71579069 0.30526122 4291964160
2.9116833 -0.71926713 0.29206833 4292094720
2.9280672 -0.72321683 0.27858734 4292094720
2.9249706 -0.72235447 0.2628774 4292094720
2.8881609 -0.71316761 0.24406239 4291964160
2.9024515 -0.71659964 0.2294174 4291964160
2.9186399 -0.72049916 0.21450342 4292094720
2.9231384 -0.72151226 0.19838092 4292094720
2.9023817 -0.7162922 0.18042135 4291964160
2.9269819 -0.72226584 0.16506152 4292094720
2.9420259 -0.72588003 0.14875396 4292094720
2.9185786 -0.7199977 0.13038935 4292094720
2.8963749 -0.71442366 0.11220904 4291964160
2.7875361 -0.68748444 0.091333441 4291572480
2.6576383 -0.65535945 0.071100719 4291180800
2.6261992 -0.64751917 0.054396339 4291050240
2.6311238 -0.6486457 0.038546756 4291050240
2.638555 -0.65038979 0.022617543 4291050240
2.6247036 -0.64688802 0.0065209093 4291050240
2.6058519 -0.64215493 -0.0093958005 4290919680
2.6167912 -0.64476347 -0.025361322 4290919680
2.635551 -0.64929795 -0.041555598 4291050240
2.6470859 -0.65205151 -0.057774745 4291050240
2.6151173 -0.64408964 -0.072858751 4290919680
2.6422162 -0.65067589 -0.08947926 4291050240
2.6572585 -0.65429169 -0.10584696 4291180800
2.6491053 -0.65219587 -0.12121737 4291050240
2.6184022 -0.64454967 -0.13519563 4291050240
2.6347742 -0.6484921 -0.1513724 4291050240
2.6494865 -0.65202492 -0.16746897 4291050240
2.641042 -0.64985877 -0.18195583 4291050240
2.6287086 -0.64673638 -0.1958587 4291050240
2.657161 -0.65364796 -0.21267416 4291180800
2.6677897 -0.65617371 -0.22804493 4291180800
2.6657379 -0.65558022 -0.24212785 4291180800
2.6281443 -0.64624733 -0.25250739 4291050240
2.6544034 -0.65261585 -0.26868051 4291180800
2.6560321 -0.65292782 -0.28220612 4291180800
2.666841 -0.65549612 -0.29645503 4291180800
2.6536663 -0.65216941 -0.30769771 4291180800
2.6132061 -0.64213878 -0.31518143 4291050240
2.6709561 -0.65624064 -0.33423024 4291180800
2.6811578 -0.65865785 -0.34725979 4291311360
2.6779807 -0.6577881 -0.35819679 4291311360
2.6773586 -0.65754616 -0.36905515 4291311360
2.6786916 -0.65778428 -0.37976784 4291311360
2.6376178 -0.64761031 -0.38388762 4291180800
2.6496034 -0.65046483 -0.39518118 4291180800
2.6616867 -0.65334255 -0.40612301 4291180800
2.6567512 -0.65204257 -0.41402879 4291180800
2.65167 -0.65070719 -0.42140523 4291180800
2.6552007 -0.6514852 -0.42966032 4291180800
2.6515613 -0.65050387 -0.43626034 4291180800
2.6458406 -0.64901233 -0.44198981 4291180800
2.6348567 -0.64623022 -0.44628853 4291180800
2.6296799 -0.64487302 -0.45101681 4291180800
2.6130333 -0.64070374 -0.45321077 4291050240
2.5879428 -0.63446552 -0.45333737 4291050240
2.5410151 -0.62287593 -0.44899541 4290789120
2.5548449 -0.62618095 -0.45481208 4290919680
2.5543993 -0.62598664 -0.45757401 4290919680
2.4854426 -0.60900527 -0.44746578 4290658560
2.4899604 -0.61002934 -0.45000279 4290658560
2.484998 -0.60873079 -0.45030037 4290658560
2.5534875 -0.62542307 -0.46339664 4290919680
2.5391347 -0.62182313 -0.46093377 4290789120
2.5353935 -0.62082249 -0.45985705 4290789120
2.5856748 -0.63304842 -0.46802211 4291050240
2.6064842 -0.63805634 -0.47027385 4291050240
2.6360884 -0.64521551 -0.47352651 4291180800
2.635098 -0.64488542 -0.47070718 4291180800
2.6552658 -0.64973259 -0.47109389 4291180800
2.6567814 -0.65001506 -0.46759498 4291311360
2.6595335 -0.65059984 -0.46376199 4291311360
2.6552663 -0.64946753 -0.45816842 4291180800
2.6552503 -0.6493752 -0.45278376 4291180800
2.6523552 -0.64857882 -0.44638926 4291180800
2.6437709 -0.64639169 -0.43854755 4291180800
2.6268034 -0.64215577 -0.42887348 4291180800
2.6272466 -0.64217663 -0.42159045 4291180800
2.6386909 -0.64488614 -0.41555226 4291180800
2.6655354 -0.65135807 -0.41134319 4291311360
2.6793094 -0.65463471 -0.40451506 4291311360
2.6642776 -0.65087336 -0.39288267 4291180800
2.634186 -0.64343441 -0.37874559 4291180800
2.6165729 -0.63904506 -0.36615089 4291050240
2.6510813 -0.64738476 -0.36036456 4291180800
2.6630297 -0.65021384 -0.35091659 4291180800
2.6626191 -0.65002495 -0.3393968 4291180800
2.6259201 -0.64097822 -0.32303518 4291050240
2.6381621 -0.64387864 -0.31243944 4291050240
2.6657093 -0.65051317 -0.30312112 4291180800
2.6535454 -0.64745653 -0.28887853 4291180800
2.6566999 -0.64813775 -0.27602595 4291180800
2.6190648 -0.63886899 -0.25880525 4291050240
2.6440105 -0.64486605 -0.24754436 4291050240
2.6441357 -0.64480853 -0.23355672 4291050240
2.6459076 -0.64515257 -0.21944763 4291050240
2.6237681 -0.63966697 -0.20322658 4291050240
2.6437089 -0.64444047 -0.19005297 4291050240
2.6543934 -0.64695662 -0.17583519 4291180800
2.6476195 -0.64521748 -0.16024782 4291050240
2.6150262 -0.63718754 -0.14315079 4290919680
2.63851 -0.64282191 -0.12901953 4291050240
2.6442556 -0.64413369 -0.11371007 4291050240
2.6471407 -0.64474839 -0.09810365 4291050240
2.63083 -0.64068812 -0.081760377 4291050240
2.6543827 -0.6463356 -0.066523738 4291050240
2.6651931 -0.64887923 -0.050689146 4291180800
2.6262774 -0.63931727 -0.03402501 4291050240
2.6701567 -0.64990997 -0.018366372 4291180800
2.8496506 -0.69350356 -0.0022621907 4291833600
2.8830228 -0.7015292 0.015255379 4291833600
2.7853668 -0.67767382 0.031672288 4291572480
2.935761 -0.7141667 0.051194113 4292094720
2.9457211 -0.71649164 0.069184236 4292094720
2.8579793 -0.69505501 0.084336534 4291833600
2.6563215 -0.64592379 0.094299331 4291180800
2.9310653 -0.71263433 0.12149942 4292094720
2.9119241 -0.7078836 0.13790776 4291964160
2.8699825 -0.69759214 0.1527278 4291833600
2.7137706 -0.65953219 0.16014943 4291311360
2.9374406 -0.7137934 0.19019157 4292094720
2.9267154 -0.71108979 0.20607144 4292094720
2.8661001 -0.69626701 0.21781388 4291833600
2.7195141 -0.66056615 0.22163901 4291311360
2.9648509 -0.72005951 0.25768381 4292225280
2.9495263 -0.71623957 0.27203685 4292225280
2.9031584 -0.7048834 0.28290337 4291964160
2.8185596 -0.6842491 0.28905761 4291703040
2.7878532 -0.67670196 0.29983285 4291572480
2.7661035 -0.67133051 0.31097871 4291572480
2.7214139 -0.66039383 0.31888074 4291441920
2.7714758 -0.67245001 0.3375479 4291572480
2.6702847 -0.64780891 0.33719277 4291180800
2.6432359 -0.641159 0.34525022 4291180800
2.9102263 -0.70582491 0.39232713 4292094720
2.919498 -0.70797646 0.4053748 4292094720
2.8604283 -0.69355702 0.40828198 4291964160
2.8179431 -0.68316209 0.41270494 4291703040
2.7595026 -0.66890234 0.41395518 4291572480
2.6985402 -0.65403533 0.41394031 4291311360
2.9284441 -0.70965892 0.4585999 4292225280
2.9188008 -0.70722497 0.46592778 4292094720
2.9186983 -0.70710301 0.47421309 4292094720
2.911341 -0.7052238 0.48075303 4292094720
2.8648152 -0.69385839 0.4801352 4291964160
2.8868406 -0.69909692 0.49038568 4292094720
2.8945487 -0.7008673 0.49770126 4292094720
2.9215 -0.70729595 0.50781375 4292225280
2.8568358 -0.69154572 0.50135303 4291964160
2.8705466 -0.6947692 0.50797409 4291964160
2.878597 -0.69662189 0.51303089 4291964160
2.8781211 -0.69641107 0.51597846 4291964160
2.8825293 -0.69738179 0.51920146 4292094720
2.8822486 -0.69721806 0.52097589 4292094720
2.8820684 -0.69707865 0.52215821 4292094720
2.8724172 -0.6946488 0.52101099 4291964160
2.8686111 -0.69363296 0.52031159 4291964160
2.8591621 -0.69125313 0.51798123 4291964160
2.9184515 -0.70549035 0.52747393 4292225280
2.9092071 -0.70315892 0.52394295 4292094720
2.8962297 -0.69992596 0.51914358 4292094720
2.8785567 -0.69555926 0.51292527 4291964160
2.8513913 -0.68890035 0.50446963 4291964160
2.8888667 -0.69785839 0.50684083 4292094720
2.905452 -0.70176828 0.50487328 4292094720
2.9004409 -0.70046151 0.49854705 4292094720
2.9184024 -0.7047022 0.4955624 4292094720
2.92378 -0.70590347 0.48981661 4292225280
2.9157836 -0.70387596 0.48127088 4292094720
2.895164 -0.69880211 0.47016037 4292094720
2.9108195 -0.70248407 0.46440914 4292094720
2.9121294 -0.70270336 0.4557865 4292094720
2.907449 -0.70147729 0.44571447 4292094720
2.8992324 -0.69939852 0.43463323 4292094720
2.890125 -0.69632673 0.35888526 4291964160
2.9156694 -0.70238435 0.34880358 4292094720
2.9264653 -0.70488781 0.33640105 4292094720
2.937048 -0.70733917 0.32349768 4292094720
2.8917263 -0.6963281 0.30424982 4291964160
2.9062059 -0.69971818 0.29110703 4291964160
2.9226081 -0.70357013 0.27767736 4292094720
2.9195018 -0.70272535 0.26201981 4292094720
2.878758 -0.69282264 0.24293101 4291964160
2.9017875 -0.69826859 0.22905022 4291964160
2.9141173 -0.70113873 0.21388033 4291964160
2.9137676 -0.70095772 0.19747995 4291964160
2.8832705 -0.69352531 0.17899682 4291964160
2.9127522 -0.70051986 0.16404639 4291964160
2.9345245 -0.70565861 0.14818716 4292094720
2.9135599 -0.70052046 0.13000573 4291964160
2.8899558 -0.69474918 0.111829 4291964160
2.8136475 -0.67631108 0.092087299 4291703040
2.6845787 -0.64519781 0.071749561 4291180800
2.667892 -0.6410988 0.055213522 4291180800
2.6582441 -0.63869202 0.038922861 4291050240
2.6667802 -0.64065439 0.022863325 4291180800
2.66154 -0.63930708 0.0066413237 4291180800
2.6329374 -0.63234919 -0.0094401147 4291050240
2.6487532 -0.63605964 -0.025592579 4291050240
2.6626766 -0.63931465 -0.041879497 4291180800
2.6645041 -0.63966489 -0.058026277 4291180800
2.6422076 -0.63422447 -0.073461547 4291050240
2.6655746 -0.63974476 -0.090092562 4291180800
2.6844006 -0.64417386 -0.10672475 4291180800
2.67623 -0.64212424 -0.12223174 4291180800
2.6503325 -0.63582242 -0.13659614 4291050240
2.6667197 -0.63966519 -0.15293469 4291180800
2.6722248 -0.64089692 -0.16860951 4291180800
2.6636577 -0.63875371 -0.18319556 4291180800
2.6555533 -0.63672209 -0.19751927 4291180800
2.6861858 -0.64397758 -0.21463177 4291180800
2.6900387 -0.64481187 -0.2295592 4291311360
2.6928191 -0.6453889 -0.24417855 4291311360
2.6330402 -0.63097417 -0.25255764 4291050240
2.6776955 -0.6415863 -0.27059096 4291180800
2.6840305 -0.64301503 -0.28471333 4291311360
2.6900115 -0.64435858 -0.29854321 4291311360
2.6806734 -0.64203268 -0.31032524 4291180800
2.6058824 -0.62403339 -0.31379116 4291050240
2.7029109 -0.64717907 -0.33768606 4291311360
2.7052701 -0.64765412 -0.34982318 4291311360
2.7058635 -0.64770627 -0.36135098 4291311360
2.6983044 -0.64580721 -0.37135386 4291311360
2.6903441 -0.64381272 -0.38081911 4291311360
2.6548877 -0.6352396 -0.38579527 4291180800
2.6725831 -0.63938487 -0.39798638 4291311360
2.6848686 -0.64223486 -0.40902358 4291311360
2.6922984 -0.64392263 -0.41891941 4291311360
2.6828713 -0.64157885 -0.42570713 4291311360
2.68207 -0.64129812 -0.43334284 4291311360
2.6832173 -0.64148337 -0.44079491 4291311360
2.6730556 -0.63896525 -0.44585773 4291311360
2.6616683 -0.63615477 -0.45014811 4291180800
2.6346815 -0.62961727 -0.45119452 4291180800
2.6311653 -0.62868965 -0.45567212 4291180800
2.6242523 -0.62695074 -0.45901269 4291180800
2.563828 -0.6124298 -0.45235464 4290919680
2.5719221 -0.61427784 -0.45717669 4290919680
2.5762637 -0.61522925 -0.46081337 4290919680
2.5119953 -0.59979814 -0.4515861 4290789120
2.5117259 -0.59965038 -0.45327753 4290789120
2.5067539 -0.59838015 -0.4535872 4290658560
2.5887504 -0.61786729 -0.46912208 4291050240
2.5753338 -0.61457956 -0.46683854 4290919680
2.5754187 -0.61451435 -0.46645492 4290919680
2.6171513 -0.62438518 -0.47305286 4291050240
2.6284108 -0.62698412 -0.47356716 4291180800
2.6362906 -0.62877625 -0.47290567 4291180800
2.6532497 -0.63273299 -0.47329676 4291180800
2.6642256 -0.63526201 -0.47203749 4291311360
2.6787887 -0.63864553 -0.4708291 4291311360
2.6859212 -0.64025682 -0.46773383 4291311360
2.6825569 -0.63936579 -0.46226078 4291311360
2.6820662 -0.6391598 -0.45675293 4291311360
2.6830139 -0.63929653 -0.45095906 4291311360
2.6762722 -0.63760132 -0.44336477 4291311360
2.6493351 -0.63109583 -0.431999 4291180800
2.6588597 -0.63327634 -0.42612407 4291180800
2.6703317 -0.63592011 -0.42001024 4291311360
2.6886868 -0.64020199 -0.41440487 4291311360
2.6937034 -0.64130706 -0.40619445 4291311360
2.6826293 -0.63858151 -0.39511588 4291311360
2.6664097 -0.63463199 -0.38292786 4291180800
2.6521015 -0.6311385 -0.37069392 4291180800
2.6731725 -0.63606411 -0.36295581 4291180800
2.687073 -0.63928252 -0.35369226 4291311360
2.6943235 -0.64091808 -0.34306613 4291311360
2.652832 -0.63096011 -0.32600147 4291180800
2.665103 -0.63379019 -0.31530648 4291180800
2.6830308 -0.63796461 -0.30478802 4291311360
2.6989133 -0.64165151 -0.29353645 4291311360
2.6863527 -0.63857615 -0.27885085 4291311360
2.6557083 -0.63120347 -0.26219696 4291180800
2.6719091 -0.63496536 -0.24995001 4291180800
2.6673944 -0.63380396 -0.23542969 4291180800
2.6729362 -0.63503206 -0.22153229 4291180800
2.650775 -0.62967902 -0.20518748 4291050240
2.6756063 -0.63548875 -0.19223909 4291180800
2.6775024 -0.63585025 -0.17728436 4291180800
2.6757429 -0.63534361 -0.1618939 4291180800
2.6124506 -0.62022847 -0.14298002 4290919680
2.6703627 -0.63388884 -0.13057223 4291180800
2.6761999 -0.63518572 -0.11510458 4291180800
2.6587751 -0.63096178 -0.098581009 4291050240
2.6579056 -0.63066721 -0.082673453 4291050240
2.6814961 -0.63617581 -0.067301132 4291180800
2.6862347 -0.63721085 -0.051212963 4291180800
2.6533575 -0.6293239 -0.034523085 4291050240
2.7157879 -0.64404106 -0.018856499 4291311360
2.882333 -0.6834411 -0.0025021224 4291833600
2.9092228 -0.68972051 0.015151103 4291964160
2.7757034 -0.65797353 0.031305205 4291572480
2.9399338 -0.69680637 0.050967831 4292094720
2.9353168 -0.6956147 0.068615057 4292094720
2.8532891 -0.676081 0.083857231 4291833600
2.6688514 -0.6322903 0.094402134 4291180800
2.9264839 -0.69323009 0.12090952 4292094720
2.9112065 -0.68951458 0.13745151 4291964160
2.8740659 -0.68062258 0.1525047 4291833600
2.7176323 -0.64348656 0.15993913 4291311360
2.9319096 -0.69412625 0.18933778 4292094720
2.8952351 -0.68534762 0.20334338 4291964160
2.8517411 -0.67495728 0.21619771 4291833600
2.7088346 -0.64104396 0.22025058 4291311360
2.9603455 -0.70046562 0.25670549 4292225280
2.9391875 -0.69536179 0.27048108 4292094720
2.9072928 -0.68771958 0.28269184 4291964160
2.8177319 -0.66644049 0.28835979 4291703040
2.7172184 -0.64257723 0.29162899 4291311360
2.7835865 -0.65817988 0.31230667 4291572480
2.8320177 -0.66953748 0.33117691 4291703040
2.7841203 -0.65812141 0.33842129 4291572480
2.6373808 -0.62334704 0.33239383 4291050240
2.6054847 -0.61572194 0.33967155 4291050240
2.9227805 -0.69060761 0.39328098 4292094720
2.9188309 -0.68957752 0.40453357 4292094720
2.855823 -0.67459714 0.40688232 4291833600
2.8219526 -0.66650271 0.41254985 4291703040
2.7499452 -0.64940441 0.41179049 4291572480
2.6879387 -0.63467234 0.41159314 4291311360
2.9229858 -0.69007438 0.45695505 4292094720
2.9181406 -0.68883371 0.46502867 4292094720
2.9141929 -0.68780518 0.47268453 4292094720
2.9020224 -0.68483645 0.47841814 4292094720
2.8592763 -0.67465419 0.47842076 4291964160
2.8813345 -0.67976332 0.48865747 4291964160
2.8938549 -0.68262112 0.49678594 4292094720
2.9122066 -0.68685347 0.50539875 4292094720
2.8522496 -0.67261779 0.49976742 4291964160
2.8554282 -0.67327273 0.5045206 4291964160
2.8644507 -0.67530513 0.50973374 4291964160
2.8869882 -0.68052268 0.51679164 4292094720
2.8731835 -0.67717332 0.516752 4291964160
2.8729017 -0.67701161 0.51852804 4291964160
2.8727198 -0.67687351 0.51971495 4291964160
2.8678458 -0.67563003 0.51944327 4291964160
2.8496532 -0.67124957 0.51614976 4291964160
2.8449807 -0.67005461 0.5147016 4291833600
2.8404078 -0.66888338 0.51267171 4291833600
2.8998821 -0.68279272 0.52156591 4292094720
2.8772926 -0.67737854 0.51507157 4291964160
2.8682201 -0.67514759 0.51042348 4291964160
2.8458078 -0.66977763 0.5028432 4291833600
2.8977246 -0.68190044 0.50776201 4292094720
2.8951359 -0.68119532 0.50246656 4292094720
2.9215231 -0.68730706 0.50157028 4292094720
2.9090514 -0.68427658 0.49339655 4292094720
2.9278803 -0.68860847 0.48994264 4292225280
2.9112206 -0.68459374 0.47998145 4292094720
2.8905666 -0.67964101 0.46890333 4291964160
2.8956571 -0.68074191 0.46150142 4292094720
2.9188206 -0.68609065 0.45636481 4292094720
2.9379873 -0.69049853 0.44994837 4292225280
2.9259174 -0.68756485 0.43821263 4292094720
2.879607 -0.67619306 0.35708746 4291964160
2.9100134 -0.68323672 0.34764764 4292094720
2.9208188 -0.68567681 0.33528894 4292094720
2.9226985 -0.68602121 0.32147244 4292094720
2.8908637 -0.67845309 0.30373797 4291964160
2.91505 -0.68403274 0.29158768 4292094720
2.9217823 -0.68551564 0.27721259 4292094720
2.9050906 -0.68150306 0.26036245 4291964160
2.8730149 -0.67388326 0.24210666 4291833600
2.897042 -0.67942297 0.22835389 4291964160
2.9039412 -0.68094474 0.21283206 4291964160
2.9129167 -0.68295282 0.19714147 4291964160
2.8872347 -0.67683583 0.17898616 4291964160
2.9070344 -0.68138105 0.16348787 4291964160
2.9200814 -0.68434232 0.14724258 4291964160
2.9214399 -0.68456388 0.13016455 4291964160
2.900255 -0.67950362 0.11205871 4291964160
2.8610139 -0.67021501 0.093493417 4291833600
2.7116258 -0.63512981 0.072357222 4291311360
2.6949191 -0.63112736 0.055679712 4291180800
2.6801786 -0.62758642 0.039172724 4291180800
2.6840725 -0.62840927 0.022961592 4291180800
2.6920397 -0.63018537 0.006688829 4291180800
2.6530914 -0.62097996 -0.0095193135 4291050240
2.6806238 -0.62733537 -0.025886059 4291180800
2.6804483 -0.62720543 -0.042123109 4291180800
2.684696 -0.62811047 -0.058408603 4291180800
2.6691921 -0.62439471 -0.074133463 4291180800
2.6925864 -0.62977803 -0.090905152 4291180800
2.7114327 -0.63409626 -0.10767701 4291311360
2.7081089 -0.6332292 -0.12354417 4291311360
2.6681242 -0.62379128 -0.13735086 4291180800
2.689939 -0.6288023 -0.15408191 4291180800
2.6943524 -0.62974471 -0.16980037 4291180800
2.6857665 -0.62764895 -0.18449107 4291180800
2.6737585 -0.62475419 -0.19862927 4291180800
2.7170477 -0.63477916 -0.21682952 4291311360
2.7218642 -0.63581431 -0.23198657 4291311360
2.7285159 -0.63727766 -0.24710657 4291311360
2.6599135 -0.62116665 -0.25481537 4291180800
2.6997726 -0.63038552 -0.27247843 4291311360
2.7109501 -0.6329056 -0.28720546 4291311360
2.7208004 -0.63511509 -0.30157724 4291311360
2.7124028 -0.63306504 -0.31359884 4291311360
2.647167 -0.61775154 -0.31835565 4291180800
2.7211068 -0.63491619 -0.33952418 4291441920
2.7321575 -0.63740414 -0.35284647 4291441920
2.7375677 -0.63857567 -0.3651143 4291441920
2.7299836 -0.63671613 -0.37522882 4291441920
2.721998 -0.63476348 -0.38480118 4291441920
2.6966612 -0.6287657 -0.39135727 4291311360
2.6993651 -0.62930673 -0.40145189 4291311360
2.7020223 -0.62983668 -0.41110021 4291311360
2.7016768 -0.62966669 -0.41982937 4291311360
2.7096345 -0.63143158 -0.42939058 4291441920
2.7088218 -0.63115245 -0.43709046 4291441920
2.703217 -0.62975699 -0.44349587 4291311360
2.7036221 -0.62976182 -0.45036104 4291311360
2.6931701 -0.62723804 -0.45487329 4291311360
2.666137 -0.62085372 -0.45597592 4291311360
2.6578054 -0.61882561 -0.45967385 4291180800
2.6364744 -0.61377162 -0.46053582 4291180800
2.6038029 -0.60607952 -0.45879385 4291050240
2.6032627 -0.60586756 -0.46212775 4291050240
2.6162412 -0.60880142 -0.46733549 4291050240
2.5336509 -0.5894987 -0.45486557 4290789120
2.5333788 -0.58935153 -0.45656756 4290789120
2.5427873 -0.59145606 -0.45948401 4290789120
2.6114652 -0.60734415 -0.47259539 4291050240
2.601867 -0.60502571 -0.47100553 4291050240
2.5923603 -0.60272926 -0.46888146 4291050240
2.6533368 -0.61681855 -0.47893566 4291180800
2.6684525 -0.62024415 -0.48012 4291311360
2.6581163 -0.61775362 -0.47616252 4291180800
2.6942959 -0.62607265 -0.47995284 4291311360
2.6995347 -0.6272006 -0.47762835 4291311360
2.7035513 -0.62804431 -0.47451821 4291441920
2.7087908 -0.62917173 -0.47105539 4291441920
2.70927 -0.62919337 -0.46620718 4291441920
2.7048669 -0.62808126 -0.45998505 4291441920
2.7154357 -0.63044548 -0.45576084 4291441920
2.693866 -0.62534833 -0.44564325 4291311360
2.6856568 -0.62335378 -0.4372943 4291311360
2.6807706 -0.62213093 -0.42901716 4291311360
2.7009325 -0.62672049 -0.42420858 4291311360
2.7116182 -0.62911022 -0.41733107 4291441920
2.7205057 -0.63108212 -0.40963563 4291441920
2.7103164 -0.62862879 -0.398606 4291311360
2.6919808 -0.62428689 -0.38602719 4291311360
2.6885338 -0.62339848 -0.37522542 4291311360
2.6999922 -0.62596601 -0.36604628 4291311360
2.7139235 -0.62910599 -0.3566854 4291311360
2.7076607 -0.62756461 -0.34423772 4291311360
2.6744087 -0.61976916 -0.32814652 4291180800
2.6871197 -0.62262583 -0.3174167 4291311360
2.7158525 -0.62919354 -0.30803156 4291311360
2.7172389 -0.62942475 -0.29505983 4291311360
2.7181177 -0.62953842 -0.2816942 4291311360
2.672483 -0.61888051 -0.26342297 4291180800
2.6988292 -0.62489229 -0.25205064 4291311360
2.7088783 -0.6271295 -0.23868914 4291311360
2.6994612 -0.62485999 -0.22334766 4291311360
2.6776948 -0.61973298 -0.20690918 4291180800
2.7034643 -0.62560761 -0.19389346 4291311360
2.7132251 -0.62777656 -0.17932002 4291311360
2.7075832 -0.62638152 -0.16351052 4291311360
2.6442132 -0.61163378 -0.14443474 4291050240
2.6973453 -0.62383449 -0.13162185 4291180800
2.694006 -0.62297308 -0.1156209 4291180800
2.6906199 -0.62210101 -0.099532627 4291180800
2.6854296 -0.62081206 -0.083321191 4291180800
2.7182503 -0.62830955 -0.06803342 4291311360
2.7132571 -0.6270656 -0.051559214 4291311360
2.6629503 -0.61535102 -0.034502782 4291050240
2.7328954 -0.63142335 -0.018847728 4291311360
2.9008534 -0.67013329 -0.0024056321 4291964160
2.8822606 -0.66574275 0.015099738 4291833600
2.7794619 -0.64190638 0.031411406 4291572480
2.9254031 -0.67551422 0.050759789 4291964160
2.9353924 -0.67772371 0.068637416 4292094720
2.8522792 -0.65844011 0.083824784 4291703040
2.6870677 -0.62021267 0.09502241 4291180800
2.9056239 -0.67056233 0.11999848 4291964160
2.9102743 -0.67153919 0.13733505 4291964160
2.8545947 -0.65859687 0.15137777 4291833600
2.7164392 -0.62663245 0.15975821 4291311360
2.9271162 -0.6751349 0.18888591 4292094720
2.8797007 -0.66410327 0.20208979 4291833600
2.8555899 -0.65844852 0.21630614 4291833600
2.7076325 -0.62424254 0.21995811 4291311360
2.9458897 -0.67907512 0.25521761 4292094720
2.9295633 -0.67521471 0.26934019 4292094720
2.8966606 -0.66753536 0.28138402 4291964160
2.8312263 -0.65236235 0.28945214 4291703040
2.6291535 -0.60571438 0.28189009 4291050240
2.8327172 -0.65251845 0.31748915 4291703040
2.854229 -0.65737927 0.33342189 4291833600
2.7646441 -0.63665485 0.33569336 4291572480
2.7338657 -0.62947661 0.34417889 4291441920
2.6811528 -0.61725068 0.34915048 4291180800
2.9349349 -0.67557889 0.39447504 4292094720
2.899581 -0.66734505 0.40141109 4291964160
2.8451872 -0.65473205 0.40490329 4291833600
2.8170667 -0.64816779 0.41135943 4291703040
2.7488234 -0.63237506 0.41114181 4291441920
2.6732411 -0.61489868 0.40885982 4291180800
2.9086123 -0.66894251 0.45416677 4292094720
2.9085836 -0.66883969 0.46294898 4292094720
2.9036734 -0.66761458 0.47040763 4292094720
2.9011147 -0.66693032 0.47768417 4292094720
2.8535035 -0.65589064 0.47686663 4291833600
2.8669405 -0.65888441 0.48561251 4291964160
2.8939023 -0.66498512 0.49617228 4292094720
2.8241599 -0.6488657 0.4895004 4291833600
2.8368716 -0.65169251 0.4964411 4291833600
2.8554277 -0.65586078 0.5038743 4291964160
2.8731062 -0.65982628 0.51061422 4291964160
2.8726294 -0.65962178 0.51355278 4291964160
2.8722494 -0.6594395 0.51590741 4291964160
2.8719678 -0.65927994 0.51767558 4291964160
2.8669868 -0.65804166 0.51798832 4291964160
2.862107 -0.65682697 0.51770961 4291964160
2.8534887 -0.65475482 0.5161472 4291964160
2.8488104 -0.65358716 0.51469392 4291833600
2.9130597 -0.66823119 0.52506477 4292094720
2.8941853 -0.66380584 0.51982301 4292094720
2.8715644 -0.65852261 0.51333129 4291964160
2.8634388 -0.65656447 0.50885838 4291964160
2.8361917 -0.6502232 0.50043607 4291833600
2.8920188 -0.66292638 0.50604045 4292094720
2.8903854 -0.66245639 0.50092173 4292094720
2.9071915 -0.66621214 0.49838704 4292094720
2.9211514 -0.66931456 0.49472508 4292094720
2.9125831 -0.66725504 0.48666459 4292094720
2.8958936 -0.66333586 0.47674441 4292094720
2.8970766 -0.66351104 0.4692539 4292094720
2.8812566 -0.65979254 0.45851025 4291964160
2.9092615 -0.66610932 0.45417377 4292094720
2.9236271 -0.66930181 0.44705644 4292094720
2.9153903 -0.66731983 0.4359532 4292094720
2.8883369 -0.66051102 0.35768673 4291964160
2.9139447 -0.66627079 0.34764764 4292094720
2.9247642 -0.66864789 0.33528894 4292094720
2.912106 -0.66565782 0.31987533 4291964160
2.8763411 -0.65738744 0.30180454 4291833600
2.9005506 -0.66282463 0.28974611 4291964160
2.9072824 -0.66426688 0.27546501 4291964160
2.9041557 -0.6634565 0.25992784 4291964160
2.8681476 -0.65513557 0.24137075 4291833600
2.8912308 -0.66031265 0.22758873 4291964160
2.8853889 -0.65888304 0.21118742 4291833600
2.8788543 -0.6572957 0.1945737 4291833600
2.8775048 -0.65689254 0.17814271 4291833600
2.9060876 -0.6633215 0.1632145 4291964160
2.9152551 -0.6653176 0.14680126 4291964160
2.9117572 -0.66442311 0.12955846 4291964160
2.8705633 -0.65492833 0.11076218 4291833600
2.8725398 -0.65528435 0.093743712 4291833600
2.7577348 -0.62900388 0.073488556 4291441920
2.721945 -0.62075067 0.056162417 4291311360
2.711086 -0.61818469 0.039571144 4291311360
2.7168605 -0.61941159 0.023210818 4291311360
2.7239401 -0.62093562 0.0067589874 4291311360
2.6849389 -0.61195642 -0.0096206274 4291180800
2.697669 -0.61476868 -0.026015628 4291180800
2.7162285 -0.61890841 -0.042628005 4291311360
2.7214532 -0.62000895 -0.059128698 4291311360
2.7045314 -0.61606443 -0.075014003 4291311360
2.7195218 -0.61938924 -0.091691136 4291311360
2.7340815 -0.62261498 -0.10843054 4291311360
2.7448711 -0.62498128 -0.12505302 4291441920
2.7038496 -0.61555171 -0.13900296 4291311360
2.716922 -0.61843795 -0.15541849 4291311360
2.7349586 -0.62245315 -0.17212793 4291311360
2.7127271 -0.61730385 -0.18609285 4291311360
2.7051284 -0.61548531 -0.2006899 4291311360
2.7402635 -0.62338889 -0.21838868 4291441920
2.7497404 -0.62545395 -0.2340479 4291441920
2.7370391 -0.62247449 -0.24754582 4291441920
2.6955268 -0.61294448 -0.25788057 4291311360
2.7314665 -0.62102664 -0.27530733 4291441920
2.7438111 -0.62374264 -0.29029688 4291441920
2.7426624 -0.62339091 -0.30359271 4291441920
2.7344565 -0.6214354 -0.31572461 4291441920
2.6691232 -0.60649949 -0.32056573 4291180800
2.7527571 -0.62541252 -0.34301281 4291441920
2.7698083 -0.62919497 -0.35722944 4291572480
2.7683189 -0.62876517 -0.3687208 4291572480
2.7665095 -0.62826282 -0.37973964 4291572480
2.7526999 -0.62503576 -0.38861999 4291441920
2.7137971 -0.61611271 -0.39331651 4291311360
2.7266326 -0.61893672 -0.40496394 4291441920
2.7345107 -0.62063468 -0.41548595 4291441920
2.7332621 -0.62026101 -0.4241688 4291441920
2.7313683 -0.61974102 -0.43225515 4291441920
2.73436 -0.6203295 -0.44062057 4291441920
2.7443976 -0.62251604 -0.44964939 4291441920
2.7303488 -0.61923915 -0.45420441 4291441920
2.7246857 -0.61786473 -0.45958045 4291441920
2.7024169 -0.61272568 -0.46156228 4291311360
2.6931021 -0.61052477 -0.46515536 4291311360
2.6775019 -0.60689974 -0.4670769 4291311360
2.6255529 -0.59503794 -0.46200752 4291050240
2.648072 -0.60005409 -0.46945366 4291180800
2.6428041 -0.59877306 -0.47144923 4291180800
2.564903 -0.58103853 -0.45986071 4290919680
2.5742333 -0.58306712 -0.46331027 4290919680
2.5692432 -0.58185196 -0.46364415 4290919680
2.5643435 -0.58065772 -0.46344769 4290919680
2.6332023 -0.5961628 -0.47604117 4291180800
2.6284859 -0.59500819 -0.47478047 4291180800
2.6751368 -0.60548013 -0.48222569 4291311360
2.6998811 -0.61099148 -0.48512605 4291311360
2.6943386 -0.60964823 -0.48200673 4291311360
2.7161565 -0.61449528 -0.48320109 4291441920
2.7310176 -0.61776721 -0.4825536 4291441920
2.7350457 -0.61858809 -0.47940525 4291441920
2.7294698 -0.61723685 -0.47401804 4291441920
2.7357659 -0.61857033 -0.47013843 4291441920
2.727726 -0.61666232 -0.46325353 4291441920
2.7325394 -0.61766028 -0.45801973 4291441920
2.72539 -0.61595422 -0.45025688 4291441920
2.7111492 -0.61264622 -0.44085643 4291441920
2.7109227 -0.61250556 -0.43326408 4291311360
2.7324998 -0.61729044 -0.42859441 4291441920
2.7527833 -0.62178171 -0.42310184 4291572480
2.7580347 -0.62287682 -0.41473305 4291572480
2.7457972 -0.62002242 -0.40328601 4291441920
2.7226222 -0.61469942 -0.38990095 4291441920
2.7052381 -0.61068523 -0.3770538 4291311360
2.7321231 -0.61666411 -0.36990899 4291441920
2.7321763 -0.61658591 -0.3586061 4291441920
2.7398307 -0.61822283 -0.34786382 4291441920
2.7109063 -0.61160672 -0.33218184 4291311360
2.7236507 -0.6143921 -0.32130364 4291311360
2.7427425 -0.61860818 -0.31066737 4291441920
2.7538428 -0.62102091 -0.29863665 4291441920
2.7494705 -0.61994416 -0.28456432 4291441920
2.7080879 -0.61052388 -0.26657733 4291311360
2.7208827 -0.61331856 -0.25377223 4291311360
2.7269895 -0.61460507 -0.23996539 4291311360
2.7263932 -0.61438072 -0.22527598 4291311360
2.7041905 -0.60928816 -0.20867869 4291311360
2.7304196 -0.61510777 -0.19556636 4291311360
2.7358222 -0.61623454 -0.18057312 4291311360
2.7300746 -0.61484981 -0.16464964 4291311360
2.6711125 -0.60148257 -0.14571016 4291180800
2.7248101 -0.61348426 -0.13278538 4291311360
2.725857 -0.61363006 -0.11683245 4291311360
2.7176125 -0.61168438 -0.10039761 4291311360
2.7172804 -0.61151987 -0.084197462 4291311360
2.7364182 -0.61573654 -0.068397187 4291311360
2.7402751 -0.61651397 -0.052003488 4291311360
2.6947811 -0.60618961 -0.034868848 4291180800
2.7702441 -0.62307358 -0.019079948 4291441920
2.8936317 -0.65072995 -0.0023964585 4291833600
2.8428545 -0.6392172 0.014873533 4291703040
2.7870569 -0.62657911 0.03145545 4291572480
2.9107544 -0.6542924 0.050438613 4291964160
2.9246602 -0.65732163 0.068295754 4291964160
2.8424132 -0.63874274 0.083424047 4291703040
2.8126009 -0.6319505 0.099329725 4291572480
2.880167 -0.64703661 0.11878943 4291833600
2.9004922 -0.65150696 0.13669199 4291964160
2.8486395 -0.63976586 0.15086173 4291703040
2.7015359 -0.60663927 0.15867117 4291180800
2.9212623 -0.65588313 0.18825836 4291964160
2.9017406 -0.65140438 0.20336671 4291964160
2.8545122 -0.64070803 0.21593809 4291833600
2.6976058 -0.60540068 0.21885332 4291180800
2.9400735 -0.65971857 0.25437641 4292094720
2.9285882 -0.65704477 0.26889405 4292094720
2.8350487 -0.63596511 0.2750344 4291703040
2.744329 -0.61552411 0.2801967 4291441920
2.575362 -0.57754159 0.27575725 4290789120
2.8769364 -0.64507669 0.32201847 4291833600
2.853163 -0.63965201 0.33285636 4291833600
2.7731516 -0.62162274 0.33628088 4291572480
2.7326441 -0.61245245 0.34357002 4291441920
2.6750231 -0.59944993 0.34789154 4291180800
2.9204378 -0.65434897 0.39200747 4292094720
2.8898811 -0.64740711 0.39953929 4291964160
2.8489535 -0.63814425 0.40490329 4291833600
2.8024395 -0.62763304 0.40868261 4291703040
2.7341142 -0.61224073 0.40840128 4291441920
2.6632657 -0.59628803 0.40679586 4291180800
2.9076366 -0.65090519 0.45341459 4292094720
2.8989305 -0.64886057 0.460803 4291964160
2.8988385 -0.64874434 0.46900406 4292094720
2.8866439 -0.64592004 0.47467375 4291964160
2.8534236 -0.63839245 0.47622365 4291833600
2.8793962 -0.6441083 0.4870784 4291964160
2.8784769 -0.64380765 0.49287599 4291964160
2.8920724 -0.64675313 0.50060982 4291964160
2.8271523 -0.63214177 0.49408734 4291833600
2.8399646 -0.63491291 0.50048441 4291833600
2.8393993 -0.63469291 0.50395805 4291833600
2.8620021 -0.63965088 0.51097798 4291964160
2.8664296 -0.64054585 0.51418304 4291964160
2.866148 -0.64038837 0.51594526 4291964160
2.8573158 -0.63832074 0.51556039 4291964160
2.8610795 -0.63906717 0.51684147 4291964160
2.842838 -0.6348989 0.51354289 4291833600
2.8246958 -0.63075399 0.5096646 4291833600
2.8938336 -0.646097 0.52091199 4292094720
2.8893516 -0.64500099 0.51827103 4291964160
2.866699 -0.6398496 0.5117864 4291964160
2.8489437 -0.63579267 0.50561559 4291833600
2.8912754 -0.6451444 0.50948352 4291964160
2.8688929 -0.64005548 0.50133294 4291964160
2.8797603 -0.64238501 0.49842322 4291964160
2.8965838 -0.64604229 0.49591482 4292094720
2.9153714 -0.65013647 0.49309629 4292094720
2.8933012 -0.64511931 0.4828065 4291964160
2.87658 -0.64129615 0.47294173 4291964160
2.8970368 -0.64576119 0.46863008 4291964160
2.8898742 -0.64406931 0.45927668 4291964160
2.8995836 -0.64613765 0.45206758 4291964160
2.9226499 -0.65118134 0.44631931 4292094720
2.9210629 -0.65073138 0.43622711 4292094720
2.8654525 -0.63786155 0.35439 4291833600
2.8936081 -0.64403367 0.34477049 4291964160
2.9150014 -0.6486991 0.3337326 4291964160
2.9071722 -0.64686096 0.31891483 4291964160
2.8713558 -0.63879693 0.30088568 4291833600
2.8946204 -0.64387727 0.28877294 4291964160
2.9062159 -0.64636075 0.27500027 4291964160
2.8846056 -0.64145941 0.25783595 4291833600
2.8621602 -0.63637376 0.24054646 4291833600
2.8813758 -0.64055115 0.22650988 4291833600
2.8717754 -0.63832223 0.20990869 4291833600
2.8679972 -0.63738787 0.19357792 4291833600
2.8617682 -0.6359092 0.17692727 4291833600
2.9050024 -0.64542043 0.16292943 4291964160
2.9093046 -0.64628035 0.14629814 4291964160
2.8872683 -0.64128995 0.12828791 4291833600
2.8743036 -0.63831562 0.11074751 4291833600
2.8694396 -0.63714087 0.093505032 4291833600
2.7883978 -0.61905414 0.074192792 4291572480
2.7440345 -0.60911459 0.056527641 4291311360
2.73859 -0.60781568 0.03990278 4291311360
2.7438266 -0.60888755 0.023391921 4291311360
2.7460346 -0.60928696 0.0067852233 4291311360
2.7206497 -0.60356498 -0.009756349 4291311360
2.7382758 -0.60738492 -0.026394349 4291311360
2.7344046 -0.60643613 -0.042879742 4291311360
2.7435381 -0.60837138 -0.05955423 4291311360
2.7265913 -0.60452354 -0.075551398 4291311360
2.7464764 -0.60884184 -0.092504352 4291441920
2.7610497 -0.61198145 -0.1093834 4291441920
2.7620935 -0.61212176 -0.12570049 4291441920
2.7344115 -0.60589689 -0.14041822 4291311360
2.7437711 -0.60788041 -0.15677789 4291441920
2.7580011 -0.61094213 -0.17338079 4291441920
2.7493715 -0.60893995 -0.18839024 4291441920
2.736881 -0.60608333 -0.20281076 4291311360
2.7671828 -0.61270249 -0.22027726 4291441920
2.7766616 -0.61470973 -0.23606253 4291572480
2.7785218 -0.61502999 -0.25100175 4291572480
2.7223556 -0.60250783 -0.26013914 4291311360
2.7631891 -0.61145389 -0.27817371 4291441920
2.7755353 -0.6140945 -0.29330301 4291572480
2.7743707 -0.61374539 -0.30673486 4291572480
2.7661393 -0.61183333 -0.31899902 4291441920
2.7007065 -0.59727144 -0.32396793 4291311360
2.7795873 -0.61462468 -0.34593722 4291572480
2.7869604 -0.61616313 -0.35900563 4291572480
2.7907887 -0.61691755 -0.37126145 4291572480
2.7933204 -0.61738521 -0.38295209 4291572480
2.7659383 -0.611242 -0.39001134 4291572480
2.7392964 -0.60526419 -0.39652532 4291441920
2.7581878 -0.60934746 -0.40914688 4291572480
2.7699258 -0.61184943 -0.42034817 4291572480
2.7643175 -0.61051947 -0.42845801 4291572480
2.767715 -0.61117864 -0.43746451 4291572480
2.76105 -0.60961586 -0.44436872 4291572480
2.7662694 -0.61067718 -0.45266846 4291572480
2.7531593 -0.60769224 -0.45742711 4291572480
2.7513359 -0.60719913 -0.4634946 4291572480
2.7290301 -0.60218656 -0.46552268 4291441920
2.7245109 -0.60109961 -0.46998811 4291441920
2.7127335 -0.5984118 -0.4726257 4291441920
2.6616721 -0.58706027 -0.46777058 4291180800
2.6697793 -0.58876044 -0.47270137 4291311360
2.6012945 -0.57357198 -0.4634538 4291050240
2.6057355 -0.57446533 -0.46658534 4291050240
2.5958366 -0.5721975 -0.46660042 4291050240
2.6052651 -0.57419002 -0.46954104 4291050240
2.600358 -0.57302278 -0.46935126 4291050240
2.6731524 -0.58897597 -0.48263913 4291311360
2.6549661 -0.58488154 -0.47894192 4291180800
2.7016788 -0.59508318 -0.48637679 4291311360
2.7019565 -0.59505534 -0.48486531 4291311360
2.7161002 -0.59808081 -0.48526338 4291441920
2.7427607 -0.60386103 -0.48729241 4291441920
2.7624576 -0.60810661 -0.48746467 4291572480
2.7616839 -0.60784537 -0.4834331 4291572480
2.7599587 -0.60737473 -0.47867522 4291572480
2.7672341 -0.60888463 -0.47491077 4291572480
2.7683473 -0.60903841 -0.46952134 4291572480
2.7640221 -0.60799581 -0.46267208 4291572480
2.7508769 -0.60501373 -0.45385185 4291572480
2.746484 -0.60395712 -0.44599405 4291441920
2.7424104 -0.60297102 -0.43769655 4291441920
2.7413971 -0.60265791 -0.42939812 4291441920
2.7698617 -0.60882419 -0.4251374 4291572480
2.7934868 -0.6139251 -0.41947895 4291703040
2.7633638 -0.60721397 -0.40529713 4291572480
2.7454846 -0.60319477 -0.39262009 4291441920
2.7319589 -0.60013318 -0.38023677 4291441920
2.763732 -0.60702175 -0.37365258 4291572480
2.7589552 -0.60588181 -0.36159796 4291441920
2.7705085 -0.60832775 -0.35124645 4291572480
2.7376812 -0.60102957 -0.33496949 4291441920
2.7456021 -0.60267812 -0.32341218 4291441920
2.7647276 -0.60678524 -0.31268749 4291441920
2.775851 -0.60913515 -0.30056608 4291572480
2.7714818 -0.6080851 -0.28640121 4291441920
2.7261651 -0.59805244 -0.26793823 4291311360
2.7569799 -0.60472172 -0.25673172 4291441920
2.758728 -0.60501432 -0.24236725 4291441920
2.7464466 -0.60223049 -0.22656047 4291441920
2.7398186 -0.60068691 -0.21107362 4291311360
2.7660933 -0.60635638 -0.19778132 4291441920
2.7627409 -0.6055305 -0.18202808 4291441920
2.761869 -0.60524845 -0.1662638 4291441920
2.7116179 -0.59414697 -0.14764021 4291311360
2.7517345 -0.60284638 -0.13383262 4291441920
2.7615719 -0.60491061 -0.11811659 4291441920
2.7494183 -0.60215789 -0.10134642 4291441920
2.7539723 -0.6030646 -0.085127413 4291441920
2.7584908 -0.60396326 -0.068761401 4291441920
2.780493 -0.60868907 -0.052597921 4291441920
2.7314541 -0.59786379 -0.035197541 4291311360
2.8096912 -0.61489594 -0.019222343 4291572480
2.8934393 -0.63312882 -0.0022846172 4291833600
2.8328271 -0.61977267 0.014909284 4291703040
2.7671888 -0.60532105 0.031296656 4291441920
2.9144881 -0.63744676 0.050550334 4291964160
2.914737 -0.63740528 0.068089113 4291964160
2.8362916 -0.62015718 0.083247393 4291703040
2.6608877 -0.58171743 0.093954585 4291050240
2.8897665 -0.63165921 0.11914483 4291833600
2.8895679 -0.63152075 0.1361149 4291833600
2.8474081 -0.62221289 0.1507138 4291703040
2.7001166 -0.58993804 0.15848917 4291180800
2.9113493 -0.6359936 0.18749151 4291964160
2.8957052 -0.6324808 0.20279492 4291964160
2.7600508 -0.60276026 0.20863016 4291441920
2.6001146 -0.56774664 0.21077228 4290919680
2.9302013 -0.6397261 0.25330758 4292094720
2.9274642 -0.63903219 0.26855537 4292094720
2.829916 -0.61764538 0.27428877 4291703040
2.7342227 -0.59666979 0.27890643 4291311360
2.57865 -0.56263536 0.27584776 4290789120
2.8985829 -0.63234615 0.32412767 4291964160
2.8776462 -0.62768394 0.33538187 4291833600
2.7534037 -0.60049301 0.33355156 4291441920
2.6895812 -0.58648539 0.33781156 4291180800
2.6512952 -0.5780496 0.34444952 4291180800
2.9231787 -0.63723087 0.39196452 4292094720
2.8963213 -0.63128084 0.40000504 4291964160
2.8810179 -0.62785053 0.40902096 4291964160
2.7731228 -0.60424602 0.40396836 4291572480
2.7047257 -0.58925378 0.40356818 4291311360
2.7363188 -0.59604657 0.4174909 4291441920
2.9147151 -0.63481039 0.45400947 4292094720
2.896558 -0.63076055 0.45990542 4291964160
2.8869412 -0.62857133 0.46654633 4291964160
2.8869169 -0.62847102 0.47417215 4291964160
2.879606 -0.62678474 0.48003528 4291964160
2.8367896 -0.61737186 0.47930902 4291833600
2.8503404 -0.6202271 0.48748183 4291833600
2.8581817 -0.62183934 0.4941543 4291833600
2.794152 -0.60781682 0.48773384 4291703040
2.8069892 -0.61051697 0.49407458 4291703040
2.811245 -0.61135006 0.49835238 4291703040
2.8155913 -0.61220264 0.50207388 4291703040
2.8152187 -0.61202896 0.50437105 4291703040
2.8101301 -0.61083031 0.50522959 4291703040
2.8099523 -0.61069918 0.50637621 4291703040
2.8098731 -0.6105895 0.50694746 4291703040
2.8002696 -0.60841054 0.50520641 4291703040
2.8693898 -0.62333381 0.51706165 4291964160
2.8599875 -0.62119716 0.51415074 4291964160
2.8285437 -0.61427444 0.50669944 4291833600
2.8289585 -0.61427146 0.50438195 4291833600
2.894347 -0.62837452 0.51298988 4291964160
2.8915646 -0.62767529 0.50885057 4291964160
2.8815277 -0.62540179 0.50285923 4291964160
2.890722 -0.62730223 0.49963731 4291964160
2.9046094 -0.63022035 0.49660382 4292094720
2.901624 -0.62947708 0.49008885 4292094720
2.902669 -0.62960833 0.48369008 4292094720
2.9029195 -0.62956721 0.47659612 4292094720
2.8954318 -0.62784803 0.46770036 4291964160
2.8966761 -0.62802255 0.45969233 4291964160
2.911489 -0.63113838 0.45326078 4292094720
2.9181681 -0.63249028 0.44497693 4292094720
2.9060347 -0.62976485 0.43333477 4291964160
2.8677244 -0.62059641 0.35421103 4291833600
2.8982375 -0.62710428 0.34487575 4291964160
2.9167576 -0.63101566 0.33350369 4291964160
2.8963675 -0.62650919 0.31732222 4291964160
2.8736296 -0.62149626 0.30073982 4291833600
2.8886476 -0.62464929 0.28781155 4291964160
2.9089272 -0.62893897 0.27490991 4291964160
2.8834779 -0.6233418 0.25741276 4291833600
2.8522332 -0.61649358 0.2394149 4291703040
2.8617215 -0.61845028 0.22468866 4291833600
2.8788946 -0.62206692 0.2101738 4291833600
2.8794708 -0.62209678 0.19411995 4291833600
2.8566954 -0.6170823 0.17640607 4291703040
2.8995969 -0.62625426 0.16243918 4291964160
2.9081917 -0.62801492 0.14607848 4291964160
2.8861251 -0.62315482 0.12809861 4291833600
2.854583 -0.61625057 0.10987451 4291703040
2.8780403 -0.62121987 0.093695395 4291833600
2.81546 -0.60761946 0.074848682 4291572480
2.775929 -0.59899682 0.05714491 4291441920
2.7704799 -0.59772992 0.040351275 4291441920
2.7796352 -0.59961379 0.023704601 4291441920
2.7779367 -0.59915608 0.006895043 4291441920
2.7398965 -0.59086132 -0.0097715678 4291311360
2.765826 -0.59636211 -0.026582211 4291441920
2.7699835 -0.59716749 -0.043336544 4291441920
2.7803171 -0.59930384 -0.0602278 4291441920
2.7535715 -0.59344822 -0.076152503 4291441920
2.7783635 -0.59870005 -0.093407601 4291441920
2.7968569 -0.60259324 -0.11060723 4291572480
2.7933967 -0.60175586 -0.12690797 4291572480
2.7662628 -0.59581965 -0.14181675 4291441920
2.7756259 -0.59774518 -0.15833828 4291441920
2.7798936 -0.59857285 -0.1744753 4291441920
2.7860916 -0.59981585 -0.19060268 4291572480
2.7674677 -0.59571534 -0.20475495 4291441920
2.8039002 -0.6034655 -0.22285286 4291572480
2.8128915 -0.60530818 -0.23877409 4291572480
2.7986574 -0.60215318 -0.25243434 4291572480
2.7589715 -0.59352368 -0.26323822 4291441920
2.7857354 -0.5991897 -0.28002125 4291572480
2.7984972 -0.6018427 -0.29528719 4291572480
2.8061452 -0.60339522 -0.3097868 4291572480
2.7934146 -0.60056603 -0.32166857 4291572480
2.732357 -0.58734924 -0.32728317 4291441920
2.8118117 -0.60433644 -0.34943658 4291703040
2.819587 -0.60591489 -0.36268076 4291703040
2.8176634 -0.60540891 -0.37429488 4291703040
2.8188024 -0.60556096 -0.38588986 4291703040
2.8063164 -0.60278642 -0.39513871 4291703040
2.7709088 -0.59508991 -0.40053031 4291572480
2.7837925 -0.59776539 -0.41236004 4291572480
2.797199 -0.60055226 -0.42388859 4291703040
2.8007543 -0.60122353 -0.43349662 4291703040
2.7848151 -0.59771043 -0.43955293 4291572480
2.7964869 -0.60012364 -0.44944689 4291703040
2.7881825 -0.59824991 -0.45562375 4291572480
2.7780406 -0.59598249 -0.46092641 4291572480
2.7640424 -0.59288859 -0.46499822 4291572480
2.7643759 -0.59286934 -0.47091034 4291572480
2.7463417 -0.58891129 -0.47311276 4291441920
2.6744149 -0.57339978 -0.46532238 4291311360
2.6969023 -0.57813251 -0.47332758 4291311360
2.696341 -0.5779236 -0.47676882 4291311360
2.6277628 -0.56313848 -0.46754995 4291050240
2.6225734 -0.56194013 -0.46898264 4291050240
2.6357732 -0.56468189 -0.4731597 4291180800
2.6269128 -0.56269735 -0.47282761 4291050240
2.6316271 -0.56362069 -0.47438231 4291050240
2.6996989 -0.57811111 -0.4868075 4291311360
2.6949711 -0.5770101 -0.48553997 4291311360
2.7417448 -0.58693457 -0.49296635 4291441920
2.7237251 -0.58298755 -0.48815903 4291441920
2.7475214 -0.58799064 -0.49026671 4291572480
2.7877078 -0.59649926 -0.4946672 4291703040
2.7891276 -0.59671146 -0.49156916 4291703040
2.7970321 -0.59831065 -0.48902765 4291703040
2.7914553 -0.59702599 -0.4835569 4291703040
2.7891026 -0.5964312 -0.47809517 4291703040
2.7950456 -0.59761024 -0.47349221 4291703040
2.7912056 -0.59669751 -0.46667922 4291703040
2.7775674 -0.59369069 -0.45772883 4291572480
2.7683477 -0.59162915 -0.44903436 4291572480
2.7691069 -0.59170038 -0.44146249 4291572480
2.7864683 -0.59531862 -0.43597597 4291572480
2.8111186 -0.60049278 -0.43100062 4291703040
2.8211694 -0.60254705 -0.42318258 4291703040
2.7998068 -0.59789246 -0.4102104 4291703040
2.7756941 -0.59265208 -0.39653072 4291572480
2.7683933 -0.59100229 -0.3849183 4291572480
2.7944057 -0.59646368 -0.37742621 4291572480
2.800307 -0.59763134 -0.36666366 4291572480
2.7971232 -0.59685993 -0.35428774 4291572480
2.7528129 -0.58731449 -0.33651409 4291441920
2.7760539 -0.59218174 -0.32671112 4291572480
2.7973387 -0.59663033 -0.31610745 4291572480
2.803628 -0.59787965 -0.30332714 4291572480
2.8051667 -0.59811568 -0.28965813 4291572480
2.7617662 -0.5887711 -0.27123931 4291441920
2.7838695 -0.59339178 -0.25905925 4291572480
2.794889 -0.59564883 -0.24539044 4291572480
2.7841523 -0.59326917 -0.22954132 4291572480
2.7667167 -0.58946306 -0.21304065 4291441920
2.7979126 -0.5960176 -0.1999741 4291572480
2.7894723 -0.59412801 -0.18373127 4291572480
2.7781801 -0.59163165 -0.16721195 4291441920
2.6863804 -0.57199407 -0.14625674 4291180800
2.7835741 -0.59259748 -0.13539568 4291441920
