# .PCD v0.7 - Point Cloud Data file format
VERSION 0.7
FIELDS x y z rgba
SIZE 4 4 4 4
TYPE F F F U
COUNT 1 1 1 1
WIDTH 1079
HEIGHT 1
VIEWPOINT 0 0 0 1 0 0 0
POINTS 1079
DATA ascii
2.7908969 -0.60936373 -0.28348801 4291572480
2.8029249 -0.61189932 -0.29874733 4291572480
2.7946744 -0.61001176 -0.31152445 4291572480
2.7490304 -0.59997123 -0.31950995 4291441920
2.5536587 -0.55729097 -0.30852887 4290789120
2.8255532 -0.61647815 -0.35427082 4291703040
2.8325982 -0.61792415 -0.36751521 4291703040
2.8203502 -0.61516529 -0.37781397 4291703040
2.7991335 -0.61045295 -0.38634482 4291703040
2.7526715 -0.60024202 -0.3906748 4291441920
2.7797143 -0.60604501 -0.40495762 4291572480
2.7940733 -0.60908359 -0.41708022 4291703040
2.7966051 -0.60954571 -0.42701787 4291703040
2.8037534 -0.61101264 -0.43720898 4291703040
2.8040104 -0.61097878 -0.44584709 4291703040
2.7955604 -0.60904956 -0.45256278 4291703040
2.7660768 -0.60254318 -0.45523947 4291572480
2.7490497 -0.59874898 -0.45932782 4291572480
2.7283361 -0.59415376 -0.46217874 4291441920
2.6904521 -0.58582455 -0.46145013 4291311360
2.6302035 -0.57263327 -0.45614386 4291050240
2.6525993 -0.57741839 -0.46461126 4291180800
2.6606224 -0.57907671 -0.47006524 4291180800
2.6745026 -0.58200777 -0.47604182 4291311360
2.6778784 -0.5826543 -0.47961152 4291311360
2.6871176 -0.58457482 -0.48368844 4291311360
2.6868246 -0.58442324 -0.48548919 4291311360
2.6914368 -0.58533722 -0.48761514 4291311360
2.6817119 -0.58313614 -0.48656699 4291311360
2.6768937 -0.58200133 -0.48584145 4291311360
2.6635113 -0.57900673 -0.48299217 4291180800
2.6454115 -0.57498842 -0.47873032 4291180800
2.6274016 -0.5709908 -0.47394386 4291050240
2.6909947 -0.58470815 -0.48333097 4291311360
2.7293651 -0.59294677 -0.48752314 4291441920
2.75719 -0.59889418 -0.48918739 4291572480
2.7792499 -0.6035887 -0.4891929 4291572480
2.7904847 -0.60593313 -0.48667055 4291703040
2.7898943 -0.6057117 -0.48149884 4291703040
2.7931654 -0.60632759 -0.47643325 4291703040
2.8050194 -0.60880423 -0.47225338 4291703040
2.7964456 -0.60685104 -0.46407381 4291703040
2.7828553 -0.60381079 -0.45458141 4291572480
2.7672102 -0.60032594 -0.44430959 4291572480
2.7819743 -0.60343188 -0.43842813 4291572480
2.7817671 -0.60329282 -0.42963552 4291572480
2.8118255 -0.60971034 -0.4249455 4291703040
2.8134356 -0.6099636 -0.41535264 4291703040
2.790751 -0.60495508 -0.40176693 4291572480
2.7724903 -0.60090595 -0.38851982 4291572480
2.7787185 -0.6021598 -0.37832579 4291572480
2.7909787 -0.60471892 -0.36845639 4291572480
2.7926772 -0.6049912 -0.35671651 4291572480
2.778301 -0.60178459 -0.34257263 4291572480
2.7749918 -0.60097337 -0.32949746 4291572480
2.7974429 -0.60573512 -0.31904057 4291572480
2.808279 -0.60798293 -0.30674222 4291703040
2.8100376 -0.60826671 -0.29304841 4291703040
2.752852 -0.59580481 -0.27313152 4291441920
2.7784724 -0.60124904 -0.26133806 4291572480
2.7855334 -0.60267961 -0.24733335 4291572480
2.7810152 -0.60160702 -0.23201159 4291572480
2.7530091 -0.5954591 -0.21464136 4291441920
2.7921109 -0.60381228 -0.2022492 4291572480
2.7999282 -0.6054045 -0.18709357 4291572480
2.7917938 -0.60355073 -0.1706637 4291572480
2.7390914 -0.59207284 -0.15164815 4291311360
2.7773893 -0.60024732 -0.13764814 4291441920
2.7891402 -0.60268795 -0.12187805 4291572480
2.7857881 -0.60186779 -0.1052604 4291572480
2.7692759 -0.59820765 -0.088144287 4291441920
2.7903364 -0.60265613 -0.072128892 4291572480
2.8049622 -0.60571486 -0.055654459 4291572480
2.7841425 -0.60112655 -0.038434222 4291441920
2.8204243 -0.60885519 -0.021908449 4291572480
2.8723416 -0.61995298 -0.0049610166 4291833600
2.8778241 -0.6210354 0.012446282 4291833600
2.7393045 -0.59107453 0.028505389 4291311360
2.8877954 -0.62298506 0.047374848 4291833600
2.896301 -0.62471795 0.064933531 4291833600
2.8611636 -0.61704654 0.081310414 4291833600
2.6565721 -0.57287139 0.091468073 4291050240
2.8626115 -0.61716026 0.11535782 4291833600
2.8896801 -0.62289077 0.13340929 4291833600
2.8712447 -0.61882108 0.14929512 4291833600
2.6676252 -0.57488334 0.15423603 4291180800
2.9039679 -0.62566662 0.18428248 4291964160
2.9153941 -0.62802553 0.20142119 4291964160
2.880825 -0.6204859 0.21506368 4291833600
2.7353361 -0.58908343 0.21927916 4291311360
2.9323575 -0.63137311 0.25071201 4292094720
2.9308784 -0.63095397 0.26608849 4292094720
2.9275634 -0.63014024 0.28097802 4292094720
2.8561237 -0.61467862 0.2886849 4291833600
2.5732007 -0.553756 0.27308398 4290789120
2.9202526 -0.62826717 0.32378587 4291964160
2.9196253 -0.62803233 0.33750987 4292094720
2.8957133 -0.62279409 0.34806654 4291964160
2.8452144 -0.61184543 0.35471973 4291833600
2.7272906 -0.58641642 0.35188365 4291441920
2.9226279 -0.6282782 0.38911912 4292094720
2.9258573 -0.62887216 0.40130687 4292094720
2.9267209 -0.62895811 0.41273057 4292094720
2.9199827 -0.62741214 0.42259458 4292094720
2.8894947 -0.62076902 0.42842254 4291964160
2.8118885 -0.60401601 0.42644012 4291703040
2.9099047 -0.62495303 0.45051163 4292094720
2.9132712 -0.62557703 0.45980561 4292094720
2.9200883 -0.6269412 0.46913901 4292094720
2.906934 -0.62402165 0.47472 4292094720
2.9072955 -0.6240015 0.48191229 4292094720
2.895781 -0.62143523 0.48655933 4291964160
2.9045253 -0.62321281 0.494019 4292094720
2.8954825 -0.62117749 0.49789163 4291964160
2.8815062 -0.61808562 0.50029737 4291964160
2.890485 -0.61991364 0.50607425 4291964160
2.8850956 -0.61866289 0.50875986 4291964160
2.8770599 -0.61684585 0.51036853 4291964160
2.8766813 -0.61666942 0.512721 4291964160
2.8802538 -0.61733937 0.51517367 4291964160
2.876219 -0.61638045 0.51566637 4291964160
2.8836951 -0.61788619 0.51760662 4291964160
2.8837144 -0.61779553 0.51760685 4291964160
2.8838346 -0.61772662 0.51701587 4291964160
2.892453 -0.61947632 0.51732957 4291964160
2.9009702 -0.62120402 0.51700783 4292094720
2.910049 -0.6230514 0.51616484 4292094720
2.9027605 -0.62139779 0.51182538 4292094720
2.9106202 -0.62298423 0.50954187 4292094720
2.9050019 -0.62168849 0.50431049 4292094720
2.920939 -0.62500149 0.50219518 4292094720
2.9172096 -0.62410992 0.49610728 4292094720
2.9143126 -0.62339664 0.48959395 4292094720
2.8958313 -0.61935353 0.47995186 4291964160
2.8813577 -0.61616802 0.47048965 4291964160
2.9008803 -0.62024599 0.46598932 4291964160
2.9138389 -0.62292087 0.45981142 4292094720
2.9323435 -0.6267795 0.45388031 4292094720
2.92874 -0.62591636 0.44397631 4292094720
2.9035635 -0.62044787 0.43040371 4291964160
2.8847401 -0.61583853 0.35371026 4291964160
2.9111774 -0.62138551 0.34377098 4291964160
2.9175289 -0.622648 0.33093846 4291964160
2.8804135 -0.61464334 0.31298351 4291833600
2.8714287 -0.61263746 0.29793453 4291833600
2.8858392 -0.61561859 0.28493401 4291833600
2.9096034 -0.6205923 0.27233803 4291964160
2.8767076 -0.61349189 0.25422665 4291833600
2.8646066 -0.61082381 0.23789167 4291833600
2.8828113 -0.61461186 0.22375305 4291833600
2.8543389 -0.60845774 0.20583525 4291703040
2.8480182 -0.60702252 0.18946311 4291703040
2.8777797 -0.61327028 0.17512274 4291833600
2.8976092 -0.61740184 0.15970948 4291964160
2.8982387 -0.61744541 0.14295769 4291964160
2.8676753 -0.61085057 0.12470578 4291833600
2.874125 -0.61213356 0.10804026 4291833600
2.872437 -0.61168492 0.090926699 4291833600
2.8399601 -0.60468668 0.072962224 4291703040
2.7109344 -0.57715493 0.053469401 4291311360
2.8119612 -0.59855551 0.038454771 4291572480
2.8072505 -0.59746629 0.021442784 4291572480
2.7945151 -0.59467137 0.0044544498 4291572480
2.7812834 -0.59177172 -0.012384949 4291441920
2.8032887 -0.59636217 -0.029447427 4291572480
2.8053372 -0.59671021 -0.046403274 4291572480
2.7953262 -0.59449577 -0.063056543 4291572480
2.794847 -0.59430695 -0.079802714 4291572480
2.8150079 -0.5985024 -0.097185567 4291572480
2.820143 -0.59950531 -0.11408831 4291572480
2.7808933 -0.59108251 -0.12884608 4291441920
2.8086367 -0.59688634 -0.14654477 4291572480
2.8218942 -0.59961319 -0.16356063 4291703040
2.8169227 -0.59846985 -0.17938173 4291572480
2.7476647 -0.58368325 -0.19045722 4291441920
2.8237717 -0.59974718 -0.21152808 4291703040
2.8365006 -0.60235947 -0.22807822 4291703040
2.8378825 -0.6025638 -0.24353938 4291703040
2.7950814 -0.59339654 -0.25469801 4291572480
2.6862867 -0.57023644 -0.25873142 4291180800
2.8265221 -0.59988791 -0.28677058 4291703040
2.830337 -0.60060793 -0.3013097 4291703040
2.8351338 -0.60153568 -0.3156648 4291703040
2.7855256 -0.59093201 -0.32337019 4291572480
2.5850344 -0.54835689 -0.31195042 4290919680
2.8473322 -0.60385209 -0.35656941 4291833600
2.8551316 -0.60541445 -0.36999035 4291833600
2.8500626 -0.60425037 -0.38133559 4291833600
2.8356037 -0.60109782 -0.39091176 4291703040
2.7939112 -0.59217906 -0.39605743 4291572480
2.8200002 -0.59761393 -0.41033757 4291703040
2.8246784 -0.59851456 -0.42114076 4291703040
2.8330052 -0.60018694 -0.43205735 4291833600
2.8300614 -0.59947354 -0.44077647 4291703040
2.8220222 -0.59768194 -0.44816238 4291703040
2.8117201 -0.59541196 -0.45462111 4291703040
2.8023794 -0.59334582 -0.46065992 4291703040
2.7708354 -0.58658415 -0.46240371 4291572480
2.7732525 -0.58700609 -0.46922755 4291572480
2.7304828 -0.57787347 -0.46775538 4291441920
2.6701472 -0.56502998 -0.46251747 4291180800
2.6829178 -0.56764293 -0.46935397 4291311360
2.7054045 -0.5723083 -0.47740743 4291311360
2.7048354 -0.57210016 -0.48085877 4291311360
2.7188103 -0.5749647 -0.48635942 4291441920
2.7270916 -0.57662547 -0.49029538 4291441920
2.7267938 -0.57647353 -0.49212062 4291441920
2.7227383 -0.57552785 -0.49269006 4291441920
2.7033668 -0.57134837 -0.48989823 4291311360
2.7033584 -0.57125783 -0.49004945 4291311360
2.6899595 -0.56834072 -0.48719671 4291311360
2.6853259 -0.56727409 -0.48537189 4291311360
2.6576617 -0.5613479 -0.47882375 4291180800
2.7319374 -0.57693082 -0.4900977 4291441920
2.7597597 -0.58270931 -0.49235669 4291572480
2.7762051 -0.58608627 -0.4919599 4291572480
2.7928369 -0.58950132 -0.49098167 4291703040
2.8152835 -0.59414113 -0.4903996 4291703040
2.8300376 -0.59715754 -0.48784253 4291833600
2.8333242 -0.59775573 -0.48270521 4291833600
2.8268621 -0.59629899 -0.47535238 4291833600
2.8279421 -0.59643179 -0.46873584 4291833600
2.8230417 -0.59530437 -0.46059605 4291703040
2.8073921 -0.59191293 -0.4502247 4291703040
2.7961648 -0.58945364 -0.44012636 4291703040
2.8268373 -0.59581834 -0.43608046 4291703040
2.8385611 -0.59819126 -0.42846945 4291833600
2.8448141 -0.59941155 -0.41948247 4291833600
2.8310478 -0.59641761 -0.40708625 4291703040
2.8030884 -0.59043765 -0.3923389 4291703040
2.810308 -0.59186149 -0.38217136 4291703040
2.82745 -0.5953722 -0.37283039 4291703040
2.8291678 -0.5956372 -0.36095166 4291703040
2.8099332 -0.59149551 -0.34606311 4291703040
2.7969139 -0.58866203 -0.33170304 4291572480
2.8181763 -0.59303665 -0.32102036 4291703040
2.8351262 -0.5965032 -0.30930814 4291703040
2.8444324 -0.59836209 -0.29628956 4291703040
2.7932885 -0.58751732 -0.27682614 4291572480
2.804898 -0.58986068 -0.2635144 4291572480
2.8170564 -0.59231853 -0.24984333 4291703040
2.8127582 -0.59131896 -0.23439036 4291572480
2.7886319 -0.58615577 -0.21717344 4291572480
2.8287711 -0.59448767 -0.20467554 4291703040
2.8266308 -0.59394097 -0.18866254 4291703040
2.8187079 -0.59218067 -0.17211455 4291572480
2.7747424 -0.58285677 -0.1534567 4291441920
2.8091869 -0.58998853 -0.13907413 4291572480
2.8099492 -0.59005153 -0.12265087 4291572480
2.8176095 -0.59156144 -0.1063538 4291572480
2.8010821 -0.58799797 -0.089069396 4291572480
2.8319571 -0.59437549 -0.073143773 4291703040
2.8218875 -0.59216654 -0.055934452 4291572480
2.8025539 -0.58801639 -0.038655121 4291572480
2.8571057 -0.59935296 -0.022192698 4291703040
2.8919601 -0.60655814 -0.0050041075 4291833600
2.8966558 -0.60744208 0.012497271 4291833600
2.8817806 -0.60422593 0.029848808 4291833600
2.9031248 -0.60859692 0.047554638 4291964160
2.922987 -0.61265618 0.065430291 4291964160
2.9208033 -0.6120981 0.082859263 4291964160
2.8593378 -0.5991298 0.098174766 4291703040
2.9060361 -0.6088056 0.11693029 4291964160
2.9125333 -0.61006516 0.13427977 4291964160
2.9039011 -0.60815853 0.15078108 4291964160
2.8614109 -0.59916925 0.16508608 4291833600
2.9128306 -0.60982639 0.18460773 4291964160
2.9293549 -0.61318207 0.20212328 4291964160
2.9098239 -0.60899729 0.21693687 4291964160
2.8436756 -0.59506768 0.22759783 4291703040
2.9318221 -0.61339587 0.25035453 4292094720
2.9431806 -0.61566925 0.26686403 4292094720
2.9329123 -0.61342263 0.28113747 4292094720
2.9098654 -0.60850692 0.29371127 4291964160
2.7326095 -0.57137883 0.28950861 4291311360
2.9279313 -0.61208129 0.3242285 4292094720
2.9243197 -0.6112271 0.3376295 4292094720
2.9156828 -0.60932404 0.35001707 4291964160
2.8944366 -0.60478926 0.36037102 4291964160
2.8424337 -0.59383631 0.3661924 4291703040
2.930737 -0.61216819 0.38970903 4292094720
2.9324911 -0.61243474 0.40171337 4292094720
2.9280214 -0.61140287 0.41240156 4292094720
2.9195981 -0.60954672 0.42201599 4292094720
2.8994205 -0.60523981 0.42935437 4291964160
2.8955956 -0.60434437 0.43852437 4291964160
2.9121184 -0.60769165 0.45029479 4292094720
2.9165928 -0.60852641 0.45975789 4292094720
2.9108281 -0.60722691 0.46708018 4292094720
2.9080458 -0.60654944 0.47431353 4292094720
2.9094491 -0.60674447 0.48167142 4292094720
2.9050515 -0.60573107 0.48750642 4292094720
2.9032626 -0.6052615 0.49319512 4292094720
2.8976104 -0.60398763 0.49764034 4291964160
2.9161639 -0.60775453 0.50566173 4292094720
2.8976345 -0.6038 0.50669378 4291964160
2.9057457 -0.6053924 0.51175213 4292094720
2.8929973 -0.60264301 0.51254946 4291964160
2.8877931 -0.60146445 0.51405734 4291964160
2.8875105 -0.60131049 0.51582855 4291964160
2.8873279 -0.60117739 0.51701045 4291964160
2.8872457 -0.60106546 0.51760185 4291964160
2.9091735 -0.60553092 0.52151209 4292094720
2.8996494 -0.60345536 0.5191974 4292094720
2.9090407 -0.60531306 0.51964164 4292094720
2.9132073 -0.60608423 0.51853883 4292094720
2.9106374 -0.60545528 0.51563233 4292094720
2.9107754 -0.60538936 0.51259965 4292094720
2.9171078 -0.60661066 0.51004314 4292094720
2.9146185 -0.60599905 0.50534886 4292094720
2.9160509 -0.60620236 0.50074095 4292094720
2.9164476 -0.60619068 0.49536729 4292094720
2.9077475 -0.60429025 0.48789445 4292094720
2.8996022 -0.60250574 0.47998196 4291964160
2.8901472 -0.6004501 0.47133678 4291964160
2.9058261 -0.60361141 0.46620509 4291964160
2.9079523 -0.60395968 0.45832205 4291964160
2.933892 -0.60924864 0.45355961 4292094720
2.9194336 -0.60615575 0.44202778 4292094720
2.9067183 -0.6034255 0.43033847 4291964160
2.8821259 -0.59773535 0.35295662 4291833600
2.9058681 -0.60256332 0.34272549 4291964160
2.9219553 -0.60580426 0.33102918 4291964160
2.8807077 -0.5971694 0.31262979 4291833600
2.8754332 -0.5959866 0.29797959 4291833600
2.8980281 -0.60057467 0.28577602 4291964160
2.9124627 -0.60347205 0.27226767 4291964160
2.8751514 -0.59565783 0.25377712 4291833600
2.8611023 -0.59266025 0.23731026 4291833600
2.8895152 -0.59845012 0.2239919 4291833600
2.8854849 -0.59752601 0.207802 4291833600
2.8929503 -0.59898025 0.1921822 4291833600
2.8844244 -0.59712654 0.17530544 4291833600
2.9044802 -0.60118413 0.1598853 4291964160
2.900996 -0.60037321 0.1429145 4291833600
2.9027593 -0.60064733 0.12605041 4291964160
2.8757632 -0.59497666 0.10796626 4291833600
2.8874071 -0.59729362 0.091276258 4291833600
2.8833921 -0.59637409 0.073955312 4291833600
2.742646 -0.56720418 0.054003954 4291311360
2.8389022 -0.58700383 0.038755022 4291703040
2.8341868 -0.58594155 0.021601437 4291703040
2.8312294 -0.58524263 0.0044802204 4291703040
2.8179808 -0.58241886 -0.012560192 4291572480
2.8253219 -0.58384687 -0.029659683 4291572480
2.8420591 -0.58721399 -0.04697996 4291703040
2.7951031 -0.577434 -0.06297677 4291572480
2.8368607 -0.58596438 -0.080933347 4291703040
2.8566196 -0.58995301 -0.098531067 4291703040
2.8519669 -0.5889042 -0.11525773 4291703040
2.7926347 -0.57657677 -0.1292422 4291572480
2.8355403 -0.58533865 -0.1477875 4291703040
2.8302283 -0.5841549 -0.16385135 4291703040
2.8360865 -0.5852744 -0.18039624 4291703040
2.7842405 -0.57449794 -0.1927827 4291572480
2.8545668 -0.58890641 -0.21359557 4291703040
2.8682761 -0.59164244 -0.23037383 4291833600
2.8745267 -0.59284073 -0.24640794 4291833600
2.8267806 -0.58291394 -0.25729433 4291703040
2.7227151 -0.56138873 -0.26194561 4291311360
2.8582325 -0.5892145 -0.2896558 4291833600
2.857167 -0.58890539 -0.30381376 4291833600
2.8668256 -0.59080428 -0.31882563 4291833600
2.8122764 -0.57948422 -0.32609636 4291703040
2.6251457 -0.54087764 -0.31643245 4291050240
2.8889284 -0.59508216 -0.36136425 4291964160
2.8862441 -0.59443861 -0.37358704 4291964160
2.885582 -0.59421116 -0.38564071 4291964160
2.8710885 -0.59113842 -0.3953445 4291833600
2.8244777 -0.5814606 -0.39992318 4291703040
2.8515539 -0.58693904 -0.41444442 4291833600
2.8562233 -0.58780855 -0.42534608 4291833600
2.8548594 -0.58743715 -0.43487558 4291833600
2.8707149 -0.59060526 -0.44658932 4291833600
2.8573949 -0.58777612 -0.45325017 4291833600
2.8470662 -0.58556235 -0.45979849 4291833600
2.8377006 -0.58354694 -0.46592104 4291833600
2.8167391 -0.57914996 -0.46952069 4291703040
2.8046486 -0.57657611 -0.4739829 4291703040
2.7666471 -0.56868196 -0.4733974 4291572480
2.7013993 -0.55519575 -0.46738258 4291311360
2.7093499 -0.5567407 -0.47341973 4291311360
2.7183449 -0.55849934 -0.47911829 4291441920
2.7361076 -0.56205666 -0.48584756 4291441920
2.7500942 -0.56483775 -0.49137822 4291572480
2.7535574 -0.56545883 -0.49446982 4291572480
2.7580793 -0.5662967 -0.49718249 4291572480
2.7530518 -0.56517553 -0.49759004 4291572480
2.7442641 -0.5632835 -0.49673125 4291441920
2.7442553 -0.56319177 -0.49688455 4291441920
2.7260184 -0.55936313 -0.49315119 4291441920
2.7030537 -0.5545665 -0.48799622 4291311360
2.6936858 -0.55255771 -0.48474833 4291311360
2.7584076 -0.56573045 -0.49426359 4291572480
2.8007417 -0.57431215 -0.49908724 4291703040
2.8123884 -0.57660514 -0.49779001 4291703040
2.8420873 -0.58259422 -0.49906349 4291833600
2.8523979 -0.58461112 -0.49628517 4291833600
2.8469918 -0.58340949 -0.49018258 4291833600
2.8647804 -0.58695596 -0.4874928 4291833600
2.8631527 -0.58652723 -0.48089409 4291833600
2.8449066 -0.58269769 -0.47098884 4291833600
2.8400052 -0.58159959 -0.4628149 4291833600
2.8436978 -0.58225977 -0.45551762 4291833600
2.840132 -0.58143491 -0.44653282 4291833600
2.8535087 -0.58407497 -0.43967968 4291833600
2.8751612 -0.58840609 -0.43349183 4291964160
2.8853161 -0.59038514 -0.42496505 4291964160
2.8638308 -0.58589607 -0.41132313 4291833600
2.8297756 -0.57883954 -0.39561301 4291703040
2.8457553 -0.58200896 -0.38654667 4291833600
2.8592613 -0.58467168 -0.37658995 4291833600
2.865643 -0.58587825 -0.36518681 4291833600
2.8419554 -0.58094317 -0.34960499 4291703040
2.8285184 -0.57810271 -0.33506688 4291703040
2.860785 -0.58459407 -0.32550767 4291833600
2.8663163 -0.58562565 -0.31235406 4291833600
2.8773651 -0.58778286 -0.29937991 4291833600
2.8064156 -0.5732066 -0.27780178 4291572480
2.8369985 -0.57935047 -0.26623023 4291703040
2.8538609 -0.58269322 -0.25282669 4291703040
2.8434985 -0.58048213 -0.23668723 4291703040
2.806654 -0.57287121 -0.21832684 4291572480
2.8568752 -0.58301461 -0.20647939 4291703040
2.8537228 -0.58227402 -0.19026029 4291703040
2.8504741 -0.581514 -0.17386661 4291703040
2.8015723 -0.57145059 -0.15477321 4291572480
2.8558939 -0.58242255 -0.14124805 4291703040
2.8570993 -0.58257002 -0.12459112 4291703040
2.8502846 -0.58108377 -0.10748089 4291703040
2.8357151 -0.57801872 -0.090086907 4291703040
2.8537068 -0.58158463 -0.073633239 4291703040
2.8683183 -0.58446109 -0.056819092 4291833600
2.8610203 -0.58287698 -0.039455187 4291703040
2.8591666 -0.58240134 -0.022185709 4291703040
2.882637 -0.58707863 -0.0049782959 4291833600
2.8938985 -0.58927059 0.012469756 4291833600
2.8749735 -0.58532155 0.029744644 4291833600
2.8980992 -0.58992583 0.047416177 4291833600
2.9142628 -0.59311295 0.065159962 4291964160
2.9190114 -0.59397817 0.082707681 4291964160
2.8427305 -0.57837212 0.097496435 4291703040
2.9130919 -0.59257448 0.11706614 4291964160
2.9146917 -0.59279954 0.134214 4291964160
2.9004898 -0.58981413 0.15042308 4291833600
2.7925947 -0.56779736 0.16096888 4291572480
2.924551 -0.59450203 0.18511739 4291964160
2.9316785 -0.5958491 0.20203675 4291964160
2.9162011 -0.59260631 0.21714447 4291964160
2.7332201 -0.55536181 0.2185736 4291311360
2.9351616 -0.59625506 0.2503342 4292094720
2.9504015 -0.5992474 0.26719028 4292094720
2.9443917 -0.59792727 0.28188863 4292094720
2.8840325 -0.58558232 0.29077134 4291833600
2.669246 -0.54191953 0.28250414 4291180800
2.939997 -0.596735 0.32516307 4292094720
2.9398344 -0.59660202 0.33900008 4292094720
2.9182496 -0.59212637 0.34990114 4291964160
2.8817961 -0.58463854 0.3583746 4291833600
2.7524145 -0.5583207 0.35423791 4291441920
2.9297495 -0.59415972 0.38910949 4292094720
2.9421568 -0.59657425 0.40254512 4292094720
2.9387052 -0.59577572 0.41340023 4292094720
2.931947 -0.59430796 0.42328185 4292094720
2.9004111 -0.58782351 0.42898396 4291964160
2.8235831 -0.57217175 0.42716044 4291703040
2.930887 -0.5937975 0.45263779 4292094720
2.9284015 -0.59319615 0.46105558 4292094720
2.9306533 -0.59355372 0.46968105 4292094720
2.9344194 -0.59421772 0.4780198 4292094720
2.9327533 -0.59378272 0.48492837 4292094720
2.9173491 -0.59056938 0.48897281 4292094720
2.9072309 -0.58842617 0.49327344 4292094720
2.9257245 -0.59206879 0.50184357 4292094720
2.9068747 -0.58816117 0.50345373 4292094720
2.8937955 -0.58542132 0.50541872 4291964160
2.8980532 -0.58618605 0.50979149 4291964160
2.9024034 -0.58696944 0.51359195 4292094720
2.9068491 -0.58777195 0.51681405 4292094720
2.9104271 -0.58839905 0.51928091 4292094720
2.9102423 -0.58826619 0.5204708 4292094720
2.9062965 -0.58737409 0.52037764 4292094720
2.9014871 -0.586308 0.51951724 4292094720
2.909183 -0.58776671 0.52027297 4292094720
2.9007132 -0.58596247 0.51754022 4291964160
2.9133162 -0.58841127 0.5179373 4292094720
2.9267848 -0.59103405 0.51785934 4292094720
2.9224606 -0.59006685 0.51403213 4292094720
2.9287763 -0.59124613 0.5114612 4292094720
2.9328861 -0.59198028 0.5078932 4292094720
2.9312117 -0.59154803 0.50273013 4292094720
2.9246123 -0.59012318 0.49615332 4292094720
2.9255769 -0.59022355 0.4902848 4292094720
2.9201455 -0.58903503 0.48278821 4292094720
2.9144685 -0.58779752 0.47471553 4292094720
2.9166989 -0.58815366 0.46738142 4292094720
2.9337845 -0.59150219 0.46182036 4292094720
2.9505205 -0.59477937 0.45557204 4292225280
2.9286058 -0.59027231 0.44287929 4292094720
2.9293609 -0.5903312 0.43315467 4292094720
2.9007716 -0.58398247 0.35480124 4291964160
2.9300249 -0.58977419 0.34514332 4292094720
2.9363964 -0.59096324 0.3322567 4292094720
2.9003451 -0.58362305 0.31436989 4291964160
2.8964875 -0.58275652 0.29978678 4291964160
2.9173348 -0.58685571 0.28732157 4291964160
2.9187069 -0.58704007 0.27252036 4291964160
2.8873127 -0.58064091 0.25453663 4291833600
2.8803241 -0.57914674 0.23860455 4291833600
2.904851 -0.58398312 0.22489998 4291964160
2.9059978 -0.58412278 0.20901379 4291964160
2.9043641 -0.58370405 0.19270097 4291964160
2.896487 -0.58203202 0.17581877 4291833600
2.9178216 -0.58622438 0.16041747 4291964160
2.9140499 -0.58537644 0.14337584 4291964160
2.8794956 -0.57835168 0.12490552 4291833600
2.8876157 -0.57989126 0.10827215 4291833600
2.8971641 -0.58171695 0.091467083 4291833600
2.8850393 -0.5791949 0.073906362 4291833600
2.7743325 -0.55690324 0.054538563 4291441920
2.8750589 -0.57701427 0.039175261 4291833600
2.870888 -0.57608867 0.021828184 4291833600
2.8581226 -0.57344055 0.0044971113 4291703040
2.8477135 -0.57126552 -0.01269981 4291703040
2.8665791 -0.57495749 -0.030086717 4291703040
2.8782039 -0.57719755 -0.047546986 4291833600
2.8491158 -0.57128084 -0.064155519 4291703040
2.8742378 -0.57622415 -0.081928954 4291833600
2.88815 -0.5789209 -0.099523015 4291833600
2.8959508 -0.58039302 -0.1169268 4291833600
2.8569853 -0.57250178 -0.13210718 4291703040
2.866967 -0.57441092 -0.14927055 4291833600
2.875402 -0.57600981 -0.16629997 4291833600
2.8775413 -0.57634825 -0.18284434 4291833600
2.8271313 -0.56617242 -0.1955498 4291703040
2.8870106 -0.57806301 -0.21578956 4291833600
2.8986306 -0.58029711 -0.23255695 4291833600
2.9128034 -0.58304083 -0.24941875 4291964160
2.870872 -0.57456529 -0.2610271 4291833600
2.7357018 -0.54745156 -0.262894 4291311360
2.8934033 -0.57888931 -0.29289624 4291833600
2.8982532 -0.57976788 -0.30784443 4291964160
2.8876798 -0.577564 -0.32077968 4291833600
2.8602719 -0.57199717 -0.33129978 4291833600
2.63799 -0.52750242 -0.317615 4291050240
2.9152169 -0.58279157 -0.36423892 4291964160
2.922946 -0.58424318 -0.37791356 4291964160
2.9244254 -0.58444631 -0.39039418 4292094720
2.9113965 -0.58175272 -0.40044606 4291964160
2.8423865 -0.56788546 -0.40199617 4291703040
2.8934667 -0.57798982 -0.42006496 4291964160
2.8874085 -0.57668912 -0.42950204 4291964160
2.8906658 -0.57724714 -0.43983209 4291964160
2.9034419 -0.57970381 -0.45116767 4291964160
2.8908215 -0.57709402 -0.45803177 4291964160
2.8755143 -0.57394916 -0.46386272 4291964160
2.863811 -0.57152373 -0.46966997 4291833600
2.8557248 -0.56981999 -0.47548118 4291833600
2.8263416 -0.56387162 -0.47709998 4291703040
2.783453 -0.55523348 -0.47572315 4291572480
2.7229581 -0.54308969 -0.47057152 4291441920
2.7454112 -0.54747522 -0.47917768 4291441920
2.7544084 -0.54917872 -0.48492458 4291572480
2.7721846 -0.55262995 -0.49169564 4291572480
2.7803853 -0.55417317 -0.49622405 4291572480
2.779985 -0.55400318 -0.49864417 4291572480
2.7845089 -0.55481339 -0.50137234 4291572480
2.7794733 -0.55372041 -0.50179064 4291572480
2.770674 -0.55187869 -0.50093782 4291572480
2.7561803 -0.54890436 -0.49846524 4291572480
2.7475781 -0.54710287 -0.49648058 4291441920
2.7332785 -0.54416859 -0.49289107 4291441920
2.8028061 -0.55790561 -0.50385374 4291703040
2.7800097 -0.55328065 -0.49756241 4291572480
2.8272266 -0.56257594 -0.50323081 4291703040
2.8416412 -0.56534773 -0.5023942 4291833600
2.8773289 -0.57234621 -0.50467879 4291964160
2.8843777 -0.57365161 -0.5012787 4291964160
2.8948407 -0.5756346 -0.49786282 4291964160
2.8925886 -0.57509106 -0.4916636 4291964160
2.8894179 -0.57436508 -0.48475176 4291964160
2.8808396 -0.57256538 -0.47639906 4291964160
2.872653 -0.57084388 -0.46760541 4291964160
2.8674014 -0.56970537 -0.45879042 4291833600
2.8638399 -0.56890255 -0.44974688 4291833600
2.8862102 -0.57324564 -0.44421652 4291964160
2.9013405 -0.57615066 -0.43694213 4291964160
2.9124889 -0.57826465 -0.42848101 4291964160
2.8807931 -0.57188016 -0.4132857 4291964160
2.8738284 -0.57040203 -0.40132734 4291833600
2.8738208 -0.57030356 -0.38991907 4291833600
2.8811016 -0.57164979 -0.37903619 4291833600
2.8967452 -0.57465291 -0.36873734 4291964160
2.8686631 -0.56898993 -0.35249436 4291833600
2.8580599 -0.56679183 -0.33818889 4291833600
2.8869929 -0.5724265 -0.32812211 4291833600
2.9067423 -0.57624018 -0.31641391 4291964160
2.8904989 -0.57292467 -0.30040416 4291833600
2.8610671 -0.5669989 -0.28291461 4291833600
2.8676755 -0.56820971 -0.26881438 4291833600
2.8850572 -0.57155234 -0.255312 4291833600
2.8764174 -0.56974423 -0.23916911 4291833600
2.8471115 -0.5638476 -0.22124177 4291703040
2.8885996 -0.57195789 -0.20854948 4291833600
2.8942635 -0.57297951 -0.19276448 4291833600
2.8861277 -0.57127166 -0.17585966 4291833600
2.8381584 -0.56168818 -0.15663633 4291703040
2.8788352 -0.56963259 -0.14223282 4291833600
2.8835354 -0.57046312 -0.12561585 4291833600
2.8762684 -0.56892824 -0.1083527 4291833600
2.8636334 -0.56633323 -0.090887718 4291703040
2.8896868 -0.57138216 -0.074499913 4291833600
2.8992164 -0.57316548 -0.057386287 4291833600
2.8661098 -0.56652808 -0.039484818 4291703040
2.8850229 -0.57016426 -0.022379449 4291833600
2.9105616 -0.57510716 -0.0050412803 4291964160
2.9111965 -0.57513279 0.01251594 4291964160
2.8048375 -0.55404323 0.029029686 4291572480
2.9338253 -0.57939833 0.047918528 4291964160
2.9423561 -0.58098084 0.065690227 4291964160
2.9382534 -0.58007079 0.0831405 4291964160
2.7567456 -0.54417467 0.094494723 4291441920
2.9315591 -0.57854974 0.11765597 4291964160
2.9399772 -0.58010906 0.13520078 4291964160
2.9269147 -0.57743376 0.15159589 4291964160
2.777539 -0.54789549 0.15992332 4291441920
2.9420335 -0.58021277 0.18599246 4291964160
2.9550004 -0.58266687 0.20338802 4292094720
2.9279325 -0.57723445 0.21775343 4291964160
2.7735813 -0.54673684 0.22151014 4291441920
2.9712999 -0.58557415 0.25309312 4292094720
2.9785979 -0.58690971 0.26940721 4292225280
2.9609838 -0.5833413 0.28313285 4292094720
2.8387179 -0.55917835 0.28590089 4291703040
2.6293342 -0.51788169 0.27798641 4290919680
2.9644439 -0.58372039 0.32746521 4292094720
2.9704359 -0.58479851 0.34210548 4292225280
2.9480765 -0.58030063 0.35304177 4292094720
2.836596 -0.55828005 0.35237557 4291703040
2.6890628 -0.52917928 0.34573078 4291180800
2.9660928 -0.58354324 0.39344874 4292225280
2.9765801 -0.58550435 0.40675336 4292225280
2.9639947 -0.58293116 0.41645187 4292225280
2.9273689 -0.57563579 0.42213109 4292094720
2.9169266 -0.57348633 0.4309105 4291964160
2.7902737 -0.54851407 0.42165554 4291572480
2.9559453 -0.58095276 0.45595601 4292225280
2.9662962 -0.5828861 0.46644798 4292225280
2.9622493 -0.58199269 0.4741669 4292225280
2.9596324 -0.58138031 0.48154554 4292225280
2.9537132 -0.58012027 0.48780867 4292225280
2.949302 -0.57915664 0.49372751 4292225280
2.9312143 -0.57551062 0.4967446 4292094720
2.9266438 -0.57451707 0.50141603 4292094720
2.9307206 -0.57521969 0.50697392 4292094720
2.9092777 -0.57091868 0.50751907 4292094720
2.9232092 -0.5735538 0.5135982 4292094720
2.9227252 -0.57336271 0.51657009 4292094720
2.922339 -0.57319099 0.5189513 4292094720
2.9268861 -0.57398605 0.52159709 4292094720
2.9170322 -0.57195985 0.5210731 4292094720
2.9266152 -0.57374144 0.52339029 4292094720
2.9217997 -0.57270288 0.52252996 4292094720
2.9368756 -0.57555962 0.524593 4292094720
2.9332314 -0.57475066 0.522708 4292094720
2.9314725 -0.57431108 0.52054524 4292094720
2.9403257 -0.57594872 0.51964021 4292094720
2.9490769 -0.57756597 0.51809013 4292225280
2.95452 -0.57853556 0.51533741 4292225280
2.956105 -0.57875031 0.51130134 4292225280
2.955476 -0.5785321 0.50628412 4292225280
2.9534757 -0.5780459 0.5004456 4292225280
2.9592922 -0.57908833 0.4953329 4292225280
2.9535511 -0.5778712 0.48771819 4292225280
2.937696 -0.57467782 0.47792536 4292094720
2.9437301 -0.57576323 0.4711445 4292094720
2.9619746 -0.579234 0.46569508 4292225280
2.9802163 -0.58270323 0.45960048 4292225280
2.9692214 -0.58046091 0.44846916 4292225280
2.9592803 -0.57842523 0.4370482 4292225280
2.9339073 -0.57287163 0.35841292 4292094720
2.9630766 -0.57846898 0.34860724 4292094720
2.9694703 -0.57962281 0.33558488 4292225280
2.9306085 -0.57195187 0.31725913 4291964160
2.9223673 -0.57025325 0.30209523 4291964160
2.9543374 -0.5763936 0.29060116 4292094720
2.9469287 -0.57485718 0.27481556 4292094720
2.9127202 -0.5680989 0.25645983 4291964160
2.9042807 -0.56636357 0.24029224 4291964160
2.9361005 -0.57247156 0.22703286 4291964160
2.947051 -0.57451278 0.2116909 4292094720
2.9218152 -0.56950641 0.19362095 4291964160
2.9262726 -0.57028329 0.17739901 4291964160
2.9452033 -0.57387757 0.16171512 4291964160
2.9507465 -0.57486486 0.14498661 4292094720
2.911257 -0.56708771 0.12611362 4291964160
2.9181559 -0.56833959 0.10926811 4291964160
2.9245434 -0.56949157 0.092204347 4291964160
2.9207478 -0.56866235 0.074708566 4291964160
2.8108988 -0.54720658 0.055166151 4291572480
2.906836 -0.56577551 0.039539151 4291833600
2.9075696 -0.56582785 0.022054978 4291833600
2.8898818 -0.56229901 0.0045185331 4291833600
2.8815091 -0.5605818 -0.012860327 4291833600
2.902606 -0.56459224 -0.030455571 4291833600
2.8997459 -0.56394631 -0.047863953 4291833600
2.8624876 -0.5566178 -0.064393416 4291703040
2.8955016 -0.56294167 -0.08245603 4291833600
2.9143155 -0.56650555 -0.10032801 4291964160
2.9194486 -0.56741166 -0.11775707 4291964160
2.8810167 -0.55985922 -0.13308267 4291833600
2.8941271 -0.56231457 -0.1505307 4291833600
2.9074075 -0.56480205 -0.16797984 4291964160
2.8946397 -0.56223381 -0.18373235 4291833600
2.8475504 -0.55300695 -0.19675085 4291703040
2.9180183 -0.56658864 -0.21787772 4291964160
2.9356501 -0.5699175 -0.2352809 4291964160
2.9418886 -0.57103568 -0.25163954 4292094720
2.8900921 -0.56090027 -0.26248679 4291833600
2.7759833 -0.53868741 -0.26648566 4291441920
2.921562 -0.56681949 -0.29542604 4291964160
2.9238245 -0.56716645 -0.31022137 4291964160
2.9203582 -0.56640303 -0.32405871 4291964160
2.8744357 -0.557414 -0.33256912 4291833600
2.6692908 -0.51758403 -0.3210364 4291180800
2.9463348 -0.57115883 -0.3677246 4292094720
2.9543297 -0.57261425 -0.38155311 4292094720
2.9438992 -0.57050151 -0.39255664 4292094720
2.915724 -0.56495416 -0.40058675 4291964160
2.8738461 -0.5567562 -0.40599966 4291833600
2.9157951 -0.56478339 -0.42283624 4291964160
2.9138207 -0.56430894 -0.43295121 4291964160
2.9226811 -0.56593055 -0.44421384 4292094720
2.9239864 -0.56609011 -0.45385337 4292094720
2.9203146 -0.56528687 -0.46219328 4292094720
2.9050884 -0.56224954 -0.46811533 4291964160
2.8956792 -0.56033766 -0.47437236 4291964160
2.8698034 -0.55524319 -0.47728863 4291833600
2.871227 -0.55542642 -0.48414871 4291833600
2.8234339 -0.54609883 -0.48202828 4291703040
2.758986 -0.53355634 -0.47627455 4291572480
2.7766171 -0.5368734 -0.48408946 4291572480
2.7894869 -0.53926963 -0.49056017 4291572480
2.8034072 -0.54186773 -0.49668431 4291703040
2.8164473 -0.54429483 -0.50210732 4291703040
2.8112066 -0.54319185 -0.5036872 4291703040
2.8157322 -0.54397416 -0.50643408 4291703040
2.8058543 -0.54197639 -0.5059911 4291703040
2.8105776 -0.54279643 -0.50759566 4291703040
2.801867 -0.54102433 -0.50617599 4291703040
2.7874553 -0.53815311 -0.50313497 4291572480
2.7789423 -0.53642017 -0.50058049 4291572480
2.7598896 -0.53265542 -0.49555263 4291572480
2.8199337 -0.5441404 -0.50415564 4291703040
2.8585052 -0.55148244 -0.50823665 4291833600
2.869221 -0.55345345 -0.50670856 4291833600
2.8907681 -0.55751061 -0.50646728 4291964160
2.9103146 -0.56118083 -0.50522548 4292094720
2.914592 -0.56190854 -0.50070107 4292094720
2.9275982 -0.56431675 -0.49706778 4292094720
2.9201727 -0.5627898 -0.48937166 4292094720
2.9174099 -0.56216085 -0.48191854 4292094720
2.9076743 -0.56018984 -0.47278789 4291964160
2.9055805 -0.55968994 -0.46439236 4291964160
2.8981481 -0.55816287 -0.4546372 4291964160
2.9164333 -0.56158382 -0.44837564 4291964160
2.9321208 -0.56450379 -0.4410938 4292094720
2.9335761 -0.56468546 -0.43110588 4292094720
2.91591 -0.56119007 -0.41786909 4291964160
2.8830249 -0.55476987 -0.402161 4291833600
2.8990653 -0.55775619 -0.39291304 4291964160
2.9075429 -0.55928785 -0.38209671 4291964160
2.9227302 -0.56210816 -0.37163877 4291964160
2.9036841 -0.5583505 -0.35641399 4291964160
2.9004161 -0.5576247 -0.34283701 4291964160
2.9081373 -0.55900949 -0.33016399 4291964160
2.9339747 -0.56387228 -0.31903315 4291964160
2.9199104 -0.56107289 -0.30313528 4291964160
2.8783915 -0.55300432 -0.28431681 4291833600
2.8890986 -0.55496156 -0.27052984 4291833600
2.9062245 -0.55814964 -0.25690788 4291964160
2.9117329 -0.55910772 -0.24185385 4291964160
2.8885372 -0.55455947 -0.22423325 4291833600
2.9141583 -0.55937481 -0.21017358 4291964160
2.9208572 -0.56056017 -0.19433324 4291964160
2.9227381 -0.56082129 -0.17791291 4291964160
2.8600147 -0.54869908 -0.15767936 4291703040
2.9083347 -0.5578618 -0.14354783 4291833600
2.909122 -0.55791354 -0.12660496 4291833600
2.9119217 -0.55835068 -0.1095961 4291964160
2.890831 -0.55421168 -0.091666453 4291833600
2.926898 -0.56102008 -0.07539963 4291964160
2.9260733 -0.56076235 -0.057871655 4291964160
2.8929312 -0.55431777 -0.039828811 4291833600
2.9305274 -0.56141514 -0.022738514 4291964160
2.9423456 -0.56357682 -0.0051134718 4291964160
2.9469094 -0.56434959 0.012629508 4291964160
2.8315892 -0.54218793 0.029252995 4291572480
2.955595 -0.56580973 0.048202839 4292094720
2.973953 -0.56921959 0.066297323 4292094720
2.9838021 -0.57100135 0.084301144 4292094720
2.7883377 -0.53353333 0.09544488 4291441920
2.963835 -0.56698155 0.11879266 4292094720
2.9624999 -0.56662536 0.13606489 4292094720
2.963583 -0.56673139 0.15329406 4292094720
2.814028 -0.53806096 0.16181244 4291572480
2.984091 -0.57044661 0.18840663 4292225280
2.9922152 -0.57189649 0.20568858 4292225280
2.9635758 -0.56632674 0.22012784 4292094720
2.8149126 -0.5378471 0.22452408 4291572480
2.9981546 -0.57272524 0.25507098 4292225280
3.0054502 -0.57401568 0.27150774 4292225280
2.9926953 -0.57148027 0.28581715 4292225280
2.879076 -0.54970509 0.28960589 4291833600
2.6704147 -0.50981069 0.28197578 4291180800
2.9949265 -0.57160199 0.33043474 4292225280
2.9942794 -0.57137746 0.3444429 4292225280
2.9567666 -0.5641256 0.35367444 4292094720
2.8768573 -0.54879606 0.3569409 4291833600
2.7291386 -0.52055037 0.35045308 4291311360
3.0064616 -0.57329506 0.39832178 4292355840
3.0013499 -0.57222033 0.40965521 4292225280
3.0004303 -0.57194448 0.42106655 4292355840
2.9686103 -0.56578469 0.42756221 4292225280
2.8916533 -0.55103362 0.42671308 4291964160
2.8254926 -0.53834289 0.42646641 4291703040
2.9893808 -0.56944013 0.46056646 4292225280
2.9978004 -0.57094258 0.47084495 4292355840
2.9931488 -0.56995785 0.47854775 4292355840
2.9911051 -0.56946963 0.48609212 4292355840
2.980319 -0.56731892 0.49162599 4292225280
2.9625957 -0.56384999 0.49538243 4292225280
2.9761934 -0.56633717 0.50376236 4292225280
2.9716053 -0.56536669 0.5085091 4292225280
2.9461591 -0.56043243 0.50905716 4292094720
2.9551663 -0.562047 0.51490617 4292225280
2.963295 -0.56349415 0.52002209 4292225280
2.9676442 -0.56422311 0.52388197 4292225280
2.9575717 -0.56221277 0.52458775 4292225280
2.9669597 -0.56389868 0.52811068 4292225280
2.961931 -0.56284702 0.52846128 4292225280
2.9618449 -0.56273407 0.52906579 4292225280
2.9618626 -0.56264096 0.52906603 4292225280
2.9387558 -0.55815983 0.5243358 4292094720
2.9684711 -0.56370234 0.52836394 4292225280
2.9600861 -0.56201553 0.52501148 4292225280
2.9632685 -0.56252337 0.52308691 4292225280
2.9722357 -0.5641281 0.52155244 4292225280
2.9859424 -0.56663108 0.52020717 4292355840
2.9826767 -0.56591588 0.5152958 4292225280
2.9840758 -0.56608516 0.51058561 4292225280
2.9926457 -0.56761342 0.50648141 4292355840
2.9936316 -0.56770438 0.50049019 4292355840
2.9821718 -0.56543761 0.49186802 4292225280
2.9642823 -0.56195396 0.48168737 4292225280
2.9733427 -0.56357521 0.4753257 4292225280
2.9993742 -0.56840944 0.47101605 4292355840
3.0103488 -0.57039165 0.46370232 4292355840
2.9910212 -0.56663769 0.45123708 4292225280
2.97912 -0.56429052 0.43946832 4292225280
2.9654899 -0.5611068 0.36184019 4292094720
2.9935157 -0.56631094 0.35176995 4292225280
2.9950464 -0.56650621 0.33807591 4292225280
2.9700341 -0.56168616 0.32113662 4292094720
2.9539921 -0.55856246 0.30499774 4292094720
2.9760153 -0.56262994 0.29238847 4292094720
2.9786072 -0.56302631 0.27743432 4292225280
2.9521925 -0.55794549 0.25961417 4292094720
2.9457302 -0.55663317 0.24341738 4292094720
2.9675875 -0.56066716 0.22918676 4292094720
2.9687579 -0.56079555 0.21299456 4292094720
2.9672503 -0.56041855 0.19637816 4292094720
2.9541552 -0.55785543 0.17886776 4292094720
2.9818602 -0.56298977 0.16351767 4292094720
2.9732444 -0.56127203 0.14591143 4292094720
2.9344258 -0.55385917 0.12695734 4291964160
2.9445658 -0.55567986 0.11011384 4291964160
2.9560812 -0.55775917 0.093071237 4292094720
2.9574127 -0.55791831 0.07553526 4292094720
2.8513751 -0.53784323 0.055868115 4291703040
2.9430594 -0.55503011 0.039961014 4291964160
2.937093 -0.55381471 0.02223246 4291964160
2.9122651 -0.54904687 0.0045315675 4291833600
2.9122419 -0.5489521 -0.013005273 4291833600
2.9281912 -0.55186486 -0.030708479 4291964160
2.9314773 -0.55239266 -0.048356324 4291964160
2.9039986 -0.54712909 -0.065283321 4291833600
2.9307289 -0.55206966 -0.08339069 4291964160
2.9509602 -0.5557856 -0.10150144 4291964160
2.9560914 -0.55665934 -0.11912715 4292094720
2.886713 -0.54351646 -0.13320309 4291833600
2.9196715 -0.54962558 -0.15170816 4291964160
2.9292908 -0.55134356 -0.1690713 4291964160
2.930234 -0.55142969 -0.18580835 4291964160
2.8879824 -0.5433957 -0.19934924 4291833600
2.9590626 -0.55666566 -0.22072302 4292094720
2.962219 -0.55716658 -0.23716399 4292094720
2.9666977 -0.55791563 -0.25349605 4292094720
2.9305079 -0.5510242 -0.26588729 4291964160
2.7112088 -0.50974119 -0.2599414 4291180800
2.9480712 -0.55413932 -0.29779261 4292094720
2.9608605 -0.55644846 -0.31382495 4292094720
2.9562345 -0.55548716 -0.32769763 4292094720
2.8810811 -0.5412876 -0.33297366 4291833600
2.7239883 -0.51171464 -0.32728592 4291311360
2.9640307 -0.55667156 -0.36953431 4292094720
2.9815607 -0.55986708 -0.38465944 4292225280
2.9754329 -0.55862367 -0.39634028 4292225280
2.9428215 -0.55241358 -0.40387776 4292094720
2.8484416 -0.53462267 -0.40195256 4291703040
2.9460261 -0.55282837 -0.42676455 4292094720
2.9506686 -0.55360532 -0.43796167 4292094720
2.9519205 -0.5537464 -0.44817787 4292094720
2.9598529 -0.55513918 -0.45893201 4292225280
2.9440377 -0.55208188 -0.46544591 4292094720
2.9461741 -0.55238837 -0.47423306 4292094720
2.9318867 -0.54961848 -0.47979259 4292094720
2.9146991 -0.54630625 -0.48424384 4292094720
2.8420491 -0.5326106 -0.47868475 4291833600
2.8643708 -0.53669822 -0.48849919 4291833600
2.7891805 -0.52253306 -0.48097187 4291572480
2.8077917 -0.52592635 -0.48900115 4291703040
2.8303537 -0.53005743 -0.49721962 4291703040
2.8433127 -0.53239048 -0.50321978 4291833600
2.8428061 -0.53220391 -0.50626135 4291833600
2.8520756 -0.53384548 -0.51046777 4291833600
2.8556337 -0.5344184 -0.51306528 4291833600
2.8650982 -0.53609514 -0.51613629 4291833600
2.8465972 -0.53254402 -0.51355308 4291833600
2.8514252 -0.53335363 -0.51458728 4291833600
2.8282881 -0.5289377 -0.50996435 4291703040
2.8139603 -0.52616876 -0.50634861 4291703040
2.7958574 -0.52269554 -0.50147706 4291703040
2.8511312 -0.5329262 -0.50918829 4291833600
2.8332231 -0.52948898 -0.50317401 4291703040
2.9101675 -0.54376 -0.51339519 4292094720
2.926903 -0.54678798 -0.51225251 4292094720
2.9407635 -0.54927814 -0.50996536 4292094720
2.9469788 -0.55034077 -0.50572455 4292094720
2.9536908 -0.55149555 -0.50095987 4292225280
2.9503067 -0.55076665 -0.49389356 4292094720
2.9378476 -0.54834545 -0.48477179 4292094720
2.9337695 -0.54748762 -0.47652033 4292094720
2.9156744 -0.5440169 -0.46549901 4291964160
2.925724 -0.545793 -0.45847353 4292094720
2.9464548 -0.5495587 -0.45250961 4292094720
2.9641049 -0.55274892 -0.44543272 4292225280
2.9747608 -0.55463493 -0.4367002 4292225280
2.9609876 -0.55197018 -0.42388755 4292094720
2.9241915 -0.54501903 -0.40747842 4291964160
2.9285631 -0.54573494 -0.3964918 4292094720
2.9385962 -0.54750437 -0.3857713 4292094720
2.9542441 -0.55031794 -0.37525156 4292094720
2.9449515 -0.54848945 -0.36110628 4292094720
2.9313431 -0.5458585 -0.34613055 4291964160
2.9484715 -0.5489459 -0.3343994 4292094720
2.950681 -0.5492574 -0.32050815 4292094720
2.9612725 -0.55112731 -0.30711657 4292094720
2.909941 -0.54148406 -0.28713727 4291964160
2.9187026 -0.54301429 -0.27302057 4291964160
2.9427276 -0.54738051 -0.25987196 4291964160
2.9380379 -0.54640955 -0.24378796 4291964160
2.9133844 -0.54172993 -0.22593032 4291964160
2.940484 -0.54666483 -0.21185687 4291964160
2.9613535 -0.55044085 -0.19683732 4292094720
2.9515581 -0.54852164 -0.17948927 4292094720
2.9102859 -0.54075956 -0.16030777 4291833600
2.9449241 -0.54708993 -0.14521867 4291964160
2.9457207 -0.54713774 -0.12808166 4291964160
2.9436183 -0.54664761 -0.11068925 4291964160
2.9264407 -0.54336101 -0.092718303 4291964160
2.9537063 -0.54831856 -0.07602571 4292094720
2.961731 -0.54970628 -0.058537312 4292094720
2.933471 -0.544366 -0.04037087 4291964160
2.9520085 -0.54770261 -0.022896014 4291964160
2.964045 -0.54983306 -0.0051616919 4292094720
2.9708815 -0.5509991 0.012700564 4292094720
2.8632131 -0.53095037 0.029523784 4291703040
2.9775209 -0.55202699 0.048490625 4292094720
3.0057273 -0.55714965 0.066909149 4292225280
3.0067365 -0.55723441 0.084838666 4292225280
2.8287432 -0.52417964 0.096691266 4291572480
2.9995124 -0.55569297 0.12006474 4292225280
3.0040615 -0.55643302 0.13779232 4292225280
2.9943323 -0.55453086 0.15469182 4292225280
2.849514 -0.52763808 0.16364592 4291703040
3.0109191 -0.55739576 0.18987173 4292225280
3.0141375 -0.55788893 0.20695144 4292225280
2.9952672 -0.55429775 0.22221397 4292225280
2.8503509 -0.52740669 0.22707374 4291703040
3.0286651 -0.56026798 0.25736123 4292355840
3.0425963 -0.56274009 0.27453449 4292355840
3.0225089 -0.55892593 0.28832546 4292355840
2.9155042 -0.53905714 0.29292047 4291964160
2.7007289 -0.499291 0.28483886 4291180800
3.022218 -0.55856645 0.33305952 4292355840
3.0073297 -0.55571598 0.34555438 4292225280
3.0029798 -0.55481189 0.35877356 4292225280
2.8383219 -0.52432179 0.35180229 4291703040
2.7653005 -0.51075214 0.35467789 4291441920
3.02315 -0.55823088 0.40008089 4292355840
3.0465481 -0.56244564 0.4153347 4292486400
3.0309918 -0.55947477 0.42486614 4292355840
2.9866135 -0.5511905 0.42966995 4292225280
2.9279087 -0.54026806 0.43156147 4292094720
2.8704159 -0.52957308 0.43273643 4291833600
3.0208492 -0.55720139 0.46488103 4292355840
3.0206015 -0.55705535 0.47388929 4292355840
3.0333412 -0.55930209 0.48441213 4292486400
3.0128405 -0.55542547 0.48907185 4292355840
2.9986157 -0.55270612 0.4940888 4292355840
2.9988298 -0.55264646 0.50086457 4292355840
2.9902649 -0.55097073 0.50557959 4292225280
3.0029781 -0.55321223 0.51329136 4292355840
2.9774961 -0.54842401 0.51388478 4292225280
2.9952321 -0.55158949 0.52128536 4292355840
3.0043309 -0.55316514 0.52661514 4292355840
2.9385316 -0.54096431 0.51819849 4292094720
2.9468634 -0.54240036 0.52212572 4292094720
2.9378526 -0.54064739 0.52238119 4292094720
2.9279757 -0.53873593 0.52185905 4292094720
3.0028579 -0.55240399 0.53577399 4292355840
2.9980311 -0.55141938 0.53491366 4292355840
2.9884644 -0.54956436 0.53258365 4292355840
2.9702799 -0.54612702 0.52810746 4292225280
2.9952893 -0.55062449 0.53064799 4292355840
2.9994483 -0.55129147 0.5288676 4292355840
3.0123081 -0.55355591 0.52797639 4292355840
3.0173106 -0.55437732 0.52507448 4292355840
3.0170553 -0.55423343 0.52064008 4292355840
3.0193357 -0.55455512 0.51602817 4292355840
3.023072 -0.55514389 0.51104969 4292355840
3.0240674 -0.55522984 0.50500411 4292355840
3.0174594 -0.55392122 0.49711868 4292355840
2.9986892 -0.55038279 0.4867208 4292355840
3.0096166 -0.55229086 0.48057243 4292355840
3.0259676 -0.55519259 0.47465429 4292355840
3.0418272 -0.55800331 0.46801692 4292486400
3.0251567 -0.55485183 0.45586392 4292355840
3.0144839 -0.55280054 0.44417396 4292355840
2.9960573 -0.54881454 0.3651492 4292225280
3.0202181 -0.55314159 0.35450172 4292355840
3.0364282 -0.55601263 0.34234372 4292355840
2.9967339 -0.54865634 0.32365116 4292225280
2.9855793 -0.54652238 0.30790028 4292225280
3.0125353 -0.55135828 0.2956278 4292225280
3.0090523 -0.55062729 0.2799429 4292225280
2.9789155 -0.54502434 0.26165947 4292094720
2.9630373 -0.54202926 0.24456818 4292094720
2.9943459 -0.54765821 0.23098223 4292225280
2.9955263 -0.54778057 0.21466181 4292225280
2.9980514 -0.54814851 0.19817857 4292225280
2.9907439 -0.5467205 0.18085992 4292225280
3.0035384 -0.5489639 0.16451147 4292225280
3.0049601 -0.54913008 0.14728482 4292225280
2.9562774 -0.54014963 0.12774749 4292094720
2.9713478 -0.54280841 0.11097509 4292094720
2.9828794 -0.54482049 0.093793482 4292094720
2.9665995 -0.54175746 0.075679809 4292094720
2.8829842 -0.52641159 0.056402892 4291833600
2.9560797 -0.53965449 0.040083773 4292094720
2.9687984 -0.54188222 0.022425387 4292094720
2.9390249 -0.53636128 0.0045487015 4291964160
2.9439199 -0.53716248 -0.013155172 4291964160
2.9589009 -0.53980172 -0.031018816 4292094720
2.9611919 -0.5401274 -0.048814751 4292094720
2.9346762 -0.53520399 -0.06592337 4291964160
2.9574971 -0.53927034 -0.084080435 4292094720
2.9782956 -0.54296696 -0.10235019 4292094720
2.9937761 -0.54569364 -0.12054084 4292225280
2.9183311 -0.53186315 -0.13453855 4291964160
2.9601598 -0.53938752 -0.15367287 4292094720
2.9703271 -0.54114616 -0.17128186 4292094720
2.9716907 -0.54130191 -0.18826097 4292094720
2.9146564 -0.53083128 -0.20099181 4291964160
2.9769731 -0.54207784 -0.22183242 4292094720
2.9889534 -0.54416424 -0.23906432 4292225280
2.9983282 -0.54577601 -0.25594321 4292225280
2.9571867 -0.53820133 -0.26803648 4292094720
