# .PCD v0.7 - Point Cloud Data file format
VERSION 0.7
FIELDS x y z rgba
SIZE 4 4 4 4
TYPE F F F U
COUNT 1 1 1 1
WIDTH 1130
HEIGHT 1
VIEWPOINT 0 0 0 1 0 0 0
POINTS 1130
DATA ascii
3.050766 1.4898739 0.56691223 4293530880
3.0503407 1.4897896 0.55998993 4293530880
3.0495977 1.4895505 0.55236149 4293530880
3.0391641 1.4845799 0.54236627 4293400320
3.0337195 1.4820453 0.53267759 4293400320
3.0303183 1.4805084 0.52275878 4293400320
3.0483057 1.4894183 0.5158807 4293400320
3.0581491 1.494352 0.50693762 4293530880
3.0503919 1.490689 0.49448818 4293400320
3.0145442 1.4734026 0.40450168 4293269760
3.0250158 1.4786464 0.39102784 4293269760
3.0525777 1.4922425 0.3791354 4293400320
3.0510294 1.4916151 0.36306831 4293400320
3.0151765 1.4742218 0.34270892 4293269760
3.0263946 1.4798334 0.32745385 4293269760
3.0449369 1.4890263 0.31246379 4293400320
3.0283265 1.4810361 0.29350671 4293269760
3.0043705 1.4694532 0.27374563 4293139200
3.0088313 1.471763 0.25638828 4293269760
3.0284321 1.4814768 0.23989701 4293269760
3.0306787 1.4827055 0.2216336 4293269760
2.9957838 1.4657694 0.2006065 4293139200
3.0326042 1.4839083 0.18415833 4293269760
3.0367587 1.4860711 0.16526388 4293269760
3.0336702 1.4846913 0.14578669 4293269760
3.0029459 1.4697903 0.12503402 4293139200
3.0162289 1.4764194 0.10609565 4293269760
3.0188 1.477808 0.086559884 4293269760
3.0131443 1.4751707 0.06671194 4293139200
3.0054953 1.4715576 0.046833001 4293139200
3.0039687 1.4709405 0.027058719 4293139200
3.0100987 1.4740713 0.00729386 4293139200
2.9710069 1.4550639 -0.012381907 4293008640
2.9871261 1.4630846 -0.03211334 4293139200
3.0027497 1.4708639 -0.052015152 4293139200
3.0075338 1.4733366 -0.071810886 4293139200
2.9773602 1.4586898 -0.09053795 4293008640
3.0131724 1.4763584 -0.11119629 4293269760
3.025059 1.4823109 -0.13116759 4293269760
3.0233562 1.4816074 -0.15047809 4293269760
2.9950917 1.4678911 -0.16812065 4293139200
3.0077975 1.4742453 -0.18777259 4293139200
3.0185516 1.4796443 -0.20724745 4293269760
3.0147009 1.4778873 -0.22554217 4293269760
2.9971757 1.4694282 -0.24244252 4293139200
3.0225873 1.4820116 -0.2625871 4293269760
3.0403645 1.4908547 -0.28204077 4293400320
3.0344059 1.4880639 -0.29906055 4293269760
3.0236132 1.4829025 -0.31518152 4293269760
3.0122206 1.4774458 -0.33076891 4293269760
3.0243604 1.4835266 -0.34857193 4293269760
3.0366406 1.489677 -0.36613703 4293400320
3.0280626 1.485599 -0.38080776 4293269760
2.9936745 1.4688612 -0.3915984 4293269760
3.0370319 1.4902544 -0.41213852 4293400320
3.037765 1.490742 -0.42666122 4293400320
3.0438914 1.4938751 -0.44149259 4293400320
3.0462081 1.4951392 -0.45531395 4293400320
3.0311625 1.4878843 -0.46597758 4293400320
3.004806 1.4750774 -0.47420663 4293269760
3.008944 1.4772331 -0.48660916 4293269760
3.0147383 1.4802015 -0.49876276 4293269760
3.0177274 1.4817933 -0.50991595 4293400320
3.0226254 1.484322 -0.52083451 4293400320
3.018908 1.4826212 -0.52967834 4293400320
3.0167801 1.4817001 -0.53817356 4293400320
3.0149345 1.480917 -0.5460875 4293400320
3.0083709 1.4778167 -0.55249608 4293400320
3.0153525 1.4813671 -0.5607481 4293400320
3.0006578 1.474272 -0.56431127 4293269760
3.0086405 1.4783137 -0.57146066 4293400320
2.9914794 1.4700048 -0.57316428 4293269760
2.9751201 1.4620881 -0.57430184 4293269760
2.9622879 1.4559023 -0.57541043 4293139200
2.9706416 1.4601241 -0.57994825 4293269760
2.9658346 1.4578797 -0.58124822 4293139200
2.961132 1.4556856 -0.58188295 4293139200
2.974211 1.4622293 -0.58532685 4293269760
2.9731164 1.4618075 -0.58530515 4293269760
2.9843869 1.4674628 -0.58702683 4293269760
3.0008812 1.4756862 -0.58907908 4293400320
3.0046458 1.4776528 -0.58793896 4293400320
3.0107422 1.4807656 -0.58655959 4293400320
3.0031679 1.4771569 -0.58183903 4293400320
3.0135579 1.4823804 -0.57990855 4293400320
3.0059943 1.4787756 -0.57385093 4293400320
3.0120041 1.4818451 -0.56971288 4293400320
3.0072386 1.479615 -0.5628764 4293400320
3.0098379 1.4810065 -0.55676621 4293400320
3.0064082 1.4794322 -0.54889983 4293269760
2.9966717 1.4747547 -0.53928262 4293269760
2.9833016 1.4682885 -0.52845311 4293269760
2.9818411 1.4676805 -0.5191626 4293269760
3.0018084 1.4776152 -0.51293904 4293269760
3.0147879 1.4841126 -0.50482643 4293400320
3.0353844 1.494359 -0.49729037 4293400320
3.0152364 1.4845541 -0.48252603 4293269760
2.9886274 1.4715673 -0.46636301 4293269760
2.9812057 1.4680227 -0.45279559 4293139200
3.0116711 1.4831275 -0.44435728 4293269760
3.0178964 1.4863008 -0.43168792 4293269760
3.0271714 1.4909759 -0.41889665 4293400320
2.9882052 1.4718988 -0.3991178 4293139200
2.9958367 1.4757634 -0.38525206 4293269760
3.010587 1.4831339 -0.3717564 4293269760
3.0230794 1.4893934 -0.35742781 4293269760
3.0155137 1.4857746 -0.34031153 4293269760
2.9740624 1.4654647 -0.31927231 4293139200
3.0035162 1.4800783 -0.30553541 4293269760
3.0003622 1.4786305 -0.28800619 4293269760
3.0002477 1.4786798 -0.27047026 4293139200
2.9836252 1.4705956 -0.25125334 4293139200
3.0084252 1.4829198 -0.23518841 4293269760
3.0021443 1.4799304 -0.21633381 4293139200
3.0044792 1.4811859 -0.19788632 4293139200
2.9815462 1.4699889 -0.17769492 4293139200
2.9906926 1.4746009 -0.1593007 4293139200
2.9998598 1.4792237 -0.14061871 4293139200
2.9970822 1.4779589 -0.12118692 4293139200
2.9819119 1.4705849 -0.10124225 4293139200
3.0034602 1.4813119 -0.082384832 4293139200
3.0126734 1.4859588 -0.062902406 4293269760
3.0054157 1.4824849 -0.042999398 4293139200
3.008647 1.4841827 -0.023224607 4293139200
3.0233417 1.4915338 -0.0033931062 4293269760
3.0250964 1.4925041 0.01656211 4293269760
2.9862893 1.4734691 0.036025133 4293139200
3.0440359 1.5020562 0.056756392 4293269760
3.0511713 1.5056818 0.076899454 4293400320
3.0354204 1.4980178 0.096322216 4293269760
2.9283433 1.445297 0.11192849 4292878080
3.0373607 1.4991864 0.13571978 4293269760
3.0470684 1.5040823 0.1556749 4293400320
3.0191212 1.4903979 0.17341575 4293269760
2.7862968 1.3756073 0.17752659 4292355840
3.0520916 1.5068809 0.21348642 4293400320
3.0484896 1.50521 0.23195863 4293400320
3.023721 1.4930915 0.24839143 4293269760
2.7909474 1.3782939 0.24589644 4292355840
3.0685523 1.5154358 0.28841642 4293530880
3.0636783 1.5131379 0.30563152 4293400320
3.0529931 1.5079707 0.32184041 4293400320
2.941031 1.4527953 0.32632345 4293008640
2.7236104 1.3455362 0.31693229 4292225280
3.0639107 1.5136876 0.37278447 4293530880
3.0576739 1.5107168 0.38778445 4293400320
3.0274732 1.4959098 0.39912564 4293400320
2.9799972 1.4725677 0.40735784 4293139200
2.872498 1.4195721 0.40618363 4292747520
3.0583942 1.5115124 0.44641072 4293530880
3.0584579 1.5116546 0.45983556 4293530880
3.0628839 1.5139526 0.47341439 4293530880
3.0307879 1.4982047 0.48069561 4293400320
3.0145726 1.4903024 0.48975694 4293400320
3.0073607 1.486849 0.49963307 4293269760
3.0581191 1.5120465 0.51872313 4293530880
3.0569034 1.5115585 0.52856964 4293530880
3.0545666 1.5105168 0.53760242 4293530880
3.0470889 1.5069339 0.54508084 4293530880
3.0383556 1.5027301 0.55165917 4293530880
3.0408654 1.5040849 0.55962324 4293530880
3.0442619 1.5058788 0.56711465 4293530880
3.0313704 1.499619 0.57089233 4293400320
3.0183902 1.4933147 0.57393831 4293400320
3.0264611 1.4974213 0.58030832 4293400320
3.0302081 1.4993904 0.58518904 4293400320
3.0218267 1.4953607 0.58703786 4293400320
3.0213594 1.4952461 0.5897274 4293400320
3.0130508 1.4912523 0.59018886 4293400320
3.0172064 1.4934254 0.59239697 4293400320
3.0170541 1.4934676 0.59306616 4293400320
3.0283465 1.4991736 0.59529024 4293400320
3.0195801 1.4949543 0.59287369 4293400320
3.027441 1.498964 0.59302604 4293400320
3.0277128 1.4992183 0.59099227 4293400320
3.0232384 1.497124 0.5873431 4293400320
3.0456891 1.5083586 0.58821738 4293530880
3.0503368 1.5107815 0.58493197 4293530880
3.0429983 1.5072707 0.57866889 4293530880
3.0452607 1.5085137 0.57356447 4293530880
3.0467043 1.5093518 0.56763011 4293530880
3.05424 1.5132078 0.56215078 4293530880
3.0455439 1.5090252 0.55303395 4293530880
3.0351417 1.5039973 0.54301512 4293400320
3.0297146 1.5014335 0.53330183 4293400320
3.0307527 1.5020726 0.52412349 4293400320
3.0442653 1.5088927 0.51645178 4293530880
3.0585151 1.5160795 0.50821739 4293530880
3.0454638 1.5097393 0.49485952 4293530880
2.9968932 1.4867783 0.4033154 4293269760
3.0251269 1.5009079 0.39219511 4293400320
3.0392575 1.5080452 0.37859389 4293400320
3.0421646 1.5096166 0.36308274 4293400320
3.0064149 1.492012 0.34272411 4293269760
3.0175996 1.4976896 0.32747006 4293269760
3.0316274 1.504779 0.31202149 4293400320
3.0195246 1.4989036 0.29352498 4293269760
2.9911733 1.4849644 0.27335626 4293139200
3.00455 1.491732 0.25679094 4293269760
3.0240948 1.5015624 0.24027421 4293269760
3.0263357 1.5028054 0.22198482 4293269760
2.9960134 1.4878837 0.20123203 4293139200
3.0282571 1.5040213 0.18445651 4293269760
3.0323999 1.5062095 0.16553508 4293269760
3.0293207 1.5048122 0.14603056 4293269760
2.9897361 1.4852862 0.12487467 4293139200
3.0074549 1.4942161 0.10612529 4293269760
3.0100179 1.4956199 0.086590707 4293269760
3.0133321 1.4973971 0.066944428 4293269760
2.9967506 1.4892912 0.046865966 4293139200
2.9952278 1.4886651 0.027092781 4293139200
2.9977572 1.4900523 0.0073196264 4293139200
2.9704204 1.4765993 -0.01237802 4293008640
2.9909692 1.4869401 -0.032208692 4293139200
2.9895332 1.4863567 -0.051900137 4293139200
3.0032561 1.4933077 -0.071877785 4293139200
2.9731691 1.478483 -0.090633601 4293139200
2.9954512 1.489689 -0.11082602 4293139200
3.0162523 1.5001608 -0.13112544 4293269760
3.0234995 1.503895 -0.1508795 4293269760
2.986371 1.4855645 -0.16807739 4293139200
2.9990394 1.4919938 -0.18772849 4293139200
3.0017185 1.4934562 -0.20665082 4293269760
3.0014548 1.4934551 -0.22516283 4293269760
2.9929121 1.4893354 -0.24275796 4293139200
3.0137842 1.4998477 -0.2625407 4293269760
3.0315092 1.5087959 -0.28199378 4293400320
3.0300267 1.5081887 -0.2994529 4293400320
3.0086555 1.4976851 -0.31449312 4293269760
3.0034456 1.4952214 -0.33072177 4293269760
3.0200019 1.5035897 -0.34903795 4293269760
3.0233428 1.5053817 -0.36555266 4293400320
3.0234928 1.5055853 -0.38129568 4293400320
2.9973989 1.4927243 -0.39318117 4293269760
3.0258315 1.5070068 -0.41177255 4293400320
3.0289121 1.5086687 -0.42661479 4293400320
3.0438969 1.5162581 -0.44273514 4293400320
3.0373292 1.5131159 -0.45526847 4293400320
3.0380573 1.5136063 -0.46835336 4293400320
2.9960463 1.4928099 -0.47416323 4293269760
3.0046008 1.4971962 -0.48728353 4293269760
3.0103753 1.5001979 -0.49945417 4293400320
3.0133529 1.5018065 -0.51062375 4293400320
3.0102725 1.5003967 -0.52018458 4293400320
3.0189455 1.5048424 -0.53119302 4293400320
3.0079808 1.499503 -0.53813666 4293400320
3.006634 1.4989554 -0.54614168 4293400320
3.0040102 1.4977707 -0.5532741 4293400320
3.0065548 1.4991615 -0.56071579 4293400320
2.9963145 1.4941792 -0.56511164 4293400320
2.9830973 1.4877117 -0.56824428 4293269760
2.9871588 1.4898568 -0.57398367 4293269760
2.9699633 1.4814034 -0.57495904 4293269760
2.9737823 1.4834267 -0.57930517 4293269760
2.9575608 1.4754561 -0.57906646 4293139200
2.9527674 1.4731833 -0.58036542 4293139200
2.9657042 1.4797524 -0.58446813 4293269760
2.9768448 1.4854262 -0.58754396 4293269760
2.9767694 1.4855056 -0.58772588 4293269760
2.9844811 1.4894692 -0.58875382 4293269760
2.9833004 1.4889965 -0.58734101 4293269760
2.9879336 1.4914241 -0.58638161 4293269760
3.0019433 1.4985304 -0.586559 4293400320
2.9987981 1.4970765 -0.58269632 4293400320
3.0052419 1.5004076 -0.58000875 4293400320
2.997206 1.4965118 -0.57385892 4293400320
3.0164297 1.5062213 -0.5722298 4293400320
3.006386 1.5013223 -0.56437868 4293400320
3.0133924 1.5049336 -0.5590719 4293400320
3.006444 1.5015782 -0.55053395 4293400320
2.9958546 1.4964039 -0.54073799 4293269760
2.9825258 1.4898605 -0.52988952 4293269760
2.9854915 1.4914527 -0.52134895 4293269760
2.9974456 1.4975333 -0.51372808 4293269760
3.0103881 1.5041082 -0.50560391 4293400320
3.0185335 1.5082877 -0.49602312 4293400320
3.0019817 1.5001309 -0.48185897 4293269760
2.9905124 1.4945114 -0.46806937 4293269760
2.9779053 1.4883223 -0.45366907 4293269760
2.9984179 1.4986792 -0.44375414 4293269760
3.0001853 1.4996711 -0.43047249 4293269760
3.009428 1.5043982 -0.41772535 4293269760
2.9705708 1.4850888 -0.39799109 4293139200
2.9915042 1.4956574 -0.38588783 4293269760
3.0186598 1.5093373 -0.37391132 4293400320
3.0177805 1.5090059 -0.35791934 4293269760
3.0145776 1.5075127 -0.34127688 4293269760
2.9608963 1.4807844 -0.3188692 4293139200
2.9858074 1.4933439 -0.30470744 4293139200
3.004046 1.5025687 -0.28928566 4293269760
2.9869976 1.4941506 -0.27015224 4293139200
2.9827971 1.4921559 -0.2520062 4293139200
2.9930453 1.4973862 -0.23476465 4293139200
2.9933453 1.4976417 -0.21642537 4293139200
2.9956729 1.4989111 -0.19798028 4293139200
2.9817379 1.4920462 -0.17832235 4293139200
2.9854999 1.4940327 -0.15958875 4293139200
2.9982927 1.5005372 -0.14105721 4293139200
3.0017028 1.5023484 -0.12183003 4293269760
2.981216 1.4922032 -0.10161799 4293139200
2.9946558 1.4990324 -0.082490578 4293139200
3.0073078 1.5054681 -0.063081995 4293269760
3.0010767 1.502455 -0.043171577 4293139200
2.9953561 1.4996969 -0.023300961 4293139200
3.0064306 1.5053444 -0.0034972758 4293269760
3.0117574 1.5081156 0.016423844 4293269760
2.9730642 1.488852 0.035857916 4293139200
3.0261717 1.5155421 0.056472544 4293269760
3.0377572 1.5214481 0.076669641 4293400320
3.039577 1.5224655 0.096623495 4293400320
2.9197588 1.4625775 0.11181631 4292878080
3.0254161 1.5155873 0.13546665 4293269760
3.0408187 1.5234069 0.15569593 4293400320
3.0102706 1.5082146 0.17330027 4293269760
2.7825916 1.3942865 0.17770617 4292355840
3.047606 1.5271273 0.21368414 4293400320
3.0350928 1.5209665 0.23150288 4293400320
3.0148566 1.5109361 0.24827838 4293269760
2.7783084 1.3925334 0.24539877 4292355840
3.0551016 1.5313137 0.2878837 4293400320
3.0546963 1.531219 0.30552077 4293400320
3.0440421 1.5259888 0.32173169 4293400320
2.9359663 1.4719365 0.32661676 4293008640
2.8143933 1.4111124 0.3283757 4292616960
3.050483 1.5295434 0.37213871 4293400320
3.0487077 1.5287632 0.38768387 4293400320
3.031024 1.5200084 0.40067288 4293400320
2.9756939 1.49238 0.40787345 4293139200
2.864073 1.4365263 0.4060967 4292747520
3.0494235 1.5295631 0.44632119 4293530880
3.0574591 1.5337034 0.4609521 4293530880
3.040617 1.5253694 0.47127157 4293530880
3.0218959 1.5160923 0.48061696 4293400320
3.0145726 1.5125306 0.49112424 4293400320
2.9985354 1.504598 0.4995625 4293269760
3.0367033 1.5238545 0.5165382 4293530880
3.0399811 1.5256116 0.52712703 4293530880
3.0323563 1.5218997 0.53520477 4293530880
3.0355723 1.5236268 0.54456502 4293530880
3.0338449 1.5228741 0.55241293 4293530880
3.0398717 1.5260128 0.56104362 4293530880
3.0397282 1.5260558 0.56789827 4293530880
3.0303969 1.5214882 0.57235587 4293530880
3.013927 1.5133374 0.57474887 4293400320
3.0263755 1.5197014 0.58197808 4293530880
3.0055869 1.5093821 0.58212489 4293400320
3.0173459 1.5154015 0.58788198 4293400320
3.0089552 1.5113057 0.58902955 4293400320
2.9997895 1.5068207 0.58932126 4293400320
3.0083325 1.5112276 0.59240001 4293400320
2.999378 1.5068488 0.59133929 4293400320
3.0194364 1.5170406 0.59530503 4293400320
3.0150948 1.5149792 0.59376127 4293400320
3.0229311 1.519035 0.59391773 4293530880
3.0143988 1.5148693 0.59016317 4293400320
3.0222597 1.5189391 0.58892649 4293400320
3.0367198 1.5263253 0.58826286 4293530880
3.0369492 1.5265629 0.58413649 4293530880
3.0428419 1.5296468 0.58040756 4293530880
3.040693 1.5286905 0.57446128 4293530880
3.0421319 1.5295374 0.56852454 4293530880
3.0408299 1.5290073 0.56141376 4293530880
3.0321562 1.5247722 0.55231363 4293530880
3.038543 1.5281076 0.54532176 4293530880
3.0251927 1.5215213 0.53417653 4293400320
3.0218136 1.5199478 0.52422488 4293400320
3.0388181 1.5286236 0.51716143 4293530880
3.0494916 1.5341177 0.50833219 4293530880
3.0497384 1.5343693 0.49714273 4293530880
3.0014794 1.5109183 0.40512395 4293269760
3.0243132 1.522537 0.393246 4293400320
3.0428448 1.5319927 0.38015974 4293400320
3.0333142 1.5273262 0.36309445 4293400320
2.9932249 1.5072773 0.34222713 4293269760
3.0088193 1.5152564 0.32748169 4293269760
3.0228055 1.5224273 0.31203318 4293400320
3.0231943 1.5227537 0.29475284 4293400320
2.99493 1.5086527 0.27451181 4293269760
2.9958048 1.509223 0.25680247 4293269760
3.0063834 1.5146805 0.23957461 4293269760
3.0210905 1.5222186 0.22225925 4293269760
2.9872909 1.5053251 0.20124356 4293139200
3.0194402 1.5216503 0.18446817 4293269760
3.0191102 1.5216157 0.16530183 4293269760
3.0241458 1.5242847 0.14621913 4293269760
2.9859385 1.5051651 0.1250927 4293139200
3.0067289 1.5157722 0.1064226 4293269760
3.0092847 1.517192 0.086835578 4293269760
3.0045543 1.5149394 0.066956028 4293269760
2.9880204 1.5067371 0.0468775 4293139200
2.9865012 1.5061022 0.027104309 4293139200
2.9970591 1.5115557 0.007352476 4293269760
2.9573002 1.4916412 -0.012348863 4293008640
2.9777887 1.5021017 -0.032149915 4293139200
2.9852843 1.506012 -0.051965386 4293139200
2.9989662 1.5130427 -0.071972378 4293269760
2.9689653 1.4980427 -0.090757586 4293139200
3.0001047 1.5138794 -0.11130811 4293269760
3.0074589 1.5177205 -0.13111383 4293269760
3.0146842 1.521497 -0.15086785 4293269760
2.9856887 1.5069994 -0.16851693 4293139200
2.999208 1.5139513 -0.18827435 4293269760
3.0009844 1.5149785 -0.20719099 4293269760
3.0018041 1.5155227 -0.22583383 4293269760
2.9805436 1.504923 -0.24245135 4293139200
3.004993 1.5173934 -0.2625291 4293269760
3.0226655 1.5264447 -0.28198209 4293400320
3.0211866 1.525829 -0.29944125 4293400320
3.0095644 1.5200918 -0.31549445 4293269760
3.0080075 1.5194354 -0.33217812 4293269760
3.0067496 1.5189298 -0.34851295 4293269760
3.0145197 1.5229831 -0.36554104 4293400320
3.0104277 1.5210458 -0.3807489 4293269760
2.9762385 1.5039059 -0.39154044 4293269760
3.0273168 1.5298345 -0.41316611 4293400320
3.0221515 1.5273542 -0.42689657 4293400320
3.0305846 1.5317434 -0.44207916 4293400320
3.028461 1.5307988 -0.45525679 4293400320
3.0247653 1.5290595 -0.46765947 4293400320
2.9917157 1.5124855 -0.47485167 4293269760
2.9914098 1.5124568 -0.48655501 4293269760
2.9971688 1.515493 -0.49870947 4293269760
3.0089631 1.5215801 -0.51136059 4293400320
3.005007 1.5197058 -0.52078331 4293400320
3.0057178 1.52019 -0.53040493 4293400320
2.9991927 1.5170153 -0.53812504 4293400320
2.9978492 1.5164599 -0.54613012 4293400320
2.999635 1.5174863 -0.55407435 4293400320
3.0065711 1.5211171 -0.56234777 4293400320
2.9910777 1.5134039 -0.56576473 4293400320
2.9822955 1.5090839 -0.56974274 4293269760
2.9784272 1.507248 -0.57397211 4293269760
2.9577641 1.4969153 -0.5742659 4293269760
2.9494007 1.4928031 -0.57623398 4293139200
2.9533083 1.4948988 -0.57991654 4293269760
2.9529221 1.4948213 -0.58208346 4293269760
2.9614258 1.4992423 -0.58532363 4293269760
2.9436715 1.4903746 -0.58269739 4293139200
2.9592767 1.4983891 -0.58597749 4293269760
2.966965 1.5023973 -0.58700681 4293269760
2.9789677 1.5085894 -0.58819556 4293269760
2.979193 1.5088198 -0.58637011 4293269760
2.9887667 1.5137829 -0.58568776 4293400320
2.9900243 1.5145354 -0.58268476 4293400320
2.9959567 1.5176549 -0.57990205 4293400320
2.9972291 1.5184145 -0.57553309 4293400320
2.9944086 1.5171009 -0.56971228 4293400320
2.9975874 1.5188253 -0.56436706 4293400320
3.0010524 1.5206944 -0.55840641 4293400320
3.0020459 1.5213113 -0.55132937 4293400320
2.9870849 1.5138456 -0.54072642 4293269760
2.9702702 1.5054393 -0.52925122 4293269760
2.9723437 1.5066012 -0.52056706 4293269760
2.9798512 1.5105163 -0.51220363 4293269760
3.0103943 1.5261046 -0.50707549 4293400320
3.0220494 1.5321227 -0.49804392 4293400320
2.9976048 1.5198456 -0.48255673 4293269760
2.9861703 1.5141606 -0.46874985 4293269760
2.9691825 1.5056593 -0.45365757 4293269760
2.9975927 1.5201699 -0.44492143 4293269760
2.9958196 1.5193803 -0.43109614 4293269760
3.0050366 1.5241625 -0.41832855 4293269760
2.9618666 1.5023831 -0.39797965 4293139200
2.9871683 1.5153199 -0.38644817 4293269760
3.0098138 1.5269114 -0.3738997 4293400320
3.0053887 1.5247757 -0.3574867 4293269760
3.0057421 1.5250629 -0.34126526 4293269760
2.9610949 1.5025251 -0.31981418 4293139200
2.9859364 1.5152318 -0.30560252 4293269760
2.9907966 1.5178039 -0.28884619 4293269760
2.9826846 1.5137951 -0.27054271 4293139200
2.9741619 1.5095772 -0.25200403 4293139200
2.9908123 1.518131 -0.23526618 4293269760
2.9925766 1.5191323 -0.2169926 4293269760
2.9868875 1.5163511 -0.19796874 4293139200
2.9596353 1.5026265 -0.17751297 4293139200
2.9811964 1.5136738 -0.15981494 4293139200
2.9894974 1.5179924 -0.14104566 4293139200
2.9964614 1.5216327 -0.12196273 4293269760
2.9692702 1.5079349 -0.10149787 4293139200
2.9968832 1.5220577 -0.082780853 4293269760
3.0030515 1.5252948 -0.063165508 4293269760
2.987812 1.5176626 -0.043096647 4293139200
2.9910235 1.5193983 -0.023323257 4293139200
3.0056314 1.5269216 -0.0034934029 4293269760
3.0084994 1.5284836 0.016467104 4293269760
2.9687946 1.508424 0.035924185 4293139200
3.0217454 1.5354229 0.056568485 4293269760
3.0368609 1.5432073 0.076885909 4293400320
3.0351086 1.542424 0.096778087 4293400320
2.9156406 1.4818385 0.1119995 4292878080
3.0290034 1.539536 0.13604054 4293400320
3.0318887 1.5411088 0.15570766 4293400320
3.0014296 1.5257388 0.17331187 4293269760
2.7744181 1.4104861 0.1777169 4292355840
3.0386541 1.5448686 0.2136959 4293400320
3.029624 1.540387 0.23177883 4293400320
3.0015543 1.5262276 0.24792218 4293269760
2.7745883 1.4109665 0.24580382 4292355840
3.0550077 1.5536139 0.28873619 4293530880
3.0572655 1.5548707 0.30669224 4293530880
3.0306594 1.5414532 0.32127246 4293400320
2.9273372 1.4890281 0.32662809 4293008640
2.7972553 1.4229888 0.32734787 4292486400
3.0503776 1.5518072 0.3732357 4293530880
3.0353174 1.5442586 0.38713032 4293400320
3.0176873 1.5354019 0.40009728 4293400320
2.9713686 1.5119525 0.40849355 4293269760
2.8556514 1.4531995 0.40610775 4292747520
3.0528293 1.5536085 0.44815049 4293530880
3.0405183 1.5474573 0.45976102 4293530880
3.040503 1.5475613 0.47265652 4293530880
3.0174198 1.5359284 0.48133281 4293400320
3.0057054 1.5300791 0.49113587 4293400320
2.9941223 1.5242963 0.50031096 4293400320
3.0357683 1.5456024 0.51791519 4293530880
3.0389633 1.5473422 0.5285179 4293530880
3.0322371 1.5440325 0.53677553 4293530880
3.0345595 1.5453287 0.54600227 4293530880
3.0337129 1.5450125 0.55403167 4293530880
3.0274084 1.5419179 0.560404 4293530880
3.0219917 1.5392754 0.5662623 4293530880
3.0179622 1.5373391 0.57170153 4293530880
3.005055 1.5308821 0.5747605 4293400320
3.0209789 1.5391074 0.58266753 4293530880
3.0090303 1.5331388 0.58452517 4293400320
3.0040724 1.5307304 0.5870356 4293400320
3.0079944 1.5328453 0.59059268 4293400320
3.0120182 1.5350127 0.59348446 4293400320
3.0029829 1.5305279 0.59310514 4293400320
3.0072162 1.5328033 0.59464884 4293400320
3.0061553 1.5323818 0.5944488 4293400320
3.0062129 1.5325307 0.59377289 4293400320
3.0263109 1.5428929 0.59635115 4293530880
3.0099056 1.5346531 0.59103674 4293400320
3.0221322 1.541006 0.59065419 4293530880
3.022593 1.5413629 0.58726805 4293530880
3.0236094 1.5420035 0.58330095 4293530880
3.0294831 1.545121 0.57957888 4293530880
3.0317311 1.5463908 0.57447302 4293530880
3.033165 1.5472462 0.56853628 4293530880
3.0406556 1.5511907 0.56305379 4293530880
3.0276136 1.544665 0.55312884 4293530880
3.0260661 1.5440011 0.54469991 4293530880
3.0162728 1.5391315 0.53418821 4293400320
3.012903 1.5375383 0.52423656 4293400320
3.0298567 1.5463132 0.51717317 4293530880
3.040498 1.5518694 0.50834394 4293530880
3.0275216 1.5453763 0.4949916 4293530880
2.9961591 1.5301964 0.40561473 4293269760
3.010601 1.5376985 0.39263287 4293400320
3.033864 1.5497059 0.38017148 4293400320
3.0243609 1.5449841 0.36310616 4293400320
2.9888189 1.5269642 0.34274724 4293269760
3.0043688 1.5350353 0.32797769 4293269760
3.0183148 1.5422888 0.3125045 4293400320
3.0098321 1.5380869 0.29433012 4293269760
2.9780986 1.5220066 0.27378789 4293139200
2.9913974 1.5289309 0.2571964 4293269760
3.010828 1.5389894 0.24065311 4293269760
3.0121675 1.5398055 0.22227092 4293269760
2.978467 1.5227154 0.2012551 4293139200
3.0105207 1.5392277 0.18447982 4293269760
3.011611 1.539917 0.1653917 4293269760
3.0160232 1.5423046 0.14627033 4293269760
2.9811184 1.5245938 0.12527312 4293139200
2.997844 1.5332758 0.10643422 4293269760
2.9959414 1.5324351 0.086717576 4293269760
2.9867728 1.5278786 0.066766985 4293139200
2.9791887 1.5241319 0.046889041 4293139200
2.9865763 1.5280414 0.027198656 4293139200
2.9775126 1.5235373 0.0073355851 4293139200
2.9574599 1.5134113 -0.012372855 4293139200
2.9654233 1.5176154 -0.03210061 4293139200
2.9764571 1.523391 -0.051953856 4293139200
2.9909184 1.5309212 -0.071980365 4293269760
2.969084 1.5198804 -0.091016933 4293139200
2.9867828 1.5290682 -0.111132 4293269760
2.9957142 1.5337706 -0.13097829 4293269760
3.0011251 1.5366716 -0.15062435 4293269760
2.9688547 1.5202854 -0.1680544 4293139200
2.9938898 1.5332314 -0.18848573 4293269760
2.9921052 1.5324491 -0.2071794 4293269760
2.9971678 1.5351721 -0.22614154 4293269760
2.9709127 1.5218596 -0.24237391 4293139200
3.0049739 1.5394317 -0.26329276 4293269760
3.0113738 1.5428402 -0.28175157 4293269760
3.0166771 1.5456878 -0.29986906 4293400320
2.9909973 1.5326654 -0.31446993 4293269760
2.9970162 1.5358784 -0.331936 4293269760
3.010242 1.5427839 -0.34993872 4293400320
3.0067456 1.5411228 -0.3656691 4293400320
3.0057416 1.5407381 -0.38127238 4293400320
2.9797995 1.5275741 -0.39315811 4293269760
3.0148172 1.5456479 -0.41267172 4293400320
3.025562 1.5512838 -0.42863253 4293400320
3.0260205 1.5516483 -0.44271168 4293400320
3.0168407 1.5470718 -0.45484647 4293400320
3.0158045 1.546669 -0.46764779 4293400320
2.9820476 1.5294904 -0.47471228 4293269760
2.9913528 1.5343876 -0.48797733 4293400320
2.9926884 1.5351987 -0.49943098 4293400320
2.9956472 1.5368419 -0.51060051 4293400320
3.0004981 1.5394553 -0.52153456 4293400320
2.9924142 1.5354346 -0.52961689 4293400320
3.0069964 1.5430391 -0.54111218 4293400320
2.9933538 1.5361656 -0.54691947 4293400320
2.9942539 1.5367513 -0.55471218 4293400320
2.9892271 1.5342958 -0.56075746 4293400320
2.9822087 1.5308176 -0.56575316 4293400320
2.9616053 1.5203673 -0.56746525 4293269760
2.9575667 1.5184157 -0.5716399 4293269760
2.9524987 1.5159348 -0.57493615 4293269760
2.9494174 1.514473 -0.57793707 4293269760
2.9445481 1.5120927 -0.57990515 4293269760
2.9485433 1.5142621 -0.58293676 4293269760
2.9526401 1.5164834 -0.58531219 4293269760
2.9480791 1.5142596 -0.58529055 4293269760
2.950496 1.5156178 -0.58596605 4293269760
2.9669216 1.5241693 -0.58873081 4293269760
2.9701271 1.5259326 -0.58818406 4293269760
2.9782367 1.5302143 -0.58791262 4293400320
2.9798958 1.531183 -0.58567619 4293400320
2.9934187 1.5382454 -0.58506727 4293400320
2.9875536 1.5353489 -0.57998556 4293400320
2.9918382 1.5376656 -0.57619578 4293400320
2.9899032 1.5367868 -0.57053596 4293400320
2.993073 1.5385305 -0.56518227 4293400320
2.9921408 1.5381659 -0.55839479 4293400320
2.9887419 1.5365332 -0.55051076 4293400320
2.9826038 1.5334923 -0.54151058 4293400320
2.9693537 1.526795 -0.53065002 4293269760
2.9601085 1.5221549 -0.51995838 4293269760
2.975395 1.5301241 -0.51294857 4293269760
2.9991252 1.5424347 -0.50667161 4293400320
3.0086713 1.5474545 -0.49730638 4293400320
2.9842963 1.5350338 -0.48183581 4293269760
2.9667249 1.5261093 -0.46707711 4293269760
2.9603589 1.5229454 -0.45364609 4293269760
2.9807494 1.5335406 -0.44373101 4293269760
2.9913259 1.5390896 -0.43171978 4293269760
2.9888651 1.5379335 -0.4173083 4293269760
2.9574769 1.5218973 -0.39856187 4293139200
2.9694538 1.5281662 -0.38529295 4293269760
2.9929109 1.5403414 -0.3728992 4293269760
2.99999 1.5440919 -0.35789606 4293269760
2.9933755 1.5407971 -0.34086412 4293269760
2.9602554 1.5238628 -0.32066342 4293139200
2.9850259 1.5367161 -0.30640689 4293269760
2.9819014 1.5352153 -0.2888346 4293269760
2.9782443 1.53344 -0.27093312 4293269760
2.9687512 1.5286604 -0.25228366 4293139200
2.9798257 1.5344671 -0.23509032 4293269760
2.9801242 1.534727 -0.21672381 4293269760
2.9768815 1.5331635 -0.19788307 4293139200
2.959707 1.5244273 -0.17803341 4293139200
2.9812057 1.5356016 -0.16027875 4293269760
2.9814117 1.5358136 -0.14107227 4293269760
2.9839895 1.5372466 -0.12180688 4293269760
2.9680653 1.5291516 -0.10174631 4293139200
2.9858689 1.5384259 -0.082711726 4293269760
2.9861121 1.5386567 -0.062986873 4293269760
2.9789169 1.5350562 -0.043085087 4293139200
2.9865632 1.5391003 -0.023345513 4293269760
3.001127 1.5467086 -0.0034860456 4293269760
2.99842 1.5454201 0.016472364 4293269760
2.9643979 1.5279968 0.035990495 4293139200
3.0141652 1.553745 0.056607094 4293269760
3.0210712 1.5574105 0.07672514 4293400320
3.0130904 1.5534046 0.096372433 4293269760
2.9105084 1.5006433 0.11214834 4292878080
3.0199795 1.5571688 0.13605227 4293400320
3.0201888 1.5573839 0.15558158 4293400320
2.9924865 1.5432112 0.17332348 4293269760
2.7750244 1.4312125 0.17829931 4292486400
3.0295987 1.5625575 0.21370766 4293400320
3.0295725 1.562652 0.23248078 4293400320
2.9841814 1.5393555 0.24723443 4293269760
2.778722 1.4335155 0.24691869 4292486400
3.0538716 1.5755082 0.28950471 4293530880
3.0454926 1.5712966 0.30643621 4293530880
3.0304718 1.563659 0.32222614 4293400320
2.9186089 1.5060692 0.32663941 4293008640
2.7977531 1.4438326 0.32839739 4292616960
3.0580671 1.5782233 0.37530956 4293530880
3.0306804 1.5642054 0.38770738 4293400320
3.008687 1.5529685 0.40010893 4293400320
2.953685 1.5246983 0.40728778 4293139200
2.855067 1.4739177 0.40725145 4292747520
3.0525334 1.5759265 0.44946057 4293530880
3.0437765 1.5715196 0.46164396 4293530880
3.0270302 1.5629889 0.47198167 4293530880
3.0172138 1.5580342 0.48275289 4293400320
2.996736 1.5475758 0.49114752 4293400320
2.9851868 1.5417255 0.50032252 4293400320
3.0231254 1.5614244 0.5173136 4293530880
3.0263805 1.5632187 0.52791667 4293530880
3.0275743 1.5639493 0.53756684 4293530880
3.0211141 1.560728 0.54522204 4293530880
3.0246558 1.5626719 0.55404341 4293530880
3.0262592 1.5636154 0.56188124 4293530880
3.029619 1.5654668 0.56940466 4293530880
3.0124545 1.5567169 0.57237929 4293530880
2.9960806 1.5483748 0.57477212 4293400320
3.0119565 1.5566927 0.58267921 4293530880
3.0000429 1.5506545 0.58453685 4293400320
2.9994752 1.5504785 0.58790529 4293400320
3.0033841 1.552616 0.59146631 4293400320
2.9986448 1.550285 0.59263116 4293400320
3.0027597 1.5525303 0.5948506 4293400320
2.9938564 1.5480477 0.59379256 4293400320
2.9971721 1.5498807 0.59446043 4293400320
2.9972291 1.55003 0.59378457 4293400320
3.0172665 1.5605093 0.59636289 4293530880
3.0052843 1.554436 0.59191042 4293530880
3.008723 1.5563356 0.58980787 4293530880
3.0187204 1.5616274 0.58828628 4293530880
3.023324 1.5641311 0.58500719 4293530880
3.0248034 1.56502 0.58043104 4293530880
3.0182869 1.5617737 0.57365215 4293530880
3.0240951 1.5649024 0.56854802 4293530880
3.0271809 1.5666238 0.56225139 4293530880
3.0220654 1.564103 0.55378342 4293530880
3.0170152 1.5616161 0.54471165 4293530880
3.0072505 1.5566895 0.53419989 4293400320
3.0117888 1.5591642 0.52562743 4293400320
3.0172803 1.5621326 0.51658332 4293530880
3.0349147 1.5713868 0.50894523 4293530880
3.0149477 1.5611804 0.49442655 4293400320
2.9792552 1.5435287 0.40454808 4293269760
3.009526 1.5593351 0.39368385 4293400320
3.0291924 1.5696518 0.38073832 4293400320
3.0188365 1.5644188 0.3635436 4293400320
2.9966514 1.5530572 0.34469137 4293269760
2.9953711 1.5525243 0.32798931 4293269760
3.0092747 1.559859 0.31251618 4293400320
2.9972787 1.5537745 0.29399425 4293269760
2.9691772 1.539343 0.27379942 4293139200
2.9868619 1.5486386 0.25759032 4293269760
3.0018075 1.5565163 0.24066478 4293269760
3.0075717 1.5596361 0.22261111 4293269760
2.9695418 1.5400541 0.20126665 4293139200
3.0050447 1.5585911 0.18471 4293269760
3.0070186 1.5597472 0.16564833 4293269760
3.0069835 1.5598619 0.14628203 4293269760
2.9677472 1.5396479 0.12509693 4293139200
2.9853082 1.5488867 0.1063188 4293269760
2.9869597 1.5498755 0.086729191 4293269760
2.985574 1.549289 0.066953935 4293269760
2.9746938 1.5437772 0.046971507 4293139200
2.9820585 1.54773 0.027251653 4293269760
2.976572 1.5450156 0.0073684976 4293139200
2.94859 1.5306281 -0.012361394 4293139200
2.9733927 1.5436296 -0.032268606 4293139200
2.9719663 1.5430213 -0.052019041 4293139200
2.9775093 1.5460298 -0.07186266 4293139200
2.9637253 1.5390071 -0.091113739 4293139200
2.9822569 1.5487581 -0.11128493 4293269760
3.0028691 1.5595911 -0.13167085 4293269760
3.0002935 1.5583867 -0.15102226 4293269760
2.959945 1.5375687 -0.1680429 4293139200
2.9893348 1.5529611 -0.1887528 4293269760
2.9919825 1.5544679 -0.20778076 4293269760
2.9837437 1.5503209 -0.225796 4293269760
2.96996 1.5432928 -0.24301216 4293139200
2.9915287 1.5546273 -0.2628935 4293269760
3.0067539 1.5626682 -0.28215367 4293400320
3.0076191 1.5632495 -0.29985735 4293400320
2.9784813 1.5482414 -0.31408665 4293269760
2.9880157 1.5533259 -0.33192438 4293269760
3.0012009 1.5603082 -0.34992707 4293400320
2.9977145 1.5586268 -0.36565745 4293400320
2.9967127 1.5582364 -0.38126072 4293400320
2.9796605 1.5495023 -0.39431021 4293269760
3.0034306 1.5619881 -0.41234091 4293400320
3.0041471 1.5624901 -0.42687321 4293400320
3.016928 1.5692647 -0.44269997 4293400320
3.0165687 1.5692074 -0.45616192 4293400320
3.0155303 1.5687965 -0.4690004 4293400320
2.9730849 1.5468509 -0.47470072 4293269760
2.9779713 1.5495189 -0.48724881 4293269760
2.9924684 1.557186 -0.50088555 4293400320
2.9945362 1.5583882 -0.51193601 4293400320
2.9914773 1.5569234 -0.52152294 4293400320
2.9921803 1.557415 -0.53115815 4293400320
2.9935746 1.5582659 -0.5403114 4293400320
2.9887304 1.5558703 -0.54770875 4293400320
2.9817479 1.552361 -0.55405116 4293400320
2.9798913 1.5515186 -0.56068105 4293400320
2.9776123 1.5504556 -0.56657237 4293400320
2.9688799 1.546033 -0.57055849 4293400320
2.9562898 1.5396008 -0.57310319 4293269760
2.9436159 1.5331237 -0.57492471 4293269760
2.9405432 1.531644 -0.57792568 4293269760
2.9356878 1.5292352 -0.57989371 4293269760
2.9440382 1.5337024 -0.58378994 4293269760
2.9393864 1.5313987 -0.58443379 4293269760
2.9304714 1.5268737 -0.58354282 4293139200
2.9459822 1.5350696 -0.58682305 4293269760
2.9579904 1.541442 -0.58871931 4293269760
2.965553 1.5454991 -0.58903855 4293400320
2.9692702 1.5475528 -0.58790106 4293400320
2.9709237 1.5485313 -0.58566463 4293400320
2.9765413 1.5515748 -0.58351666 4293400320
2.9872963 1.5572956 -0.58167273 4293400320
2.9828281 1.5550833 -0.57618415 4293400320
2.9808981 1.5541933 -0.57052439 4293400320
2.9884307 1.5582345 -0.56599742 4293400320
2.9787536 1.5533053 -0.55756587 4293400320
2.9797382 1.5539329 -0.5504992 4293400320
2.973618 1.5508562 -0.54149902 4293400320
2.9647861 1.5463648 -0.53142196 4293269760
2.9555697 1.541672 -0.52071726 4293269760
2.966429 1.547446 -0.51293701 4293269760
2.9813182 1.5553219 -0.5051769 4293400320
2.9960945 1.5631398 -0.49671403 4293400320
2.9753015 1.5524075 -0.48182425 4293269760
2.9656851 1.5475028 -0.4683111 4293269760
2.9514346 1.5401797 -0.45363462 4293269760
2.9717629 1.5508934 -0.44371945 4293269760
2.9858246 1.5583391 -0.43221632 4293400320
2.9914699 1.5613945 -0.4189201 4293400320
2.9493704 1.5395381 -0.39865983 4293139200
2.9728293 1.5518873 -0.38688251 4293269760
2.9894805 1.560685 -0.37358531 4293269760
2.9953496 1.5638571 -0.35841063 4293400320
2.9887564 1.5605249 -0.34135497 4293269760
2.9477956 1.5392538 -0.32026941 4293139200
2.968075 1.5499462 -0.30557942 4293269760
2.9649558 1.5484251 -0.28805289 4293269760
2.9727924 1.5526232 -0.27124313 4293269760
2.9563668 1.5441544 -0.25198102 4293139200
2.9787922 1.5559696 -0.23570648 4293269760
2.9746687 1.5539234 -0.21696945 4293269760
2.9822855 1.5580074 -0.19882728 4293269760
2.955199 1.5439686 -0.17828785 4293139200
2.9589255 1.5460204 -0.15955421 4293139200
2.9679832 1.5508569 -0.1408516 4293139200
2.9829526 1.5587819 -0.12211984 4293269760
2.9591036 1.54643 -0.10173479 4293139200
2.9768529 1.5558078 -0.082700133 4293269760
2.9973669 1.5666313 -0.063399725 4293269760
2.9743519 1.5547129 -0.043136854 4293139200
2.9775431 1.5564861 -0.02333392 4293269760
3.0009251 1.5688106 -0.0034829022 4293269760
3.0026567 1.5698222 0.016559931 4293269760
2.9634187 1.549422 0.036100715 4293139200
3.0086036 1.573144 0.056686241 4293400320
3.0199177 1.579165 0.076941483 4293400320
3.0084155 1.5732599 0.09652704 4293400320
2.8981707 1.5157344 0.11202207 4292878080
3.0064259 1.5724342 0.13586316 4293400320
3.0154874 1.5772793 0.15582275 4293400320
2.9922917 1.5652586 0.17385072 4293269760
2.7622123 1.4450543 0.17802423 4292355840
3.0239782 1.5820433 0.21397027 4293400320
3.0168777 1.5784382 0.23221982 4293400320
3.000351 1.5699029 0.24934323 4293400320
2.7747366 1.452002 0.24732383 4292486400
3.0446374 1.5932851 0.28951657 4293530880
3.036283 1.5890247 0.30644804 4293530880
3.021307 1.5812997 0.32223791 4293400320
2.9097815 1.5230591 0.32665077 4293008640
2.7936964 1.462425 0.32892764 4292616960
3.0400088 1.5914155 0.37423611 4293530880
3.0259137 1.5841507 0.38828447 4293530880
3.0083833 1.5750871 0.40129527 4293400320
2.9579391 1.5487961 0.40912521 4293269760
2.8508224 1.492838 0.40789181 4292878080
3.0345118 1.5890969 0.44817412 4293530880
3.0345652 1.5892375 0.46165577 4293530880
3.0266442 1.5852034 0.47336671 4293530880
3.0159752 1.5797304 0.48403221 4293530880
2.9832816 1.5627248 0.49043816 4293400320
2.9214928 1.5304816 0.49114063 4293139200
3.0183523 1.5813152 0.51807731 4293530880
3.0250964 1.5849614 0.52930766 4293530880
3.0262823 1.5856974 0.5389818 4293530880
3.0119658 1.5783138 0.54523379 4293530880
3.0198677 1.5825683 0.55485868 4293530880
3.0214639 1.5835204 0.56270713 4293530880
3.016948 1.5812711 0.5687573 4293530880
3.0076966 1.5765405 0.57322359 4293530880
2.9913704 1.5681026 0.57562423 4293400320
2.9949753 1.5701082 0.58116585 4293400320
2.9830987 1.5640013 0.58301282 4293400320
2.9860239 1.5656518 0.5870589 4293400320
2.9942832 1.5700985 0.59147799 4293400320
2.9895575 1.56774 0.59264284 4293400320
2.9936595 1.5700091 0.59486228 4293400320
2.9891434 1.5677611 0.59467208 4293400320
2.9934552 1.5701416 0.59554034 4293400320
2.9925044 1.5697635 0.59466314 4293400320
3.003758 1.5757855 0.59550965 4293530880
2.9996622 1.5737594 0.59261167 4293530880
3.0039628 1.5761369 0.59067762 4293530880
3.0079098 1.57833 0.58797401 4293530880
3.0185196 1.5840187 0.58586621 4293530880
3.01563 1.5826271 0.58044279 4293530880
3.0134983 1.5816333 0.57449651 4293530880
3.0149221 1.5825055 0.56855977 4293530880
3.017998 1.5842448 0.56226313 4293530880
3.0094013 1.5798597 0.55315232 4293530880
3.0078619 1.579178 0.54472333 4293530880
2.998126 1.5741947 0.53421158 4293400320
2.998275 1.5743994 0.5248729 4293400320
3.0203788 1.5861291 0.51870066 4293530880
3.0134437 1.5826167 0.50689363 4293530880
3.0136824 1.5828701 0.49573606 4293530880
2.9746027 1.5631795 0.40515873 4293269760
3.0003865 1.5768536 0.39369553 4293400320
3.0155935 1.5849738 0.38019499 4293400320
3.0096672 1.5819916 0.36355531 4293400320
2.9840264 1.56865 0.34429616 4293269760
2.9950821 1.5745906 0.32896981 4293400320
3.0001326 1.5773764 0.31252789 4293400320
2.9881721 1.5712219 0.2940059 4293269760
2.9725063 1.5631192 0.27495515 4293269760
2.9733727 1.5637058 0.25721958 4293269760
2.9976263 1.5765879 0.24107456 4293400320
2.9956019 1.5756563 0.22241233 4293269760
2.9638562 1.5590967 0.20150581 4293139200
2.9974983 1.5769191 0.18481985 4293269760
3.0058334 1.5814357 0.16610096 4293400320
3.0022628 1.5796914 0.14651021 4293400320
2.9635894 1.5594832 0.12531506 4293139200
2.9841919 1.5704528 0.10661625 4293269760
2.9778767 1.5672632 0.086740799 4293269760
2.9800336 1.5685309 0.06704583 4293269760
2.9656465 1.5610937 0.046983074 4293139200
2.9729884 1.5650893 0.027263248 4293269760
2.9701755 1.5637418 0.0073872157 4293269760
2.93962 1.5477929 -0.012349928 4293139200
2.9643464 1.5609387 -0.032257043 4293139200
2.9673479 1.5626508 -0.052084189 4293139200
2.9728725 1.5656916 -0.071957178 4293269760
2.9467456 1.5520688 -0.090858541 4293139200
2.9767184 1.5679816 -0.11140492 4293269760
2.9944344 1.5774428 -0.13169 4293269760
2.9909675 1.5757505 -0.15100084 4293269760
2.955353 1.5571269 -0.1682819 4293139200
2.9758174 1.5680368 -0.18846251 4293269760
2.9828732 1.5718855 -0.20776913 4293269760
2.974659 1.5676905 -0.22578439 4293269760
2.9617224 1.5610068 -0.24306652 4293269760
2.9912393 1.5766897 -0.26365703 4293269760
3.0020053 1.5824947 -0.28255573 4293400320
3.0072715 1.5854021 -0.30072457 4293400320
2.9773366 1.5697585 -0.31491137 4293269760
2.9868371 1.5748967 -0.33279344 4293269760
2.9897268 1.5765508 -0.34964338 4293400320
2.9885814 1.5760781 -0.36564577 4293400320
2.9910984 1.5775355 -0.38169676 4293400320
2.9740953 1.5687014 -0.39476404 4293269760
2.9977906 1.5813246 -0.41281191 4293400320
3.0028903 1.584144 -0.42798495 4293400320
3.0093091 1.5876589 -0.44291973 4293400320
3.007374 1.5867684 -0.45615017 4293400320
2.9975758 1.5817298 -0.4676244 4293400320
2.9735787 1.5692004 -0.47621682 4293400320
2.9732687 1.5691644 -0.48795411 4293400320
2.9745951 1.5699911 -0.49940777 4293400320
2.9897773 1.5781281 -0.51267272 4293400320
2.9867251 1.5766445 -0.52227414 4293400320
2.9786868 1.5725291 -0.53037006 4293400320
2.9765847 1.5715454 -0.53887939 4293400320
2.9708846 1.568662 -0.54609531 4293400320
2.9761426 1.5715619 -0.55468893 4293400320
2.9624217 1.5644433 -0.55909085 4293400320
2.9606793 1.5636469 -0.56506544 4293400320
2.9480464 1.5571001 -0.56828105 4293269760
2.9429111 1.5545106 -0.57224578 4293269760
2.9433465 1.5548615 -0.57661736 4293269760
2.9394095 1.5529033 -0.57945722 4293269760
2.931083 1.5486261 -0.58074373 4293269760
2.9350519 1.5508417 -0.5837785 4293269760
2.9382513 1.5526506 -0.58598274 4293269760
2.934587 1.5508337 -0.5861358 4293269760
2.9326341 1.5499202 -0.58594316 4293269760
2.9326611 1.5500519 -0.58545971 4293269760
2.9564979 1.5627635 -0.58902699 4293400320
2.9732661 1.5717415 -0.59047943 4293400320
2.9662056 1.5681282 -0.58651274 4293400320
2.9709349 1.5707446 -0.58418906 4293400320
2.9738157 1.5723841 -0.58081174 4293400320
2.9702308 1.5706058 -0.57549828 4293400320
2.97615 1.5738506 -0.57134801 4293400320
2.9670942 1.5691791 -0.56367087 4293400320
2.9740133 1.5729519 -0.55837154 4293400320
2.9706335 1.5712798 -0.55048758 4293400320
2.973259 1.5727822 -0.54307872 4293400320
2.95136 1.5613161 -0.53062695 4293269760
2.9465368 1.5588782 -0.52070576 4293269760
2.9581599 1.5651373 -0.51306355 4293269760
2.9765761 1.5749898 -0.50590682 4293400320
2.9881167 1.5812066 -0.49689844 4293400320
2.9793305 1.5766712 -0.48394054 4293400320
2.9566178 1.5647676 -0.46829957 4293269760
2.9467895 1.5596786 -0.45429692 4293269760
2.972137 1.5731995 -0.44512197 4293269760
2.9766936 1.5757211 -0.43220469 4293400320
2.986707 1.5811301 -0.41952321 4293400320
2.9439285 1.5586021 -0.39913252 4293139200
2.9602239 1.5673348 -0.38641348 4293269760
2.9768217 1.5762284 -0.37313423 4293269760
2.9861863 1.5812943 -0.35839897 4293400320
2.9865382 1.5815899 -0.3421348 4293400320
2.9466939 1.560606 -0.32111856 4293139200
2.958993 1.5672247 -0.30556786 4293269760
2.9726126 1.5745432 -0.28966716 4293269760
2.9636946 1.569929 -0.27123156 4293269760
2.9517248 1.5636979 -0.25234506 4293139200
2.9673431 1.5720757 -0.23551044 4293269760
2.9743822 1.5759106 -0.21760082 4293269760
2.9643342 1.570696 -0.19822793 4293269760
2.9585059 1.5677156 -0.17902088 4293139200
2.960279 1.5687612 -0.16010337 4293139200
2.9589722 1.5681752 -0.14084367 4293139200
2.9614553 1.5695969 -0.12160342 4293139200
2.9468713 1.5619763 -0.10161467 4293139200
2.9698167 1.5742395 -0.082746051 4293269760
2.9803448 1.5799246 -0.063223392 4293269760
2.9696589 1.5743685 -0.043188579 4293269760
2.9728398 1.5761606 -0.023356115 4293269760
2.987314 1.5839381 -0.0034669766 4293269760
2.9934573 1.5873013 0.016571628 4293269760
2.9631736 1.5713559 0.036221977 4293139200
3.0126357 1.597682 0.056950934 4293400320
3.0194964 1.6014271 0.077180624 4293400320
3.0036116 1.5931134 0.096681684 4293400320
2.8972347 1.536819 0.11234294 4293008640
3.0104523 1.5969563 0.13647741 4293400320
3.0150692 1.5995127 0.15629344 4293400320
2.9866478 1.5845486 0.17406863 4293269760
2.7660913 1.4676831 0.17883542 4292486400
3.0191152 1.6019841 0.21429563 4293400320
3.0199661 1.6025445 0.23318616 4293400320
2.9911506 1.5873681 0.24935493 4293400320
2.7618237 1.4658189 0.24694027 4292486400
3.0308986 1.6086729 0.28910801 4293530880
3.0296128 1.6081008 0.30672777 4293530880
3.0164366 1.6012198 0.32272068 4293400320
2.9140401 1.5469937 0.32814854 4293008640
2.696322 1.4315616 0.31843874 4292225280
3.022779 1.604917 0.37327114 4293530880
3.0210176 1.6040933 0.3888616 4293530880
2.9991519 1.5925987 0.40130702 4293400320
2.9444783 1.5636873 0.40852806 4293269760
2.8552165 1.5164105 0.40979075 4292878080
3.0251982 1.6067605 0.44818595 4293530880
3.0252509 1.6069013 0.4616676 4293530880
3.0173535 1.6028212 0.47337851 4293530880
2.9988468 1.5931072 0.48277634 4293400320
2.9907279 1.5889086 0.4931896 4293400320
2.9713798 1.578746 0.50108266 4293400320
3.0134497 1.6012032 0.51884109 4293530880
3.0158069 1.6025701 0.52931941 4293530880
3.0091374 1.5991424 0.53759032 4293530880
3.0114348 1.6004783 0.54682952 4293530880
3.010592 1.6001464 0.55487049 4293530880
3.0121827 1.6011078 0.56271893 4293530880
3.0076802 1.5988321 0.5687691 4293530880
2.9984562 1.5940478 0.57323533 4293530880
2.9908845 1.5901409 0.57731676 4293530880
3.0023077 1.5963295 0.5843972 4293530880
2.9817624 1.5855277 0.58456016 4293400320
2.9855466 1.587657 0.58878666 4293400320
2.9850807 1.5875278 0.59148967 4293400320
2.9890654 1.5897652 0.59438443 4293530880
2.9888053 1.5897465 0.59574085 4293530880
2.9843023 1.5874722 0.59555167 4293400320
2.9799047 1.5852541 0.59468412 4293400320
2.9876516 1.5894945 0.59554172 4293530880
3.0032179 1.5978947 0.5972513 4293530880
2.9869597 1.5893698 0.59193379 4293530880
3.0069015 1.6000996 0.59309196 4293530880
2.9908299 1.5916737 0.58644998 4293530880
3.0092356 1.601589 0.58587801 4293530880
3.012435 1.6034157 0.58162904 4293530880
3.0085807 1.6014903 0.57534093 4293530880
3.0134838 1.6042248 0.57005453 4293530880
3.0087128 1.601812 0.56227493 4293530880
3.0001419 1.5973769 0.55316406 4293530880
2.9987144 1.5967437 0.54475474 4293530880
2.9967473 1.5958234 0.53562653 4293530880
2.9938972 1.5944335 0.52573657 4293400320
3.0075238 1.6018156 0.51809907 4293530880
3.0207562 1.6089892 0.50970578 4293530880
3.0131397 1.6050632 0.49718985 4293530880
2.9654415 1.5804945 0.40517032 4293269760
2.9923816 1.5949776 0.39387015 4293400320
3.01069 1.604864 0.38076189 4293400320
3.0112336 1.6052858 0.3648816 4293400320
2.974833 1.5860199 0.34430781 4293269760
2.9822645 1.5901117 0.32858551 4293400320
2.9952819 1.5971819 0.31299928 4293400320
2.9912715 1.5951767 0.29523396 4293400320
2.9633455 1.5804222 0.27496675 4293269760
2.9809258 1.5899264 0.25868425 4293269760
2.9957833 1.5979809 0.24168403 4293400320
2.9863679 1.5930938 0.22242402 4293269760
2.9547193 1.5763496 0.20151737 4293139200
2.9882569 1.5943676 0.18483154 4293269760
3.0009723 1.6012831 0.16635767 4293400320
2.9982915 1.5999873 0.14678158 4293400320
2.950042 1.5743829 0.12513885 4293139200
2.9749889 1.5878241 0.1066279 4293269760
2.9775121 1.5893036 0.087011769 4293269760
2.972836 1.5869421 0.067102842 4293269760
2.9564219 1.5783163 0.046993412 4293139200
2.9738348 1.5877419 0.027369006 4293269760
2.9627736 1.5819719 0.0074035604 4293269760
2.9349611 1.5672596 -0.012356113 4293139200
2.950789 1.5758404 -0.032198276 4293139200
2.9537807 1.57757 -0.051995922 4293139200
2.9716356 1.5872352 -0.072136529 4293269760
2.9455872 1.5734602 -0.091090679 4293139200
2.9719386 1.5876637 -0.11155777 4293269760
2.9816654 1.5929912 -0.13152359 4293269760
2.9905462 1.597868 -0.15143332 4293269760
2.9497528 1.576213 -0.16847077 4293139200
2.9587035 1.581126 -0.18794934 4293269760
2.9780648 1.5916013 -0.20806393 4293269760
2.9777937 1.5915893 -0.22670768 4293269760
2.9613726 1.5829482 -0.24377684 4293269760
2.9899149 1.5983315 -0.26434299 4293400320
2.992733 1.5999703 -0.28254402 4293400320
2.997982 1.6029084 -0.30071282 4293400320
2.9769201 1.591784 -0.31582898 4293269760
2.965322 1.5857162 -0.3314119 4293269760
