# .PCD v0.7 - Point Cloud Data file format
VERSION 0.7
FIELDS x y z rgba
SIZE 4 4 4 4
TYPE F F F U
COUNT 1 1 1 1
WIDTH 1059
HEIGHT 1
VIEWPOINT 0 0 0 1 0 0 0
POINTS 1059
DATA ascii
3.5934503 -0.12656276 0.0069175251 4294053120
3.5553019 -0.12510172 -0.014208942 4293922560
3.5752661 -0.12567866 -0.035436679 4293922560
3.5930765 -0.12617891 -0.056830358 4294053120
3.5919266 -0.12601517 -0.077966504 4294053120
3.563004 -0.1248817 -0.098246261 4293922560
3.5875528 -0.12561572 -0.11986008 4294053120
3.6107745 -0.12630187 -0.14158005 4294053120
3.6087093 -0.12610604 -0.16228475 4294053120
3.5599833 -0.1242874 -0.18043607 4293922560
3.5874898 -0.12512125 -0.20211966 4294053120
3.5926244 -0.12517668 -0.22251374 4294053120
3.597959 -0.12523881 -0.24273796 4294053120
3.5740898 -0.12428886 -0.2606343 4294053120
3.6011848 -0.12510474 -0.28196892 4294053120
3.6199906 -0.12563227 -0.30259424 4294183680
3.6176317 -0.12542754 -0.32121167 4294183680
3.5835867 -0.12412964 -0.33648488 4294053120
3.5911415 -0.12426846 -0.35514963 4294053120
3.6019049 -0.12451749 -0.37383026 4294183680
3.6123538 -0.12475517 -0.39216796 4294183680
3.6031959 -0.12431837 -0.40795439 4294183680
3.5563323 -0.12258751 -0.41877234 4294053120
3.6108551 -0.12433843 -0.44106606 4294183680
3.6165066 -0.12441089 -0.45717245 4294183680
3.6259413 -0.12461277 -0.47330675 4294314240
3.6279926 -0.1245617 -0.48799387 4294314240
3.6144159 -0.12397669 -0.49998873 4294183680
3.5718813 -0.1224042 -0.5072118 4294053120
3.5809648 -0.12259541 -0.52105266 4294183680
3.5981197 -0.12306136 -0.53556275 4294183680
3.5924122 -0.12274819 -0.54610413 4294183680
3.596729 -0.12277662 -0.55753756 4294183680
3.597209 -0.12267472 -0.56775266 4294183680
3.5906539 -0.12233432 -0.57619125 4294183680
3.5876076 -0.12211366 -0.58450401 4294183680
3.5854044 -0.12192209 -0.59226722 4294183680
3.5738533 -0.12141462 -0.59777528 4294183680
3.5643923 -0.12097892 -0.60289848 4294053120
3.5459518 -0.12024084 -0.60575718 4294053120
3.5363669 -0.11980315 -0.60937744 4294053120
3.5356092 -0.11966407 -0.61379248 4294053120
3.5197353 -0.11901619 -0.6148544 4293922560
3.5280743 -0.11918452 -0.61941296 4294053120
3.5237353 -0.11892643 -0.62103099 4293922560
3.5234566 -0.11880536 -0.62263554 4293922560
3.5233018 -0.11868881 -0.62353468 4293922560
3.5483391 -0.11941725 -0.62815839 4294053120
3.5561562 -0.11956767 -0.62900472 4294053120
3.5551138 -0.1194215 -0.62755096 4294053120
3.5835204 -0.12026032 -0.63053936 4294183680
3.574132 -0.11983532 -0.62614292 4294183680
3.576205 -0.11979374 -0.62302637 4294183680
3.5866907 -0.12003286 -0.62063295 4294183680
3.5797658 -0.11969177 -0.61450636 4294183680
3.580426 -0.11960388 -0.60897404 4294183680
3.5893118 -0.11978977 -0.60411495 4294183680
3.5796211 -0.11935841 -0.59543729 4294183680
3.5799658 -0.11926103 -0.58775586 4294183680
3.5743067 -0.1189649 -0.57842416 4294183680
3.5496163 -0.118039 -0.56542689 4294053120
3.564929 -0.11843886 -0.55816233 4294053120
3.5749679 -0.11866374 -0.54936236 4294053120
3.5909889 -0.11908595 -0.54077309 4294183680
3.6025765 -0.11936117 -0.5308131 4294183680
3.5908866 -0.1188684 -0.51682705 4294183680
3.5634346 -0.11785729 -0.50012761 4294053120
3.5612822 -0.1176809 -0.48651266 4294053120
3.582478 -0.11827277 -0.47545785 4294053120
3.5866055 -0.11830282 -0.46150747 4294053120
3.5910783 -0.11834422 -0.44704798 4294183680
3.5585387 -0.11717161 -0.42761123 4294053120
3.5601027 -0.11711873 -0.41192102 4294053120
3.5953414 -0.11816854 -0.39949238 4294053120
3.5971606 -0.11812329 -0.38274467 4294053120
3.5896468 -0.11777312 -0.36461043 4294053120
3.5577786 -0.11662831 -0.34379947 4293922560
3.5824764 -0.117331 -0.32809678 4294053120
3.5841031 -0.11728042 -0.30979353 4294053120
3.5813301 -0.11708663 -0.29077837 4294053120
3.564101 -0.11642276 -0.27038187 4293922560
3.5746081 -0.11666174 -0.25182465 4294053120
3.5872231 -0.11696872 -0.23301631 4294053120
3.5836504 -0.11674976 -0.21285841 4294053120
3.5453916 -0.11540648 -0.19065253 4293922560
3.5757399 -0.11628802 -0.17195992 4294053120
3.5796931 -0.11631361 -0.15162361 4294053120
3.5836527 -0.11633924 -0.13107984 4294053120
3.5672202 -0.11570587 -0.10972696 4293922560
3.5977411 -0.11658919 -0.089610182 4294053120
3.597662 -0.11648389 -0.068464048 4294053120
3.5667512 -0.11538513 -0.046847492 4293922560
3.5973511 -0.11626849 -0.025980968 4294053120
3.6137567 -0.11669355 -0.00471059 4294053120
3.6139035 -0.11659515 0.016679201 4294053120
3.5388432 -0.11408186 0.03724682 4293792000
3.6296365 -0.11689358 0.059636943 4294183680
3.6499531 -0.11744114 0.081446655 4294183680
3.6181033 -0.11631692 0.10192735 4294183680
3.4560106 -0.11102731 0.11747663 4293530880
3.6385458 -0.11676352 0.14477678 4294183680
3.6385231 -0.11665866 0.16568424 4294183680
3.6053131 -0.11549471 0.18470494 4294053120
3.2683835 -0.10464974 0.18583274 4293008640
3.6307704 -0.11609873 0.22674301 4294183680
3.6382465 -0.11623231 0.24725476 4294183680
3.5699003 -0.11395457 0.26200184 4294053120
3.2825007 -0.10472222 0.25844669 4293008640
3.6488988 -0.11625587 0.30656177 4294314240
3.6555667 -0.11636184 0.32603565 4294314240
3.6090534 -0.1147825 0.34019744 4294183680
3.4560492 -0.10983521 0.34293517 4293661440
3.3038101 -0.1049208 0.34386763 4293139200
3.6492574 -0.115738 0.39717391 4294314240
3.6237137 -0.11482531 0.41113916 4294183680
3.5914588 -0.11370224 0.4236182 4294053120
3.5085583 -0.11098526 0.42913568 4293792000
3.3579483 -0.10614175 0.42488348 4293269760
3.6394117 -0.11489368 0.4753783 4294314240
3.6401775 -0.11481032 0.4897944 4294314240
3.6369233 -0.11460046 0.50310326 4294314240
3.6091816 -0.11362267 0.51233637 4294183680
3.5784316 -0.11255198 0.52034998 4294053120
3.533854 -0.11105007 0.5255025 4293922560
3.6236062 -0.11375067 0.55017203 4294314240
3.6351464 -0.11400245 0.56264102 4294314240
3.636143 -0.11392416 0.57286477 4294314240
3.6223352 -0.11338393 0.58005965 4294314240
3.6141653 -0.11301981 0.5874303 4294314240
3.622772 -0.11317787 0.5968464 4294314240
3.6181376 -0.11292345 0.60339546 4294314240
3.5996017 -0.11223724 0.60687888 4294183680
3.5948501 -0.11197948 0.6119374 4294183680
3.5989249 -0.11199523 0.61778212 4294183680
3.6031125 -0.11201385 0.62293422 4294183680
3.5764265 -0.11107686 0.62199455 4294183680
3.5759315 -0.11095051 0.62485474 4294183680
3.5755591 -0.11082761 0.62700254 4294183680
3.5713735 -0.11058676 0.62774336 4294183680
3.6012459 -0.11139507 0.63374025 4294183680
3.6012495 -0.11128187 0.6337406 4294183680
3.5866132 -0.11071822 0.63042235 4294183680
3.5995154 -0.11100092 0.63120383 4294183680
3.5861125 -0.11047535 0.62663269 4294183680
3.5951996 -0.11063957 0.62525851 4294183680
3.609128 -0.11095109 0.62397188 4294314240
3.6156704 -0.11103544 0.62065452 4294314240
3.6161442 -0.11093361 0.61556011 4294314240
3.6180303 -0.11087448 0.60998309 4294314240
3.6257062 -0.11099141 0.60465372 4294314240
3.6265559 -0.11089959 0.59746522 4294314240
3.6090927 -0.11025023 0.5866003 4294183680
3.595438 -0.10971741 0.57574499 4294183680
3.6011269 -0.10977238 0.56733972 4294183680
3.6061785 -0.10980734 0.55814922 4294183680
3.6237133 -0.1102198 0.55018228 4294314240
3.6251776 -0.1101445 0.53908455 4294314240
3.621954 -0.10992709 0.5266763 4294314240
3.5852942 -0.10804636 0.43146878 4294053120
3.6083426 -0.10861664 0.41828597 4294183680
3.6255441 -0.10901006 0.40377477 4294183680
3.6205382 -0.10873786 0.38628086 4294183680
3.5876045 -0.10763142 0.365554 4294053120
3.6056087 -0.1080471 0.34968507 4294183680
3.6128247 -0.1081398 0.3322553 4294183680
3.6074095 -0.10785573 0.31328538 4294183680
3.5757408 -0.10679107 0.29187837 4294053120
3.5966668 -0.1072908 0.27450264 4294053120
3.612304 -0.10763203 0.25622469 4294183680
3.6182599 -0.10768512 0.23685993 4294183680
3.5758138 -0.10630478 0.21426255 4294053120
3.6087046 -0.10715491 0.19600497 4294053120
3.6174238 -0.10728878 0.17598258 4294183680
3.615247 -0.10710049 0.15519874 4294183680
3.5824649 -0.10601043 0.13312794 4294053120
3.5923769 -0.10617915 0.11263537 4294053120
3.5938919 -0.10610026 0.091688178 4294053120
3.5935576 -0.10596693 0.070585676 4294053120
3.5688689 -0.10511926 0.049070206 4293922560
3.5786545 -0.1052832 0.028067019 4293922560
3.5841289 -0.1053203 0.0069069676 4294053120
3.5459723 -0.10408185 -0.014160481 4293922560
3.5829287 -0.10503872 -0.035494432 4294053120
3.5856659 -0.10499533 -0.056693621 4294053120
3.5886004 -0.10495751 -0.077870116 4294053120
3.5496802 -0.10370202 -0.097852938 4293922560
3.5832267 -0.10455476 -0.11968381 4294053120
3.5973768 -0.10484236 -0.1410207 4294053120
3.5991347 -0.10476987 -0.16181563 4294053120
3.5461712 -0.10311306 -0.17969522 4293922560
3.5881562 -0.10420565 -0.20210931 4294053120
3.5784125 -0.10380138 -0.22158505 4294053120
3.5846634 -0.10385932 -0.24178866 4294053120
3.5698447 -0.10330985 -0.26026726 4293922560
3.6055372 -0.10421528 -0.28224629 4294053120
3.6192546 -0.10448672 -0.30246663 4294183680
3.6185179 -0.10434237 -0.32122055 4294183680
3.5802667 -0.10312238 -0.33610171 4294053120
3.5918033 -0.10333132 -0.35513926 4294053120
3.6022685 -0.10350903 -0.37378883 4294183680
3.6030803 -0.10341037 -0.39108109 4294183680
3.6001439 -0.10320488 -0.40752441 4294183680
3.5569851 -0.10185308 -0.41876209 4294053120
3.6065559 -0.103145 -0.44045091 4294183680
3.6168704 -0.10331728 -0.45712432 4294183680
3.6117365 -0.10305025 -0.47135937 4294183680
3.6227889 -0.10324313 -0.48719582 4294183680
3.606164 -0.1026511 -0.49874792 4294183680
3.5774817 -0.10171912 -0.5079028 4294053120
3.5766714 -0.10157743 -0.52032405 4294053120
3.5924363 -0.10190423 -0.53461063 4294183680
3.5872219 -0.10163846 -0.54520702 4294183680
3.5815802 -0.10136131 -0.55508208 4294183680
3.5870774 -0.10139834 -0.5660432 4294183680
3.5818694 -0.1011344 -0.57466948 4294183680
3.5798001 -0.10095925 -0.5831182 4294183680
3.5771766 -0.10076902 -0.59079313 4294183680
3.5753858 -0.10060264 -0.59791291 4294183680
3.5596216 -0.10004572 -0.60197395 4294053120
3.5541959 -0.099779114 -0.60704368 4294053120
3.5358672 -0.099153005 -0.60917163 4294053120
3.5323062 -0.098940209 -0.61309946 4294053120
3.5454507 -0.099193297 -0.61921817 4294053120
3.5400021 -0.098928623 -0.62138218 4294053120
3.5346758 -0.098668061 -0.62283438 4294053120
3.5343957 -0.098548256 -0.62444359 4294053120
3.5253801 -0.098186649 -0.62378019 4294053120
3.5302711 -0.098211087 -0.62484282 4294053120
3.5380883 -0.098316543 -0.62569189 4294053120
3.5557489 -0.098693848 -0.62754071 4294053120
3.5654533 -0.098850831 -0.6272431 4294183680
3.5707307 -0.098885521 -0.62542635 4294183680
3.5747859 -0.098886587 -0.62265849 4294183680
3.5828252 -0.098997355 -0.61984468 4294183680
3.5754755 -0.098685138 -0.61365181 4294183680
3.5850809 -0.098839089 -0.60964614 4294183680
3.5741787 -0.098430574 -0.60145503 4294183680
3.5793548 -0.098463371 -0.59527743 4294183680
3.5742753 -0.098215662 -0.58670908 4294183680
3.5640867 -0.097828992 -0.57666081 4294053120
3.5546842 -0.097464725 -0.56612277 4294053120
3.5556815 -0.097384885 -0.5566085 4294053120
3.5655944 -0.097548127 -0.54781771 4294053120
3.5866783 -0.098014973 -0.54001981 4294183680
3.601923 -0.09832219 -0.53061342 4294183680
3.5816226 -0.097663939 -0.51539528 4294053120
3.5596037 -0.096960589 -0.49949312 4294053120
3.5569541 -0.096783452 -0.48582718 4294053120
3.5632856 -0.096849732 -0.47282237 4294053120
3.5921905 -0.097525991 -0.46213371 4294183680
3.5827777 -0.097166337 -0.44592848 4294053120
3.5492346 -0.096156731 -0.42641085 4293922560
3.5598083 -0.09633778 -0.41180503 4294053120
3.5897071 -0.09703847 -0.39878792 4294053120
3.596493 -0.097116359 -0.38259694 4294053120
3.5855162 -0.096717104 -0.36411828 4294053120
3.5394909 -0.0953786 -0.34196687 4293922560
3.5755427 -0.096242078 -0.32739627 4294053120
3.570781 -0.096011296 -0.30858123 4294053120
3.5680006 -0.095833935 -0.28963864 4294053120
3.545778 -0.095137641 -0.26893911 4293922560
3.5752256 -0.095821247 -0.25181431 4294053120
3.5828543 -0.095921829 -0.23268305 4294053120
3.5862765 -0.095910117 -0.21296692 4294053120
3.5360198 -0.094470888 -0.19010761 4293922560
3.5622892 -0.095067441 -0.17127605 4293922560
3.5803082 -0.095443666 -0.15161325 4294053120
3.580272 -0.095340356 -0.13092411 4294053120
3.5577161 -0.094640851 -0.10940745 4293922560
3.5879536 -0.095339037 -0.089342602 4294053120
3.5892823 -0.095271751 -0.068284124 4294053120
3.5623629 -0.094458893 -0.046772439 4293922560
3.5889685 -0.095058724 -0.025907168 4294053120
3.6003778 -0.095256843 -0.0046842787 4294053120
3.6016111 -0.095186628 0.016627936 4294053120
3.5344474 -0.093318969 0.037203625 4293792000
3.6265564 -0.095635995 0.059586115 4294183680
3.6305847 -0.095638148 0.081008159 4294183680
3.6087244 -0.094961926 0.10165482 4294053120
3.4376137 -0.090381891 0.11683849 4293530880
3.6205933 -0.095065929 0.14404589 4294183680
3.6244986 -0.095064342 0.16502616 4294183680
3.5564413 -0.093185768 0.18217386 4293922560
3.268935 -0.085594378 0.18584219 4293008640
3.6263938 -0.094802089 0.22644137 4294183680
3.6199093 -0.094529405 0.2459752 4294183680
3.5783224 -0.093345575 0.26258716 4294053120
3.2591345 -0.084964424 0.25657004 4293008640
3.639636 -0.094727747 0.30574164 4294183680
3.6273038 -0.094303504 0.32346788 4294183680
3.6041906 -0.093601115 0.339692 4294183680
3.4327526 -0.089070231 0.3405737 4293530880
3.2804992 -0.085043877 0.341391 4293008640
3.6390121 -0.094184168 0.39600214 4294314240
3.626317 -0.093751393 0.41137663 4294183680
3.5858188 -0.092604518 0.4228923 4294053120
3.4853272 -0.089919515 0.42623103 4293792000
3.4461401 -0.088812284 0.43598908 4293661440
3.6305974 -0.093435727 0.4741579 4294314240
3.6322885 -0.093371905 0.48866165 4294314240
3.6137598 -0.092790961 0.49982452 4294183680
3.5860245 -0.09197583 0.50897324 4294183680
3.5691299 -0.091438457 0.51892114 4294053120
3.5205939 -0.090095982 0.5234533 4293922560
3.6204667 -0.092531167 0.54961497 4294314240
3.6142685 -0.092265122 0.55932623 4294183680
3.6130409 -0.092125267 0.56914014 4294314240
3.622541 -0.092257068 0.58000773 4294314240
3.6147585 -0.091950431 0.58744073 4294314240
3.6095564 -0.091709182 0.59458107 4294314240
3.6088693 -0.091581926 0.60176098 4294314240
3.5854039 -0.090879776 0.60439563 4294183680
3.5942998 -0.090994045 0.61175412 4294183680
3.584733 -0.090642825 0.61525488 4294183680
3.5800581 -0.09041477 0.61885619 4294183680
3.588306 -0.090511039 0.62397015 4294183680
3.5927324 -0.090510629 0.62769997 4294183680
3.5825112 -0.090142801 0.62813038 4294183680
3.582262 -0.090024628 0.62956613 4294183680
3.5782001 -0.089810878 0.62959141 4294183680
3.578203 -0.089698404 0.6295917 4294183680
3.5734088 -0.089466058 0.6280092 4294183680
3.5912349 -0.089796498 0.62965983 4294183680
3.6041381 -0.090003103 0.62969249 4294314240
3.5992329 -0.089766532 0.62586975 4294183680
3.5998433 -0.08966662 0.62227625 4294183680
3.6113255 -0.089835443 0.6198191 4294314240
3.6107259 -0.089704469 0.6145491 4294314240
3.6042461 -0.089427993 0.60757107 4294183680
3.6119304 -0.089500844 0.60226923 4294314240
3.6177642 -0.089527279 0.59593117 4294314240
3.6002944 -0.088979878 0.58508641 4294183680
3.5873446 -0.088544287 0.57436699 4294183680
3.5918262 -0.088536769 0.56579375 4294183680
3.5982847 -0.088577062 0.55684847 4294183680
3.6156113 -0.088882476 0.54887462 4294183680
3.6196983 -0.088862985 0.53819418 4294314240
3.6154847 -0.088640422 0.525662 4294183680
3.5686774 -0.086729519 0.42940998 4294053120
3.6034474 -0.087449029 0.41766262 4294183680
3.6198311 -0.087722614 0.40308496 4294183680
3.6040878 -0.08722125 0.38447398 4294183680
3.5759234 -0.086422056 0.36431563 4294053120
3.5827887 -0.086465709 0.34742522 4294053120
3.6030262 -0.086829342 0.33131158 4294053120
3.5920415 -0.086443827 0.31191051 4294053120
3.561923 -0.085601389 0.29071361 4293922560
3.5846913 -0.086023584 0.2735548 4294053120
3.590641 -0.086043082 0.25465602 4294053120
3.5999928 -0.086143032 0.23563543 4294053120
3.5713799 -0.085339658 0.21397328 4293922560
3.6062665 -0.086045563 0.19585219 4294053120
3.6179848 -0.08619976 0.17599306 4294183680
3.6108129 -0.085905917 0.15499413 4294053120
3.5667741 -0.084741063 0.1325323 4293922560
3.5839388 -0.085023709 0.11236247 4294053120
3.5895364 -0.0850325 0.091572575 4294053120
3.5801182 -0.084687471 0.070319034 4294053120
3.559422 -0.084078036 0.048941486 4293922560
3.5792048 -0.084419832 0.028077383 4293922560
3.5756817 -0.084214181 0.0068984875 4293922560
3.537519 -0.083198324 -0.014115856 4293792000
3.5634842 -0.083683252 -0.035289537 4293922560
3.5613115 -0.083510026 -0.056294009 4293922560
3.5741565 -0.083686784 -0.077537179 4293922560
3.5452254 -0.08289104 -0.097705871 4293922560
3.5737813 -0.083432436 -0.11934163 4293922560
3.5920177 -0.083732627 -0.1407799 4294053120
3.6009414 -0.083815992 -0.16186157 4294053120
3.54671 -0.082438596 -0.17968494 4293922560
3.5737283 -0.082940847 -0.20125872 4293922560
3.5698876 -0.082729958 -0.22101516 4293922560
3.5802188 -0.082845666 -0.24144295 4294053120
3.5563471 -0.082174666 -0.25923663 4293922560
3.5961146 -0.082965985 -0.28145784 4294053120
3.6058526 -0.083066575 -0.30129367 4294053120
3.6051214 -0.0829271 -0.31997567 4294183680
3.5708516 -0.082021549 -0.33515924 4294053120
3.5823939 -0.082163692 -0.35414752 4294053120
3.5991311 -0.082423583 -0.37339765 4294053120
3.5986507 -0.08229091 -0.39053249 4294183680
3.600683 -0.082215548 -0.40751398 4294183680
3.5575171 -0.081115201 -0.41875178 4294053120
3.5971706 -0.081893511 -0.43923101 4294183680
3.6124504 -0.082118258 -0.45648831 4294183680
3.6172316 -0.082105182 -0.47199452 4294183680
3.6054151 -0.081717856 -0.48478109 4294183680
3.6066999 -0.081626527 -0.49873745 4294183680
3.5780129 -0.080861658 -0.50789243 4294053120
3.5772016 -0.080724679 -0.52031368 4294053120
3.5830793 -0.080737956 -0.5331313 4294183680
3.5828102 -0.080613583 -0.54444689 4294183680
3.5870492 -0.080590293 -0.55583596 4294183680
3.5787184 -0.080286548 -0.56463277 4294183680
3.5875497 -0.08036606 -0.57548422 4294183680
3.575393 -0.079978384 -0.58230549 4294183680
3.5707111 -0.079757892 -0.58963013 4294183680
3.5719662 -0.079669744 -0.59724408 4294183680
3.5552146 -0.07918299 -0.6011315 4294053120
3.5547163 -0.079057179 -0.60703337 4294053120
3.541311 -0.078646667 -0.61000866 4294053120
3.5328221 -0.078345813 -0.61308926 4294053120
3.5410435 -0.078413844 -0.61834925 4294053120
3.5316551 -0.078094468 -0.61981881 4294053120
3.5312517 -0.077973351 -0.62213129 4294053120
3.5309711 -0.077855319 -0.62373877 4294053120
3.5347528 -0.077826604 -0.6253351 4294053120
3.5258603 -0.077520907 -0.62396282 4294053120
3.5386007 -0.077688441 -0.62568164 4294053120
3.5424786 -0.077662319 -0.62510175 4294053120
3.5561213 -0.077848911 -0.62550336 4294053120
3.5673065 -0.077981591 -0.62472719 4294183680
3.5654511 -0.077830844 -0.62093538 4294183680
3.5695481 -0.077809617 -0.61745214 4294183680
3.5809164 -0.077945888 -0.61448568 4294183680
3.5767243 -0.07774546 -0.6081298 4294183680
3.5746911 -0.077592246 -0.60144466 4294183680
3.5798671 -0.077594899 -0.59526706 4294183680
3.5761781 -0.077406764 -0.58692676 4294183680
3.5596607 -0.076943442 -0.57585341 4294053120
3.5453174 -0.076528125 -0.56454277 4294053120
3.5561879 -0.076654427 -0.55659819 4294053120
3.5662243 -0.07676255 -0.54782617 4294053120
3.5921311 -0.077209607 -0.54075229 4294183680
3.5987754 -0.077244259 -0.530065 4294183680
3.5781715 -0.076698035 -0.51481634 4294053120
3.5556533 -0.076112583 -0.49885899 4294053120
3.5475507 -0.075835153 -0.48446646 4294053120
3.5687442 -0.076180324 -0.4734683 4294053120
3.5840709 -0.076400153 -0.46101579 4294053120
3.583282 -0.076278217 -0.44591808 4294053120
3.5407994 -0.075275242 -0.42532951 4293922560
3.5612235 -0.075602889 -0.4119004 4294053120
3.586535 -0.076032594 -0.39837009 4294053120
3.5933194 -0.076071031 -0.38219622 4294053120
3.580826 -0.075704046 -0.3635819 4294053120
3.539767 -0.074738316 -0.34193558 4293922560
3.5660849 -0.075187616 -0.32647657 4294053120
3.5627224 -0.075014226 -0.30783346 4293922560
3.5640719 -0.074939705 -0.2892701 4293922560
3.5462706 -0.074465446 -0.26892883 4293922560
3.5721419 -0.07490287 -0.25155261 4294053120
3.5693829 -0.074742861 -0.23176855 4293922560
3.5718021 -0.074690804 -0.21207067 4293922560
3.5365086 -0.073855698 -0.19009735 4293922560
3.5668621 -0.074383847 -0.17146111 4293922560
3.5718117 -0.074384354 -0.15122397 4293922560
3.5611763 -0.074062414 -0.13020125 4293922560
3.5543318 -0.073819421 -0.10927876 4293922560
3.5798612 -0.074244425 -0.08912003 4294053120
3.589555 -0.074341945 -0.068269581 4294053120
3.5351419 -0.073120721 -0.046403307 4293792000
3.5817847 -0.073977746 -0.0258427 4294053120
3.5928676 -0.074102938 -0.0046647871 4294053120
3.592499 -0.073993005 0.01659245 4294053120
3.4675682 -0.071335927 0.036493704 4293661440
3.6044681 -0.074032634 0.059222065 4294053120
3.6270015 -0.074389353 0.080927119 4294183680
3.590718 -0.073547035 0.10114151 4294053120
3.3258057 -0.068057597 0.11301529 4293139200
3.6080091 -0.073693119 0.14353441 4294053120
3.6150007 -0.073731773 0.16458057 4294053120
3.564755 -0.072610922 0.18258652 4293922560
3.3463149 -0.068091877 0.19023685 4293269760
3.6115041 -0.073350623 0.22548975 4294053120
3.6110787 -0.073238395 0.24535148 4294183680
3.5685492 -0.072278321 0.26184389 4293922560
3.3363974 -0.067508049 0.26263738 4293139200
3.6297512 -0.073301531 0.30487978 4294183680
3.6235242 -0.073071919 0.32309765 4294183680
3.6185918 -0.072868407 0.34101588 4294183680
3.4985726 -0.070364378 0.34707549 4293792000
3.2570696 -0.065442145 0.33891425 4293008640
3.6145244 -0.072472267 0.39329296 4294183680
3.6133156 -0.07234288 0.40985644 4294183680
3.5813293 -0.071601674 0.42231676 4294053120
3.5377688 -0.070632406 0.43260261 4293922560
3.4227903 -0.068250284 0.43298528 4293530880
3.6212401 -0.072076119 0.47288305 4294183680
3.6188951 -0.071923025 0.48680487 4294183680
3.6151257 -0.0717417 0.49995822 4294183680
3.5990839 -0.071318574 0.51077121 4294183680
3.5720425 -0.070679776 0.51928705 4294053120
3.5012765 -0.06918364 0.5205214 4293792000
3.6061134 -0.071134627 0.54737359 4294183680
3.6147408 -0.071195446 0.55933672 4294183680
3.605624 -0.070908561 0.56790751 4294183680
3.6091917 -0.070869476 0.57780451 4294183680
3.6063471 -0.070704877 0.58600736 4294183680
3.5962143 -0.070398308 0.59231573 4294183680
3.585669 -0.070083991 0.5978235 4294183680
3.5944624 -0.070145071 0.60585517 4294183680
3.5799801 -0.069754519 0.60924745 4294183680
3.5840588 -0.069723368 0.61507004 4294183680
3.5755939 -0.069449462 0.61801481 4294183680
3.5749776 -0.069326989 0.62158185 4294183680
3.5882702 -0.069471829 0.62684977 4294183680
3.5829713 -0.06925831 0.62814075 4294183680
3.5787826 -0.069066048 0.62888414 4294183680
3.5688117 -0.068762958 0.62786871 4294183680
3.5688138 -0.06865079 0.62786907 4294183680
3.5815911 -0.068782069 0.62937778 4294183680
3.568058 -0.068410851 0.62552512 4294183680
3.5858843 -0.068636656 0.6264326 4294183680
3.5947657 -0.06869109 0.62502354 4294183680
3.6003006 -0.068681151 0.62228668 4294183680
3.6019294 -0.068596564 0.61813784 4294183680
3.5963986 -0.068376236 0.61204243 4294183680
3.6047018 -0.068416849 0.6075815 4294183680
3.5975933 -0.068166368 0.59981221 4294183680
3.6034224 -0.068159193 0.5935033 4294183680
3.6047723 -0.068067238 0.58575112 4294183680
3.5877955 -0.067631565 0.57437736 4294183680
3.5796952 -0.067362651 0.56382149 4294183680
3.584903 -0.067342363 0.55471736 4294183680
3.606179 -0.067620821 0.54738384 4294183680
3.6142204 -0.067651391 0.53732252 4294183680
3.6100852 -0.067455031 0.52482146 4294183680
3.5645926 -0.065842256 0.42887533 4294053120
3.5929217 -0.066241264 0.41640052 4294053120
3.604079 -0.066324137 0.40129021 4294183680
3.5986528 -0.066103362 0.38385677 4294053120
3.5674107 -0.065412447 0.36341307 4294053120
3.5872867 -0.065652944 0.34782961 4294053120
3.597194 -0.065710977 0.33074448 4294053120
3.586591 -0.065396599 0.31140885 4294053120
3.5590587 -0.064776659 0.2904543 4293922560
3.5737402 -0.064920284 0.2726948 4294053120
3.5856822 -0.065013416 0.25428307 4294053120
3.5864627 -0.064904913 0.2347299 4294053120
3.5628312 -0.06435816 0.21344432 4293922560
3.5977185 -0.064861014 0.19537351 4294053120
3.5958638 -0.06470456 0.17490315 4294053120
3.6010413 -0.064673603 0.15456501 4294053120
3.5622089 -0.063858487 0.1323563 4293922560
3.5702932 -0.063879833 0.11192943 4293922560
3.5828815 -0.063980468 0.09140113 4294053120
3.5626419 -0.063498974 0.069974914 4293922560
3.5607705 -0.063343406 0.048964653 4293922560
3.5710456 -0.063402154 0.028019 4293922560
3.5663931 -0.063197426 0.0068884883 4293922560
3.535681 -0.062535211 -0.01409695 4293792000
3.5560346 -0.062770456 -0.0352026 4293922560
3.5686433 -0.062868789 -0.056391589 4293922560
3.5701425 -0.062772274 -0.077431321 4293922560
3.5456462 -0.062222585 -0.097695567 4293922560
3.5701208 -0.062526517 -0.11919565 4293922560
3.5903542 -0.062755197 -0.14068802 4294053120
3.5896914 -0.062620491 -0.16132861 4294053120
3.5419164 -0.06167122 -0.17941166 4293922560
3.5575016 -0.061818819 -0.20031427 4293922560
3.5734217 -0.061971232 -0.22119692 4293922560
3.568228 -0.061759721 -0.24059825 4293922560
3.552278 -0.061364166 -0.25890028 4293922560
3.5942547 -0.061961651 -0.28126937 4294053120
3.5986252 -0.061913818 -0.30064583 4294053120
3.5959213 -0.061745204 -0.31911349 4294053120
3.562799 -0.06105924 -0.33435601 4293922560
3.5737689 -0.061124645 -0.35324541 4294053120
3.5910065 -0.061295755 -0.37250295 4294053120
3.5922296 -0.061194964 -0.38978156 4294053120
3.5894864 -0.061027341 -0.40619197 4294053120
3.5353696 -0.059994444 -0.41609177 4293922560
3.5935292 -0.060853589 -0.43872628 4294183680
3.5957167 -0.060769655 -0.45431504 4294183680
3.6046722 -0.060799193 -0.47029421 4294183680
3.6063261 -0.060706344 -0.48483729 4294183680
3.6001678 -0.060483318 -0.49776831 4294183680
3.5546629 -0.059605863 -0.50451577 4294053120
3.5687051 -0.059721205 -0.51901037 4294053120
3.5759821 -0.059723716 -0.53200608 4294053120
3.584121 -0.059740316 -0.54457337 4294183680
3.5894301 -0.059709948 -0.55613071 4294183680
3.5800354 -0.059437156 -0.56476575 4294183680
3.5828035 -0.05936541 -0.57464868 4294183680
3.5753751 -0.059126392 -0.5822264 4294183680
3.573174 -0.058973853 -0.5899592 4294183680
3.5566893 -0.058588196 -0.59461641 4294053120
3.5506854 -0.05837502 -0.60028905 4294053120
3.5551162 -0.058332559 -0.60702306 4294053120
3.5367815 -0.057920054 -0.60915107 4294053120
3.5135143 -0.057429042 -0.60966527 4293922560
3.5325747 -0.05762532 -0.61679351 4294053120
3.5271254 -0.05742462 -0.61894578 4294053120
3.5105026 -0.057044398 -0.61840224 4293922560
3.5013609 -0.056786023 -0.61843723 4293922560
3.5400689 -0.057297386 -0.62619436 4294053120
3.5262518 -0.056964409 -0.62395257 4294053120
3.5340695 -0.056978911 -0.62480223 4294053120
3.5428705 -0.057008997 -0.62509143 4294053120
3.55159 -0.057037596 -0.62462831 4294053120
3.5578506 -0.057026897 -0.62299478 4294053120
3.5580487 -0.056919903 -0.61956978 4294053120
3.5699403 -0.056998588 -0.61744177 4294183680
3.5763817 -0.056990683 -0.61363107 4294183680
3.568167 -0.056751359 -0.60660034 4294053120
3.5671899 -0.056626931 -0.60010868 4294053120
3.5663629 -0.05650527 -0.59295005 4294053120
3.5587211 -0.05627704 -0.5839923 4294053120
3.5620189 -0.05622099 -0.57616132 4294053120
3.5461977 -0.05586613 -0.5646112 4294053120
3.5375867 -0.05562507 -0.55362141 4294053120
3.5586264 -0.055846676 -0.54659152 4294053120
3.5799854 -0.056072298 -0.53885841 4294183680
3.5857203 -0.056054533 -0.52807808 4294183680
3.5745118 -0.055774331 -0.51422507 4294053120
3.5459161 -0.055226341 -0.49743158 4294053120
3.5427606 -0.055072792 -0.48375136 4293922560
3.5620983 -0.055266052 -0.47252733 4294053120
3.570977 -0.055297699 -0.45927528 4294053120
3.5718772 -0.055206701 -0.44444376 4294053120
3.5305531 -0.054469455 -0.42404571 4293922560
3.5571342 -0.054772492 -0.41137433 4294053120
3.5743184 -0.054930892 -0.39696345 4294053120
3.5860679 -0.055005785 -0.38137579 4294053120
3.5655856 -0.054590501 -0.36198926 4294053120
3.525769 -0.053883407 -0.34054035 4293922560
3.5544221 -0.054215129 -0.32536682 4293922560
3.5610154 -0.054212119 -0.30764365 4293922560
3.5577803 -0.054060712 -0.28872016 4293922560
3.5414391 -0.053712416 -0.26852503 4293922560
3.5634525 -0.053941306 -0.2509059 4293922560
3.5667596 -0.053888626 -0.23156421 4293922560
3.5512013 -0.053553604 -0.21081941 4293922560
3.5228987 -0.053029254 -0.18933859 4293792000
3.5631514 -0.053528499 -0.17125534 4293922560
3.5681086 -0.053500436 -0.1510419 4293922560
3.5615454 -0.053301115 -0.13019088 4293922560
3.5497024 -0.053023983 -0.10911573 4293922560
3.56615 -0.05316605 -0.088761695 4293922560
3.575489 -0.053202283 -0.067987204 4293922560
3.5355058 -0.052511275 -0.046393011 4293792000
3.5672417 -0.052877281 -0.025727302 4293922560
3.5772412 -0.052922457 -0.0046362914 4293922560
3.5834732 -0.052911874 0.016557958 4294053120
3.4539249 -0.050915703 0.036354121 4293530880
3.5944276 -0.052867573 0.059059903 4294053120
3.6133759 -0.053041104 0.080623262 4294053120
3.5995855 -0.052737642 0.10139275 4294053120
3.4144447 -0.049949143 0.11603966 4293400320
3.5997574 -0.052534707 0.14320086 4294053120
3.5960481 -0.052378282 0.16370891 4294053120
3.5588403 -0.051738888 0.18227467 4293922560
3.3326762 -0.048381943 0.18945009 4293139200
3.6055789 -0.052206438 0.22510684 4294053120
3.6102247 -0.052169621 0.24527921 4294053120
3.5502419 -0.051207785 0.26048246 4293922560
3.2309897 -0.046547424 0.25430974 4292878080
3.6238348 -0.052052047 0.30436227 4294183680
3.6288648 -0.052019026 0.32355279 4294183680
3.6040194 -0.051561564 0.33961761 4294183680
3.489965 -0.049841929 0.34619632 4293792000
3.2573922 -0.046453636 0.33892375 4293008640
3.6198518 -0.051471237 0.39384475 4294183680
3.6047306 -0.051152967 0.40885186 4294183680
3.5816822 -0.050724011 0.42232719 4294053120
3.5381167 -0.050008573 0.43261293 4293922560
3.4231262 -0.048296377 0.43299526 4293530880
3.6166375 -0.05089682 0.47224581 4294183680
3.6192489 -0.050826609 0.48681542 4294183680
3.6065643 -0.050543368 0.49873525 4294183680
3.5905249 -0.05021406 0.50951654 4294183680
3.5624948 -0.049719468 0.51785821 4294053120
3.4976604 -0.048717968 0.51994318 4293792000
3.6025083 -0.050058309 0.54678363 4294183680
3.5953276 -0.04985163 0.55628783 4294183680
3.602021 -0.049835425 0.56729543 4294183680
3.5897927 -0.04955944 0.57465249 4294183680
3.5937636 -0.049505144 0.58391595 4294183680
3.5866933 -0.04929978 0.59070063 4294183680
3.5953889 -0.049308904 0.59939784 4294183680
3.5898759 -0.049124356 0.60503435 4294183680
3.5852504 -0.048951808 0.61009693 4294183680
3.5844002 -0.048830181 0.61508048 4294183680
3.5660808 -0.048472822 0.61632168 4294053120
3.5703912 -0.048420507 0.62073559 4294183680
3.5698953 -0.048303079 0.62358981 4294183680
3.5793705 -0.04831877 0.62746036 4294183680
3.5741961 -0.048137896 0.62802899 4294183680
3.5740714 -0.048024245 0.62874568 4294183680
3.5642252 -0.047781028 0.62701291 4294053120
3.5730636 -0.047785792 0.62783021 4294183680
3.5809164 -0.047776591 0.62773192 4294183680
3.5812943 -0.047667891 0.6255824 4294183680
3.5911601 -0.047683693 0.62434864 4294183680
3.585856 -0.047499303 0.6197418 4294183680
3.5933943 -0.047483105 0.61662567 4294183680
3.5918031 -0.047346774 0.61121386 4294183680
3.5912311 -0.047223471 0.60526448 4294183680
3.5981417 -0.047197141 0.59985876 4294183680
3.5939653 -0.047026217 0.59190083 4294183680
3.6001687 -0.046989508 0.58495945 4294183680
3.5831881 -0.046652868 0.57359719 4294183680
3.5750844 -0.046431269 0.56305373 4294053120
3.5753491 -0.04631732 0.5531981 4294053120
3.6020577 -0.046541683 0.54671854 4294183680
3.6096041 -0.046519205 0.53659749 4294183680
3.59656 -0.046233594 0.52281702 4294183680
3.5599484 -0.045000043 0.42828804 4294053120
3.5872869 -0.045221739 0.41572016 4294053120
3.5936713 -0.045180313 0.400105 4294053120
3.5985651 -0.045119718 0.38382366 4294053120
3.5577803 -0.044492621 0.36240906 4293922560
3.5637193 -0.044445403 0.34552148 4293922560
3.578594 -0.044507697 0.32901341 4294053120
3.5715563 -0.044299539 0.31008464 4294053120
3.5548284 -0.043972939 0.2900933 4293922560
3.5639608 -0.043963332 0.27193379 4293922560
3.582907 -0.044072539 0.25407401 4294053120
3.5766754 -0.043874361 0.23407792 4294053120
3.5495963 -0.043423858 0.21264137 4293922560
3.5860546 -0.043742832 0.19473192 4294053120
3.5807858 -0.043556433 0.17416288 4294053120
3.5925822 -0.043575332 0.15419775 4294053120
3.5547845 -0.042999174 0.13207822 4293922560
3.5642819 -0.042990535 0.11174075 4293922560
3.566288 -0.042891942 0.090977773 4293922560
3.5668604 -0.042776138 0.070062757 4293922560
3.5560777 -0.042525772 0.048905481 4293922560
3.5573535 -0.042418517 0.027917258 4293922560
3.561918 -0.042349879 0.0068888459 4293922560
3.5219841 -0.041758511 -0.014033276 4293792000
3.5463388 -0.041922435 -0.035095025 4293922560
3.5449514 -0.041784257 -0.056006353 4293922560
3.5614483 -0.041854322 -0.077227436 4293922560
3.5369506 -0.041447651 -0.097439058 4293792000
3.5614281 -0.041609269 -0.11888668 4293922560
3.5716727 -0.041605111 -0.13993734 4293922560
3.580004 -0.041578323 -0.16087119 4294053120
3.5332258 -0.040919207 -0.1789479 4293792000
3.5577996 -0.041079011 -0.2003039 4293922560
3.5587499 -0.040968012 -0.22026296 4293922560
3.5595465 -0.040855322 -0.23998432 4293922560
3.542382 -0.040539235 -0.25814936 4293922560
3.5715377 -0.040747616 -0.27946287 4294053120
3.5859659 -0.040788323 -0.29955566 4294053120
3.575042 -0.040543605 -0.31722853 4294053120
3.5531371 -0.040176906 -0.3334136 4293922560
3.5670938 -0.040212028 -0.35254773 4294053120
3.5723171 -0.040149242 -0.37052768 4294053120
3.5745521 -0.040053166 -0.38782528 4294053120
3.5659328 -0.039837144 -0.40348873 4294053120
3.52672 -0.039284691 -0.4150317 4293922560
3.5819073 -0.039772518 -0.43726411 4294053120
3.5910485 -0.039752405 -0.45367903 4294053120
3.6019862 -0.039751556 -0.4698959 4294183680
3.5964899 -0.039571289 -0.48346773 4294183680
3.5827148 -0.03930179 -0.49530911 4294053120
3.5455451 -0.038780302 -0.50317311 4294053120
3.5660195 -0.038883507 -0.51856846 4294053120
3.5672808 -0.038778991 -0.53066093 4294053120
3.5705667 -0.038696405 -0.5424636 4294053120
3.5760043 -0.038636915 -0.55399936 4294053120
3.565999 -0.038412806 -0.56249994 4294053120
3.5737667 -0.038378511 -0.57314569 4294053120
3.5657885 -0.038177252 -0.58061141 4294053120
3.5596435 -0.03799621 -0.587672 4294053120
3.5569699 -0.037852451 -0.59460604 4294053120
3.537647 -0.037534487 -0.59803092 4294053120
3.5241311 -0.037278868 -0.6016832 4293922560
3.5194716 -0.037116852 -0.60611677 4293922560
3.5285678 -0.037098516 -0.61221522 4294053120
3.5028338 -0.036718901 -0.61155087 4293922560
3.5023127 -0.036601841 -0.61454034 4293922560
3.5019114 -0.036486413 -0.61683321 4293922560
3.5055709 -0.036413077 -0.61912161 4293922560
3.4965518 -0.036210056 -0.61845058 4293922560
3.5265234 -0.036405973 -0.62394226 4294053120
3.5294175 -0.036324825 -0.62392288 4294053120
3.5207708 -0.03612677 -0.62114036 4293922560
3.5429976 -0.036241882 -0.62306154 4294053120
3.5473864 -0.036176115 -0.62110758 4294053120
3.5583196 -0.036176223 -0.61955935 4294053120
3.5599358 -0.036082651 -0.61565697 4294053120
3.567348 -0.036047243 -0.61202675 4294053120
3.5590723 -0.035855487 -0.60500062 4294053120
3.5636365 -0.035792083 -0.59945631 4294053120
3.562685 -0.035674147 -0.59228468 4294053120
3.5639219 -0.03557821 -0.58479023 4294053120
3.5436516 -0.035270941 -0.57314199 4294053120
3.5514002 -0.035240047 -0.56538564 4294053120
3.5378501 -0.035000749 -0.5536111 4294053120
3.5539486 -0.035051607 -0.5458234 4294053120
3.5664065 -0.035066433 -0.53676784 4294053120
3.5819421 -0.035110641 -0.52747321 4294183680
3.5569556 -0.034762826 -0.51165575 4294053120
3.5461769 -0.034553599 -0.49742123 4294053120
3.5297039 -0.034290627 -0.48192611 4293922560
3.5534372 -0.034413692 -0.47133568 4294053120
3.5671842 -0.034440342 -0.45874453 4294053120
3.5572522 -0.034241222 -0.44258493 4294053120
3.5258451 -0.0338393 -0.4234404 4293922560
3.543267 -0.033901036 -0.40973389 4293922560
3.5656316 -0.034008566 -0.39596176 4294053120
3.5644467 -0.033893768 -0.37904361 4294053120
3.5658419 -0.033803418 -0.36197886 4294053120
3.5120869 -0.033198245 -0.33918738 4293792000
3.5387468 -0.033344887 -0.32390195 4293922560
3.5503139 -0.033350114 -0.30668926 4293922560
3.5395229 -0.033148021 -0.28721175 4293922560
3.5277307 -0.032937471 -0.2674593 4293792000
3.5587173 -0.033121016 -0.25054541 4293922560
3.5570326 -0.033003505 -0.23090807 4293922560
3.5535352 -0.032869659 -0.21093228 4293922560
3.4927206 -0.032214131 -0.18769939 4293661440
3.5414236 -0.032556444 -0.17019306 4293922560
3.5448811 -0.032486595 -0.15004231 4293922560
3.5478034 -0.032411803 -0.1296718 4293922560
3.5349567 -0.032195102 -0.10864738 4293792000
3.5564873 -0.032287367 -0.088506475 4293922560
3.5661786 -0.032272659 -0.067796767 4293922560
3.5217514 -0.031775367 -0.046201527 4293792000
3.5660763 -0.032068674 -0.025706951 4293922560
3.5765736 -0.032060068 -0.0046248105 4293922560
3.5766313 -0.031958774 0.016534496 4293922560
3.4975348 -0.031161394 0.036828119 4293661440
3.579675 -0.031781793 0.058821589 4293922560
3.5996251 -0.031854142 0.080319367 4294053120
3.5758398 -0.031544436 0.10072389 4293922560
3.4006839 -0.02992215 0.11557196 4293400320
3.5860112 -0.031428471 0.14265288 4294053120
3.5917928 -0.031375945 0.16351408 4294053120
3.5590785 -0.03099215 0.18228507 4293922560
3.3229151 -0.028867437 0.18889084 4293139200
3.6008289 -0.031144861 0.22480518 4294053120
3.5967159 -0.031006636 0.24435394 4294053120
3.55917 -0.030585006 0.26113176 4293922560
3.3180106 -0.028444644 0.26116347 4293139200
3.622283 -0.030911775 0.30422229 4294183680
3.619143 -0.030780965 0.32267421 4294183680
3.5952954 -0.030476946 0.33878282 4294053120
3.4852173 -0.02945533 0.34571242 4293661440
3.2526314 -0.027422262 0.33841527 4293008640
3.6151164 -0.030328277 0.39331406 4294183680
3.5999959 -0.030098308 0.40829846 4294183680
3.5580797 -0.029648745 0.41952503 4294053120
3.5244486 -0.02926925 0.43092287 4293922560
3.4134254 -0.028259892 0.43174943 4293530880
3.6019959 -0.029692944 0.47031301 4294183680
3.6058638 -0.029618172 0.48499337 4294183680
3.6018412 -0.029479196 0.49806049 4294183680
3.5858023 -0.029243531 0.50882417 4294183680
3.5627203 -0.028952083 0.51786864 4294053120
3.4830446 -0.028209897 0.51774675 4293792000
3.6022391 -0.029053902 0.5467189 4294183680
3.6004941 -0.028932177 0.55706322 4294183680
3.5923686 -0.028759867 0.56574959 4294183680
3.5900166 -0.02863312 0.57466298 4294183680
3.598922 -0.028594362 0.58472866 4294183680
3.5819824 -0.028353054 0.58989829 4294183680
3.5724251 -0.028169813 0.59554142 4294183680
3.5851669 -0.028159443 0.6042136 4294183680
3.5667408 -0.027907591 0.60691893 4294053120
3.5658941 -0.027791537 0.61187643 4294053120
3.5613718 -0.027647058 0.6154803 4294053120
3.5607567 -0.027532263 0.61903262 4294053120
3.570112 -0.027492797 0.62360024 4294183680
3.5697377 -0.027378857 0.62574363 4294183680
3.5744116 -0.027302565 0.62803942 4294183680
3.5644381 -0.027115833 0.62702298 4294053120
3.5820141 -0.027134961 0.63011622 4294183680
3.5634284 -0.026883874 0.62610948 4294053120
3.5636799 -0.026772983 0.62468231 4294053120
3.5726416 -0.026725888 0.6240437 4294183680
3.581521 -0.026677251 0.62264574 4294183680
3.5771995 -0.026531257 0.61821902 4294183680
3.5837502 -0.026464241 0.61494434 4294183680
3.5831418 -0.026344609 0.60971397 4294183680
3.5865111 -0.026253328 0.60444373 4294183680
3.5944061 -0.026193952 0.59921128 4294183680
3.5941744 -0.026075661 0.59191138 4294183680
3.581624 -0.025869446 0.58192158 4294183680
3.5784581 -0.025730131 0.57281703 4294183680
3.5752902 -0.025590677 0.56306422 4294053120
3.5706131 -0.025440518 0.55244368 4294053120
3.5923774 -0.025474899 0.54522777 4294183680
3.5999191 -0.02540873 0.53513694 4294183680
3.586869 -0.025199389 0.52138823 4294183680
3.5412831 -0.024121061 0.42602724 4293922560
3.5795362 -0.024256814 0.41480857 4294053120
3.5889008 -0.024198201 0.39956176 4294053120
3.5838485 -0.024043618 0.38224182 4294053120
3.5484657 -0.023690091 0.36144969 4293922560
3.5539613 -0.023605671 0.34456581 4293922560
3.5819788 -0.023666978 0.32931748 4294053120
3.5667696 -0.023446888 0.30966204 4293922560
3.5406289 -0.023157395 0.28892747 4293922560
3.5591681 -0.023155181 0.2715632 4293922560
3.5659404 -0.023076722 0.25286549 4293922560
3.5748751 -0.023011338 0.23395775 4294053120
3.5348134 -0.02263698 0.21175279 4293792000
3.5672741 -0.022718998 0.19370961 4293922560
3.5896642 -0.02273602 0.17459716 4294053120
3.5732894 -0.022511529 0.15336923 4293922560
3.5399826 -0.022183878 0.13152947 4293922560
3.5594718 -0.022181528 0.11159376 4293922560
3.5623891 -0.022076935 0.090883352 4293922560
3.5570488 -0.021922123 0.069875225 4293922560
3.5463419 -0.021735353 0.048777837 4293922560
3.5471277 -0.021618042 0.027844239 4293922560
3.5521023 -0.021525571 0.0068782312 4293922560
3.5171654 -0.021196749 -0.014003921 4293792000
3.5374432 -0.021194935 -0.034996428 4293792000
3.5401332 -0.021088952 -0.0559179 4293792000
3.5516322 -0.021033993 -0.077002063 4293922560
3.5208757 -0.02073423 -0.096983999 4293792000
3.5536091 -0.020801151 -0.11861077 4293922560
3.5668566 -0.020754678 -0.13973211 4293922560
3.5661979 -0.020628486 -0.160235 4293922560
3.5184219 -0.020236757 -0.17818189 4293792000
3.547081 -0.020276755 -0.1996823 4293922560
3.5538123 -0.020192761 -0.21993709 4293922560
3.5447564 -0.020021033 -0.23896807 4293922560
3.5238254 -0.019784721 -0.25677803 4293792000
3.5617435 -0.019871732 -0.27867451 4293922560
3.5721898 -0.019807046 -0.29838282 4294053120
3.5662513 -0.019653346 -0.31642458 4293922560
3.5257139 -0.019314587 -0.33082002 4293792000
3.5573146 -0.019363362 -0.35155603 4293922560
3.5635371 -0.019275749 -0.36959079 4294053120
3.5647817 -0.019161716 -0.38673854 4294053120
3.5561666 -0.018996248 -0.4023563 4293922560
3.5219223 -0.018698409 -0.41443822 4293922560
3.5701687 -0.018828979 -0.43580279 4294053120
3.582289 -0.018771257 -0.45254263 4294053120
3.5872815 -0.018676659 -0.46794862 4294053120
3.582783 -0.018533945 -0.48159543 4294053120
3.5739667 -0.018370092 -0.49406835 4294053120
3.536799 -0.018065475 -0.50190043 4293922560
3.5473821 -0.018000571 -0.51582861 4294053120
3.5624998 -0.017957615 -0.52991605 4294053120
3.5608439 -0.017831834 -0.5409537 4294053120
3.5573914 -0.017697737 -0.551085 4294053120
3.5612226 -0.017599367 -0.56171173 4294053120
3.5650423 -0.017501015 -0.57171243 4294053120
3.5540929 -0.017332369 -0.57867354 4294053120
3.545393 -0.017175419 -0.58528632 4294053120
3.5521977 -0.017092248 -0.59377253 4294053120
3.5289307 -0.016868616 -0.59652281 4293922560
3.5292168 -0.016756013 -0.60251307 4293922560
3.5107579 -0.016557457 -0.60458136 4293922560
3.5188704 -0.016481904 -0.61049807 4293922560
3.4931364 -0.016252553 -0.60982347 4293922560
3.502466 -0.016183246 -0.61453009 4293922560
3.4971397 -0.016048113 -0.6159569 4293922560
3.5017838 -0.015957989 -0.61841673 4293922560
3.4868555 -0.01578157 -0.61670136 4293792000
3.4966698 -0.015714854 -0.61863154 4293922560
3.5119948 -0.015671857 -0.62081081 4293922560
3.5061486 -0.015536837 -0.61852801 4293922560
3.5249202 -0.01550809 -0.61985075 4293922560
3.5426111 -0.015473941 -0.62023616 4294053120
3.5401392 -0.015353865 -0.61636239 4294053120
3.5433207 -0.015258017 -0.6127519 4294053120
3.54877 -0.015171776 -0.60880858 4294053120
3.5454178 -0.015049178 -0.60264772 4294053120
3.5450466 -0.014939368 -0.59629905 4294053120
3.550004 -0.014851628 -0.59014517 4294053120
3.5443313 -0.014720965 -0.5815466 4294053120
3.5388603 -0.014591794 -0.57233465 4294053120
3.527842 -0.014441199 -0.56160814 4293922560
3.5281131 -0.014336201 -0.55205727 4293922560
3.5491498 -0.014312938 -0.54505521 4294053120
3.5616052 -0.014255337 -0.5360145 4294053120
3.5673306 -0.014171312 -0.52529383 4294053120
3.5521476 -0.014007123 -0.51093465 4294053120
3.512646 -0.013751654 -0.4926964 4293922560
3.5149803 -0.013656651 -0.47989032 4293922560
3.5387063 -0.013641863 -0.4693566 4293922560
3.5435188 -0.013555698 -0.45567867 4293922560
3.5484591 -0.01346998 -0.4414655 4293922560
3.5071166 -0.013215031 -0.4211691 4293792000
3.5287199 -0.013191002 -0.40802914 4293922560
3.555829 -0.01318575 -0.39484993 4293922560
3.5526528 -0.013071075 -0.37776738 4293922560
3.5582774 -0.012987944 -0.36118856 4293922560
3.5022655 -0.012688323 -0.33821809 4293792000
3.5339005 -0.012697267 -0.32343695 4293922560
3.5305204 -0.012583672 -0.30496201 4293922560
3.5296872 -0.012479159 -0.28639477 4293792000
3.5184479 -0.012339521 -0.26673731 4293792000
3.5368991 -0.012300627 -0.24899435 4293922560
3.5443139 -0.012223975 -0.23006622 4293922560
3.5436821 -0.012120396 -0.2103314 4293922560
3.4828618 -0.011819514 -0.18715461 4293661440
3.5225732 -0.011849142 -0.16927445 4293792000
3.5490048 -0.011833787 -0.15020028 4293922560
3.5370386 -0.011694325 -0.12926541 4293792000
3.5350823 -0.011587312 -0.10863701 4293792000
3.5466163 -0.011522802 -0.088249132 4293922560
3.556525 -0.011452629 -0.067602187 4293922560
3.5395896 -0.011299218 -0.046420392 4293792000
3.5512009 -0.011233939 -0.025590997 4293922560
3.5676973 -0.011182787 -0.0046042269 4293922560
3.5677547 -0.011081451 0.016501868 4293922560
3.5181236 -0.010832656 0.037057351 4293792000
3.5776989 -0.010907616 0.058797281 4293922560
3.5927031 -0.010849428 0.080171645 4294053120
3.5859411 -0.010727613 0.10101706 4294053120
3.3958008 -0.010082851 0.11541132 4293400320
3.5824351 -0.010513262 0.14251585 4294053120
3.5924127 -0.010438929 0.16354749 4294053120
3.536509 -0.010181579 0.18113036 4293792000
3.3180323 -0.0094819721 0.1886161 4293139200
3.5869737 -0.010116039 0.22394155 4294053120
3.5878534 -0.010015607 0.2437533 4294053120
3.5542982 -0.0098236175 0.26077572 4293922560
3.3041604 -0.0090649361 0.2600728 4293139200
3.6084478 -0.0097597651 0.30305958 4294183680
3.6102934 -0.009660488 0.32188454 4294183680
3.585453 -0.0094931871 0.33785412 4294053120
3.471395 -0.0091032507 0.34433913 4293661440
3.2388082 -0.0084257191 0.33697435 4292878080
3.609267 -0.0092397975 0.39267546 4294183680
3.5852025 -0.0090764649 0.40661711 4294053120
3.5542161 -0.0088977385 0.4190667 4293922560
3.5096669 -0.0086885216 0.4291113 4293792000
3.4036078 -0.0083380621 0.43050361 4293530880
3.6021042 -0.0086956713 0.47032356 4294183680
3.6059713 -0.008598391 0.48500395 4294183680
3.5969951 -0.0084717544 0.49738577 4294183680
3.5710571 -0.0083077615 0.50672609 4294053120
3.5529287 -0.0081620952 0.5164398 4294053120
3.4831462 -0.007905771 0.51775694 4293792000
3.5924568 -0.0080343289 0.54522812 4294183680
3.5768802 -0.0078940755 0.55340236 4294053120
3.5924711 -0.0078188758 0.56576014 4294183680
3.5762947 -0.0076776836 0.57245964 4294183680
3.5833306 -0.0075837262 0.58218837 4294183680
3.5732026 -0.00745507 0.58844572 4294183680
3.5626609 -0.0073258784 0.59390682 4294053120
3.571461 -0.0072340397 0.60189652 4294183680
3.5569806 -0.0070974147 0.60525125 4294053120
3.5533309 -0.0069814096 0.60971361 4294053120
3.5526001 -0.0068705925 0.61395752 4294053120
3.5657787 -0.0067843986 0.61989975 4294053120
3.5603566 -0.0066642468 0.62188941 4294053120
3.5560429 -0.0065459819 0.62333596 4294053120
3.5557928 -0.0064345244 0.62476069 4294053120
3.559607 -0.0063294936 0.62616688 4294053120
3.545819 -0.0061950367 0.62374079 4294053120
3.568445 -0.0061195414 0.62698555 4294183680
3.5539215 -0.0059837769 0.62296557 4294053120
3.5678072 -0.005892375 0.6231935 4294183680
3.5717595 -0.0057847188 0.62094277 4294183680
3.5723624 -0.0056714918 0.6173777 4294183680
3.5739837 -0.0055593341 0.61326295 4294183680
3.5881593 -0.0054644658 0.61056364 4294183680
3.5777242 -0.0053343121 0.6029579 4294183680
3.58463 -0.0052278815 0.59757674 4294183680
3.57149 -0.0050942474 0.58817011 4294053120
3.5767748 -0.0049847919 0.58112991 4294183680
3.5696566 -0.004859122 0.57140428 4294053120
3.5615454 -0.0047323718 0.56089562 4294053120
3.5618029 -0.0046157562 0.55107737 4294053120
3.5786197 -0.0045179063 0.54313648 4294053120
3.5852513 -0.0044072182 0.5329535 4294183680
3.5820031 -0.004285038 0.52067912 4294053120
3.5413601 -0.0034775261 0.42603764 4293922560
