# .PCD v0.7 - Point Cloud Data file format
VERSION 0.7
FIELDS x y z rgba
SIZE 4 4 4 4
TYPE F F F U
COUNT 1 1 1 1
WIDTH 1131
HEIGHT 1
VIEWPOINT 0 0 0 1 0 0 0
POINTS 1131
DATA ascii
2.6245494 2.5488896 -0.13399819 4294183680
2.6080992 2.5330546 -0.11200872 4294183680
2.6296306 2.554075 -0.091514766 4294183680
2.6370337 2.5613868 -0.070186175 4294314240
2.63129 2.5559399 -0.048410896 4294183680
2.6276467 2.552531 -0.026702134 4294183680
2.6466403 2.5710933 -0.005085689 4294314240
2.6470096 2.5715797 0.016743334 4294314240
2.6167643 2.5423486 0.038135283 4294183680
2.6497087 2.574456 0.060380705 4294314240
2.6665685 2.5909514 0.082613543 4294444800
2.6727707 2.5971019 0.10462205 4294444800
2.5794375 2.5066156 0.12198705 4294053120
2.6635275 2.588387 0.14739218 4294444800
2.6657181 2.5906436 0.16886188 4294444800
2.6518345 2.5772924 0.18904847 4294314240
2.4590394 2.3902023 0.19478834 4293400320
2.6673915 2.5926604 0.23185593 4294444800
2.6724973 2.5977502 0.25282037 4294444800
2.6515565 2.5775437 0.27094454 4294314240
2.4652176 2.396688 0.270455 4293530880
2.6844237 2.6097322 0.31402367 4294575360
2.6917796 2.6170118 0.33429593 4294575360
2.6816397 2.6072965 0.35202095 4294575360
2.5847962 2.51335 0.35730287 4294053120
2.4249926 2.358227 0.35178599 4293400320
2.6863654 2.6122954 0.40723285 4294575360
2.6729362 2.5993843 0.42243823 4294575360
2.653753 2.5808821 0.43605927 4294444800
2.591516 2.5205414 0.44165441 4294183680
2.4698229 2.4024162 0.43557736 4293530880
2.6857655 2.6124072 0.48874968 4294575360
2.6778288 2.604835 0.50200605 4294575360
2.6739933 2.601249 0.51539385 4294575360
2.6476982 2.5758326 0.52373248 4294444800
2.5939367 2.5237157 0.5256725 4294183680
2.5552645 2.4862626 0.52961797 4294053120
2.6798418 2.6075108 0.5670042 4294575360
2.6804049 2.6082051 0.57815492 4294575360
2.6731718 2.6013205 0.58693868 4294575360
2.6713951 2.5997415 0.59620285 4294575360
2.6536908 2.5826757 0.60117048 4294575360
2.6507628 2.579978 0.608706 4294444800
2.6471078 2.5765741 0.6153481 4294444800
2.6497822 2.5793264 0.6227355 4294575360
2.6408908 2.5708315 0.62667567 4294444800
2.6437223 2.5737391 0.63263994 4294444800
2.6494613 2.5794761 0.63857275 4294575360
2.6425703 2.5729289 0.64072537 4294444800
2.6044312 2.5359824 0.6345256 4294314240
2.6040807 2.5357974 0.63670784 4294314240
2.6038196 2.5357006 0.6381641 4294314240
2.6512153 2.5819759 0.65051949 4294575360
2.6476045 2.5786245 0.64965713 4294575360
2.6447921 2.5760508 0.64822751 4294444800
2.6494629 2.5807607 0.64786178 4294575360
2.6461272 2.5776799 0.64478517 4294575360
2.6484203 2.5800786 0.64231837 4294575360
2.6584792 2.5900378 0.64095742 4294575360
2.6614158 2.5930665 0.63711548 4294575360
2.6696489 2.6012528 0.63376921 4294575360
2.6601043 2.592133 0.6254831 4294575360
2.6784239 2.6101437 0.62296772 4294705920
2.6689029 2.6010485 0.61325616 4294575360
2.6669226 2.5992963 0.60458928 4294575360
2.6590345 2.5917916 0.59391826 4294575360
2.6643145 2.5971119 0.58549482 4294575360
2.6653442 2.598294 0.57544035 4294575360
2.6773 2.6101198 0.56701702 4294575360
2.6727061 2.6058271 0.55442083 4294575360
2.666631 2.6000915 0.54092872 4294575360
2.643342 2.5785928 0.4438504 4294444800
2.6658912 2.600759 0.43117318 4294575360
2.6663496 2.6013958 0.41431424 4294444800
2.6514459 2.5870574 0.39470977 4294444800
2.6376021 2.5737507 0.37500924 4294314240
2.6536872 2.5896235 0.35910144 4294444800
2.6597345 2.5957117 0.34129027 4294444800
2.6389561 2.5756423 0.31978464 4294314240
2.6249249 2.5621505 0.29898566 4294314240
2.6464732 2.5833578 0.28182042 4294314240
2.6495569 2.5865586 0.26220858 4294444800
2.6484303 2.585654 0.2418783 4294314240
2.6359694 2.5736923 0.22035894 4294314240
2.6498368 2.587415 0.2007636 4294314240
2.6584537 2.5960171 0.18037574 4294444800
2.6330433 2.5714197 0.15764026 4294314240
2.636246 2.5747395 0.1365979 4294314240
2.6319792 2.5707707 0.11503112 4294314240
2.6300824 2.5691144 0.093487732 4294314240
2.5994334 2.5393953 0.071105458 4294183680
2.6299293 2.569355 0.050269231 4294314240
2.6234941 2.5632684 0.028498257 4294183680
2.6217618 2.5617721 0.0068074637 4294183680
2.6024776 2.5431392 -0.014753977 4294183680
2.622467 2.5628502 -0.036560323 4294183680
2.622308 2.5628896 -0.058199961 4294183680
2.6229432 2.5637045 -0.07980302 4294183680
2.6187243 2.5597789 -0.10114367 4294183680
2.6307204 2.5716894 -0.12307981 4294314240
2.6377554 2.5787559 -0.14480631 4294314240
2.6017625 2.5437915 -0.16375673 4294183680
2.6155841 2.5574863 -0.18552309 4294183680
2.6276009 2.5694194 -0.20716815 4294314240
2.6262755 2.5683181 -0.22761598 4294314240
2.6016407 2.5444393 -0.245584 4294183680
2.6316204 2.5739267 -0.26851657 4294314240
2.6431987 2.5854344 -0.28958592 4294314240
2.6504428 2.5927074 -0.31000486 4294444800
2.6398273 2.5825245 -0.32796377 4294314240
2.5099175 2.4557295 -0.32966852 4293792000
2.6380091 2.5811298 -0.36503145 4294314240
2.6380692 2.5813787 -0.38309786 4294444800
2.6374564 2.5809693 -0.40064102 4294444800
2.5980241 2.5426021 -0.41156176 4294183680
2.4439931 2.3921669 -0.40257314 4293530880
2.6557472 2.5994213 -0.45394069 4294444800
2.654917 2.5987973 -0.46964505 4294444800
2.6453419 2.5896194 -0.4832125 4294444800
2.6326518 2.5773923 -0.49554157 4294444800
2.5470064 2.4937971 -0.49301207 4294053120
2.3038905 2.2561388 -0.4576512 4292878080
2.2689984 2.2221615 -0.46184382 4292747520
2.2495165 2.2032564 -0.46839592 4292616960
2.2187216 2.1732779 -0.47182414 4292486400
2.1850009 2.1404314 -0.47381139 4292355840
2.1946816 2.1500533 -0.48459169 4292355840
2.2060761 2.1613526 -0.49527556 4292486400
2.1851318 2.141001 -0.49807963 4292355840
2.1675591 2.123946 -0.50095224 4292225280
2.1907206 2.1467617 -0.51269698 4292355840
2.1481504 2.1052315 -0.50838006 4292225280
2.1742451 2.1309187 -0.51971549 4292355840
2.1362603 2.0938694 -0.51507366 4292094720
2.1491041 2.1065829 -0.52206326 4292225280
2.1725695 2.1296983 -0.5310905 4292355840
2.1090977 2.0676799 -0.51815122 4291964160
2.1123054 2.0709543 -0.52095443 4291964160
2.1057379 2.0646544 -0.52073103 4291964160
2.1679299 2.1257002 -0.53696442 4292225280
2.1411128 2.0995662 -0.53049159 4292094720
2.1270347 2.0859067 -0.52656329 4292094720
2.1714718 2.1295688 -0.53652227 4292355840
2.1315186 2.0905576 -0.52496195 4292094720
2.183347 2.1414652 -0.53542519 4292355840
2.1428325 2.101898 -0.52256227 4292094720
2.1802804 2.1387193 -0.52814353 4292355840
2.19788 2.1560938 -0.52819449 4292355840
2.1860511 2.1446292 -0.5205332 4292355840
2.1787722 2.1376219 -0.51339734 4292355840
2.2014053 2.15993 -0.51268822 4292486400
2.2324002 2.1904359 -0.51318216 4292616960
2.2479048 2.20576 -0.50936818 4292616960
2.2755337 2.2329705 -0.50757241 4292747520
2.3643298 2.320148 -0.51843727 4293139200
2.5339165 2.4865415 -0.54544425 4293922560
2.6018729 2.5533087 -0.54891521 4294314240
2.6300459 2.5810747 -0.54292464 4294444800
2.6411536 2.592109 -0.53260261 4294444800
2.6264415 2.5778244 -0.51647544 4294444800
2.6090717 2.560931 -0.49940318 4294314240
2.608007 2.5600255 -0.48499295 4294314240
2.6257501 2.5775654 -0.47344968 4294444800
2.6298015 2.581677 -0.45877394 4294444800
2.6086614 2.5610785 -0.43927944 4294314240
2.6020603 2.554739 -0.42191976 4294314240
2.611387 2.5640228 -0.40666321 4294314240
2.6349735 2.587296 -0.3929686 4294444800
2.6341236 2.586597 -0.37503043 4294444800
2.5913908 2.5448046 -0.35099149 4294183680
2.6054471 2.5587275 -0.33448827 4294183680
2.6162944 2.5695028 -0.31702638 4294314240
2.6184778 2.5717769 -0.29806796 4294314240
2.5893617 2.5433352 -0.27540281 4294183680
2.6069558 2.5607312 -0.2575191 4294183680
2.6231408 2.5767453 -0.23895776 4294314240
2.6224821 2.5762286 -0.21847297 4294314240
2.5945191 2.5489118 -0.19568484 4294183680
2.6133778 2.5675511 -0.17631796 4294183680
2.6139977 2.5682883 -0.15536374 4294183680
2.6182024 2.5725443 -0.13441914 4294314240
2.6039953 2.5587249 -0.11245454 4294183680
2.6218386 2.5763707 -0.091745548 4294314240
2.6224234 2.5770731 -0.070172176 4294314240
2.6135104 2.5684497 -0.048332535 4294183680
2.6162977 2.5713141 -0.026717372 4294183680
2.642318 2.5969932 -0.0050900388 4294314240
2.6355493 2.5904751 0.016787393 4294314240
2.6118953 2.567374 0.038298015 4294183680
2.6417978 2.5968695 0.060562931 4294314240
2.6657815 2.6205544 0.083074369 4294444800
2.6471779 2.6024122 0.10424385 4294444800
2.5243638 2.4819055 0.12011889 4293792000
2.6555297 2.6108761 0.1478076 4294444800
2.6569927 2.6124439 0.16928971 4294444800
2.6467474 2.6025097 0.18977985 4294444800
2.4621644 2.421294 0.19615789 4293530880
2.6622081 2.6179621 0.23274358 4294444800
2.6608748 2.6167846 0.2531803 4294444800
2.6400506 2.5964553 0.27133119 4294444800
2.4547672 2.4145155 0.27086648 4293530880
2.6762807 2.632324 0.31487843 4294575360
2.6761322 2.632313 0.33427632 4294575360
2.6735044 2.6298659 0.35297686 4294575360
2.5835938 2.5416319 0.35918945 4294183680
2.4211431 2.3820879 0.35324776 4293400320
2.6710997 2.6279125 0.40725714 4294575360
2.6648324 2.6218896 0.42358279 4294575360
2.6422124 2.5997908 0.43666545 4294444800
2.5838654 2.5425668 0.44288489 4294183680
2.4663961 2.4272091 0.43747213 4293661440
2.6740346 2.6314964 0.489418 4294575360
2.6760347 2.6336052 0.50455028 4294705920
2.6616175 2.6195717 0.51596326 4294575360
2.6354694 2.5940013 0.52431571 4294444800
2.5890675 2.5485103 0.52770042 4294183680
2.5477881 2.5080535 0.53110468 4294053120
2.6681287 2.6265552 0.56777537 4294575360
2.6679816 2.6265583 0.57878804 4294705920
2.6650133 2.6237874 0.58851177 4294575360
2.6695788 2.6284282 0.5992173 4294705920
2.6491539 2.6084857 0.60358983 4294575360
2.6490514 2.608536 0.61180449 4294575360
2.6418955 2.6016474 0.61766464 4294575360
2.6480656 2.6078713 0.62590408 4294575360
2.632895 2.5930979 0.62837023 4294444800
2.625169 2.5856495 0.63182169 4294444800
2.6378994 2.5983331 0.63944483 4294575360
2.6373665 2.597966 0.64313763 4294575360
2.5966327 2.5580325 0.63626301 4294314240
2.5962825 2.5578449 0.63845116 4294314240
2.5960214 2.5577462 0.63991135 4294314240
2.5923407 2.5542824 0.63977921 4294314240
2.6430645 2.6043799 0.6522696 4294575360
2.639565 2.6010995 0.65066463 4294575360
2.6442087 2.6058376 0.65029341 4294575360
2.6408918 2.6027386 0.64720851 4294575360
2.6501927 2.612066 0.64643669 4294575360
2.6531739 2.6151719 0.64335608 4294575360
2.6567969 2.6189117 0.63966614 4294575360
2.6614721 2.6236894 0.63546407 4294705920
2.6547928 2.6172845 0.62782431 4294575360
2.6631708 2.6257126 0.62299204 4294705920
2.6642478 2.6269503 0.61570764 4294705920
2.6612766 2.6242013 0.60678077 4294575360
2.6537371 2.6169517 0.59614575 4294575360
2.6388595 2.6024718 0.58325666 4294575360
2.6627705 2.6262136 0.57819122 4294575360
2.6726112 2.6360934 0.56928205 4294705920
2.668047 2.6317792 0.55664051 4294705920
2.6553555 2.6194549 0.54174888 4294575360
2.6346364 2.600234 0.44494346 4294444800
2.6541743 2.6196902 0.4317607 4294575360
2.6645937 2.630157 0.41642836 4294575360
2.64978 2.6157391 0.39673653 4294444800
2.621136 2.5876784 0.37483051 4294314240
2.6449318 2.6113424 0.35998824 4294444800
2.6509464 2.6174688 0.34213257 4294444800
2.6274509 2.5944834 0.32023787 4294314240
2.6234331 2.5907125 0.30054274 4294314240
2.6313767 2.5987442 0.28184444 4294314240
2.6358593 2.6033621 0.26237258 4294444800
2.6404233 2.6080616 0.24254912 4294444800
2.6244819 2.5925243 0.22067875 4294314240
2.6453769 2.6133435 0.20159169 4294444800
2.6496811 2.6177893 0.18083154 4294444800
2.631526 2.6000652 0.15846725 4294314240
2.6276004 2.5963864 0.13695052 4294314240
2.6304705 2.599417 0.11563886 4294314240
2.6250284 2.5942407 0.093860216 4294314240
2.590997 2.560833 0.071300425 4294183680
2.6177607 2.5874579 0.050345752 4294314240
2.6220334 2.5918744 0.028659962 4294314240
2.6167521 2.5868554 0.0068501341 4294314240
2.5982878 2.5688138 -0.014798826 4294183680
2.6146045 2.5851274 -0.036641244 4294314240
2.6110437 2.5818062 -0.058261577 4294314240
2.6079617 2.5789573 -0.079779185 4294183680
2.6137207 2.5848434 -0.10151336 4294314240
2.6255567 2.5967355 -0.12352668 4294314240
2.6297934 2.6011188 -0.14517944 4294314240
2.59045 2.5624332 -0.16396031 4294183680
2.6105833 2.5825257 -0.18621521 4294314240
2.6196868 2.5917192 -0.20771186 4294314240
2.6148162 2.5870998 -0.22790371 4294314240
2.5903194 2.563077 -0.24589939 4294183680
2.6201253 2.5927374 -0.26885873 4294314240
2.6387241 2.6113207 -0.29074007 4294444800
2.638835 2.6116254 -0.31039965 4294444800
2.6282771 2.6013794 -0.32838434 4294444800
2.5061853 2.4808288 -0.33105499 4293792000
2.6300011 2.6034703 -0.36599621 4294444800
2.6233392 2.5970731 -0.38312584 4294444800
2.6287351 2.6026015 -0.40159246 4294444800
2.5859916 2.5605083 -0.41198993 4294183680
2.4406037 2.4168596 -0.40431166 4293530880
2.6504354 2.6246414 -0.45562014 4294575360
2.639379 2.6138916 -0.46955815 4294444800
2.6397746 2.6144712 -0.48495093 4294444800
2.6175907 2.5927055 -0.49551761 4294444800
2.5253935 2.5016448 -0.49161437 4293922560
2.2220986 2.2016368 -0.44388151 4292486400
2.1843615 2.1644397 -0.44711092 4292355840
2.156868 2.1373761 -0.45162031 4292225280
2.1398249 2.1206539 -0.45760486 4292094720
2.1385651 2.119554 -0.46637082 4292094720
2.1204581 2.101773 -0.47084078 4292094720
2.1461751 2.1273816 -0.48455304 4292225280
2.1125231 2.0942037 -0.48424551 4292094720
2.1418285 2.1233671 -0.49782839 4292225280
2.0924318 2.0745895 -0.49244303 4291964160
2.0615392 2.0441318 -0.4906278 4291833600
2.0742013 2.0568097 -0.49858519 4291833600
2.0834196 2.066077 -0.5051828 4291964160
2.041157 2.0243461 -0.49861977 4291703040
2.0505128 2.0337472 -0.50405616 4291703040
2.0571361 2.0404408 -0.50825381 4291833600
2.0701239 2.0534408 -0.51345551 4291833600
2.056602 2.0401735 -0.51146901 4291833600
2.0494502 2.033216 -0.51046133 4291703040
2.0262871 2.0103891 -0.50485408 4291703040
2.0882697 2.0719438 -0.51991081 4291964160
2.0680511 2.0520332 -0.51384068 4291833600
2.0451062 2.0294168 -0.5065189 4291703040
2.0887377 2.0727909 -0.51510823 4291964160
2.0624354 2.0468426 -0.505795 4291833600
2.1141164 2.098201 -0.51501679 4292094720
2.1409249 2.1249053 -0.51742709 4292225280
2.1113229 2.0956812 -0.50558078 4292094720
2.1219468 2.1063387 -0.50284374 4292094720
2.1367965 2.121187 -0.50045979 4292225280
2.1561987 2.1405506 -0.4984653 4292225280
2.176924 2.1612275 -0.49607393 4292355840
2.2218194 2.2058773 -0.4984045 4292616960
2.2766993 2.2604346 -0.50203741 4292878080
2.4801526 2.4623656 -0.536906 4293792000
2.5841446 2.5656579 -0.54829413 4294314240
2.6184199 2.5998018 -0.54362017 4294444800
2.6260064 2.6074715 -0.53257853 4294444800
2.6212194 2.6028652 -0.51840317 4294444800
2.5941067 2.5761068 -0.49937937 4294314240
2.602715 2.5847876 -0.48678264 4294314240
2.6113369 2.593482 -0.47354376 4294444800
2.6225505 2.604748 -0.46012902 4294444800
2.6000378 2.5825455 -0.44033334 4294314240
2.6005275 2.5831678 -0.42408833 4294314240
2.6133335 2.5960133 -0.40930071 4294314240
2.623383 2.6061237 -0.39347586 4294444800
2.6292477 2.6120803 -0.37647852 4294444800
2.5835841 2.5668883 -0.35193437 4294183680
2.5975618 2.5808961 -0.33538124 4294314240
2.6041074 2.5875266 -0.31734887 4294314240
2.6069858 2.5905166 -0.29845113 4294314240
2.5914814 2.5752552 -0.27720642 4294183680
2.6019018 2.585732 -0.25848606 4294314240
2.6187048 2.6025472 -0.23991367 4294314240
2.6138024 2.59781 -0.21898724 4294314240
2.5992625 2.5835018 -0.19716369 4294183680
2.5948305 2.5792301 -0.1760513 4294183680
2.6082606 2.5926969 -0.15590021 4294314240
2.6116869 2.5962293 -0.13484074 4294314240
2.5880303 2.5728619 -0.11238607 4294183680
2.6131666 2.5979574 -0.091950625 4294314240
2.6211948 2.6060615 -0.07053002 4294314240
2.6183534 2.603368 -0.048691843 4294314240
2.6147509 2.5999181 -0.026841458 4294314240
2.6271422 2.6123576 -0.0050658924 4294314240
2.630343 2.6156673 0.016867964 4294314240
2.5940554 2.5797422 0.038282119 4294183680
2.640099 2.6256208 0.060887933 4294444800
2.6540139 2.6395781 0.083207272 4294444800
2.6522534 2.6379597 0.10505626 4294444800
2.5098605 2.4965835 0.12014196 4293792000
2.6438167 2.629838 0.14802757 4294444800
2.652355 2.6384554 0.16998696 4294444800
2.638623 2.6249387 0.19030939 4294444800
2.451556 2.4391294 0.19646113 4293530880
2.6518624 2.6383631 0.23319952 4294444800
2.6590278 2.6456194 0.25448057 4294575360
2.6284146 2.61532 0.27171806 4294444800
2.4441929 2.4323025 0.27127817 4293530880
2.6679657 2.6549091 0.31573349 4294575360
2.6607502 2.6478708 0.33430079 4294575360
2.6609604 2.6482162 0.353374 4294575360
2.5793269 2.5671778 0.36068416 4294183680
2.4178028 2.4066854 0.35481268 4293400320
2.6656125 2.6532555 0.40878671 4294575360
2.6628981 2.6506948 0.42573601 4294575360
2.6403999 2.6284583 0.43890208 4294575360
2.5690076 2.5575876 0.44290856 4294183680
2.4655778 2.4548421 0.43986654 4293661440
2.6586573 2.6470406 0.48944247 4294575360
2.660645 2.6491611 0.50457478 4294705920
2.6568446 2.645524 0.51803231 4294575360
2.6308403 2.6197968 0.52643728 4294575360
2.5811908 2.5705411 0.52915591 4294314240
2.5429494 2.5326324 0.53317714 4294053120
2.6587882 2.6480429 0.56908029 4294705920
2.6666443 2.6560099 0.58185703 4294705920
2.653182 2.6427627 0.58931065 4294705920
2.6542194 2.6439457 0.59924173 4294705920
2.640208 2.630152 0.6050514 4294575360
2.6401029 2.6301994 0.61328512 4294575360
2.6336842 2.6239634 0.61932641 4294575360
2.6398156 2.6302211 0.62758344 4294575360
2.6240306 2.6146622 0.62989801 4294575360
2.6303172 2.6210771 0.63673055 4294575360
2.6331913 2.6240964 0.64201325 4294575360
2.5856128 2.57688 0.63422596 4294314240
2.594949 2.586334 0.63954318 4294444800
2.5911078 2.5826676 0.64088267 4294444800
2.5873566 2.5790915 0.64148647 4294314240
2.5906749 2.5825574 0.64308178 4294444800
2.6313348 2.6232183 0.65315664 4294575360
2.6243653 2.616442 0.65068883 4294575360
2.638752 2.6309402 0.65272534 4294575360
2.6361518 2.6285188 0.64980352 4294575360
2.6349289 2.6274703 0.64646095 4294575360
2.6413827 2.6340716 0.64422852 4294575360
2.6414931 2.6343544 0.63969052 4294575360
2.6559179 2.6489024 0.63782752 4294705920
2.6534698 2.6466386 0.63115889 4294705920
2.6611032 2.6544237 0.6261279 4294705920
2.6551874 2.6487062 0.61718845 4294705920
2.6389503 2.6327014 0.60520816 4294575360
2.6419418 2.6358628 0.59695703 4294575360
2.6369455 2.631063 0.58622396 4294575360
2.650224 2.6444826 0.57882458 4294705920
2.6615908 2.6559994 0.57024181 4294705920
2.6589725 2.6535742 0.55798233 4294705920
2.6498599 2.6446738 0.54377782 4294575360
2.619442 2.6155496 0.44496763 4294444800
2.6423824 2.6386275 0.43235737 4294575360
2.6562603 2.652667 0.41755283 4294575360
2.6344948 2.6311431 0.39676085 4294444800
2.6095362 2.6064303 0.37535807 4294314240
2.636718 2.63375 0.36097115 4294444800
2.6405828 2.6378024 0.34279302 4294444800
2.6158159 2.6132777 0.32069129 4294444800
2.6082942 2.6059644 0.30056682 4294314240
2.6275697 2.6254015 0.2830852 4294444800
2.6375892 2.6356013 0.26407942 4294444800
2.6280079 2.6262329 0.24283211 4294444800
2.61569 2.6141312 0.22123548 4294314240
2.6336389 2.6322517 0.20188402 4294444800
2.631557 2.6303716 0.180664 4294444800
2.622695 2.6217196 0.15887189 4294444800
2.6159637 2.615195 0.13715729 4294314240
2.6188166 2.6182432 0.1158167 4294314240
2.626843 2.6264603 0.094482072 4294444800
2.5831058 2.5829649 0.071514696 4294183680
2.6132512 2.6132798 0.050567247 4294314240
2.6104245 2.6106546 0.02872037 4294314240
2.6084306 2.6088607 0.0068871761 4294314240
2.589643 2.5902841 -0.014815985 4294183680
2.5966141 2.5974483 -0.036574516 4294314240
2.6092386 2.6102641 -0.058544945 4294314240
2.5936093 2.59484 -0.079777792 4294183680
2.5986161 2.6000423 -0.10148933 4294314240
2.6175385 2.6191571 -0.12384597 4294314240
2.6209533 2.6227701 -0.14551261 4294444800
2.5888984 2.5909178 -0.16479991 4294183680
2.6025543 2.604769 -0.18670247 4294314240
2.608072 2.6104836 -0.20797154 4294314240
2.6102841 2.6128929 -0.22881439 4294314240
2.5753422 2.5781415 -0.24587557 4294183680
2.6056249 2.6086254 -0.26890212 4294314240
2.6270764 2.6302793 -0.29111823 4294444800
2.6255038 2.6289027 -0.31060487 4294444800
2.6035655 2.6071498 -0.32715926 4294314240
2.4330194 2.4367034 -0.32320035 4293530880
2.6190407 2.6230216 -0.36656979 4294444800
2.617852 2.6220257 -0.38453054 4294444800
2.6117575 2.6161196 -0.40129536 4294444800
2.5664856 2.5710011 -0.41123536 4294183680
2.4398172 2.4444039 -0.40651941 4293661440
2.6182623 2.623204 -0.4526754 4294444800
2.5999703 2.6050825 -0.46520194 4294444800
2.5962503 2.601546 -0.47969186 4294314240
2.5757463 2.5812042 -0.49039632 4294314240
2.5393672 2.5449626 -0.49720547 4294053120
2.2070642 2.2123914 -0.44342381 4292486400
2.1619251 2.1673446 -0.44506928 4292355840
2.1443782 2.1499243 -0.45160043 4292225280
2.1274331 2.1331029 -0.45758516 4292094720
2.0926685 2.0984302 -0.45897928 4291964160
2.0781703 2.0840523 -0.46410051 4291964160
2.0509512 2.0569284 -0.46568012 4291833600
2.0086977 2.0147376 -0.46305156 4291572480
2.037869 2.0441017 -0.47634855 4291703040
2.0538349 2.0602372 -0.48614025 4291833600
2.0161653 2.0226285 -0.48258525 4291703040
2.0190165 2.0256207 -0.48810238 4291703040
2.0448976 2.051692 -0.49869633 4291833600
1.988968 1.9957721 -0.48865864 4291572480
2.0087132 2.0156932 -0.49662173 4291572480
1.9986088 2.0056953 -0.49662411 4291572480
2.0115275 2.0187747 -0.50178254 4291703040
2.00087 2.0082197 -0.50046366 4291572480
1.9944577 2.0019183 -0.49961489 4291572480
1.9811643 1.988716 -0.49645022 4291441920
2.0330529 2.0408685 -0.50906956 4291703040
2.0094728 2.01735 -0.5021497 4291572480
1.9963923 2.0043569 -0.4972955 4291572480
2.0501986 2.0584404 -0.50851738 4291833600
2.0337818 2.0421004 -0.50164777 4291703040
2.0007327 2.0090752 -0.49015707 4291572480
2.0459185 2.0545189 -0.49728003 4291833600
2.0726304 2.0814359 -0.49917501 4291964160
2.1141429 2.1232028 -0.50390053 4292094720
2.1139565 2.1231399 -0.49797297 4292094720
2.1339388 2.143311 -0.4961718 4292225280
2.1670718 2.1766784 -0.49669197 4292355840
2.2093515 2.2192266 -0.49847949 4292616960
2.265944 2.2761409 -0.50256199 4292878080
2.4025264 2.413332 -0.5230788 4293530880
2.5221536 2.5335221 -0.53821516 4294053120
2.562 2.5736539 -0.53496474 4294314240
2.5905116 2.6024125 -0.52841097 4294444800
2.5922699 2.60432 -0.51563841 4294444800
2.5721135 2.5842288 -0.49800783 4294314240
2.581706 2.5939982 -0.48564452 4294314240
2.59638 2.6088686 -0.47355577 4294444800
2.6076264 2.6202991 -0.46015731 4294444800
2.5942645 2.6070225 -0.44190177 4294314240
2.5812798 2.5941226 -0.42338064 4294314240
2.6012077 2.614269 -0.40975785 4294444800
2.615258 2.6285143 -0.39452738 4294444800
2.6076665 2.6210275 -0.37554064 4294444800
2.5749054 2.5882621 -0.35278031 4294183680
2.5863869 2.5999265 -0.3358669 4294314240
2.6003211 2.6140547 -0.31872097 4294314240
2.5981774 2.6120348 -0.29915971 4294314240
2.5827646 2.5966859 -0.27786765 4294314240
2.6001635 2.614295 -0.25980657 4294314240
2.6042886 2.618571 -0.23996291 4294314240
2.6012557 2.6156559 -0.21918668 4294314240
2.581548 2.5959871 -0.1969382 4294183680
2.589977 2.6045859 -0.17673139 4294314240
2.6011615 2.6159539 -0.1563655 4294314240
2.6014419 2.6163659 -0.1350757 4294314240
2.5870969 2.6020811 -0.11298773 4294314240
2.6015115 2.6166959 -0.092053682 4294314240
2.6123137 2.6276817 -0.070681967 4294314240
2.6101937 2.6256814 -0.048804507 4294314240
2.605906 2.6215019 -0.026887337 4294314240
2.6182249 2.6340139 -0.0050584525 4294444800
2.6221113 2.6380508 0.016932689 4294444800
2.5888541 2.6047502 0.038445365 4294314240
2.6346288 2.6508956 0.061134111 4294444800
2.6421151 2.6585534 0.083340384 4294575360
2.6438882 2.6604679 0.1053564 4294575360
2.5521472 2.568361 0.12285836 4294053120
2.6347911 2.6515858 0.14840433 4294444800
2.6397552 2.6567094 0.17019096 4294575360
2.6296225 2.6466532 0.19078867 4294444800
2.4401193 2.4562154 0.1967084 4293530880
2.6399641 2.6573193 0.23353252 4294575360
2.6400511 2.6575406 0.25416934 4294575360
2.6229773 2.6405025 0.2727581 4294444800
2.4398205 2.4564111 0.27239072 4293530880
2.6552622 2.6732461 0.3160904 4294575360
2.662132 2.6802933 0.33644158 4294705920
2.6489956 2.6672161 0.35386452 4294575360
2.5706398 2.5885248 0.36159071 4294183680
2.4037397 2.4207418 0.35483503 4293400320
2.6634247 2.6821489 0.41085422 4294705920
2.6544137 2.6732228 0.42688113 4294705920
2.6320419 2.650852 0.44009104 4294575360
2.5638587 2.5823796 0.44462234 4294183680
2.461024 2.4790285 0.44163713 4293792000
2.6568611 2.6762543 0.49198672 4294705920
2.6556439 2.6751735 0.50658911 4294705920
2.6448767 2.6644816 0.51873851 4294705920
2.6155317 2.6350892 0.5264616 4294575360
2.5794227 2.5988855 0.53190035 4294314240
2.5281503 2.5474143 0.53320068 4294053120
2.6537669 2.6740201 0.57134575 4294705920
2.6511242 2.6715097 0.58188176 4294705920
2.647486 2.6679978 0.59150386 4294705920
2.6359968 2.6565812 0.59863907 4294705920
2.6415334 2.6623089 0.60890865 4294705920
2.6282103 2.6490462 0.6141187 4294575360
2.6253023 2.6462717 0.62098849 4294575360
2.6272256 2.6483641 0.62826997 4294575360
2.6156988 2.6369109 0.63159311 4294575360
2.6247239 2.6461589 0.63911319 4294575360
2.6241066 2.6456959 0.64356428 4294575360
2.5802734 2.6016989 0.63663846 4294444800
2.5867765 2.6084092 0.64128119 4294444800
2.5996108 2.6215 0.64675421 4294444800
2.5792248 2.6011219 0.64323425 4294444800
2.6258032 2.6482182 0.65559673 4294575360
2.6257198 2.6483006 0.65559715 4294575360
2.6125455 2.6351917 0.65157503 4294575360
2.6126444 2.6354594 0.65008914 4294575360
2.6270375 2.6501353 0.65137053 4294705920
2.6299851 2.6532779 0.64904451 4294705920
2.639178 2.6627173 0.6474759 4294705920
2.6323473 2.6560059 0.64123106 4294705920
2.6473827 2.6713395 0.63952297 4294705920
2.6442549 2.6683636 0.63267314 4294705920
2.6455925 2.6698909 0.62615258 4294705920
2.6431844 2.6676426 0.6180222 4294705920
2.6402488 2.6648631 0.60906559 4294705920
2.6307721 2.6554878 0.59793967 4294575360
2.632005 2.6569135 0.58857203 4294575360
2.639703 2.6648617 0.57992816 4294705920
2.6514585 2.6769044 0.5714227 4294705920
2.6467962 2.6723883 0.55870676 4294705920
2.6413734 2.6671054 0.54523432 4294705920
2.6174362 2.6441782 0.44724911 4294444800
2.6402483 2.6673968 0.43455684 4294575360
2.6443441 2.6717262 0.41814119 4294575360
2.6226192 2.6499903 0.3973124 4294575360
2.6006072 2.6279619 0.37628862 4294444800
2.6248305 2.6526141 0.36147496 4294575360
2.6349797 2.6630592 0.34409043 4294575360
2.6103601 2.6383955 0.32191771 4294444800
2.6035867 2.6317518 0.30180171 4294444800
2.6185429 2.6470542 0.28378874 4294444800
2.6221886 2.6509352 0.26410392 4294444800
2.626703 2.6556947 0.24415034 4294444800
2.6144602 2.643527 0.22244354 4294444800
2.6280923 2.6574991 0.20265907 4294444800
2.6330502 2.6627092 0.18183987 4294575360
2.6108894 2.6405187 0.15910766 4294444800
2.6077116 2.6375077 0.13754693 4294444800
2.6168752 2.6469688 0.11642512 4294444800
2.6016519 2.6317844 0.094157703 4294314240
2.5743415 2.6043806 0.071710177 4294183680
2.6014972 2.6320286 0.05065738 4294314240
2.6050153 2.6357856 0.028846402 4294314240
2.5969799 2.6278627 0.0069187535 4294314240
2.5719044 2.6027102 -0.014775058 4294183680
2.5885663 2.6197562 -0.036656465 4294314240
2.5851669 2.616518 -0.058315475 4294314240
2.464839 2.4950311 -0.076159544 4293661440
2.5855877 2.6173422 -0.10155168 4294314240
2.6022341 2.634378 -0.12382163 4294314240
2.6047423 2.637115 -0.14543819 4294314240
2.5807822 2.6130772 -0.1652302 4294314240
2.587532 2.6201038 -0.1866927 4294314240
2.5964706 2.6293454 -0.20824261 4294314240
2.5908356 2.6238425 -0.22841881 4294314240
2.5057909 2.5379832 -0.24058411 4293922560
2.5855823 2.618921 -0.26837662 4294314240
2.5942421 2.6278818 -0.28913635 4294314240
2.5955343 2.6293862 -0.30883321 4294314240
2.504741 2.5376806 -0.31651878 4293922560
2.4523654 2.4848509 -0.32768682 4293661440
2.5709443 2.6050789 -0.36191258 4294314240
2.5671225 2.6014023 -0.37925386 4294314240
2.5363197 2.570406 -0.39193967 4294183680
2.4383051 2.4713469 -0.39290726 4293661440
2.3445342 2.3765702 -0.39287204 4293269760
2.5658858 2.6009116 -0.4461872 4294314240
2.5560868 2.591176 -0.46000329 4294183680
2.5463824 2.5815337 -0.47320572 4294183680
2.5353627 2.5705569 -0.48551291 4294183680
2.5085294 2.5435579 -0.49402824 4294053120
2.1806483 2.2115657 -0.44066876 4292486400
2.1450796 2.1756854 -0.44418061 4292355840
2.1342523 2.1648679 -0.45209813 4292225280
2.0983033 2.1285923 -0.45394894 4292094720
2.0946145 2.1250024 -0.46210349 4292094720
2.0493429 2.0792692 -0.46033019 4291833600
2.0713134 2.1016798 -0.4730778 4291964160
2.041537 2.0716426 -0.47340706 4291833600
1.9795032 2.0089025 -0.46538445 4291572480
2.0016255 2.0314641 -0.47653088 4291572480
2.0147874 2.044944 -0.4850871 4291703040
1.9504238 1.9798248 -0.47424501 4291441920
1.9796282 2.009567 -0.48557308 4291572480
1.9957366 2.0260327 -0.4932068 4291572480
2.0022204 2.0327401 -0.49792075 4291703040
1.9502392 1.9801565 -0.48742121 4291441920
1.9561729 1.9863019 -0.49080601 4291441920
1.9497299 1.979894 -0.49050531 4291441920
1.9426662 1.9728549 -0.48946768 4291311360
1.9879597 2.018924 -0.50108564 4291572480
1.9775795 2.0085199 -0.4980545 4291572480
1.9610481 1.9918734 -0.49289829 4291441920
2.0116968 2.0433826 -0.50406367 4291703040
1.9953052 2.0268762 -0.49777654 4291572480
2.0497589 2.0822527 -0.50857121 4291833600
2.0231314 2.0553579 -0.49857333 4291703040
2.0599897 2.0928848 -0.50365293 4291964160
2.0773351 2.1106126 -0.50325257 4291964160
2.0851269 2.118645 -0.49988827 4292094720
2.1041236 2.1380501 -0.49856454 4292094720
2.1245358 2.1588936 -0.49688378 4292225280
2.1355796 2.1702282 -0.49233189 4292225280
2.1651394 2.2003605 -0.49134877 4292355840
2.2372637 2.2737079 -0.4991003 4292747520
2.3703613 2.4089677 -0.51909018 4293400320
2.4650495 2.5052431 -0.52908874 4293922560
2.5057166 2.5466754 -0.52625555 4294053120
2.5502207 2.5920076 -0.52322644 4294314240
2.5365732 2.5782905 -0.5074929 4294183680
2.5134947 2.5549929 -0.4894841 4294053120
2.5168808 2.5585699 -0.47619471 4294053120
2.5358701 2.5779941 -0.46520162 4294183680
2.5406094 2.5829456 -0.45092583 4294183680
2.5338576 2.5762243 -0.43411174 4294183680
2.5229201 2.5652497 -0.41620392 4294053120
2.5503035 2.5932028 -0.40406743 4294183680
2.5623372 2.6055634 -0.38878128 4294314240
2.5631258 2.6064999 -0.37126535 4294314240
2.5277297 2.5706706 -0.34831965 4294053120
2.564826 2.6084962 -0.33500689 4294314240
2.5788012 2.6228306 -0.31792283 4294314240
2.5715382 2.6155837 -0.29781073 4294314240
2.5547118 2.5986166 -0.27644157 4294183680
2.5877419 2.6323166 -0.26007095 4294314240
2.5857847 2.6304603 -0.23963967 4294314240
2.5853007 2.6301005 -0.21910505 4294314240
2.4944224 2.5378582 -0.19134504 4293922560
2.4799297 2.5232532 -0.17013539 4293792000
2.480516 2.5239749 -0.14989991 4293792000
2.5441484 2.5887899 -0.13282911 4294183680
2.5782006 2.623538 -0.113245 4294314240
2.5932317 2.6389503 -0.092283718 4294314240
2.604322 2.6503572 -0.070863046 4294444800
2.598357 2.6444232 -0.048848506 4294314240
2.5905881 2.6366541 -0.026862979 4294314240
2.6098454 2.6563675 -0.0050526243 4294444800
2.6102026 2.6568618 0.016977439 4294444800
2.5736341 2.6198027 0.038469568 4294314240
2.619139 2.6662138 0.061158743 4294444800
2.6293845 2.6767664 0.083451964 4294575360
2.6311457 2.6786907 0.10549138 4294575360
2.5469489 2.5931776 0.12334955 4294183680
2.6298048 2.6775928 0.14901626 4294575360
2.6347363 2.6827431 0.17088881 4294575360
2.6246591 2.6726248 0.19157147 4294575360
2.4292665 2.4739625 0.19701201 4293530880
2.6244371 2.6726668 0.23355721 4294575360
2.6378105 2.686409 0.25547028 4294575360
2.6243155 2.6728129 0.27452293 4294575360
2.4324551 2.4777067 0.27319214 4293661440
2.6501188 2.6993439 0.3173613 4294705920
2.6604333 2.7099791 0.33823007 4294705920
2.6438775 2.6932681 0.3552871 4294705920
2.5555146 2.6034684 0.36161476 4294183680
2.399354 2.4446499 0.35629764 4293530880
2.6512361 2.7011774 0.41141674 4294705920
2.6415789 2.691488 0.42735422 4294705920
2.6200323 2.6696944 0.44069797 4294575360
2.5522475 2.6008241 0.44524997 4294183680
2.4465387 2.4933348 0.44166017 4293792000
2.6470883 2.6976695 0.49309891 4294705920
2.6532075 2.704046 0.50913435 4294705920
2.645262 2.6961017 0.52189666 4294705920
2.6167846 2.6672482 0.52984226 4294575360
2.567704 2.6174097 0.53264046 4294314240
2.5264332 2.575521 0.53600562 4294183680
2.6443765 2.6957948 0.57271516 4294705920
2.6417456 2.6932666 0.58327675 4294705920
2.6388171 2.6904359 0.59307778 4294705920
2.6398335 2.6916244 0.60306859 4294705920
2.625977 2.6776624 0.60893339 4294705920
2.6196439 2.6713645 0.61576164 4294705920
2.6126037 2.6643469 0.62166816 4294575360
2.6255662 2.6777115 0.63160509 4294705920
2.6065059 2.6584473 0.63312137 4294575360
2.5961444 2.6480467 0.63593715 4294575360
2.6120985 2.664465 0.64443702 4294575360
2.5747323 2.6265426 0.6390512 4294444800
2.5742948 2.6262569 0.64199102 4294444800
2.5808434 2.6330936 0.64591861 4294444800
2.5736833 2.6259573 0.64567184 4294444800
2.5735109 2.6259456 0.64640903 4294444800
2.6102455 2.6635616 0.65562171 4294575360
2.6033554 2.6567054 0.65315098 4294575360
2.6148133 2.6685579 0.65449435 4294705920
2.6150014 2.668921 0.65225214 4294705920
2.6110322 2.665046 0.64821607 4294575360
2.6305192 2.6850932 0.64919698 4294705920
2.6306298 2.6853824 0.64462483 4294705920
2.6317735 2.6867263 0.63954777 4294705920
2.639019 2.6942959 0.63518083 4294705920
2.6431129 2.6986525 0.62928915 4294836480
2.6379588 2.6935761 0.62047458 4294705920
2.6378064 2.6936038 0.61212486 4294705920
2.6241813 2.6798856 0.59999681 4294705920
2.6199377 2.6757395 0.58937126 4294705920
2.633064 2.6893196 0.58191878 4294705920
2.6427372 2.6993783 0.5729416 4294705920
2.6382561 2.6949933 0.56022751 4294705920
2.6327152 2.6895278 0.54669106 4294705920
2.6089332 2.666487 0.44846174 4294575360
2.6281376 2.6862931 0.43515402 4294575360
2.6383817 2.6969521 0.41969258 4294705920
2.6203532 2.6787362 0.39934009 4294575360
2.5956917 2.6537435 0.37782368 4294444800
2.622561 2.6813872 0.36332124 4294575360
2.6229022 2.6819351 0.3445698 4294575360
2.6019127 2.6606903 0.32280096 4294444800
2.5916948 2.650449 0.30222973 4294444800
2.6100502 2.6694036 0.28456798 4294444800
2.6136756 2.6733088 0.26482978 4294444800
2.6076961 2.6673989 0.24385151 4294444800
2.6052971 2.6651483 0.22300084 4294444800
2.616056 2.6763465 0.20295186 4294444800
2.6202857 2.6808729 0.18205653 4294575360
2.602447 2.6628401 0.15955505 4294444800
2.5984361 2.6589417 0.13789226 4294444800
2.6021943 2.6629863 0.11648427 4294444800
2.6030495 2.6640637 0.094780214 4294444800
2.5661142 2.6264966 0.071924962 4294314240
2.583267 2.6442385 0.0506281 4294314240
2.5933068 2.6547084 0.02890932 4294444800
2.5810072 2.6423306 0.0069419593 4294314240
2.5315716 2.5919642 -0.01458746 4294053120
2.4579139 2.5168109 -0.034906805 4293792000
2.454129 2.5131304 -0.055582877 4293661440
2.3698399 2.4270823 -0.073577791 4293269760
2.5234373 2.5844314 -0.099643707 4294053120
2.5481749 2.6099422 -0.12192014 4294183680
2.5157406 2.5769482 -0.14123084 4294053120
2.4716892 2.5320592 -0.15910052 4293792000
2.4977071 2.5588813 -0.18121089 4293922560
2.5126989 2.5744207 -0.2026546 4294053120
2.503005 2.5646918 -0.22191788 4293922560
2.4179718 2.4778314 -0.23346297 4293530880
2.5284595 2.5911398 -0.26395929 4294053120
2.5357018 2.5987496 -0.28424329 4294183680
2.5328279 2.5960014 -0.30311304 4294183680
2.4901764 2.5525172 -0.31652883 4293922560
2.3710754 2.4307301 -0.31864613 4293400320
2.5217581 2.5852432 -0.35705835 4294053120
2.5270622 2.5908675 -0.37552032 4294183680
2.5172088 2.580965 -0.39127725 4294053120
2.4801352 2.5431745 -0.40204015 4293922560
2.3515134 2.4115841 -0.39638036 4293269760
2.5442271 2.6092143 -0.44502905 4294314240
2.5428009 2.6079423 -0.46031594 4294314240
2.5312128 2.5962558 -0.47316563 4294183680
2.5207303 2.5856998 -0.48556387 4294183680
2.4874523 2.5517786 -0.49276984 4294053120
2.1598544 2.2161827 -0.43904296 4292355840
2.1412518 2.1972711 -0.44601685 4292355840
2.114974 2.1704884 -0.45066121 4292225280
2.0942931 2.1494389 -0.4557687 4292094720
2.0682926 2.1229312 -0.4589887 4291964160
2.0540059 2.1084297 -0.46412081 4291964160
2.0231884 2.0769749 -0.46479961 4291833600
1.9860233 2.0390055 -0.46323359 4291572480
2.0086515 2.06235 -0.47506282 4291703040
1.9401834 1.9922681 -0.46460739 4291441920
1.9663607 2.0192513 -0.47620949 4291572480
1.9856983 2.0392215 -0.48571557 4291572480
1.9314299 1.9836873 -0.47653502 4291311360
1.9378235 1.9903769 -0.48170376 4291441920
1.9607791 2.0140581 -0.49048689 4291441920
1.9631696 2.0166414 -0.49357885 4291572480
1.962878 2.0164721 -0.49542123 4291572480
1.9660916 2.0198987 -0.49757376 4291572480
1.959754 2.0135233 -0.496721 4291441920
1.9459286 1.9994614 -0.49338102 4291441920
1.9328607 1.9861743 -0.48965815 4291311360
1.9831357 2.0379 -0.50142926 4291572480
1.9598992 2.014174 -0.49397254 4291441920
1.9305418 1.9841609 -0.48444259 4291311360
1.9915384 2.0468998 -0.49702817 4291703040
1.9684979 2.0233684 -0.48796019 4291572480
2.0078788 2.0639222 -0.4937993 4291703040
2.0381794 2.0951564 -0.49667913 4291833600
2.0520027 2.1094739 -0.49485248 4291964160
2.0878403 2.1463988 -0.49763876 4292094720
2.1080678 2.1672957 -0.49595466 4292225280
2.1270025 2.1868665 -0.49326596 4292355840
2.1482475 2.2088115 -0.49040461 4292355840
2.1890583 2.2508547 -0.49122149 4292616960
2.311847 2.3771086 -0.50925255 4293139200
2.4596686 2.5290906 -0.5310694 4293922560
2.5060849 2.5769143 -0.52946186 4294183680
2.5309937 2.6026466 -0.52235758 4294183680
2.5252512 2.596889 -0.50822431 4294183680
2.4992285 2.5702927 -0.48959056 4294053120
2.4932406 2.5642788 -0.47451198 4294053120
2.5057793 2.577301 -0.46239588 4294053120
2.5135953 2.5854704 -0.44876638 4294183680
2.5041666 2.5759177 -0.43155646 4294053120
2.4947672 2.5663934 -0.4139877 4294053120
2.5125682 2.5848238 -0.40043059 4294053120
2.5156434 2.5881193 -0.38393506 4294053120
2.5184348 2.5911229 -0.3669306 4294183680
2.4950058 2.5671725 -0.34583083 4294053120
2.4961207 2.5684505 -0.32792506 4294053120
2.5079658 2.5807593 -0.31098002 4294053120
2.5086501 2.5815942 -0.29221067 4294053120
2.4844627 2.5568566 -0.27038836 4293922560
2.4942274 2.5670259 -0.25209758 4293922560
2.5114458 2.5848606 -0.23407976 4294053120
2.4930875 2.566112 -0.2124792 4293922560
2.3890421 2.4592428 -0.18427224 4293400320
2.4080894 2.4789541 -0.1661319 4293530880
2.3972619 2.4679418 -0.14566389 4293530880
2.4451234 2.5172913 -0.12834071 4293661440
2.5172465 2.5916007 -0.11117323 4294053120
2.5392497 2.6143622 -0.090852022 4294183680
2.5492773 2.6248069 -0.069728062 4294183680
2.4833086 2.5570722 -0.046870049 4293922560
2.5634177 2.6396136 -0.026707346 4294314240
2.584008 2.660928 -0.0050004502 4294314240
2.5905252 2.6677649 0.016977957 4294444800
2.5166171 2.5918498 0.037897754 4294053120
2.6116071 2.6897216 0.061366584 4294575360
2.627974 2.7066967 0.083920583 4294575360
2.6255219 2.7043073 0.10591319 4294575360
2.4860394 2.5608943 0.12118019 4293922560
2.6121547 2.6908183 0.14892837 4294575360
2.6221945 2.7012856 0.17111579 4294575360
2.6055739 2.6843128 0.19134429 4294444800
2.4252467 2.4988279 0.19787747 4293661440
2.6228161 2.7023308 0.23482384 4294575360
2.6254373 2.7051649 0.25581637 4294575360
2.6087089 2.6880796 0.27454883 4294575360
2.4311757 2.5054359 0.27469462 4293661440
2.6351271 2.7155528 0.31747976 4294705920
2.6411288 2.7218714 0.33781433 4294705920
2.6309154 2.711494 0.35568491 4294705920
2.5472357 2.6254632 0.36261985 4294314240
2.3885348 2.4621663 0.35683468 4293530880
2.6423788 2.7237213 0.41251713 4294705920
2.636236 2.7175369 0.42906016 4294705920
2.6210377 2.7020259 0.44351792 4294705920
2.5439656 2.6227822 0.44648141 4294314240
2.4285145 2.5039968 0.44105905 4293792000
2.6416867 2.7237289 0.49505645 4294705920
2.6457009 2.7280111 0.5107531 4294836480
2.6364086 2.7185855 0.52328503 4294705920
2.6135068 2.695138 0.53236276 4294705920
2.5620601 2.6422772 0.53466958 4294444800
2.5148292 2.5937555 0.53676146 4294183680
2.6358058 2.7185643 0.5742982 4294836480
2.6294503 2.7121673 0.58406299 4294705920
2.6258488 2.7086091 0.5937224 4294705920
2.637172 2.7204337 0.60608435 4294836480
2.6137686 2.6964672 0.60975689 4294705920
2.6102192 2.6929648 0.61724305 4294705920
2.6161628 2.6992483 0.62625349 4294705920
2.6099203 2.6929715 0.63162994 4294705920
2.5978372 2.6806734 0.63481694 4294575360
2.5971427 2.6801171 0.64000481 4294575360
2.6033912 2.6867206 0.64615816 4294705920
2.6090353 2.6927032 0.65142488 4294705920
2.5623789 2.6447551 0.64287245 4294444800
2.6082354 2.6922078 0.65667206 4294705920
2.6079693 2.6921003 0.6581738 4294705920
2.6016228 2.6857226 0.65737194 4294705920
2.6077092 2.692169 0.65892571 4294705920
2.6111436 2.6958823 0.65903705 4294705920
2.6088202 2.6936574 0.65692711 4294705920
2.6090066 2.6940229 0.65467668 4294705920
2.6153479 2.7007396 0.65318888 4294705920
2.6148303 2.7003815 0.6492219 4294705920
2.6211131 2.707042 0.64616597 4294705920
2.6256809 2.7119346 0.64191204 4294836480
2.6252754 2.7116966 0.63568801 4294836480
2.6342094 2.7210991 0.630952 4294836480
2.6249669 2.7117429 0.62114698 4294705920
2.6220679 2.7089348 0.61214983 4294705920
2.6181424 2.7050676 0.60222542 4294705920
2.6170919 2.7041693 0.59227848 4294705920
2.6269772 2.7145622 0.58407527 4294705920
2.6443417 2.7326798 0.5767408 4294836480
2.6287029 2.716723 0.56157005 4294705920
2.6197546 2.7076735 0.54728889 4294705920
2.6002586 2.688786 0.44967461 4294575360
2.6221142 2.7115631 0.43678173 4294705920
2.6306055 2.7205355 0.42098808 4294705920
2.6052947 2.6945808 0.3994554 4294575360
2.5812113 2.6698916 0.37799758 4294444800
2.6070349 2.6967778 0.36336571 4294575360
2.6150761 2.7052894 0.34562483 4294575360
2.5869608 2.6764297 0.32289934 4294444800
2.5820777 2.6715822 0.30293801 4294444800
2.5975749 2.6878035 0.28493261 4294444800
2.6009676 2.6915133 0.26514906 4294575360
2.5659993 2.65556 0.24144095 4294314240
2.575603 2.6656914 0.22182088 4294444800
2.5822206 2.6727364 0.20157084 4294444800
2.5585122 2.6484201 0.17889452 4294314240
2.5184131 2.6071477 0.15540966 4294053120
2.4758208 2.5632904 0.13228305 4293922560
2.4446929 2.5312862 0.1102253 4293792000
2.4414644 2.5281391 0.089566544 4293792000
2.3814669 2.4662592 0.067303956 4293400320
2.4530339 2.5404956 0.048475143 4293792000
2.4974546 2.5866535 0.028092016 4294053120
2.4303298 2.5173888 0.0066993702 4293661440
2.4100597 2.4966035 -0.013868397 4293530880
2.478719 2.5678556 -0.035417452 4293922560
2.4878087 2.5774598 -0.056697488 4293922560
2.4022567 2.4890983 -0.075046234 4293530880
2.5036201 2.5942216 -0.099429004 4294053120
2.5172539 2.6085343 -0.12113072 4294053120
2.523191 2.6148801 -0.14249364 4294183680
2.4428053 2.5318432 -0.15815479 4293792000
2.5022271 2.5935686 -0.18262157 4294053120
2.508302 2.6000564 -0.20350157 4294053120
2.506705 2.5985994 -0.22357313 4294053120
2.4330826 2.5225394 -0.23633417 4293661440
2.5224233 2.615273 -0.26489717 4294183680
2.5352988 2.6288078 -0.28589544 4294183680
2.5359507 2.6296802 -0.30530253 4294183680
2.5086834 2.6016257 -0.32080004 4294053120
2.3630953 2.4509673 -0.31946892 4293400320
2.5293152 2.6233923 -0.36027628 4294183680
2.535171 2.6296551 -0.37898558 4294314240
2.5322282 2.6267993 -0.39597821 4294183680
2.5090635 2.602983 -0.40918377 4294183680
2.376725 2.4659994 -0.40304747 4293530880
2.5547001 2.6506712 -0.44954526 4294314240
2.5512326 2.6472688 -0.46461579 4294314240
2.5400584 2.6358752 -0.47767136 4294314240
2.5137269 2.6087637 -0.48711497 4294183680
2.4511797 2.5440943 -0.48847649 4293922560
2.1239934 2.204987 -0.43432206 4292355840
2.0960767 2.1761918 -0.4391993 4292225280
2.0787466 2.1583717 -0.44557837 4292094720
2.0731094 2.1526761 -0.45385477 4292094720
2.0518475 2.1307716 -0.45806411 4291964160
2.030741 2.1090248 -0.46160594 4291833600
2.0044603 2.0819058 -0.46325228 4291703040
1.9636289 2.039686 -0.46074829 4291572480
1.9370385 2.0122354 -0.46083251 4291441920
1.956166 2.0322189 -0.47126222 4291572480
1.8984629 1.9724766 -0.46248546 4291311360
1.921121 1.9961225 -0.47270292 4291311360
1.9533973 2.0297525 -0.48486862 4291572480
1.893383 1.9675965 -0.47345808 4291180800
1.905956 1.9807757 -0.47960481 4291311360
1.9056062 1.9805411 -0.4819507 4291311360
1.918303 1.9938494 -0.48705438 4291311360
1.9180849 1.9937505 -0.48831353 4291311360
1.8988092 1.9738642 -0.48412979 4291311360
1.8884832 1.963267 -0.48165944 4291180800
1.9383862 2.0152078 -0.49401689 4291441920
1.9220494 1.9983683 -0.4888688 4291441920
1.9654554 2.0435686 -0.49835804 4291572480
1.9465225 2.0240304 -0.49140349 4291441920
1.9235525 2.0002959 -0.48290613 4291441920
1.966036 2.0445437 -0.49028179 4291572480
2.0073357 2.0875661 -0.49663681 4291833600
2.0218582 2.1027763 -0.49565694 4291833600
2.052474 2.134706 -0.49794564 4291964160
2.0598605 2.1425047 -0.49390703 4292094720
2.0715532 2.1547775 -0.49027428 4292094720
2.0888445 2.1728683 -0.48730835 4292225280
2.1024745 2.1871552 -0.48281533 4292225280
2.13656 2.2227001 -0.48229367 4292355840
2.2128205 2.302078 -0.49031329 4292747520
2.4411514 2.5395093 -0.53023136 4293922560
2.5304289 2.632441 -0.53783393 4294314240
2.5480616 2.6509137 -0.52905232 4294444800
2.5433755 2.6461878 -0.51496041 4294314240
2.5203202 2.6223648 -0.49670348 4294314240
2.5149736 2.6169481 -0.48153901 4294183680
2.5268152 2.6293993 -0.46909344 4294314240
2.5308728 2.6337583 -0.45457765 4294314240
2.5260739 2.6289082 -0.43796182 4294314240
2.5079427 2.610194 -0.4186835 4294183680
2.5254958 2.6285832 -0.40491748 4294183680
2.5330238 2.6365485 -0.38892102 4294314240
2.5275187 2.6309602 -0.37047186 4294183680
2.4907022 2.5928063 -0.34730512 4294053120
2.509017 2.6119878 -0.33160663 4294183680
2.514329 2.6176465 -0.31364441 4294183680
2.5042245 2.607269 -0.29344246 4294053120
2.4876342 2.5901437 -0.27235934 4294053120
2.5151119 2.6188591 -0.25574601 4294183680
2.510756 2.6144593 -0.23541677 4294183680
2.5068183 2.6104934 -0.21493754 4294053120
2.4522672 2.5538671 -0.19032566 4293792000
2.4881494 2.5913293 -0.17273816 4294053120
2.4863186 2.5895536 -0.15204139 4294053120
2.4373808 2.5387578 -0.12869015 4293792000
2.4966013 2.6005111 -0.1109008 4294053120
2.5146165 2.6193879 -0.090484291 4294183680
2.4887595 2.5926068 -0.068428256 4294053120
2.3250475 2.4223435 -0.044019017 4293139200
2.2265429 2.3199348 -0.02308096 4292747520
2.3478246 2.4462914 -0.0043861475 4293269760
2.4457364 2.5483336 0.016245333 4293792000
2.4377012 2.5400946 0.037004214 4293792000
2.5357466 2.6422906 0.060014307 4294183680
2.4911819 2.5960245 0.080149107 4294053120
2.4978921 2.6031394 0.10148398 4294053120
2.4590013 2.5627749 0.12062149 4293792000
2.5539291 2.6617465 0.1465482 4294314240
2.54531 2.6529038 0.16717687 4294314240
2.4919276 2.5974452 0.18420893 4294053120
2.3852527 2.4864819 0.19583796 4293530880
2.5881274 2.6978946 0.23316167 4294444800
2.590939 2.7009583 0.25402415 4294575360
2.5246766 2.6320772 0.2673952 4294183680
2.4192433 2.5223885 0.27502313 4293661440
2.6234443 2.7352285 0.3180086 4294705920
2.6347315 2.7471266 0.33905497 4294705920
2.6254148 2.7375612 0.35710809 4294705920
2.5415435 2.6503215 0.36401758 4294314240
2.3803477 2.4825099 0.35778344 4293530880
2.6361027 2.7491224 0.41404796 4294836480
2.6237981 2.7364447 0.42964575 4294705920
2.6018119 2.7136776 0.44296065 4294575360
2.5313904 2.6404343 0.44698873 4294314240
2.427623 2.5324314 0.44357952 4293792000
2.6292052 2.7426608 0.49572593 4294836480
2.6283805 2.7419488 0.5105114 4294836480
2.630126 2.743917 0.52521902 4294836480
2.5951235 2.7075803 0.53184992 4294705920
2.5466218 2.6571686 0.53469414 4294444800
2.5030982 2.6119418 0.53751749 4294183680
2.6264732 2.7407138 0.57575357 4294836480
2.6266022 2.7410021 0.586981 4294836480
2.6202803 2.7345655 0.59607142 4294836480
2.6083004 2.7222292 0.6031211 4294705920
2.604846 2.7187831 0.61137915 4294705920
2.5944848 2.7081349 0.61726803 4294705920
2.5977659 2.7117145 0.62564862 4294705920
2.6003284 2.7145467 0.6331448 4294705920
2.5787628 2.6922131 0.63400638 4294575360
2.5944438 2.7087307 0.64323062 4294705920
2.5972409 2.7118111 0.64855808 4294705920
2.5575883 2.6706083 0.64251268 4294575360
2.557152 2.670316 0.64546824 4294575360
2.5533943 2.6665592 0.64682764 4294444800
