# .PCD v0.7 - Point Cloud Data file format
VERSION 0.7
FIELDS x y z rgba
SIZE 4 4 4 4
TYPE F F F U
COUNT 1 1 1 1
WIDTH 1128
HEIGHT 1
VIEWPOINT 0 0 0 1 0 0 0
POINTS 1128
DATA ascii
1.6368309 1.5345523 -0.17482679 4289483520
1.6331782 1.531237 -0.18628623 4289483520
1.6411737 1.5388323 -0.19889534 4289483520
1.6135153 1.513028 -0.20684753 4289352960
1.6226832 1.5217212 -0.21914345 4289483520
1.6278337 1.5266514 -0.23075475 4289483520
1.6233822 1.522585 -0.24076048 4289483520
1.6172103 1.5169058 -0.25017661 4289483520
1.5900993 1.491603 -0.25587955 4289352960
1.6069325 1.5074805 -0.26827639 4289352960
1.6060482 1.506754 -0.27752179 4289352960
1.6086358 1.5092815 -0.28706321 4289352960
1.5968033 1.4982921 -0.29366705 4289352960
1.5958037 1.4974561 -0.30185553 4289352960
1.5777014 1.4805859 -0.30638155 4289222400
1.5771825 1.4801986 -0.31386995 4289222400
1.5799865 1.4829267 -0.32167059 4289352960
1.5788991 1.4820061 -0.32832253 4289352960
1.5790226 1.4822203 -0.33484554 4289352960
1.5829954 1.4860442 -0.3418141 4289352960
1.5803806 1.48369 -0.34697735 4289352960
1.5835418 1.4867526 -0.35300624 4289352960
1.5796279 1.4831791 -0.3570534 4289352960
1.5812409 1.4847891 -0.3619253 4289352960
1.5837883 1.4872756 -0.36660197 4289352960
1.5717047 1.4760357 -0.36745465 4289222400
1.5770106 1.4811094 -0.37191647 4289352960
1.5809984 1.4849467 -0.37565297 4289352960
1.5637034 1.4688131 -0.37389013 4289222400
1.5698886 1.4747113 -0.37727058 4289222400
1.569016 1.4739865 -0.37852558 4289222400
1.5730799 1.4778943 -0.38052735 4289352960
1.5629095 1.4684418 -0.37864932 4289222400
1.5697455 1.4749511 -0.38043341 4289222400
1.5682408 1.4736311 -0.37975749 4289222400
1.5772238 1.4821564 -0.38116553 4289352960
1.5713692 1.4767523 -0.37855217 4289222400
1.5713817 1.4768556 -0.37690991 4289222400
1.5657611 1.4716696 -0.37348735 4289222400
1.5664401 1.4723978 -0.37113336 4289222400
1.5658183 1.4719043 -0.36803919 4289222400
1.5652235 1.4714355 -0.3645249 4289222400
1.5638222 1.4702091 -0.36040387 4289222400
1.5569282 1.4638232 -0.35462388 4289222400
1.5505337 1.4579053 -0.34858346 4289222400
1.551066 1.4584932 -0.34370917 4289222400
1.5448525 1.4527438 -0.3369672 4289091840
1.5357151 1.4442463 -0.32925642 4289091840
1.5464298 1.4543991 -0.32540119 4289091840
1.5568374 1.4642644 -0.32102171 4289222400
1.5686483 1.475449 -0.3164666 4289222400
1.5621514 1.4694309 -0.30784598 4289222400
1.5661869 1.4733096 -0.30095404 4289222400
1.5653021 1.4725645 -0.2927624 4289222400
1.5851909 1.491343 -0.28800979 4289352960
1.5998466 1.5052049 -0.28179684 4289352960
1.607864 1.5128285 -0.27397376 4289352960
1.5947599 1.5005981 -0.26228762 4289352960
1.5898671 1.4960852 -0.25176063 4289352960
1.6102568 1.5153402 -0.24484281 4289352960
1.6217048 1.5261905 -0.23609528 4289483520
1.6196809 1.5243752 -0.22507073 4289483520
1.5933211 1.4996765 -0.21061981 4289352960
1.620474 1.5252951 -0.20297128 4289483520
1.6200899 1.525021 -0.19147891 4289483520
1.6247245 1.5294662 -0.18033561 4289483520
1.6068587 1.5127503 -0.16660537 4289352960
1.6542822 1.5574404 -0.15920772 4289614080
1.6546569 1.5578809 -0.14677565 4289614080
1.6494789 1.5530982 -0.13372995 4289614080
1.6370765 1.5415187 -0.12009111 4289483520
1.6217746 1.5272099 -0.10632496 4289483520
1.4121705 1.330096 -0.081559278 4288439040
1.3668433 1.2875236 -0.068116702 4288308480
1.4439857 1.3601813 -0.060384575 4288569600
1.4303441 1.3474212 -0.048327498 4288569600
1.4074465 1.3259494 -0.036203627 4288439040
1.3324625 1.2554575 -0.023515839 4288047360
1.4444572 1.3609303 -0.013711773 4288569600
1.4546449 1.3705953 -0.0019791804 4288700160
1.5575806 1.4675597 0.010586521 4289091840
1.6853317 1.5878936 0.025191292 4289744640
1.7216665 1.6221864 0.03970249 4289875200
1.7296685 1.6298106 0.053867567 4289875200
1.7188874 1.6197523 0.067362033 4289875200
1.6846094 1.5875702 0.079495393 4289744640
1.7166948 1.6178697 0.094675563 4289875200
1.7237002 1.6245573 0.1086735 4289875200
1.7089256 1.610736 0.12111459 4289875200
1.6419383 1.5477436 0.12907603 4289483520
1.7237638 1.624892 0.14874391 4289875200
1.7176799 1.6192539 0.16122304 4289875200
1.7024336 1.6049854 0.17250456 4289875200
1.6005876 1.5091443 0.17394012 4289352960
1.7417022 1.6421582 0.20191835 4290005760
1.7339523 1.634951 0.21335079 4290005760
1.7247335 1.6263593 0.22424811 4289875200
1.671159 1.5759772 0.22869228 4289744640
1.5621514 1.4733603 0.2241935 4289222400
1.7352185 1.6365185 0.26038471 4290005760
1.7187283 1.6210738 0.26883164 4289875200
1.7034736 1.6067919 0.27697319 4289875200
1.6722722 1.5774801 0.28192824 4289744640
1.6410131 1.5481108 0.28618878 4289614080
1.7192204 1.6219136 0.30949175 4289875200
1.7176602 1.6205376 0.31850478 4289875200
1.7078198 1.6113566 0.3255612 4289875200
1.7062287 1.6099513 0.33376265 4289875200
1.6874312 1.5923247 0.33811891 4289744640
1.6705886 1.5765396 0.34231558 4289744640
1.6956826 1.6002934 0.35474989 4289875200
1.7017206 1.606082 0.36292073 4289875200
1.7031324 1.6075091 0.36971697 4289875200
1.6924897 1.5975692 0.3734366 4289875200
1.6977596 1.6026353 0.38021684 4289875200
1.6917702 1.5970831 0.3840335 4289875200
1.6955364 1.6007322 0.38961238 4289875200
1.6916778 1.59719 0.3929866 4289875200
1.6941144 1.599586 0.39736211 4289875200
1.6836365 1.5897994 0.39822903 4289875200
1.6796567 1.5861425 0.40014124 4289744640
1.6857653 1.5920039 0.40399185 4289875200
1.6854804 1.5918338 0.40584561 4289875200
1.6755779 1.5825888 0.404899 4289744640
1.6958286 1.6017976 0.41076979 4289875200
1.6849753 1.5916555 0.40863144 4289875200
1.6920872 1.5984677 0.4103691 4289875200
1.6885047 1.5951875 0.4090324 4289875200
1.6885732 1.5953535 0.40810195 4289875200
1.685763 1.5928023 0.40599972 4289875200
1.6884681 1.5954577 0.40475002 4289875200
1.6901519 1.5971497 0.40277636 4289875200
1.6952428 1.602059 0.40113297 4289875200
1.6957085 1.6026024 0.39791679 4289875200
1.6917789 1.5989956 0.39321247 4289875200
1.6953722 1.602493 0.38979891 4289875200
1.7000691 1.6070333 0.38616365 4289875200
1.6989312 1.606064 0.38074455 4289875200
1.6993111 1.6065284 0.3752265 4289875200
1.6852276 1.5933315 0.366128 4289875200
1.687979 1.5960358 0.3603054 4289875200
1.7113694 1.6182388 0.35837018 4289875200
1.7142162 1.6210362 0.35161206 4290005760
1.7107127 1.6178342 0.34315109 4289875200
1.6821438 1.5915345 0.27944833 4289744640
1.7037781 1.6120939 0.27268299 4289875200
1.7233065 1.6306654 0.2650207 4290005760
1.715829 1.6237074 0.25283 4289875200
1.6788466 1.5888518 0.236296 4289744640
1.6908894 1.6003481 0.22657087 4289744640
1.7056732 1.6144383 0.21677868 4289875200
1.6976436 1.606956 0.20379667 4289875200
1.6719044 1.5827239 0.18870053 4289744640
1.6936946 1.6034429 0.17879675 4289744640
1.6962456 1.6059668 0.16648269 4289744640
1.6977912 1.6075402 0.15385607 4289744640
1.6785505 1.5894498 0.13930658 4289744640
1.7047977 1.6143923 0.12833537 4289875200
1.7193369 1.6282609 0.11602347 4289875200
1.7002468 1.6103107 0.10134287 4289744640
1.5763091 1.4931426 0.081405096 4289222400
1.415313 1.340888 0.061721116 4288439040
1.4438221 1.3679631 0.051358879 4288569600
1.3883063 1.3155138 0.038139518 4288308480
1.4157494 1.3415819 0.027415292 4288439040
1.3983693 1.3252232 0.015693445 4288439040
1.3724856 1.3008122 0.0042064674 4288308480
1.3917834 1.3191731 -0.0070746299 4288439040
1.5738217 1.4916213 -0.020743622 4289222400
1.6242747 1.5394983 -0.034600709 4289483520
1.6342109 1.5490149 -0.04806501 4289483520
1.6160727 1.5319458 -0.060598347 4289352960
1.6254942 1.5409756 -0.07401862 4289483520
1.6292864 1.5446748 -0.087212056 4289483520
1.6186905 1.5347457 -0.099494666 4289483520
1.5946651 1.5120939 -0.11057835 4289352960
1.593254 1.5108622 -0.12290101 4289352960
1.5953909 1.5129917 -0.13536872 4289352960
1.5788834 1.4974562 -0.14600796 4289222400
1.5429074 1.4634713 -0.15430246 4289091840
1.5386205 1.4595103 -0.16528013 4289091840
1.5527331 1.4729853 -0.17811562 4289091840
1.5568374 1.4769768 -0.18974601 4289222400
1.5472616 1.4680026 -0.19947073 4289091840
1.5258522 1.4478102 -0.20724258 4289091840
1.5283637 1.4502903 -0.2178909 4289091840
1.5256646 1.4478309 -0.22755778 4289091840
1.5309093 1.4529022 -0.23816849 4289091840
1.5096514 1.4328462 -0.24430807 4288961280
1.4969647 1.4209143 -0.25134754 4288961280
1.5069399 1.4304698 -0.26187846 4288961280
1.5100521 1.4335179 -0.27100354 4288961280
1.5110548 1.4345658 -0.27946964 4288961280
1.5209458 1.4440435 -0.28931615 4289091840
1.4864297 1.4114017 -0.29029438 4288830720
1.4892427 1.4141647 -0.29804769 4288961280
1.4884828 1.4135382 -0.30475923 4288961280
1.4906144 1.4156548 -0.31171888 4288961280
1.4961661 1.421016 -0.31906703 4288961280
1.4987564 1.4235679 -0.32545269 4288961280
1.5050516 1.4296353 -0.33229908 4288961280
1.5021805 1.4270047 -0.33675823 4288961280
1.5073428 1.4319974 -0.34263021 4288961280
1.5069388 1.4317075 -0.34685928 4288961280
1.5120603 1.4366617 -0.35196626 4289091840
1.5208812 1.4451277 -0.35755682 4289091840
1.5079371 1.4329339 -0.35762376 4288961280
1.5097831 1.4347787 -0.36074793 4289091840
1.5066147 1.4318627 -0.36225533 4288961280
1.5092021 1.434411 -0.36471805 4289091840
1.5089835 1.4342947 -0.36608142 4289091840
1.4988185 1.4247335 -0.36460406 4288961280
1.5051227 1.4308102 -0.36669019 4288961280
1.5050632 1.4308438 -0.36680377 4288961280
1.506413 1.4322157 -0.36683026 4288961280
1.5026077 1.4286908 -0.36517739 4288961280
1.500103 1.4264007 -0.36341622 4288961280
1.5014693 1.4277871 -0.36216557 4288961280
1.5008116 1.4272505 -0.36000437 4288961280
1.4943161 1.4211675 -0.35603797 4288961280
1.4878598 1.4151206 -0.3516883 4288961280
1.4848406 1.4123384 -0.34775752 4288961280
1.4796267 1.40747 -0.34292889 4288830720
1.4734353 1.4016719 -0.33750546 4288830720
1.4766082 1.4047718 -0.33383614 4288830720
1.4670957 1.395816 -0.32694271 4288830720
1.457768 1.3870342 -0.31977585 4288830720
1.4527229 1.3823218 -0.31322804 4288700160
1.4497347 1.3795637 -0.30679268 4288700160
1.4597392 1.3891559 -0.30271503 4288830720
1.4729519 1.401799 -0.29885235 4288830720
1.480799 1.4093419 -0.29346728 4288830720
1.468197 1.3974431 -0.28373414 4288830720
1.4572906 1.3871548 -0.27412328 4288700160
1.4647685 1.3943465 -0.26766363 4288830720
1.4764549 1.4055407 -0.26156253 4288830720
1.4879673 1.4165707 -0.25500444 4288830720
1.4769973 1.4062196 -0.2443199 4288830720
1.4733486 1.4028306 -0.23465566 4288830720
1.4840057 1.4130479 -0.22695361 4288830720
1.4944563 1.42307 -0.21883182 4288961280
1.4918923 1.4207125 -0.20851795 4288830720
1.4790053 1.4085339 -0.19664085 4288830720
1.5141518 1.442052 -0.19074763 4288961280
1.5319319 1.4590508 -0.18209526 4289091840
1.5553145 1.481382 -0.1736102 4289222400
1.5487293 1.4751999 -0.16148452 4289091840
1.5607736 1.4867448 -0.15107307 4289222400
1.555799 1.4820948 -0.13880539 4289222400
1.5559335 1.4823064 -0.12687598 4289222400
1.5917394 1.5164685 -0.11742081 4289352960
1.6065646 1.5306649 -0.10590613 4289352960
1.5773892 1.5029799 -0.091510214 4289222400
1.3122803 1.2507021 -0.065777734 4288047360
1.408582 1.3424489 -0.059236694 4288439040
1.4087683 1.3427018 -0.047861919 4288439040
1.3842291 1.3194137 -0.035804309 4288308480
1.3215617 1.2598201 -0.023448156 4288047360
1.4227996 1.3562881 -0.013580229 4288569600
1.4329309 1.3660115 -0.0019594331 4288569600
1.5106211 1.4400717 0.010316758 4288961280
1.6659118 1.588043 0.025043275 4289614080
1.7020472 1.6225474 0.039472137 4289875200
1.7075424 1.6278723 0.05347709 4289875200
1.7057998 1.6263038 0.067226306 4289875200
1.6717106 1.5939231 0.079330444 4289744640
1.7036197 1.6244097 0.0944819 4289875200
1.7040776 1.6249373 0.10803675 4289875200
1.6883541 1.6100488 0.12032451 4289744640
1.6184342 1.5435215 0.12793697 4289483520
1.705061 1.6261491 0.14795099 4289875200
1.6998034 1.6212312 0.16043518 4289875200
1.6843781 1.6066236 0.17162675 4289744640
1.5881568 1.5150168 0.17355241 4289352960
1.7214683 1.6421546 0.20068452 4290005760
1.7159954 1.6370318 0.21231793 4289875200
1.7084228 1.6299073 0.22336534 4289875200
1.6583444 1.5822654 0.22820377 4289614080
1.5434594 1.4728405 0.22274427 4289091840
1.7168436 1.6382151 0.25906223 4290005760
1.7070916 1.629012 0.26849958 4289875200
1.6847993 1.6078521 0.27546224 4289875200
1.6702334 1.5940567 0.28315496 4289744640
1.6355523 1.5610795 0.28682649 4289614080
1.7042495 1.6266794 0.30850539 4289875200
1.7024465 1.6250548 0.31744173 4289875200
1.6948155 1.6178724 0.32488167 4289875200
1.6860704 1.6096267 0.33165547 4289875200
1.678122 1.6021401 0.33812678 4289744640
1.6649501 1.5896704 0.34306109 4289744640
1.6934803 1.6169804 0.35626343 4289875200
1.692331 1.6159803 0.36292866 4289875200
1.6836731 1.6078168 0.36752766 4289875200
1.6867217 1.6108217 0.3742373 4289875200
1.6848198 1.6091038 0.37942037 4289875200
1.6752951 1.6001123 0.38241142 4289875200
1.6761883 1.6010617 0.38731119 4289875200
1.6759204 1.6009033 0.3914943 4289875200
1.6705008 1.5958285 0.39400506 4289744640
1.674342 1.5995926 0.39823687 4289875200
1.6703836 1.5959126 0.40014908 4289744640
1.6736075 1.5990885 0.40331262 4289875200
1.6697617 1.5955163 0.40430042 4289744640
1.6759475 1.601521 0.40724555 4289875200
1.6757793 1.6014605 0.40817448 4289875200
1.6692595 1.5953357 0.40707561 4289744640
1.6692094 1.5953882 0.40707582 4289744640
1.6720562 1.5982075 0.40730479 4289875200
1.6734761 1.5996648 0.40670711 4289875200
1.6768823 1.6030196 0.40611205 4289875200
1.6755785 1.6018767 0.40389901 4289875200
1.6772519 1.6035779 0.40193027 4289875200
1.6758997 1.6023893 0.39876622 4289875200
1.6792114 1.6056565 0.3962422 4289875200
1.6788659 1.6054305 0.39238691 4289875200
1.6824379 1.6089476 0.38898212 4289875200
1.6835403 1.610106 0.3845416 4289875200
1.6831195 1.6098093 0.37930462 4289875200
1.6799253 1.6068627 0.37301451 4289875200
1.6665673 1.5942029 0.3640933 4289744640
1.6686469 1.5962958 0.35816553 4289744640
1.6847569 1.6117995 0.35476461 4289875200
1.7011645 1.6275899 0.35088232 4289875200
1.687664 1.6147933 0.34041616 4289875200
1.6690995 1.5980479 0.27885643 4289744640
1.6805611 1.6091206 0.27049431 4289744640
1.7037483 1.6314124 0.26350209 4289875200
1.6954037 1.6235405 0.25124097 4289875200
1.6586233 1.588461 0.23477812 4289744640
1.6705929 1.600023 0.22512625 4289744640
1.6932021 1.621768 0.21642217 4289875200
1.6737001 1.6032166 0.20206825 4289744640
1.6552992 1.5857168 0.1878947 4289614080
1.6697605 1.5996673 0.17727795 4289744640
1.6830997 1.612546 0.16614103 4289744640
1.6853557 1.6148171 0.15360822 4289744640
1.6597297 1.5903972 0.13853778 4289614080
1.6887136 1.618256 0.1278595 4289744640
1.6545252 1.5856352 0.11228446 4289614080
1.6032178 1.5366185 0.096093409 4289352960
1.4151475 1.3566345 0.073464252 4288569600
1.3297024 1.2749035 0.058303893 4288177920
1.2935234 1.2403436 0.04623707 4287916800
1.3174257 1.2633231 0.036389627 4288047360
1.3009658 1.2476451 0.025310332 4288047360
1.340266 1.2853781 0.015124521 4288177920
1.3157129 1.2619466 0.004053046 4288047360
1.3788818 1.3225529 -0.0070303818 4288308480
1.4411186 1.3822746 -0.019129539 4288700160
1.4391873 1.3805206 -0.030878864 4288569600
1.4310205 1.3727912 -0.042382721 4288569600
1.4188286 1.3612033 -0.053559132 4288569600
1.4253018 1.3675019 -0.065327868 4288569600
1.4412819 1.3829131 -0.077638812 4288700160
1.452571 1.3938299 -0.089834735 4288700160
1.43506 1.3771414 -0.1001192 4288569600
1.4449822 1.3867488 -0.11213519 4288700160
1.4429715 1.3849174 -0.12317272 4288700160
1.4304972 1.3730534 -0.13307856 4288569600
1.4380856 1.3804245 -0.14465754 4288700160
1.4408746 1.3831943 -0.15567741 4288700160
1.4453722 1.3876029 -0.16676511 4288700160
1.4514519 1.3935293 -0.17792906 4288700160
1.4318888 1.3748622 -0.18567514 4288569600
1.4352263 1.3781579 -0.19605798 4288700160
1.4463388 1.3889118 -0.20738064 4288700160
1.4369109 1.3799627 -0.21555451 4288700160
1.4314407 1.374809 -0.22398312 4288700160
1.3976548 1.3424875 -0.22750284 4288439040
1.4485677 1.3914297 -0.244598 4288700160
1.4407948 1.3840655 -0.25181267 4288700160
1.4448934 1.3880922 -0.26078936 4288700160
1.4406415 1.3841054 -0.2679711 4288700160
1.4335774 1.3774189 -0.27426845 4288700160
1.4240948 1.3684098 -0.2797088 4288569600
1.4262056 1.3705276 -0.28706285 4288700160
1.4254774 1.36992 -0.29352769 4288700160
1.4370828 1.3811525 -0.30223623 4288700160
1.4296744 1.3741316 -0.30663389 4288700160
1.4359331 1.3802319 -0.31359512 4288700160
1.425946 1.3707333 -0.31664747 4288700160
1.4246087 1.3695391 -0.32120836 4288700160
1.4310553 1.3758198 -0.32716337 4288700160
1.4307446 1.3756113 -0.33121938 4288700160
1.4284708 1.3735169 -0.33443159 4288700160
1.4302354 1.3753009 -0.33819607 4288700160
1.4270058 1.3722874 -0.34038749 4288700160
1.4198989 1.3655486 -0.34124118 4288700160
1.4141135 1.3600782 -0.34199211 4288569600
1.4174112 1.3633335 -0.34452885 4288700160
1.4065514 1.3529859 -0.34322649 4288569600
1.4099466 1.3563342 -0.34498236 4288569600
1.4098402 1.3563176 -0.34548289 4288569600
1.412423 1.3588852 -0.34623626 4288569600
1.4220076 1.3681818 -0.34829378 4288700160
1.4184899 1.3648864 -0.34674451 4288700160
1.4224923 1.3688183 -0.34662068 4288700160
1.4232922 1.3696721 -0.34530979 4288700160
1.4278371 1.3741258 -0.34449425 4288700160
1.4243792 1.3708861 -0.34135121 4288700160
1.4286118 1.3750393 -0.33964476 4288700160
1.421512 1.3682971 -0.33486441 4288700160
1.4284906 1.3750905 -0.33299863 4288700160
1.4256517 1.372444 -0.32845539 4288700160
1.420938 1.3679938 -0.32312247 4288700160
1.4185784 1.3658069 -0.31797081 4288569600
1.4119796 1.3595423 -0.31153551 4288569600
1.4038656 1.3518192 -0.30446151 4288569600
1.3950057 1.3433775 -0.29694206 4288569600
1.4079394 1.3558986 -0.29368523 4288569600
1.417899 1.3655599 -0.28937411 4288569600
1.4321002 1.3793029 -0.28548315 4288700160
1.4208239 1.3685348 -0.2761946 4288569600
1.4028864 1.351356 -0.26545057 4288569600
1.4024248 1.3509908 -0.2577956 4288569600
1.4248419 1.372641 -0.25391608 4288569600
1.4255412 1.3733935 -0.24576515 4288569600
1.4097183 1.3582451 -0.23459117 4288569600
1.40084 1.3497788 -0.22445494 4288569600
1.4256645 1.3737502 -0.21934283 4288569600
1.4281199 1.3761925 -0.21038504 4288569600
1.4270073 1.3752004 -0.20066136 4288569600
1.3979918 1.3473465 -0.18701479 4288439040
1.4143467 1.3631687 -0.17928684 4288569600
1.4181228 1.3668818 -0.16963278 4288569600
1.4255726 1.3741325 -0.16014817 4288569600
1.3999538 1.3495423 -0.14692701 4288439040
1.4214365 1.3703054 -0.13848902 4288569600
1.4271744 1.3759085 -0.12816949 4288569600
1.4208888 1.3699327 -0.11664157 4288569600
1.4090399 1.3585981 -0.1046736 4288569600
1.4110825 1.360642 -0.093692601 4288569600
1.4150023 1.3644942 -0.082686163 4288569600
1.4242661 1.3734944 -0.0717941 4288569600
1.4033215 1.353395 -0.059410986 4288439040
1.4092222 1.3591557 -0.048207968 4288569600
1.4199499 1.3695672 -0.036980174 4288569600
1.4169172 1.366722 -0.025297543 4288569600
1.4297068 1.3791219 -0.013782717 4288569600
1.4400365 1.3891529 -0.0020404689 4288700160
1.4379225 1.3871934 0.0097841201 4288700160
1.4353502 1.3847923 0.021556679 4288569600
1.554181 1.4993939 0.036129568 4289222400
1.6906734 1.6310308 0.053167742 4289875200
1.6844358 1.6251101 0.066678524 4289744640
1.6593639 1.601034 0.079112865 4289744640
1.6872405 1.6279962 0.094023846 4289875200
1.6889278 1.6297144 0.10760389 4289875200
1.6787908 1.6200333 0.12024436 4289744640
1.6128598 1.5565581 0.1281469 4289483520
1.6918104 1.6327692 0.1475565 4289875200
1.6865838 1.6278217 0.16001411 4289875200
1.6712469 1.6131246 0.17118007 4289744640
1.5691131 1.5147229 0.17237335 4289222400
1.7153022 1.655795 0.20102732 4290005760
1.7026893 1.6437243 0.21179432 4289875200
1.6851292 1.626881 0.22149755 4289875200
1.6489483 1.5920749 0.22813165 4289614080
1.531134 1.478519 0.22215836 4289091840
1.6999612 1.6414688 0.25790381 4289875200
1.6895552 1.631524 0.26718503 4289875200
1.6773334 1.6198266 0.27573761 4289875200
1.653625 1.5970453 0.28187159 4289744640
1.6091492 1.5542228 0.28374127 4289483520
1.6929132 1.6351423 0.30813792 4289875200
1.691373 1.6337514 0.31711492 4289875200
1.6932343 1.6356434 0.32637259 4289875200
1.6733818 1.6165789 0.33098155 4289875200
1.6579283 1.6017586 0.33591011 4289744640
1.658155 1.602072 0.34356084 4289744640
1.6739199 1.6173849 0.3541092 4289875200
1.6685154 1.6122638 0.35981715 4289875200
1.6706271 1.6143987 0.36671901 4289875200
1.6673664 1.6113472 0.37201482 4289875200
1.6653227 1.6094708 0.377134 4289875200
1.672889 1.6168739 0.38401034 4289875200
1.6631312 1.6075492 0.38645896 4289875200
1.6557722 1.6005402 0.38896999 4289744640
1.6588225 1.6035837 0.39346272 4289744640
1.6541961 1.5992136 0.39567313 4289744640
1.6573594 1.6023672 0.39928177 4289744640
1.6534791 1.5987179 0.40072638 4289744640
1.6567402 1.6019672 0.40343177 4289744640
1.6529737 1.598428 0.40395367 4289744640
1.6492653 1.5949451 0.40401128 4289744640
1.6562387 1.6017826 0.40621278 4289744640
1.6625509 1.6079825 0.40777814 4289875200
1.6590174 1.6046696 0.40645108 4289744640
1.6639692 1.6095564 0.40672529 4289875200
1.6638135 1.6095083 0.40527159 4289875200
1.6561403 1.602195 0.40152058 4289744640
1.6616474 1.6076206 0.40049702 4289875200
1.6596007 1.6057457 0.39717969 4289744640
1.6696664 1.6155795 0.39628169 4289875200
1.6643618 1.610556 0.39126429 4289875200
1.6664906 1.6127188 0.38754565 4289875200
1.6730095 1.619127 0.38437393 4289875200
1.6653198 1.6117976 0.37749553 4289875200
1.6651503 1.6117394 0.37190899 4289875200
1.6599897 1.606855 0.36479607 4289744640
1.6577364 1.6047821 0.35792828 4289744640
1.6742089 1.6208204 0.35463446 4289875200
1.6844264 1.6308111 0.34949586 4289875200
1.68187 1.6284469 0.34127203 4289875200
1.6536433 1.6012261 0.2777842 4289744640
1.6743199 1.6213384 0.27096343 4289875200
1.6907704 1.6373646 0.26292288 4289875200
1.6826528 1.6296222 0.2507121 4289875200
1.6532182 1.601252 0.23529029 4289744640
1.6591139 1.607067 0.22479738 4289744640
1.6749197 1.6224737 0.21524897 4289744640
1.6653029 1.6132779 0.2021478 4289744640
1.6434087 1.5921979 0.18755719 4289614080
1.6582798 1.6067024 0.17701276 4289744640
1.6739845 1.6220162 0.16613509 4289744640
1.6702032 1.6184678 0.15304713 4289744640
1.6443745 1.5935735 0.13799293 4289614080
1.6664809 1.6150881 0.12684919 4289744640
1.4829874 1.4375241 0.10113446 4288830720
1.4407244 1.3966979 0.086766005 4288700160
1.4239957 1.3805945 0.074318901 4288569600
1.4377395 1.3940015 0.063414358 4288700160
1.4363807 1.3927826 0.05166867 4288700160
1.4236208 1.3805199 0.03956693 4288569600
1.4157981 1.3730383 0.027728721 4288569600
1.4151779 1.3725332 0.016072573 4288569600
1.40856 1.3662173 0.0043869414 4288569600
1.3948635 1.3530419 -0.0071623661 4288439040
1.4049702 1.3629293 -0.0187873 4288569600
1.4018985 1.3600477 -0.030280706 4288439040
1.4128802 1.3707851 -0.042104427 4288569600
1.4014568 1.3598094 -0.05322336 4288439040
1.4134839 1.3715612 -0.065169655 4288569600
1.4216365 1.379559 -0.077033363 4288569600
1.421627 1.3796459 -0.08844234 4288569600
1.4093969 1.3678852 -0.09890525 4288569600
1.409901 1.368469 -0.11005563 4288569600
1.4215257 1.379835 -0.12204406 4288569600
1.4127052 1.3713778 -0.1321791 4288569600
1.4200712 1.3786156 -0.14366449 4288569600
1.4301906 1.3885245 -0.15540254 4288700160
1.4310372 1.3894414 -0.16605105 4288700160
1.4236392 1.3823618 -0.17551896 4288569600
1.3969665 1.3565848 -0.18218665 4288439040
1.4238614 1.3827673 -0.19560504 4288569600
1.4177796 1.3769621 -0.20444377 4288569600
1.4243623 1.3834426 -0.21487725 4288700160
1.4136811 1.3731738 -0.22245362 4288569600
1.3638904 1.3249547 -0.22327034 4288308480
1.4202224 1.3797082 -0.24116941 4288569600
1.4294076 1.3887155 -0.25122368 4288700160
1.4276204 1.3870749 -0.25911927 4288700160
1.4203036 1.380067 -0.26567259 4288700160
1.4149394 1.3749533 -0.27222097 4288569600
1.4021463 1.3626273 -0.27694324 4288569600
1.4085134 1.3688995 -0.28508773 4288569600
1.4113424 1.3717372 -0.29223844 4288569600
1.4084473 1.3690177 -0.29787487 4288569600
1.41606 1.3765002 -0.30540419 4288700160
1.4127877 1.3734137 -0.31026244 4288569600
1.4152994 1.3759434 -0.3160263 4288700160
1.4069505 1.3679258 -0.31898955 4288569600
1.4053947 1.3665043 -0.32308593 4288569600
1.405984 1.3671659 -0.32729676 4288569600
1.4001912 1.3616281 -0.32963374 4288569600
1.3892344 1.3510728 -0.33033511 4288569600
1.3856623 1.3476897 -0.33236927 4288569600
1.3727995 1.3352799 -0.33176446 4288439040
1.366256 1.3290079 -0.33226192 4288439040
1.3660103 1.3288541 -0.33388779 4288439040
1.3658115 1.3287455 -0.33513448 4288439040
1.3691919 1.3321147 -0.33686668 4288439040
1.3627322 1.3259211 -0.3357915 4288439040
1.3781055 1.340946 -0.3396847 4288439040
1.3842552 1.3470073 -0.34091416 4288569600
1.3903055 1.3529726 -0.34171608 4288569600
1.398084 1.3606181 -0.34253255 4288569600
1.3971776 1.3598212 -0.34082231 4288569600
1.3971545 1.3598827 -0.3389295 4288569600
1.4038595 1.3664855 -0.33825698 4288569600
1.4013445 1.3641238 -0.33496928 4288569600
1.4090843 1.3717332 -0.33372247 4288569600
1.4085312 1.3712786 -0.33011395 4288569600
1.4108255 1.3735931 -0.32678214 4288700160
1.41038 1.3732427 -0.32243377 4288569600
1.4037857 1.3669115 -0.31633386 4288569600
1.3988214 1.3621647 -0.31027353 4288569600
1.3926886 1.3562806 -0.3036378 4288569600
1.3786296 1.3426846 -0.29501042 4288439040
1.3931926 1.356932 -0.29214218 4288569600
1.4030949 1.3666462 -0.28785828 4288569600
1.4205799 1.3837392 -0.28466779 4288700160
1.4024477 1.3661773 -0.27404788 4288569600
1.3853124 1.3495833 -0.26349014 4288439040
1.3884008 1.3526675 -0.25653845 4288439040
1.4064275 1.3702897 -0.2519283 4288569600
1.41049 1.374323 -0.24441707 4288569600
1.3994548 1.3636619 -0.23406774 4288569600
1.3832511 1.3479685 -0.22276212 4288439040
1.4072231 1.3713809 -0.21759807 4288569600
1.4167854 1.3807682 -0.20975645 4288569600
1.4211934 1.3851388 -0.20082927 4288569600
1.3903828 1.355221 -0.18690689 4288439040
1.3966585 1.3614086 -0.177908 4288569600
1.4087886 1.3732971 -0.16932371 4288569600
1.4071499 1.3717794 -0.15883122 4288569600
1.3875364 1.3527575 -0.14630359 4288439040
1.4082019 1.3729594 -0.1378289 4288569600
1.4144652 1.3791369 -0.127598 4288569600
1.4086087 1.3735107 -0.11613858 4288569600
1.3992279 1.3644509 -0.10438281 4288569600
1.4034458 1.3686364 -0.093560703 4288569600
1.400852 1.3661865 -0.082173638 4288569600
1.4051145 1.3704158 -0.071082368 4288569600
1.3930205 1.3587102 -0.059158426 4288439040
1.4082909 1.3736643 -0.048292462 4288569600
1.4081236 1.3735783 -0.036728807 4288569600
1.4093058 1.3748074 -0.025151467 4288569600
1.4185852 1.3839267 -0.013601355 4288569600
1.4241185 1.3893967 -0.0018798371 4288569600
1.4340127 1.3991171 0.009967451 4288700160
1.4214561 1.3869575 0.021617176 4288569600
1.5161594 1.4793411 0.035594132 4289091840
1.6778711 1.6370507 0.053237572 4289744640
1.6732851 1.6326722 0.066784121 4289744640
1.6359967 1.5964133 0.078602888 4289614080
1.6747096 1.6342442 0.094021611 4289744640
1.6744484 1.6340815 0.1074502 4289744640
1.659616 1.6197115 0.11970356 4289744640
1.5904726 1.5523833 0.12723294 4289352960
1.6689963 1.6290412 0.14654508 4289744640
1.6756908 1.6356615 0.16003552 4289875200
1.6571302 1.6176531 0.17084415 4289744640
1.5498364 1.5131024 0.17135441 4289222400
1.6957611 1.6555151 0.2000066 4289875200
1.690572 1.6505477 0.21161914 4289875200
1.6755223 1.6359615 0.22161835 4289875200
1.6390228 1.6004493 0.22817172 4289614080
1.5092384 1.4739276 0.22033395 4289091840
1.6830142 1.6435517 0.25690085 4289875200
1.67967 1.6403834 0.26724428 4289875200
1.6560895 1.6174697 0.27389684 4289744640
1.6442336 1.6059943 0.28196368 4289744640
1.6148839 1.5774467 0.28646597 4289614080
1.6761369 1.6373153 0.30690771 4289875200
1.6750934 1.6363925 0.31593111 4289875200
1.6634184 1.6250932 0.32252291 4289875200
1.6606878 1.6225233 0.33040848 4289875200
1.6488501 1.6110636 0.33603385 4289744640
1.6384698 1.6010256 0.34146789 4289744640
1.6614355 1.6235406 0.35351682 4289875200
1.6619273 1.6241174 0.36047816 4289875200
1.6606951 1.6230111 0.36664805 4289875200
1.6511822 1.6138196 0.37052712 4289744640
1.6571043 1.6196995 0.37742865 4289875200
1.6517481 1.6145666 0.38132676 4289744640
1.6532674 1.6161481 0.38635811 4289744640
1.6471431 1.610265 0.3891423 4289744640
1.646224 1.6094655 0.39268595 4289744640
1.645149 1.608514 0.39573035 4289744640
1.6447605 1.6082332 0.39847517 4289744640
1.6409025 1.6045636 0.39990735 4289744640
1.6378163 1.6016479 0.40105075 4289744640
1.6404122 1.6042837 0.40311509 4289744640
1.6402363 1.6042118 0.40402806 4289744640
1.6471721 1.6110896 0.40622169 4289744640
1.6400785 1.604259 0.4044804 4289744640
1.6442412 1.6084284 0.40504047 4289744640
1.640785 1.6051524 0.40324923 4289744640
1.6413339 1.605791 0.40197164 4289744640
1.6520275 1.6163458 0.40269566 4289875200
1.6525645 1.6169744 0.40045893 4289875200
1.6542076 1.6186845 0.39801842 4289875200
1.6500227 1.6146977 0.3937158 4289744640
1.6482763 1.6130948 0.38954818 4289744640
1.6596417 1.6243123 0.38800147 4289875200
1.6556859 1.6205502 0.38240245 4289875200
1.654978 1.6199639 0.377123 4289875200
1.6508619 1.6160449 0.37064537 4289744640
1.6400361 1.6055634 0.36228472 4289744640
1.6416132 1.6072122 0.35627967 4289744640
1.6579931 1.6233406 0.35300469 4289875200
1.6754735 1.6405481 0.34941471 4289875200
1.6627767 1.6282365 0.33910954 4289875200
1.6432054 1.6100986 0.27763596 4289744640
1.6576377 1.6243368 0.26982358 4289744640
1.681041 1.64736 0.26293212 4289875200
1.6685207 1.635214 0.25005442 4289875200
1.6392244 1.60664 0.23465855 4289744640
1.648429 1.6157635 0.22465342 4289744640
1.6572669 1.6245294 0.21422349 4289744640
1.6450907 1.6127161 0.20086056 4289744640
1.6304494 1.5984871 0.18716784 4289614080
1.6447462 1.612601 0.17659768 4289744640
1.650808 1.6186504 0.16479509 4289744640
1.6558841 1.6237353 0.15262809 4289744640
1.6341039 1.6025096 0.13794117 4289614080
1.6492106 1.6174219 0.12627669 4289744640
1.483533 1.4551969 0.10177669 4288961280
1.4271764 1.4000736 0.08646246 4288700160
1.4217896 1.3948921 0.074652597 4288569600
1.4258871 1.3990049 0.06327226 4288700160
1.4203017 1.3936281 0.051401611 4288569600
1.4118477 1.3854387 0.039484467 4288569600
1.4105461 1.3842592 0.027806491 4288569600
1.4070225 1.3809016 0.016092541 4288569600
1.4027295 1.3767891 0.0044156238 4288569600
1.385541 1.3600326 -0.0071353889 4288439040
1.3897321 1.3642367 -0.018672893 4288439040
1.3938175 1.368338 -0.030258475 4288439040
1.4011666 1.3756403 -0.04197621 4288569600
1.3933777 1.3680972 -0.053200033 4288439040
1.4081892 1.3827195 -0.065276504 4288569600
1.4134402 1.3879663 -0.07700868 4288569600
1.4062986 1.3810574 -0.087974727 4288569600
1.3986717 1.3736714 -0.098697916 4288569600
1.4046218 1.3796042 -0.1102521 4288569600
1.4057784 1.3808346 -0.12137005 4288569600
1.3974361 1.3727447 -0.13148651 4288569600
1.4054741 1.3807272 -0.1429894 4288569600
1.418384 1.3934914 -0.15498845 4288569600
1.4185656 1.3937658 -0.16553378 4288700160
1.4118727 1.387293 -0.17505278 4288569600
1.3789597 1.3550829 -0.18086089 4288439040
1.4051771 1.3809111 -0.19413722 4288569600
1.4131494 1.388832 -0.20492855 4288569600
1.4125971 1.3883847 -0.21431354 4288569600
1.3984334 1.3745735 -0.2213086 4288569600
1.3560201 1.3330225 -0.22324394 4288308480
1.412027 1.3881086 -0.24114211 4288569600
1.4112477 1.3874375 -0.24945125 4288569600
1.4188446 1.3949919 -0.25899473 4288700160
1.4050347 1.3815228 -0.26432076 4288569600
1.3997048 1.3763807 -0.27083248 4288569600
1.3975847 1.3743905 -0.27761707 4288569600
1.3904982 1.367521 -0.28305793 4288569600
1.3996663 1.3766192 -0.29148188 4288569600
1.4040929 1.3810598 -0.29865187 4288569600
1.4008342 1.3779495 -0.30385709 4288569600
1.4011066 1.3783084 -0.30946454 4288569600
1.3937441 1.3711643 -0.31300935 4288569600
1.3921378 1.3696758 -0.31744906 4288569600
1.3874249 1.3651338 -0.32079566 4288569600
1.3824472 1.3603305 -0.32368052 4288569600
1.3774053 1.3554631 -0.32614735 4288569600
1.3776935 1.3558342 -0.32948068 4288569600
1.3518497 1.330516 -0.32614836 4288439040
1.3453004 1.3241631 -0.32700995 4288308480
1.3485254 1.3274187 -0.32985124 4288439040
1.3517944 1.3307176 -0.33232719 4288439040
1.3515971 1.3306082 -0.33356932 4288439040
1.3479356 1.3270921 -0.33356673 4288439040
1.3443222 1.3236223 -0.33318201 4288308480
1.3532872 1.3325226 -0.3355141 4288439040
1.3664223 1.3455251 -0.33848214 4288439040
1.3689258 1.3480717 -0.33842516 4288439040
1.376658 1.3557614 -0.3392534 4288569600
1.3820752 1.3611746 -0.3391045 4288569600
1.3890743 1.3681443 -0.33893093 4288569600
1.3957399 1.3747865 -0.33826008 4288569600
1.3862125 1.3654964 -0.33329016 4288569600
1.3903912 1.3696916 -0.33122581 4288569600
1.3968676 1.3761479 -0.32929632 4288569600
1.3963343 1.3757064 -0.3253226 4288569600
1.3951854 1.3746586 -0.32083347 4288569600
1.3919629 1.3715698 -0.31551173 4288569600
1.3827989 1.3626322 -0.30852625 4288569600
1.3712488 1.3513443 -0.30073088 4288439040
1.369525 1.3497279 -0.294788 4288439040
1.3787851 1.358924 -0.29082987 4288569600
1.3914469 1.37147 -0.28715619 4288569600
1.3991351 1.3791202 -0.28203735 4288569600
1.3907992 1.3709935 -0.27338344 4288569600
1.3737607 1.3542963 -0.26284534 4288439040
1.380361 1.3608748 -0.25656849 4288439040
1.3919221 1.3723394 -0.25081876 4288569600
1.4023213 1.3826606 -0.24445125 4288569600
1.3878121 1.3684505 -0.2335107 4288569600
1.381609 1.3624195 -0.22382693 4288439040
1.3990718 1.3796991 -0.21763757 4288569600
1.4085782 1.3891429 -0.20979798 4288569600
1.4023285 1.3830657 -0.19936785 4288569600
1.3759454 1.3571525 -0.1860919 4288439040
1.3885665 1.3696647 -0.17795394 4288569600
1.3922951 1.3734164 -0.16836926 4288569600
1.3926064 1.3738011 -0.15815878 4288569600
1.3782197 1.3597022 -0.14621924 4288439040
1.4035943 1.3847851 -0.13822927 4288569600
1.3998713 1.3811942 -0.12707506 4288569600
1.3957552 1.3772153 -0.11580732 4288569600
1.3875626 1.369218 -0.10417402 4288439040
1.391755 1.3734274 -0.093381606 4288569600
1.3956289 1.3773235 -0.082401916 4288569600
1.3860029 1.3679113 -0.070589416 4288439040
1.3778281 1.3599291 -0.058918193 4288439040
1.3894494 1.3714629 -0.04799103 4288439040
1.3999614 1.3819042 -0.036791969 4288569600
1.4004802 1.3824933 -0.02520401 4288569600
1.4068018 1.3888043 -0.013633667 4288569600
1.4087429 1.3907963 -0.0019392723 4288569600
1.4192919 1.4012774 0.0098530594 4288569600
1.4132158 1.3953635 0.021549985 4288569600
1.4938452 1.4749665 0.035198316 4288961280
1.6641625 1.6430426 0.053029146 4289744640
1.6667463 1.6456833 0.066831522 4289744640
1.6332775 1.6127598 0.078852855 4289614080
1.6598368 1.6390517 0.093648054 4289744640
1.6602262 1.639528 0.10707711 4289744640
1.6467453 1.6263196 0.11938735 4289744640
1.5957994 1.5761436 0.12833069 4289483520
1.6513207 1.6310177 0.14575738 4289744640
1.6579161 1.6376182 0.15918034 4289744640
1.6407286 1.6207494 0.1700605 4289744640
1.5822711 1.5631487 0.17589688 4289483520
1.6823835 1.6620452 0.19950737 4289875200
1.6807702 1.6605473 0.21154241 4289875200
1.6659626 1.6460257 0.22156411 4289875200
1.6295187 1.6101446 0.22809963 4289614080
1.4969467 1.4793626 0.21974854 4289091840
1.676134 1.6563499 0.25727215 4289875200
1.6689318 1.6493345 0.26701513 4289875200
1.640125 1.6209868 0.27277136 4289744640
1.6276345 1.6087472 0.28068018 4289614080
1.6019876 1.5835147 0.28577444 4289614080
1.6616461 1.6425216 0.30596742 4289875200
1.6573308 1.6383556 0.31434461 4289875200
1.6505553 1.6317595 0.32183927 4289744640
1.6531045 1.6343732 0.33076504 4289875200
1.6428032 1.624294 0.33670443 4289744640
1.6254442 1.6072423 0.34068176 4289744640
1.6419481 1.6236415 0.35136253 4289744640
1.6485558 1.630266 0.35962141 4289875200
1.6377062 1.6196438 0.36364198 4289744640
1.6447573 1.6267078 0.37120327 4289744640
1.6341457 1.6163199 0.3743377 4289744640
1.6361431 1.6183913 0.37989867 4289744640
1.6366528 1.6189929 0.38468114 4289744640
1.6340721 1.6165407 0.3882848 4289744640
1.6331583 1.6157361 0.39182413 4289744640
1.6327196 1.6154013 0.39501774 4289744640
1.6281993 1.6110324 0.39675385 4289744640
1.634873 1.6177289 0.40075672 4289744640
1.6275897 1.6106287 0.40086979 4289744640
1.6343719 1.6174341 0.40397635 4289744640
1.6307045 1.613909 0.40402997 4289744640
1.6305963 1.613903 0.40449005 4289744640
1.6340468 1.6174165 0.40535906 4289744640
1.6311817 1.6146853 0.40418667 4289744640
1.6316696 1.6152701 0.40337214 4289744640
1.6373317 1.6209728 0.40335932 4289744640
1.6319146 1.6157181 0.40014538 4289744640
1.6340296 1.6179137 0.39831379 4289744640
1.6340766 1.6180642 0.39550906 4289744640
1.6341172 1.6182088 0.3922407 4289744640
1.6386869 1.6228346 0.38959163 4289744640
1.6448281 1.6290162 0.38683626 4289875200
1.6420125 1.6263365 0.38151595 4289744640
1.6453465 1.6297419 0.37717953 4289875200
1.6384461 1.6230202 0.37007174 4289744640
1.6304895 1.6152525 0.36234918 4289744640
1.6349268 1.6197511 0.35697544 4289744640
1.6466885 1.6315001 0.35272443 4289744640
1.6523625 1.637225 0.34668979 4289875200
1.6550198 1.6399648 0.33958715 4289875200
1.6267397 1.6126702 0.2764439 4289744640
1.6382626 1.6241925 0.2682122 4289744640
1.6677268 1.6534874 0.26235974 4289875200
1.6483663 1.6344224 0.24846321 4289744640
1.6199389 1.6063728 0.23323983 4289614080
1.6384479 1.6248199 0.22458756 4289744640
1.6475886 1.6339879 0.21420757 4289744640
1.6394536 1.6260399 0.20133457 4289744640
1.6165675 1.6034735 0.1866505 4289614080
1.6305335 1.6174241 0.17608739 4289614080
1.6468289 1.6336856 0.16535468 4289744640
1.6364712 1.6235328 0.15171356 4289744640
1.6204857 1.6078007 0.13758682 4289614080
1.6390972 1.626361 0.12623352 4289744640
1.4580033 1.4469509 0.10060365 4288830720
1.4161545 1.4055629 0.086295314 4288700160
1.4100879 1.3996458 0.074470684 4288569600
1.407773 1.3974479 0.062831908 4288569600
1.4121556 1.401891 0.051408324 4288569600
1.3966504 1.3866125 0.039288674 4288569600
1.4024547 1.3924655 0.027813159 4288569600
1.3928134 1.3830001 0.016026031 4288569600
1.3875821 1.3779078 0.0043967222 4288439040
1.3704919 1.3610512 -0.0070952433 4288439040
1.381758 1.3723222 -0.018666321 4288439040
1.3822703 1.3729261 -0.030176057 4288439040
1.3867383 1.3774546 -0.041780178 4288439040
1.3811733 1.3720288 -0.053033937 4288439040
1.3972694 1.3880963 -0.065138958 4288569600
1.4053276 1.3961896 -0.077001996 4288569600
1.39539 1.3864242 -0.0877911 4288569600
1.3941871 1.3853266 -0.098940946 4288569600
1.3901803 1.3814459 -0.10974546 4288569600
1.3917547 1.3831044 -0.1208498 4288569600
1.3894126 1.3808751 -0.13147989 4288569600
1.3905082 1.3820583 -0.14228114 4288569600
1.4031641 1.394719 -0.1542083 4288569600
1.4075408 1.3991609 -0.16519095 4288569600
1.3966957 1.3884883 -0.17416893 4288569600
1.3738655 1.3659123 -0.18122537 4288439040
1.396924 1.3889058 -0.19410539 4288569600
1.4015032 1.3935488 -0.20440941 4288569600
1.4009553 1.3931 -0.21377094 4288569600
1.3872689 1.3796 -0.22080576 4288569600
1.338364 1.3311125 -0.2216109 4288308480
1.403914 1.3963239 -0.24113543 4288569600
1.4059542 1.3984455 -0.24994318 4288700160
1.4036566 1.3962572 -0.25770131 4288700160
1.3941479 1.3869029 -0.26378396 4288569600
1.385336 1.3782398 -0.26959959 4288569600
1.3797191 1.3727502 -0.27565309 4288569600
1.3921522 1.3851987 -0.28501934 4288569600
1.3846045 1.3777893 -0.29001087 4288569600
1.3890086 1.3822587 -0.29715019 4288569600
1.3927808 1.3860999 -0.30385047 4288569600
1.3930511 1.3864603 -0.30945793 4288569600
1.3885316 1.3820584 -0.31363335 4288569600
1.3841327 1.3777757 -0.31744248 4288569600
1.3759478 1.3697275 -0.31997818 4288569600
1.3702389 1.36414 -0.3226746 4288569600
1.3631902 1.3572192 -0.32464707 4288439040
1.3627791 1.3568983 -0.32779831 4288439040
1.3405794 1.3349067 -0.32529694 4288439040
1.3437415 1.3381377 -0.32850945 4288439040
1.3372749 1.3317912 -0.32898849 4288308480
1.3335414 1.3281623 -0.32973909 4288308480
1.3368375 1.3315259 -0.33183536 4288308480
1.3401794 1.3349351 -0.33356035 4288439040
1.3330956 1.3279713 -0.33230835 4288308480
1.3454994 1.3403969 -0.33550769 4288439040
1.3322278 1.3272746 -0.33193684 4288308480
1.354764 1.3497841 -0.33686146 4288439040
1.3722252 1.3672456 -0.34010932 4288569600
1.3741199 1.369216 -0.33909795 4288569600
1.3732145 1.3683993 -0.33700073 4288569600
1.3772283 1.3724787 -0.33570793 4288569600
1.3823628 1.377674 -0.3342793 4288569600
1.3823862 1.3777814 -0.33121923 4288569600
1.3853302 1.380796 -0.32846382 4288569600
1.3813027 1.3768698 -0.32368308 4288569600
1.3836544 1.3792944 -0.32002079 4288569600
1.3811485 1.3768821 -0.31486931 4288569600
1.3748351 1.3706777 -0.30851972 4288569600
1.3598503 1.3558366 -0.29995489 4288439040
1.3616365 1.3576963 -0.29478151 4288439040
1.3638358 1.3599672 -0.28934202 4288439040
1.3869365 1.383057 -0.28787458 4288569600
1.3979074 1.3940666 -0.28341103 4288569600
1.381901 1.3782035 -0.27320245 4288569600
1.3588254 1.3552958 -0.261493 4288439040
1.3618722 1.3584102 -0.25459996 4288439040
1.380388 1.3769373 -0.25017786 4288569600
1.387913 1.384515 -0.24333961 4288569600
1.3798141 1.376525 -0.23350413 4288569600
1.3673128 1.3641467 -0.2227927 4288439040
1.3811513 1.3780162 -0.21609527 4288569600
1.3934153 1.390318 -0.20874065 4288569600
1.3942449 1.3912245 -0.19936121 4288569600
1.3628275 1.359989 -0.18538328 4288439040
1.3770345 1.3742281 -0.17749499 4288439040
1.382672 1.379926 -0.16816953 4288569600
1.3874005 1.3847183 -0.15847303 4288569600
1.3667417 1.3642006 -0.14583804 4288439040
1.3856103 1.3830903 -0.13724867 4288569600
1.3946253 1.3921571 -0.12732492 4288569600
1.3912401 1.3888601 -0.11609371 4288569600
1.3833981 1.3811184 -0.10445518 4288569600
1.3837274 1.3815246 -0.093375012 4288569600
1.3805043 1.3783877 -0.08197888 4288439040
1.3850833 1.3830322 -0.070941679 4288569600
1.373418 1.3714746 -0.059062067 4288439040
1.3814332 1.3795466 -0.047984444 4288439040
1.3883449 1.3865185 -0.036693458 4288569600
1.3853204 1.383579 -0.025072502 4288569600
1.3986843 1.3969887 -0.013627002 4288569600
1.4041532 1.4025234 -0.0019359586 4288569600
1.4075619 1.4060029 0.0098335836 4288569600
1.4050598 1.4035851 0.021556681 4288569600
1.4751329 1.473587 0.034962442 4288961280
1.6426996 1.6408871 0.05265303 4289744640
1.6466695 1.6449411 0.066414334 4289744640
1.6132402 1.61167 0.078342006 4289614080
1.6438917 1.6423533 0.093292817 4289744640
1.643573 1.6421275 0.10662428 4289744640
1.6317694 1.6304376 0.11899473 4289744640
1.5837605 1.5826044 0.12810886 4289483520
1.6417873 1.6406223 0.1457652 4289744640
1.648344 1.647261 0.1591882 4289744640
1.6328506 1.6318853 0.17023499 4289744640
1.5625527 1.5617868 0.17471865 4289352960
1.6682838 1.6674517 0.19899136 4289875200
1.6670054 1.6662699 0.21103573 4289875200
1.6566925 1.6560659 0.22161907 4289875200
1.6197599 1.6192757 0.2280584 4289614080
1.4819659 1.4817448 0.2188192 4288961280
1.6495723 1.6492385 0.2546711 4289875200
1.6459349 1.6457001 0.26487145 4289744640
1.6379765 1.6378449 0.27400592 4289744640
1.6119112 1.6119007 0.27959076 4289614080
1.5899242 1.5900279 0.28527793 4289483520
1.648538 1.648682 0.30532527 4289875200
1.6414447 1.6416907 0.31314796 4289744640
1.6340104 1.6343582 0.32047203 4289744640
1.6372484 1.6376897 0.32950369 4289744640
1.6263093 1.6268542 0.33526847 4289744640
1.613251 1.6138997 0.34009922 4289744640
1.6324573 1.6331912 0.3513703 4289744640
1.6355317 1.6363614 0.35886213 4289744640
1.6268438 1.6277748 0.36333811 4289744640
1.6282656 1.6292934 0.3696253 4289744640
1.627797 1.6289228 0.37505984 4289744640
1.6294738 1.6306975 0.38055846 4289744640
1.6174244 1.6187488 0.38237962 4289744640
1.61765 1.6190728 0.38662556 4289744640
1.6139549 1.6154766 0.38947621 4289744640
1.6232767 1.6248974 0.39502549 4289744640
1.6090283 1.6107478 0.39437029 4289744640
1.6149684 1.616788 0.39818764 4289744640
1.6146926 1.6166122 0.40001464 4289744640
1.6116867 1.613706 0.40069392 4289744640
1.6143078 1.6164285 0.40230212 4289744640
1.6114151 1.613636 0.40206519 4289744640
1.621737 1.6240638 0.4046542 4289744640
1.6119963 1.6144207 0.40176454 4289744640
1.6222275 1.62476 0.40337989 4289744640
1.6174122 1.6200448 0.40077844 4289744640
1.6196845 1.6224221 0.39946598 4289744640
1.6176076 1.6204476 0.39661348 4289744640
1.6211354 1.6240823 0.39466867 4289744640
1.6203914 1.6234425 0.39121801 4289744640
1.6282177 1.6313813 0.38936424 4289744640
1.6283351 1.6316048 0.38519457 4289744640
1.6325059 1.6358864 0.38152376 4289744640
1.6225675 1.6260437 0.37413046 4289744640
1.6208674 1.6244482 0.36824051 4289744640
1.6105777 1.6142523 0.36001557 4289744640
1.615683 1.6194711 0.35483527 4289744640
1.6203865 1.6242886 0.34911835 4289744640
1.6427922 1.6468353 0.34669763 4289875200
1.6454335 1.6495905 0.33959499 4289875200
1.6167544 1.6215717 0.27635598 4289744640
1.6388413 1.643814 0.26988035 4289744640
1.6440222 1.6491178 0.26014367 4289744640
1.6360036 1.6411942 0.2480446 4289744640
1.6105493 1.6157949 0.23324752 4289614080
1.628297 1.6336944 0.2245051 4289744640
1.6345215 1.6400459 0.21375482 4289744640
1.6165817 1.6221749 0.1996882 4289614080
1.5973413 1.6029974 0.1855115 4289614080
1.6147425 1.6205544 0.17540525 4289614080
1.623897 1.6298453 0.16400759 4289744640
1.6199355 1.6259856 0.15106247 4289614080
1.607564 1.613692 0.13729258 4289614080
1.6199714 1.626247 0.12549345 4289614080
1.4493638 1.4552501 0.1005979 4288830720
1.4060735 1.4119303 0.086187065 4288569600
1.3955572 1.4014798 0.074137814 4288569600
1.4066612 1.4127163 0.063157976 4288569600
1.4039615 1.4101062 0.05141503 4288569600
1.3883908 1.3945825 0.039290868 4288569600
1.3872573 1.3935423 0.02767615 4288569600
1.3809495 1.3873099 0.015987303 4288569600
1.3737379 1.3801697 0.0043823379 4288439040
1.3590074 1.3654827 -0.0070719547 4288439040
1.3737369 1.380361 -0.018659759 4288439040
1.3742458 1.380968 -0.030169491 4288439040
1.3722754 1.3790863 -0.041582387 4288439040
1.373154 1.3800644 -0.053027377 4288439040
1.378576 1.3856037 -0.064641543 4288439040
1.3865895 1.3937455 -0.076417781 4288569600
1.3802369 1.3874639 -0.087342061 4288569600
1.3755187 1.3828226 -0.098185427 4288439040
1.3821063 1.3895338 -0.10973886 4288569600
1.3871924 1.3947378 -0.12114877 4288569600
1.3785259 1.3861303 -0.13120687 4288569600
1.3857678 1.3935 -0.14261603 4288569600
1.3886818 1.3965234 -0.15350558 4288569600
1.38952 1.3974617 -0.16402821 4288569600
1.3885806 1.3966142 -0.1741623 4288569600
1.3560486 1.3640257 -0.17992039 4288439040
1.3859982 1.3942114 -0.19370806 4288569600
1.396867 1.405228 -0.20491518 4288569600
1.382995 1.3913841 -0.21226378 4288569600
1.3721966 1.3806272 -0.21968171 4288569600
1.3305843 1.3388996 -0.22160454 4288308480
1.3887516 1.3974544 -0.23992389 4288569600
1.3914831 1.4002947 -0.24881467 4288569600
1.3932295 1.4021448 -0.25727761 4288569600
1.3860424 1.3950142 -0.26377735 4288569600
1.3737879 1.3827878 -0.26891175 4288569600
1.3682051 1.3772674 -0.27494749 4288569600
1.3777757 1.3869827 -0.28372386 4288569600
1.3765522 1.3858451 -0.29000428 4288569600
1.3771966 1.3865851 -0.29634297 4288569600
1.3749241 1.3843915 -0.30171037 4288569600
1.3745003 1.3840569 -0.30712467 4288569600
1.3741884 1.3838344 -0.31220794 4288569600
1.372601 1.3823285 -0.31663588 4288569600
1.3644644 1.374234 -0.31916076 4288569600
1.3630227 1.3728731 -0.32284662 4288569600
1.3517824 1.3616536 -0.32381073 4288439040
1.3357329 1.3455933 -0.32318214 4288439040
1.329304 1.3392112 -0.32444555 4288308480
1.3359212 1.3459562 -0.32850307 4288439040
1.3260194 1.3360777 -0.3281258 4288308480
1.3257793 1.3359214 -0.32973275 4288308480
1.3079028 1.318014 -0.32656515 4288308480
1.3254364 1.3357459 -0.33182195 4288308480
1.3253347 1.3357279 -0.33230203 4288308480
1.3314192 1.3419373 -0.33393973 4288439040
1.3437079 1.3543928 -0.33673558 4288439040
1.3496518 1.3604618 -0.33754709 4288439040
1.3497283 1.3606235 -0.33649805 4288439040
1.3626471 1.3737159 -0.33823267 4288569600
1.3660926 1.3772703 -0.33720958 4288569600
1.3664297 1.3776945 -0.3350226 4288569600
1.3667319 1.3780833 -0.33243513 4288569600
1.3680819 1.3795272 -0.32971078 4288569600
1.3732588 1.3848255 -0.32750604 4288569600
1.373009 1.3846575 -0.32361847 4288569600
1.3693359 1.381041 -0.31856328 4288569600
1.3698033 1.3815949 -0.31410894 4288569600
1.3703035 1.3821816 -0.30929574 4288569600
1.3547596 1.3666031 -0.30057484 4288439040
