# .PCD v0.7 - Point Cloud Data file format
VERSION 0.7
FIELDS x y z rgba
SIZE 4 4 4 4
TYPE F F F U
COUNT 1 1 1 1
WIDTH 1104
HEIGHT 1
VIEWPOINT 0 0 0 1 0 0 0
POINTS 1104
DATA ascii
3.12165 -1.5609937 -0.58164895 4293792000
3.1171334 -1.5586088 -0.57326388 4293792000
3.1104069 -1.55512 -0.56383973 4293661440
3.1022656 -1.5509244 -0.55355108 4293661440
3.0882003 -1.5437701 -0.54163361 4293661440
3.0980132 -1.5485425 -0.53330678 4293661440
3.1207578 -1.5597719 -0.52649361 4293792000
3.1331701 -1.5658393 -0.51720983 4293792000
3.1270549 -1.5626539 -0.50424993 4293792000
3.1147847 -1.5563956 -0.48979631 4293661440
3.0883553 -1.5430691 -0.47271594 4293530880
3.1056793 -1.551586 -0.46185741 4293661440
3.1212678 -1.559235 -0.4500761 4293661440
3.1197727 -1.5583553 -0.43525615 4293661440
3.0907788 -1.5437518 -0.4162479 4293530880
3.1011388 -1.5487891 -0.40218556 4293661440
3.1122897 -1.5542197 -0.38767189 4293661440
3.1252093 -1.5605316 -0.37282634 4293661440
3.1263332 -1.5609574 -0.35608315 4293661440
3.0689247 -1.5321833 -0.3325631 4293400320
3.0990491 -1.5470767 -0.31835854 4293530880
3.0979309 -1.5463842 -0.30041754 4293530880
3.0993102 -1.5469372 -0.28239208 4293530880
3.0690639 -1.5317186 -0.26133421 4293400320
3.0956671 -1.54485 -0.24488571 4293530880
3.1076775 -1.5507029 -0.22677693 4293530880
3.1081357 -1.5507952 -0.20749925 4293530880
3.0700788 -1.5316873 -0.18564339 4293400320
3.0812624 -1.5371271 -0.16676357 4293400320
3.1009033 -1.5467812 -0.14797296 4293530880
3.0973849 -1.5448915 -0.12780486 4293530880
3.0740232 -1.5331132 -0.10684689 4293400320
3.1012228 -1.5465311 -0.087538928 4293530880
3.1133571 -1.5524404 -0.067449361 4293530880
3.0937161 -1.542518 -0.046633795 4293530880
3.0914946 -1.541275 -0.026189161 4293530880
3.1194723 -1.5550749 -0.0058245389 4293530880
3.1193321 -1.5548676 0.014795431 4293530880
3.0876431 -1.5389483 0.035054728 4293530880
3.1269574 -1.55839 0.056083739 4293661440
3.1449401 -1.5672065 0.077055484 4293661440
3.1464345 -1.5678123 0.097673766 4293661440
3.0770864 -1.5331491 0.1155862 4293400320
3.1296682 -1.5591892 0.13775979 4293661440
3.1346302 -1.5615216 0.15808572 4293661440
3.1331098 -1.5606275 0.17793535 4293661440
3.0273619 -1.5078623 0.19106066 4293269760
3.1421583 -1.5648558 0.21779302 4293661440
3.1398783 -1.563584 0.23694575 4293661440
3.1335557 -1.5603012 0.25548077 4293661440
3.0187094 -1.5030289 0.26423228 4293269760
3.1633897 -1.5748694 0.29539022 4293792000
3.168041 -1.5770457 0.31411391 4293792000
3.1564307 -1.5711337 0.33084697 4293792000
3.1121664 -1.5489835 0.34349877 4293661440
2.9874516 -1.4868307 0.34602112 4293139200
3.1542149 -1.5696231 0.38191038 4293792000
3.1522009 -1.5684863 0.3979232 4293792000
3.1441834 -1.5643653 0.41268328 4293792000
3.1046584 -1.5445826 0.42263147 4293661440
3.0385292 -1.5115796 0.427995 4293400320
3.1570342 -1.5703503 0.45897189 4293792000
3.1612954 -1.5723342 0.47345635 4293792000
3.1558921 -1.5695155 0.48595607 4293792000
3.141602 -1.5622818 0.49645758 4293792000
3.1257701 -1.5542836 0.50602859 4293661440
3.102809 -1.5427454 0.51372391 4293661440
3.1495371 -1.565829 0.53239274 4293792000
3.1356223 -1.5587862 0.54035699 4293792000
3.137279 -1.5594792 0.55032742 4293792000
3.1418841 -1.5616367 0.56019318 4293792000
3.1426034 -1.5618647 0.56873333 4293792000
3.1313856 -1.5561656 0.57443428 4293792000
3.1313198 -1.556005 0.58147514 4293792000
3.130444 -1.5554428 0.58768511 4293792000
3.1256797 -1.5529509 0.59247017 4293792000
3.1294067 -1.5546749 0.59816182 4293792000
3.1175907 -1.5486841 0.60018247 4293792000
3.1206353 -1.5500704 0.60433567 4293792000
3.1167223 -1.5480042 0.60643667 4293792000
3.1120338 -1.5455538 0.60766762 4293661440
3.1118653 -1.5453472 0.60905969 4293661440
3.1162169 -1.547384 0.6106174 4293792000
3.1118534 -1.5450971 0.60975641 4293661440
3.1320574 -1.5549988 0.61296856 4293792000
3.1234994 -1.5506319 0.60985142 4293792000
3.1278515 -1.5526699 0.60852903 4293792000
3.1362643 -1.5567219 0.60726756 4293792000
3.1341131 -1.5555348 0.60325009 4293792000
3.1300375 -1.5533941 0.59816378 4293792000
3.1360581 -1.5562606 0.59429425 4293792000
3.1340158 -1.5551293 0.58820117 4293792000
3.1355734 -1.5557834 0.58209395 4293792000
3.1406133 -1.5581642 0.57593662 4293792000
3.1377809 -1.5566429 0.56766605 4293792000
3.1160684 -1.5457639 0.55539864 4293661440
3.1214015 -1.5482917 0.54732978 4293661440
3.1450105 -1.5598769 0.54172969 4293792000
3.1506841 -1.5625731 0.53233564 4293792000
3.1343269 -1.5543523 0.51865965 4293792000
3.1367748 -1.5554508 0.50753307 4293792000
3.1094468 -1.5411875 0.41615245 4293661440
3.1441369 -1.5582561 0.40525514 4293792000
3.1457727 -1.5589546 0.38948479 4293792000
3.1183043 -1.5452424 0.36982873 4293661440
3.1112111 -1.5416206 0.3523418 4293661440
3.1246541 -1.5481665 0.3367368 4293661440
3.1258812 -1.5486645 0.31936774 4293661440
3.0984578 -1.5349802 0.29888529 4293530880
3.0996952 -1.5354846 0.2809653 4293530880
3.1222758 -1.5465524 0.26451311 4293661440
3.1235349 -1.547067 0.24583499 4293661440
3.1208286 -1.5456194 0.22658461 4293661440
3.1004612 -1.5354327 0.20595574 4293530880
3.1268516 -1.5483834 0.18813559 4293661440
3.1245735 -1.5471482 0.16825116 4293661440
3.1255014 -1.5474995 0.14836016 4293661440
3.0992501 -1.5344054 0.12719551 4293530880
3.1085224 -1.5388852 0.10743404 4293530880
3.1130462 -1.5410159 0.087302878 4293530880
3.0943589 -1.5316663 0.066530906 4293530880
3.0984702 -1.5335932 0.046255287 4293530880
3.0978746 -1.5331923 0.02583638 4293530880
3.10116 -1.5347103 0.0053988649 4293530880
3.0757997 -1.5220643 -0.014934188 4293400320
3.0942314 -1.5310717 -0.03544772 4293530880
3.1083601 -1.5379505 -0.056088608 4293530880
3.1019363 -1.534668 -0.076339729 4293530880
3.0924282 -1.5298613 -0.096329428 4293530880
3.1009042 -1.5339445 -0.11678182 4293530880
3.1164329 -1.5415127 -0.13753617 4293530880
3.1046417 -1.5355779 -0.15694802 4293530880
3.0978739 -1.5321263 -0.17633083 4293530880
3.1103628 -1.5381905 -0.19666791 4293530880
3.1178274 -1.5417712 -0.21659894 4293530880
3.1088936 -1.5372493 -0.23514031 4293530880
3.1142037 -1.5397646 -0.25449049 4293530880
3.1273556 -1.5461535 -0.27432156 4293661440
3.1421664 -1.5533607 -0.29416755 4293661440
3.1381757 -1.5512798 -0.31198746 4293661440
3.0662925 -1.5156667 -0.32224962 4293400320
3.1262829 -1.5451864 -0.34601423 4293661440
3.1417248 -1.5527022 -0.36486343 4293661440
3.1316762 -1.5476294 -0.38036799 4293661440
3.11062 -1.537122 -0.39394709 4293661440
3.0712724 -1.5175847 -0.4044559 4293400320
3.1567886 -1.5596942 -0.43124312 4293792000
3.1459162 -1.5542142 -0.44470161 4293792000
3.1517105 -1.5569618 -0.46000198 4293792000
3.1473494 -1.5546962 -0.47330645 4293792000
3.1393623 -1.5506407 -0.48547801 4293792000
3.1176937 -1.5398335 -0.49485695 4293661440
3.122483 -1.5420839 -0.50781846 4293661440
3.132184 -1.5467571 -0.52105969 4293792000
3.136445 -1.5487449 -0.53285152 4293792000
3.1367667 -1.5487885 -0.54338056 4293792000
3.1332839 -1.5469549 -0.55261737 4293792000
3.1323428 -1.5463748 -0.56165648 4293792000
3.1225863 -1.5414461 -0.56843603 4293792000
3.1192698 -1.539694 -0.57570136 4293661440
3.1086388 -1.5343342 -0.58091617 4293661440
3.0836535 -1.5218961 -0.58269364 4293530880
3.0960975 -1.527916 -0.59085768 4293661440
3.0840216 -1.5218443 -0.59364915 4293661440
3.0688467 -1.5142453 -0.59511167 4293530880
3.0771632 -1.5182279 -0.60043716 4293530880
3.0207648 -1.4903082 -0.59236115 4293400320
3.0676069 -1.5132809 -0.60386902 4293530880
3.079771 -1.5191574 -0.60787207 4293530880
3.0717306 -1.5150751 -0.60717326 4293530880
3.0549684 -1.5066948 -0.60403514 4293530880
3.07759 -1.517722 -0.60799319 4293530880
3.0935893 -1.525484 -0.6099208 4293661440
3.1007533 -1.5288913 -0.60938072 4293661440
3.1140261 -1.5353069 -0.60931832 4293661440
3.1109538 -1.5336694 -0.60533291 4293661440
3.1226859 -1.5393236 -0.60351914 4293792000
3.127615 -1.5416257 -0.5996635 4293792000
3.1277428 -1.5415626 -0.59418178 4293792000
3.1277845 -1.5414565 -0.58799517 4293792000
3.1218429 -1.5384035 -0.58001405 4293792000
3.1137683 -1.5343006 -0.57099879 4293661440
3.1118081 -1.533208 -0.56247449 4293661440
3.107815 -1.5311145 -0.55295169 4293661440
3.097142 -1.5257326 -0.54164672 4293661440
3.0985601 -1.5263025 -0.53187019 4293661440
3.1261668 -1.5397604 -0.52589524 4293661440
3.1345189 -1.5437403 -0.51594859 4293792000
3.1249266 -1.5388891 -0.50246024 4293661440
3.1087365 -1.5307921 -0.48744029 4293661440
3.088901 -1.5209028 -0.47144407 4293530880
3.1112189 -1.5317515 -0.46135768 4293661440
3.1226556 -1.5372455 -0.4489865 4293661440
3.120708 -1.5361551 -0.43413976 4293661440
3.0915074 -1.5216613 -0.41515392 4293530880
3.0972383 -1.5243478 -0.40052763 4293530880
3.1168327 -1.5338504 -0.38712898 4293661440
3.1265838 -1.5385115 -0.37192395 4293661440
3.1236992 -1.5369591 -0.35476434 4293661440
3.072207 -1.5115112 -0.33196887 4293400320
3.0920355 -1.5211256 -0.31672683 4293530880
3.0988412 -1.5243372 -0.29964828 4293530880
3.0948532 -1.5222433 -0.28117895 4293530880
3.0698819 -1.5098376 -0.26065895 4293400320
3.0992467 -1.5241338 -0.24447241 4293530880
3.104121 -1.5263942 -0.22587082 4293530880
3.1090548 -1.5286831 -0.20697115 4293530880
3.0858662 -1.5171562 -0.18607733 4293400320
3.0865796 -1.5173721 -0.16658103 4293400320
3.1044848 -1.526032 -0.14772712 4293530880
3.0982604 -1.5228395 -0.12748115 4293530880
3.078614 -1.5130562 -0.10670872 4293400320
3.1044278 -1.5255972 -0.08738675 4293530880
3.1178615 -1.5320573 -0.067362934 4293530880
3.1026502 -1.5244529 -0.046646886 4293530880
3.1120939 -1.5289531 -0.026307937 4293530880
3.1227245 -1.5340351 -0.0058235247 4293530880
3.1152678 -1.5302386 0.014728431 4293530880
3.0839894 -1.5147517 0.034907244 4293400320
3.1359835 -1.5401318 0.056070514 4293661440
3.1450417 -1.5444396 0.076828495 4293661440
3.1510282 -1.5472393 0.097524382 4293661440
3.0734043 -1.5090196 0.11511079 4293400320
3.1375315 -1.5403434 0.13769607 4293661440
3.1436744 -1.5432197 0.15807247 4293661440
3.142149 -1.5423346 0.17792211 4293661440
3.0271308 -1.4857901 0.1904898 4293269760
3.1422601 -1.5421159 0.21716624 4293661440
3.152518 -1.5470092 0.23719974 4293661440
3.1425927 -1.5420064 0.25546753 4293661440
3.0184627 -1.4810154 0.26344442 4293269760
3.1590886 -1.549821 0.29413608 4293792000
3.1735196 -1.5567584 0.31374156 4293792000
3.1530137 -1.5465714 0.32953393 4293661440
3.1166697 -1.5286244 0.34299695 4293530880
2.9996359 -1.4711401 0.34641853 4293139200
3.1499135 -1.5446469 0.38028949 4293792000
3.1478996 -1.5435257 0.3962343 4293792000
3.1443245 -1.5416402 0.41150892 4293661440
3.1091468 -1.5242743 0.4220165 4293530880
3.0392644 -1.4899126 0.4268617 4293400320
3.1572232 -1.5475583 0.45767379 4293792000
3.1615002 -1.5495199 0.47211999 4293792000
3.1543167 -1.5458695 0.48431277 4293792000
3.1550972 -1.5461196 0.49714178 4293792000
3.1214385 -1.5295081 0.50387275 4293661440
3.0948625 -1.5163674 0.51093626 4293530880
3.1412864 -1.538965 0.52947277 4293792000
3.1492839 -1.5427499 0.5411365 4293792000
3.1518672 -1.5438846 0.55128187 4293792000
3.1429453 -1.5393889 0.55876648 4293792000
3.142782 -1.5391806 0.56712651 4293792000
3.1500599 -1.5426139 0.57618111 4293792000
3.148294 -1.5416219 0.58293027 4293792000
3.1438823 -1.5393364 0.58849776 4293792000
3.1222742 -1.5286391 0.5901227 4293661440
3.1339836 -1.5342417 0.5973081 4293792000
3.1221337 -1.5283204 0.59932292 4293661440
3.1172202 -1.5257931 0.60193884 4293661440
3.1124117 -1.5233182 0.60385776 4293661440
3.1254103 -1.5295517 0.6085127 4293792000
3.1287801 -1.5310768 0.61059493 4293792000
3.1119049 -1.5227035 0.60802078 4293661440
3.1409056 -1.5367606 0.61365592 4293792000
3.1277885 -1.5302265 0.61037481 4293792000
3.1364691 -1.5343488 0.61061186 4293792000
3.1324184 -1.5322484 0.60766059 4293792000
3.1408539 -1.5362512 0.60640305 4293792000
3.1427732 -1.5370693 0.6031701 4293792000
3.1460423 -1.5385475 0.59948075 4293792000
3.1365919 -1.533811 0.5926851 4293792000
3.1389823 -1.5348608 0.58743483 4293792000
3.1397073 -1.5350975 0.58118165 4293792000
3.1363368 -1.5333337 0.57350111 4293792000
3.1290555 -1.5296603 0.56446558 4293792000
3.1261396 -1.5281203 0.55558354 4293661440
3.1218712 -1.5259204 0.54583722 4293661440
3.1327293 -1.5311084 0.53807104 4293661440
3.1597342 -1.5441809 0.53232241 4293792000
3.1459992 -1.5373591 0.51908511 4293792000
3.137779 -1.5332314 0.50623429 4293792000
3.1139112 -1.5208575 0.41554713 4293661440
3.1451263 -1.5359799 0.4042148 4293661440
3.1503353 -1.5384104 0.38892326 4293661440
3.1183162 -1.5226771 0.36876491 4293661440
3.1072271 -1.5171573 0.35087955 4293530880
3.1348827 -1.5305402 0.33685842 4293661440
3.1429064 -1.5343448 0.32016978 4293661440
3.1028705 -1.5147067 0.29844466 4293530880
3.1005254 -1.513455 0.280229 4293530880
3.1222703 -1.5239526 0.26374888 4293530880
3.1280119 -1.5266445 0.24547303 4293661440
3.1297805 -1.5273987 0.2265715 4293661440
3.1140373 -1.5196142 0.20624982 4293530880
3.1391392 -1.5317459 0.18831947 4293661440
3.1335342 -1.5289053 0.16823804 4293661440
3.127291 -1.525754 0.14801213 4293530880
3.1082072 -1.516344 0.12718531 4293530880
3.1129427 -1.5185455 0.10726903 4293530880
3.1129849 -1.5184593 0.087044187 4293530880
3.0942423 -1.5092183 0.066330895 4293400320
3.1020374 -1.5129112 0.04616648 4293530880
3.1022599 -1.5129136 0.025788782 4293530880
3.1055536 -1.5144123 0.0053808037 4293530880
3.0765243 -1.5001622 -0.01490296 4293400320
3.0896931 -1.5064727 -0.035299454 4293400320
3.0983942 -1.5106058 -0.055750791 4293400320
3.1126337 -1.517436 -0.076398216 4293530880
3.0959671 -1.5092113 -0.096173964 4293400320
3.1130135 -1.5174078 -0.11691783 4293530880
3.125361 -1.5233145 -0.13754924 4293530880
3.1143427 -1.5178415 -0.1570022 4293530880
3.0967596 -1.5091723 -0.17577125 4293400320
3.106705 -1.5139081 -0.19588156 4293530880
3.1092577 -1.5150441 -0.21539006 4293530880
3.1052389 -1.5129802 -0.23419927 4293530880
3.1060846 -1.5132846 -0.25310594 4293530880
3.1282434 -1.5239635 -0.27362472 4293661440
3.1386197 -1.5289055 -0.29300308 4293661440
3.1382046 -1.5285944 -0.31110808 4293661440
3.070595 -1.495581 -0.32179102 4293400320
3.1235228 -1.5212306 -0.34472892 4293661440
3.1300707 -1.5243074 -0.36247492 4293661440
3.1406395 -1.52934 -0.38038114 4293661440
3.1239898 -1.5211288 -0.39452654 4293661440
3.0711319 -1.4953033 -0.40329155 4293400320
3.148864 -1.5330083 -0.42893788 4293792000
3.1606364 -1.538623 -0.44552374 4293792000
3.160728 -1.5385549 -0.46001518 4293792000
3.1527891 -1.5345808 -0.47278336 4293792000
3.1438894 -1.5301397 -0.48480225 4293792000
3.1266119 -1.5216248 -0.49487001 4293661440
3.1269653 -1.5216836 -0.50710785 4293661440
3.1254981 -1.5208569 -0.51847017 4293661440
3.1328912 -1.5243376 -0.5307371 4293661440
3.1342947 -1.5249056 -0.54141176 4293661440
3.1333609 -1.5243367 -0.55106413 4293792000
3.1357398 -1.5253779 -0.560673 4293792000
3.1289287 -1.5219516 -0.56797862 4293661440
3.1185169 -1.5167755 -0.57393014 4293661440
3.1219602 -1.5183326 -0.58175766 4293661440
3.092468 -1.5038851 -0.58270657 4293530880
3.0758293 -1.4956846 -0.58531606 4293530880
3.0963807 -1.5055535 -0.5943442 4293661440
3.0731862 -1.4941682 -0.59426576 4293530880
3.0815265 -1.4981029 -0.59958607 4293530880
3.0214236 -1.4687915 -0.59081107 4293400320
3.0255485 -1.470679 -0.59388196 4293400320
3.0164931 -1.4661649 -0.59366584 4293269760
3.0805054 -1.4971335 -0.60718614 4293530880
3.0760942 -1.4948719 -0.60649842 4293530880
3.0943515 -1.5036166 -0.60958004 4293661440
3.0733304 -1.4932898 -0.60420054 4293530880
3.089484 -1.5010109 -0.60544068 4293530880
3.114058 -1.5128177 -0.60759854 4293661440
3.1242671 -1.5176495 -0.60620767 4293661440
3.1271694 -1.5189339 -0.60267609 4293792000
3.1265602 -1.5185132 -0.5977633 4293661440
3.1282475 -1.5192066 -0.59259528 4293792000
3.1244028 -1.5172153 -0.58569503 4293661440
3.1359999 -1.5227157 -0.5810017 4293792000
3.131896 -1.5205976 -0.57270604 4293792000
3.1126182 -1.5111184 -0.5610292 4293661440
3.1077983 -1.5086534 -0.55138421 4293661440
3.1013396 -1.5053934 -0.54084843 4293661440
3.1118462 -1.5103613 -0.5326463 4293661440
3.1306362 -1.5193448 -0.52515996 4293661440
3.1434598 -1.5254332 -0.51596165 4293792000
3.141854 -1.5245241 -0.50376225 4293792000
3.1086922 -1.508316 -0.48605582 4293661440
3.1021669 -1.505023 -0.47213754 4293530880
3.1075335 -1.5074942 -0.45950764 4293530880
3.1226344 -1.5146829 -0.44771558 4293661440
3.1296048 -1.5179294 -0.43415281 4293661440
3.0958533 -1.5014414 -0.4145664 4293530880
3.0935526 -1.5001954 -0.39892042 4293530880
3.1131952 -1.5095812 -0.38558477 4293530880
3.1261785 -1.5157388 -0.37082717 4293661440
3.1191714 -1.5122111 -0.35324952 4293530880
3.0740287 -1.4902114 -0.33123103 4293400320
3.0908761 -1.4982398 -0.31571615 4293400320
3.0974388 -1.5012856 -0.29866922 4293530880
3.1000812 -1.5024322 -0.28086486 4293530880
3.0627069 -1.4842017 -0.2593151 4293400320
3.0990961 -1.5016882 -0.24377421 4293530880
3.1027131 -1.5033057 -0.22513446 4293530880
3.1044314 -1.5040034 -0.20608196 4293530880
3.0775764 -1.4908704 -0.18505369 4293400320
3.081882 -1.492821 -0.16586041 4293400320
3.1043298 -1.5035514 -0.14730817 4293530880
3.107465 -1.504934 -0.12751009 4293530880
3.0837779 -1.4933376 -0.10659503 4293400320
3.1055338 -1.5037299 -0.087178163 4293530880
3.1141343 -1.5077558 -0.067096993 4293530880
3.102478 -1.5019819 -0.046519458 4293400320
3.1029449 -1.5020729 -0.02615826 4293400320
3.1157744 -1.5081431 -0.0057974719 4293530880
3.1237335 -1.5118569 0.01471383 4293530880
3.0882609 -1.4945679 0.03484641 4293400320
3.1404021 -1.5196452 0.055980001 4293661440
3.1494858 -1.5239006 0.076708578 4293661440
3.1518891 -1.5249258 0.097266361 4293661440
3.0821438 -1.4910748 0.115098 4293400320
3.1341281 -1.5160677 0.13715155 4293530880
3.1454132 -1.5213861 0.15770306 4293661440
3.143966 -1.5205507 0.17751189 4293661440
3.0357356 -1.468116 0.19047721 4293269760
3.1556847 -1.5259415 0.2174599 4293661440
3.1488996 -1.5225273 0.23625124 4293661440
3.1515231 -1.5236592 0.25545445 4293661440
3.0234489 -1.461658 0.26312184 4293139200
3.1644747 -1.5296443 0.2937921 4293661440
3.1691582 -1.5317707 0.31241864 4293792000
3.1631007 -1.52871 0.32963786 4293792000
3.1129756 -1.5043708 0.3416158 4293530880
2.9911361 -1.4454101 0.3444584 4293139200
3.1620729 -1.5278097 0.38066107 4293792000
3.1572847 -1.5253643 0.39627689 4293792000
3.1478076 -1.520656 0.4107891 4293661440
3.1099281 -1.5022402 0.42092025 4293530880
3.0344892 -1.465701 0.42498168 4293269760
3.156364 -1.524388 0.45624796 4293792000
3.1709189 -1.5312792 0.4721728 4293792000
3.158808 -1.5253034 0.48361981 4293792000
3.1426468 -1.517375 0.49378097 4293661440
3.142524 -1.5171854 0.50581914 4293661440
3.126339 -1.5092485 0.51464272 4293661440
3.1501989 -1.520628 0.52945971 4293792000
3.1537669 -1.5222195 0.54036397 4293792000
3.1519091 -1.5211946 0.54972321 4293792000
3.1492028 -1.5197611 0.55828428 4293792000
3.156142 -1.522979 0.56791019 4293792000
3.1421034 -1.5160829 0.57309991 4293792000
3.1527784 -1.5211024 0.58210009 4293792000
3.1394706 -1.5145608 0.58600718 4293792000
3.1311269 -1.5104135 0.59010977 4293661440
3.1348767 -1.512096 0.59578216 4293792000
3.1265454 -1.5079564 0.59846359 4293661440
3.1260564 -1.5075972 0.60192591 4293661440
3.1301095 -1.5094272 0.60555536 4293661440
3.1209555 -1.5048939 0.60592514 4293661440
3.120785 -1.5046899 0.60731333 4293661440
3.116286 -1.5024011 0.60714668 4293661440
3.1364934 -1.5120143 0.61105943 4293792000
3.1366506 -1.511969 0.61036181 4293792000
3.1497929 -1.5181781 0.61145705 4293792000
3.1492677 -1.5178047 0.6091845 4293792000
3.1417601 -1.5140697 0.60485768 4293792000
3.1561146 -1.5208622 0.60400343 4293792000
3.1425178 -1.5141966 0.59711432 4293792000
3.1499164 -1.5176405 0.59350574 4293792000
3.147871 -1.5165378 0.58742183 4293792000
3.1574869 -1.521049 0.58280289 4293792000
3.1452167 -1.515026 0.57348812 4293792000
3.1423619 -1.5135357 0.56524944 4293792000
3.1269803 -1.5060177 0.55415714 4293661440
3.1307082 -1.5076969 0.54582429 4293661440
3.1462448 -1.5150582 0.53885078 4293792000
3.1587646 -1.5209674 0.53065133 4293792000
3.1540885 -1.5186031 0.51893872 4293792000
3.1369171 -1.5102286 0.5046612 4293661440
3.1137698 -1.4983764 0.41434976 4293530880
3.149545 -1.515467 0.40363118 4293661440
3.1544955 -1.5177363 0.38832888 4293661440
3.122653 -1.5023184 0.36822668 4293530880
3.1074407 -1.4948969 0.34990737 4293530880
3.1299205 -1.5055934 0.33537346 4293661440
3.1392257 -1.5099568 0.31888878 4293661440
3.1116426 -1.4965919 0.29843184 4293530880
3.095814 -1.4888777 0.2790108 4293400320
3.1197805 -1.5002871 0.26279044 4293530880
3.1278615 -1.5040622 0.24476245 4293530880
3.1256368 -1.5028856 0.22562949 4293530880
3.109143 -1.4948545 0.20534152 4293530880
3.1311791 -1.5053333 0.18731059 4293530880
3.1423883 -1.5106103 0.16822508 4293661440
3.1343141 -1.5066246 0.14791481 4293530880
3.1088107 -1.4942688 0.12684403 4293530880
3.1127267 -1.4960432 0.10695229 4293530880
3.113668 -1.4963888 0.086810291 4293530880
3.1029825 -1.4911518 0.066318102 4293400320
3.0944953 -1.486971 0.045921873 4293400320
3.1073372 -1.493031 0.0257477 4293400320
3.1008015 -1.4897875 0.005352898 4293400320
3.0761971 -1.4778708 -0.014866592 4293400320
3.0902257 -1.4844997 -0.035213929 4293400320
3.1089423 -1.4933777 -0.055796962 4293400320
3.108803 -1.493205 -0.076094769 4293400320
3.0920906 -1.4850785 -0.095788486 4293400320
3.1127908 -1.4949063 -0.11658799 4293530880
3.1206698 -1.4985806 -0.13696136 4293530880
3.1186297 -1.4974949 -0.1567861 4293530880
3.1001003 -1.4884984 -0.17547536 4293400320
3.1097016 -1.4929982 -0.19552833 4293530880
3.117202 -1.4964894 -0.21534513 4293530880
3.1103117 -1.4930773 -0.2339326 4293530880
3.1085567 -1.4921285 -0.25260407 4293530880
3.1268127 -1.5007765 -0.27273747 4293530880
3.1338851 -1.5040603 -0.29174376 4293530880
3.1389742 -1.506392 -0.3103177 4293661440
3.0702794 -1.4733447 -0.32086077 4293400320
3.1315134 -1.5025966 -0.34465122 4293661440
3.1388981 -1.5060279 -0.36248785 4293661440
3.1405323 -1.5067016 -0.37930685 4293661440
3.1238394 -1.4985898 -0.39340654 4293530880
3.0069177 -1.4424379 -0.39372385 4293139200
3.157742 -1.5146186 -0.42895088 4293792000
3.1516554 -1.51159 -0.44301298 4293661440
3.1651673 -1.5179533 -0.45937717 4293792000
3.157208 -1.5140268 -0.47212598 4293792000
3.1349766 -1.5032623 -0.48207337 4293661440
3.1220322 -1.4969484 -0.49276271 4293661440
3.1357775 -1.5034209 -0.50712079 4293661440
3.1343055 -1.5026027 -0.51848304 4293661440
3.1336951 -1.5021969 -0.52939069 4293661440
3.1386702 -1.5044658 -0.54065508 4293661440
3.1375394 -1.5038098 -0.55025947 4293661440
3.1401215 -1.5049316 -0.55989003 4293661440
3.1288419 -1.4994148 -0.56637609 4293661440
3.1184032 -1.4943013 -0.57230592 4293661440
3.1009493 -1.4858294 -0.57621843 4293530880
3.1011772 -1.4858232 -0.58271927 4293530880
3.0933809 -1.4819752 -0.58701992 4293530880
3.0655754 -1.4685498 -0.58677316 4293400320
3.0773962 -1.4740921 -0.59341955 4293530880
3.0347822 -1.4535813 -0.5888198 4293400320
3.0254881 -1.4490185 -0.58995533 4293269760
3.0340655 -1.4530075 -0.59389442 4293400320
3.0338659 -1.4527957 -0.59542561 4293400320
3.0204515 -1.4462613 -0.59365892 4293269760
3.0758696 -1.4726563 -0.60476071 4293530880
3.0724428 -1.4708979 -0.6035642 4293530880
3.0908611 -1.479588 -0.60595876 4293530880
3.0857394 -1.4770178 -0.60301721 4293530880
3.1183765 -1.492505 -0.60674495 4293661440
3.1144841 -1.4905207 -0.60261852 4293661440
3.1209331 -1.4934812 -0.59979302 4293661440
3.1264634 -1.4960014 -0.59607697 4293661440
3.1288466 -1.4970162 -0.59105557 4293661440
3.1287413 -1.4968406 -0.58487439 4293661440
3.1279104 -1.4963177 -0.57788301 4293661440
3.1193371 -1.492094 -0.56881303 4293661440
3.1169164 -1.490811 -0.56023955 4293661440
3.1120806 -1.4883735 -0.55060673 4293661440
3.0933177 -1.4792812 -0.53794211 4293530880
3.1072168 -1.4857957 -0.53036958 4293530880
3.1269448 -1.4950935 -0.52307755 4293661440
3.1397974 -1.5011047 -0.51392323 4293661440
3.1292498 -1.4959368 -0.5003379 4293661440
3.1174271 -1.4901603 -0.48606858 4293661440
3.0938973 -1.4787934 -0.46956399 4293530880
3.0992689 -1.4812298 -0.45700604 4293530880
3.1188772 -1.4904634 -0.44593081 4293530880
3.1213825 -1.4915291 -0.43180361 4293530880
3.0922022 -1.4774668 -0.41292414 4293530880
3.0927749 -1.4776101 -0.3977111 4293530880
3.1093814 -1.4854066 -0.38404033 4293530880
3.1304698 -1.4953407 -0.37030697 4293661440
3.1235096 -1.4918865 -0.352761 4293530880
3.0736761 -1.4679728 -0.33027369 4293400320
3.0950589 -1.4780453 -0.31526873 4293400320
3.0980406 -1.4793363 -0.29789948 4293400320
3.1124504 -1.4860787 -0.28121099 4293530880
3.0713019 -1.4663162 -0.25932768 4293400320
3.103291 -1.4814435 -0.24343134 4293400320
3.103313 -1.4813211 -0.22455616 4293400320
3.1133385 -1.4859693 -0.20610788 4293530880
3.0952229 -1.4771968 -0.18561189 4293400320
3.0942113 -1.4765816 -0.16607293 4293400320
3.1049206 -1.4815544 -0.14693217 4293400320
3.11167 -1.4846385 -0.12733567 4293530880
3.0743814 -1.4667289 -0.10597505 4293269760
3.1061203 -1.4817251 -0.086958751 4293400320
3.1128259 -1.484787 -0.066888094 4293400320
3.11289 -1.4846833 -0.046558842 4293400320
3.1116433 -1.483955 -0.026170984 4293400320
3.1187208 -1.4871929 -0.0057959873 4293530880
3.1283724 -1.4916569 0.014684208 4293530880
3.1174233 -1.4863057 0.035051703 4293530880
3.1365647 -1.4952893 0.055750296 4293530880
3.1501873 -1.5016427 0.076503411 4293661440
3.1562073 -1.5043741 0.097117402 4293661440
3.1056404 -1.4801571 0.11562923 4293400320
3.1417334 -1.4972103 0.13708822 4293530880
3.1479909 -1.5000546 0.15738258 4293661440
3.1517906 -1.5017284 0.17744443 4293661440
3.0361238 -1.4465297 0.18996258 4293139200
3.1519041 -1.5015122 0.2165882 4293661440
3.1613984 -1.5058961 0.23651139 4293661440
3.1540537 -1.5022656 0.25493708 4293661440
3.0274119 -1.4418644 0.26272199 4293139200
3.1643338 -1.5068882 0.29295203 4293661440
3.1780286 -1.5132695 0.31240568 4293792000
3.1674578 -1.5081055 0.32916075 4293661440
3.1331158 -1.4916344 0.3428458 4293530880
2.9869301 -1.4219658 0.34301108 4293008640
3.1628394 -1.505507 0.37968364 4293661440
3.1563165 -1.5022717 0.39504403 4293661440
3.1566133 -1.5022802 0.4107762 4293661440
3.134511 -1.4916383 0.42304003 4293661440
3.0349119 -1.444152 0.42384887 4293269760
3.156235 -1.5017046 0.45495036 4293661440
3.1583014 -1.5025557 0.46898475 4293792000
3.1676407 -1.5068641 0.4836069 4293792000
3.160377 -1.5032809 0.49516296 4293792000
3.1468401 -1.4967172 0.50509208 4293661440
3.1350789 -1.490999 0.51462996 4293661440
3.1509664 -1.4984199 0.5281055 4293792000
3.1670456 -1.505931 0.54111052 4293792000
3.169642 -1.5070357 0.55125588 4293792000
3.1580036 -1.5013785 0.55827141 4293792000
3.156044 -1.5003203 0.56630379 4293792000
3.1508827 -1.4977419 0.57308704 4293792000
3.157131 -1.5005831 0.5812701 4293792000
3.1437864 -1.4941199 0.58516848 4293792000
3.1354201 -1.4900221 0.58926332 4293661440
3.1436329 -1.4937974 0.59576935 4293792000
3.1263742 -1.4854795 0.59675807 4293661440
3.1258845 -1.4851241 0.60021055 4293661440
3.1299496 -1.4869313 0.60383213 4293661440
3.1296699 -1.4866766 0.60591245 4293661440
3.1214888 -1.4826722 0.60575229 4293661440
3.1214261 -1.4825218 0.60644507 4293661440
3.1416893 -1.4920171 0.6103577 4293792000
3.1373961 -1.4898596 0.60880077 4293661440
3.1496837 -1.4955697 0.60972786 4293792000
3.1375966 -1.4897155 0.60524017 4293661440
3.1416247 -1.4915075 0.60314226 4293792000
3.1560168 -1.4982159 0.60229784 4293792000
3.1512861 -1.4958535 0.59710145 4293792000
3.1462324 -1.4933388 0.59115869 4293792000
3.1432858 -1.4918243 0.58493149 4293661440
3.1529236 -1.4962779 0.58033872 4293792000
3.1459644 -1.4928615 0.57202196 4293792000
3.1386378 -1.4892721 0.56300569 4293661440
3.1392705 -1.4894571 0.55477256 4293661440
3.1314042 -1.4856133 0.54442054 4293661440
3.1550181 -1.4966928 0.53883797 4293792000
3.1631045 -1.5004112 0.52989322 4293792000
3.1592286 -1.4984602 0.51832908 4293792000
3.1456623 -1.4919173 0.50464839 4293661440
3.1228938 -1.4804113 0.41439611 4293530880
3.1526628 -1.4944015 0.40289927 4293661440
3.1543012 -1.495067 0.38721949 4293661440
3.1224349 -1.479866 0.36717153 4293530880
3.1160972 -1.4767562 0.34989473 4293530880
3.1386387 -1.4873215 0.33536074 4293661440
3.1524699 -1.4937613 0.31932881 4293661440
3.1113739 -1.4741962 0.29757074 4293530880
3.1048322 -1.4709921 0.27903357 4293400320
3.1215177 -1.4787834 0.26219857 4293530880
3.1362994 -1.4856728 0.2447287 4293530880
3.1257167 -1.4805566 0.22500177 4293530880
3.1143878 -1.475088 0.20510644 4293530880
3.1432345 -1.4886326 0.18749483 4293530880
3.1453478 -1.4895252 0.16790703 4293530880
3.1322124 -1.4832028 0.14739953 4293530880
3.112114 -1.473587 0.12661716 4293400320
3.1211176 -1.4777406 0.10693047 4293530880
3.1213171 -1.477729 0.08677002 4293530880
3.1025791 -1.4687594 0.066118531 4293400320
3.0977612 -1.4663751 0.045833528 4293400320
3.1025021 -1.4685121 0.025631994 4293400320
3.1114721 -1.472649 0.0053425482 4293400320
3.0849531 -1.4600029 -0.014880181 4293400320
3.0979967 -1.4660658 -0.035216618 4293400320
3.10765 -1.4705248 -0.055625767 4293400320
3.1038923 -1.4686427 -0.075768448 4293400320
3.0961716 -1.4648873 -0.095658801 4293400320
3.1166575 -1.474466 -0.11641895 4293400320
3.1328492 -1.4820135 -0.13712929 4293530880
3.1314607 -1.4812504 -0.15700969 4293530880
3.095176 -1.463995 -0.17471576 4293400320
3.1180751 -1.4747111 -0.19552377 4293530880
3.1177466 -1.474449 -0.2147938 4293530880
3.1108394 -1.4710785 -0.23333184 4293400320
3.1126888 -1.4718457 -0.25224888 4293530880
3.1307249 -1.4802598 -0.27233195 4293530880
3.1453009 -1.4870379 -0.29200917 4293661440
3.1360011 -1.4825364 -0.30917117 4293530880
3.0936372 -1.4624178 -0.32242632 4293400320
3.1299474 -1.4794602 -0.34353173 4293530880
3.1432006 -1.4856106 -0.36198947 4293661440
3.1411672 -1.4845409 -0.37834108 4293661440
3.1244314 -1.4765286 -0.39239961 4293530880
3.071285 -1.4513253 -0.40107986 4293400320
3.1584351 -1.4923638 -0.42786542 4293661440
3.1648939 -1.4953018 -0.44365674 4293792000
3.1534467 -1.4897863 -0.45641136 4293661440
3.1514032 -1.4887099 -0.4699586 4293661440
3.1392031 -1.4828397 -0.48139712 4293661440
3.1272306 -1.4770772 -0.49222752 4293661440
3.1274037 -1.4770472 -0.50437075 4293661440
3.1340625 -1.480077 -0.51701599 4293661440
3.1397088 -1.4826282 -0.5289498 4293661440
3.1429138 -1.4840269 -0.53989816 4293661440
3.1382084 -1.4816929 -0.5488624 4293661440
3.1350605 -1.4800936 -0.55744684 4293661440
3.1250288 -1.4752469 -0.56412727 4293661440
3.1270561 -1.4760884 -0.57231855 4293661440
3.1095531 -1.4677182 -0.576231 4293530880
3.0972974 -1.4618235 -0.58038682 4293530880
3.1019626 -1.4639082 -0.58703244 4293530880
3.0829918 -1.4548475 -0.58849102 4293530880
3.0258937 -1.4278114 -0.58185858 4293269760
3.0253811 -1.4274559 -0.58537602 4293269760
3.0383327 -1.4334471 -0.59083581 4293400320
3.0291188 -1.4289887 -0.59129238 4293269760
3.0378253 -1.432977 -0.5945642 4293400320
3.0243731 -1.4265211 -0.59279621 4293269760
3.0843971 -1.4546913 -0.60477316 4293530880
3.084523 -1.4546317 -0.60427624 4293530880
3.0994289 -1.4615356 -0.60597128 4293530880
3.1067638 -1.4648709 -0.60546595 4293530880
3.1105304 -1.4665241 -0.60355061 4293661440
3.1275706 -1.4744292 -0.60349292 4293661440
3.1295815 -1.4752533 -0.59980565 4293661440
3.1306686 -1.4756418 -0.59524006 4293661440
3.1375153 -1.4787422 -0.59106821 4293661440
3.1293805 -1.4747868 -0.58338666 4293661440
3.136575 -1.4780495 -0.57789564 4293661440
3.1287923 -1.4742596 -0.56897426 4293661440
3.1255491 -1.472607 -0.56025213 4293661440
3.1081915 -1.4643099 -0.5484066 4293530880
3.097219 -1.4590193 -0.53714341 4293530880
3.1066825 -1.4633477 -0.5288223 4293530880
3.1284423 -1.4734616 -0.52189231 4293661440
3.1363266 -1.4770439 -0.51194471 4293661440
3.125375 -1.4717622 -0.49834543 4293661440
3.1252301 -1.4715654 -0.48595238 4293530880
3.0934958 -1.4565071 -0.46821526 4293530880
3.1024234 -1.4605787 -0.45621845 4293530880
3.1136782 -1.465744 -0.44396463 4293530880
3.1234434 -1.4702073 -0.43090576 4293530880
3.0958152 -1.4570841 -0.41227594 4293400320
3.088747 -1.4536309 -0.39610335 4293400320
3.1216581 -1.4689765 -0.38450751 4293530880
3.1334586 -1.4743935 -0.36964783 4293530880
3.1311367 -1.4731702 -0.35265911 4293530880
3.07407 -1.4462124 -0.32941309 4293400320
3.1027195 -1.459549 -0.31518951 4293400320
3.1099415 -1.4628121 -0.29823357 4293400320
3.1065114 -1.4610683 -0.27990526 4293400320
3.0752807 -1.4462608 -0.25895765 4293269760
3.1029198 -1.4591169 -0.24273886 4293400320
3.1016839 -1.4584043 -0.22382651 4293400320
3.113812 -1.4639696 -0.20557909 4293400320
3.106946 -1.4606116 -0.18581572 4293400320
3.0982413 -1.4563904 -0.16584089 4293400320
3.0954137 -1.4549301 -0.14608078 4293400320
3.1030807 -1.4583982 -0.12663692 4293400320
3.0873978 -1.4509014 -0.10614564 4293400320
3.1088994 -1.4608647 -0.08680591 4293400320
3.1159964 -1.4640634 -0.066781133 4293400320
3.1166041 -1.4642153 -0.04649565 4293400320
3.1067367 -1.45945 -0.026062159 4293400320
3.1270595 -1.4688554 -0.0058079008 4293530880
3.1326821 -1.4713602 0.01465397 4293530880
3.1124511 -1.4617323 0.034895264 4293400320
3.1349933 -1.4721763 0.055562653 4293530880
3.15308 -1.4805281 0.076353788 4293530880
3.156256 -1.481883 0.096844278 4293530880
3.1051626 -1.4577805 0.11528654 4293400320
3.149682 -1.4785297 0.13704465 4293530880
3.1554008 -1.4810774 0.15730709 4293661440
3.1532638 -1.4799405 0.17703088 4293530880
3.0399799 -1.4266844 0.18967137 4293139200
3.1499376 -1.4781123 0.2158519 4293530880
3.165601 -1.4853221 0.23616461 4293661440
3.158237 -1.4817355 0.25456339 4293661440
3.0875583 -1.4484705 0.26715642 4293400320
3.1714377 -1.4876553 0.29279068 4293661440
3.1855185 -1.4941206 0.31226897 4293792000
3.1756856 -1.4893783 0.32909605 4293661440
3.1381481 -1.471655 0.3424423 4293530880
2.9861562 -1.400308 0.34197402 4293008640
3.1715567 -1.4870436 0.37967089 4293661440
3.1695144 -1.4859543 0.3955898 4293661440
3.1563175 -1.4796404 0.40960252 4293661440
3.1182306 -1.4616698 0.41969138 4293530880
3.0432739 -1.4264354 0.42383665 4293269760
3.1604397 -1.4811776 0.45429534 4293661440
3.1670015 -1.4841197 0.46897203 4293792000
3.1718795 -1.4862732 0.48291433 4293792000
3.1556294 -1.4785351 0.49305803 4293661440
3.1465425 -1.4741521 0.50365108 4293661440
3.1302724 -1.4664078 0.51242703 4293661440
3.1596425 -1.4800272 0.5280928 4293792000
3.1623371 -1.4811602 0.53881955 4293792000
3.1613657 -1.4805778 0.54830664 4293792000
3.1577518 -1.4787594 0.55668831 4293792000
3.1477416 -1.4739491 0.56326348 4293661440
3.15151 -1.4755863 0.57162112 4293661440
3.1488411 -1.4742122 0.5781526 4293661440
3.1488643 -1.4740981 0.58449519 4293661440
3.1315436 -1.4658722 0.58691657 4293661440
3.1478176 -1.4733599 0.59491622 4293661440
3.1472213 -1.4729577 0.59906739 4293661440
3.1264501 -1.4631218 0.59866571 4293661440
3.1260638 -1.4628195 0.60142499 4293661440
3.1302462 -1.4646537 0.60435516 4293661440
3.1300738 -1.4644521 0.60573977 4293661440
3.1413584 -1.4696069 0.60862267 4293661440
3.1458664 -1.4715937 0.60948396 4293661440
3.1326363 -1.4652902 0.60620773 4293661440
3.1413856 -1.4692602 0.60645419 4293661440
3.1587052 -1.477235 0.60761958 4293792000
3.1510634 -1.4735451 0.60328269 4293792000
3.1477263 -1.4718677 0.599069 4293661440
3.1465507 -1.4712008 0.59456736 4293661440
3.1459458 -1.4708011 0.58947879 4293661440
3.1519237 -1.4734769 0.58491886 4293661440
3.1535425 -1.4741167 0.57885534 4293792000
3.1581848 -1.4761689 0.57265526 4293792000
3.1472609 -1.4709517 0.56299305 4293661440
3.1443155 -1.4694614 0.55413181 4293661440
3.1435869 -1.4690069 0.54502618 4293661440
3.154532 -1.4740033 0.53727317 4293661440
3.171792 -1.4819478 0.52988052 4293792000
3.1589408 -1.4758345 0.51685619 4293661440
3.1336031 -1.4638939 0.50133944 4293661440
3.1269665 -1.4600822 0.41379139 4293530880
3.1613157 -1.4759978 0.40288663 4293661440
3.1548507 -1.4728718 0.38622001 4293661440
3.1310036 -1.4616383 0.36715901 4293530880
3.1201394 -1.4564625 0.34938052 4293530880
3.1346207 -1.4631085 0.33401099 4293530880
3.1430676 -1.4669397 0.31750494 4293530880
3.1244247 -1.4581379 0.29798579 4293530880
3.1088326 -1.4507601 0.27861938 4293400320
3.1345987 -1.4626671 0.26256156 4293530880
3.1432769 -1.4666058 0.24459079 4293530880
3.1435325 -1.4666175 0.22564664 4293530880
3.1224751 -1.4566944 0.20506446 4293530880
3.1420817 -1.465727 0.18690726 4293530880
3.1458242 -1.4673644 0.1674659 4293530880
3.1281221 -1.4590075 0.14680012 4293530880
3.1161172 -1.4533069 0.12642384 4293400320
3.1206138 -1.4552966 0.10661417 4293400320
3.1208119 -1.4552832 0.086512014 4293400320
3.1156013 -1.4527497 0.06619928 4293400320
3.1095049 -1.4498042 0.045867097 4293400320
3.1061006 -1.448113 0.025582198 4293400320
3.1064019 -1.4481484 0.0053151296 4293400320
3.0852485 -1.4381905 -0.014848292 4293269760
3.0983274 -1.4441775 -0.035131603 4293400320
3.1116326 -1.4502691 -0.055554595 4293400320
3.112396 -1.4505193 -0.075780869 4293400320
3.1036351 -1.4463345 -0.095639206 4293400320
3.1251948 -1.4562677 -0.11643142 4293400320
3.1287487 -1.4578162 -0.13658097 4293530880
3.1273587 -1.457063 -0.15638104 4293530880
3.1036527 -1.4459215 -0.17472814 4293400320
3.1130373 -1.4501842 -0.19467959 4293400320
3.1127114 -1.4499265 -0.2138662 4293400320
3.110312 -1.4487035 -0.23266268 4293400320
3.1167686 -1.4516021 -0.25189987 4293400320
3.1347766 -1.4598752 -0.27195001 4293530880
3.1448765 -1.4644672 -0.29118046 4293530880
3.1413598 -1.4627229 -0.30886486 4293530880
3.0849547 -1.4363732 -0.32064697 4293400320
3.1292198 -1.4568589 -0.34252208 4293530880
3.1370037 -1.4603715 -0.3602947 4293530880
3.1402977 -1.4617947 -0.37721181 4293530880
3.1281209 -1.4560223 -0.39180091 4293530880
3.0625801 -1.4254328 -0.39885518 4293269760
3.1568067 -1.4691435 -0.42648554 4293661440
3.1551921 -1.4682821 -0.44109365 4293661440
3.1655574 -1.4729906 -0.45692867 4293661440
3.1575615 -1.4691614 -0.46960393 4293661440
3.1388075 -1.4603313 -0.48003173 4293661440
3.1232152 -1.4529718 -0.49026108 4293530880
3.1359563 -1.4587828 -0.50438327 4293661440
3.138967 -1.46007 -0.5164237 4293661440
3.1348467 -1.4580426 -0.52669668 4293661440
3.1397879 -1.4602259 -0.53789759 4293661440
3.1423092 -1.461284 -0.54809171 4293661440
3.139154 -1.459704 -0.55666345 4293661440
3.1425204 -1.4611539 -0.56575519 4293661440
3.1311295 -1.4557472 -0.57151246 4293661440
3.1180515 -1.4495573 -0.57624346 4293530880
3.1057618 -1.443734 -0.58039916 4293530880
3.1014998 -1.4416399 -0.58535361 4293530880
3.0780103 -1.4306159 -0.58594519 4293400320
3.0863218 -1.4343607 -0.59189844 4293530880
3.0336461 -1.409786 -0.58538806 4293269760
3.0466325 -1.4157016 -0.59084791 4293400320
3.0373926 -1.411297 -0.59130448 4293269760
3.041657 -1.4131615 -0.59370261 4293269760
3.0370982 -1.4109297 -0.59368324 4293269760
3.0892477 -1.4350189 -0.60408527 4293530880
3.0849075 -1.4328861 -0.60271442 4293530880
3.0989597 -1.4392886 -0.60423803 4293530880
3.1116726 -1.4450681 -0.60478228 4293530880
3.1109812 -1.4446266 -0.6020034 4293530880
3.13164 -1.4540902 -0.60264361 4293661440
3.1336546 -1.4549023 -0.59896195 4293661440
3.1432996 -1.4592535 -0.5960294 4293661440
3.1326642 -1.4541967 -0.58855456 4293661440
3.1342719 -1.4548184 -0.58271921 4293661440
3.1290238 -1.4522601 -0.57494068 4293661440
3.1328528 -1.4539112 -0.56817293 4293661440
3.1295984 -1.4522769 -0.55946213 4293661440
3.1077118 -1.442004 -0.5468384 4293530880
3.0969009 -1.436867 -0.53563541 4293530880
3.1117656 -1.4436326 -0.52825755 4293530880
3.1271093 -1.4506186 -0.5202589 4293530880
3.1400225 -1.4564767 -0.51116431 4293661440
3.1371195 -1.4550034 -0.49887195 4293661440
3.1246548 -1.4490991 -0.48454991 4293530880
3.1014261 -1.4382079 -0.46815139 4293530880
3.1063833 -1.4403771 -0.45556909 4293530880
3.1209939 -1.4470178 -0.44380993 4293530880
3.1316845 -1.4518411 -0.43088073 4293530880
3.0989172 -1.4365339 -0.41157708 4293400320
3.0926571 -1.4335059 -0.39553696 4293400320
3.1256547 -1.4486586 -0.38396373 4293530880
3.136765 -1.4536731 -0.36904228 4293530880
3.1333504 -1.451961 -0.35195884 4293530880
3.0864539 -1.4301177 -0.32985607 4293400320
3.102134 -1.4372472 -0.31428158 4293400320
3.1093707 -1.4404666 -0.29737648 4293400320
3.1068308 -1.4391602 -0.27918172 4293400320
3.0791302 -1.426209 -0.25858745 4293269760
3.1113682 -1.4409978 -0.2427512 4293400320
3.114656 -1.4423877 -0.22416723 4293400320
3.1173043 -1.4434813 -0.20526053 4293400320
3.1027155 -1.4365999 -0.18506417 4293400320
3.0939827 -1.4324285 -0.16516846 4293400320
3.1075435 -1.4385698 -0.14626963 4293400320
3.1076257 -1.438476 -0.1264883 4293400320
3.0917149 -1.4309855 -0.10601549 4293269760
3.1161768 -1.4421661 -0.086784691 4293400320
3.128103 -1.4475482 -0.066873252 4293400320
3.1250818 -1.4460181 -0.046508029 4293400320
3.1070178 -1.4375341 -0.026001209 4293400320
3.1264868 -1.4464017 -0.0057980027 4293400320
3.137115 -1.4511812 0.014624964 4293530880
3.1340821 -1.449646 0.035021987 4293530880
3.141886 -1.4531192 0.05552239 4293530880
3.160471 -1.4615735 0.076313488 4293530880
3.170517 -1.466081 0.097002044 4293661440
3.1090665 -1.4375557 0.11510915 4293400320
3.1537068 -1.458046 0.13683821 4293530880
3.163976 -1.4626558 0.15729457 4293661440
3.1572988 -1.4594377 0.17676745 4293530880
3.0957181 -1.4308636 0.19258156 4293400320
3.1548707 -1.4580493 0.21559407 4293530880
3.1569893 -1.4588944 0.23488282 4293530880
3.1532331 -1.4570268 0.25346801 4293530880
3.0959446 -1.4304457 0.26714417 4293400320
3.1800508 -1.4691414 0.2927781 4293661440
3.1815071 -1.4696801 0.31102696 4293661440
3.1806927 -1.4691709 0.3287122 4293661440
3.1376324 -1.4491655 0.34145269 4293530880
3.0032957 -1.3870434 0.34298718 4293008640
3.1756525 -1.466447 0.37912256 4293661440
3.1736062 -1.4653709 0.39501879 4293661440
3.1693938 -1.4632961 0.4101705 4293661440
3.1221859 -1.4413882 0.41907722 4293530880
3.0425227 -1.4045146 0.4225798 4293269760
3.1609104 -1.4589912 0.45312667 4293661440
3.1755941 -1.4656333 0.46895951 4293792000
3.1727729 -1.4642023 0.48173633 4293661440
3.161401 -1.4588294 0.49261302 4293661440
3.1550775 -1.4557853 0.50363863 4293661440
3.1387625 -1.448136 0.51241463 4293661440
3.1637213 -1.4595144 0.52733517 4293661440
3.1628339 -1.4589778 0.53744012 4293661440
3.1564789 -1.4559219 0.54597598 4293661440
3.158241 -1.4566076 0.55526245 4293661440
3.1678529 -1.4609109 0.56530857 4293792000
3.1600533 -1.4571911 0.57160866 4293661440
3.1528962 -1.4537686 0.57732308 4293661440
3.1573989 -1.4557185 0.58448273 4293661440
3.1566043 -1.4552284 0.58998966 4293661440
3.1429174 -1.4488004 0.59238243 4293661440
3.1423216 -1.4484034 0.59651589 4293661440
3.1507785 -1.452176 0.60166961 4293661440
3.1459138 -1.4498138 0.60358763 4293661440
3.1501057 -1.4516227 0.60652536 4293661440
3.1421316 -1.4478304 0.60641545 4293661440
3.140919 -1.447152 0.60688806 4293661440
3.1373854 -1.4454056 0.60619938 4293661440
3.1496267 -1.4509214 0.60783076 4293661440
3.1454175 -1.4488649 0.60558361 4293661440
3.1538327 -1.4526194 0.6050415 4293661440
3.1595945 -1.4551529 0.60327023 4293792000
3.1562479 -1.4534949 0.59905654 4293661440
3.1577663 -1.4540763 0.59506136 4293661440
3.1455035 -1.4483175 0.58779913 4293661440
3.160651 -1.4551699 0.58494258 4293792000
3.1531143 -1.451587 0.57720876 4293661440
3.1496964 -1.4498993 0.56957483 4293661440
3.1468081 -1.4484562 0.56138718 4293661440
3.1438506 -1.4469818 0.552549 4293661440
3.1395252 -1.4448789 0.54285008 4293661440
3.1641607 -1.4560938 0.5374459 4293661440
3.1722863 -1.4597162 0.52852672 4293792000
3.1593957 -1.4536763 0.51552957 4293661440
3.146575 -1.4476697 0.50204122 4293661440
3.1309083 -1.439756 0.41318688 4293530880
3.1572227 -1.4517373 0.40127662 4293661440
3.1715069 -1.4581902 0.38719437 4293661440
3.1394658 -1.4433612 0.36714667 4293530880
3.1242495 -1.436263 0.34888849 4293530880
3.1419144 -1.4442693 0.33387437 4293530880
3.1515605 -1.4485916 0.31749254 4293530880
3.1192853 -1.4336612 0.29669091 4293400320
3.1081736 -1.4284518 0.27780366 4293400320
3.1340051 -1.4402069 0.26179823 4293530880
3.1352656 -1.4406788 0.24330868 4293530880
3.1427555 -1.4440109 0.22497688 4293530880
3.1354449 -1.4405478 0.20534627 4293530880
3.1460299 -1.4453005 0.18662862 4293530880
3.1579509 -1.4506657 0.16764393 4293530880
3.1320288 -1.4386612 0.14657821 4293400320
3.1271465 -1.4363146 0.1265157 4293400320
3.1364915 -1.4404975 0.10685106 4293530880
3.125603 -1.4353951 0.08640153 4293400320
3.1113036 -1.4287285 0.065925665 4293400320
3.1178987 -1.4316494 0.045854848 4293400320
3.11812 -1.4316459 0.025597578 4293400320
3.1147859 -1.4300114 0.0053028939 4293400320
3.0885746 -1.417883 -0.014833382 4293269760
3.1054063 -1.4254993 -0.03512853 4293400320
3.114655 -1.4296364 -0.055467952 4293400320
3.1171591 -1.4306797 -0.075702712 4293400320
3.0974741 -1.4215475 -0.095196187 4293269760
3.1245415 -1.4338543 -0.11610091 4293400320
3.1417301 -1.4416299 -0.13679361 4293530880
3.1225317 -1.4327217 -0.15572439 4293400320
3.1030247 -1.4236734 -0.17422995 4293400320
3.1259711 -1.4340869 -0.1949774 4293400320
3.1211059 -1.4317508 -0.21387845 4293400320
3.1141646 -1.4284632 -0.23233411 4293400320
3.1148279 -1.4286612 -0.25107262 4293400320
3.1506629 -1.444977 -0.27260956 4293530880
3.1533551 -1.4461031 -0.29119283 4293530880
3.1449132 -1.4421271 -0.30839264 4293530880
3.0968909 -1.4200171 -0.32103634 4293400320
3.1376545 -1.4385858 -0.34253439 4293530880
3.1418419 -1.4403958 -0.35989088 4293530880
3.1488314 -1.443489 -0.37723264 4293530880
3.1320341 -1.4356863 -0.39124671 4293530880
3.0708327 -1.407548 -0.39886722 4293269760
3.1605287 -1.4485179 -0.42585102 4293661440
3.1625192 -1.4493191 -0.44094184 4293661440
3.1641724 -1.4499654 -0.45550916 4293661440
3.157057 -1.4465965 -0.46827549 4293661440
3.1489723 -1.4427838 -0.48030573 4293661440
3.1396167 -1.4383898 -0.49152803 4293530880
3.1309848 -1.4343271 -0.5022369 4293530880
3.143002 -1.4397162 -0.51570898 4293661440
3.145988 -1.4409705 -0.52716267 4293661440
3.1474137 -1.4415103 -0.53776801 4293661440
3.1462789 -1.4408778 -0.54732078 4293661440
3.1440139 -1.4397279 -0.55603904 4293661440
3.1420059 -1.4386953 -0.564152 4293661440
3.1225131 -1.4296631 -0.56841403 4293530880
3.1183727 -1.4276551 -0.57476431 4293530880
3.1015689 -1.4198544 -0.57806617 4293530880
3.1017797 -1.4198368 -0.58384365 4293530880
3.086293 -1.4126393 -0.58595723 4293400320
3.0901465 -1.4142871 -0.59105164 4293400320
3.0382252 -1.3904299 -0.58470875 4293269760
3.037812 -1.3901273 -0.58756053 4293269760
3.0455635 -1.3935573 -0.5913164 4293269760
3.0453613 -1.3933501 -0.59284085 4293269760
3.0372076 -1.3895078 -0.59212023 4293269760
3.0282674 -1.3853059 -0.59055251 4293269760
3.0842485 -1.4107764 -0.60097748 4293400320
3.0992324 -1.4175062 -0.60267907 4293530880
3.0985432 -1.4170721 -0.60061783 4293530880
3.1059082 -1.4203179 -0.5994162 4293530880
3.1275153 -1.4300697 -0.60024279 4293661440
3.125051 -1.4288224 -0.59572065 4293530880
3.1306193 -1.431244 -0.59203631 4293661440
3.1366003 -1.4338535 -0.58772475 4293661440
3.1373832 -1.4340878 -0.58174425 4293661440
3.1275656 -1.4294803 -0.57314038 4293530880
3.1323731 -1.4315519 -0.56657177 4293661440
3.1291058 -1.4299355 -0.55788332 4293530880
3.1150506 -1.4233935 -0.54667294 4293530880
3.1052198 -1.4187808 -0.53564757 4293530880
3.1070862 -1.4195081 -0.52605617 4293530880
3.1301889 -1.4299285 -0.51938611 4293530880
3.1427844 -1.4355509 -0.51025325 4293661440
3.1398699 -1.4340936 -0.49798173 4293530880
3.1204329 -1.4250963 -0.48260549 4293530880
3.097332 -1.4144284 -0.46628755 4293400320
3.1174307 -1.423472 -0.45597875 4293530880
3.12486 -1.4267337 -0.44318008 4293530880
3.1355762 -1.4314939 -0.43027136 4293530880
3.107234 -1.418437 -0.41158921 4293400320
3.1011543 -1.415536 -0.39557442 4293400320
3.123724 -1.4257007 -0.38270661 4293530880
3.1316109 -1.4291677 -0.36745527 4293530880
3.13361 -1.4299493 -0.35105425 4293530880
3.0856776 -1.4079653 -0.32889807 4293269760
3.1013944 -1.4150019 -0.31337339 4293400320
3.1177101 -1.4223098 -0.29738864 4293400320
3.1106281 -1.4189515 -0.27878505 4293400320
3.0832503 -1.4063435 -0.25825074 4293269760
