# .PCD v0.7 - Point Cloud Data file format
VERSION 0.7
FIELDS x y z rgba
SIZE 4 4 4 4
TYPE F F F U
COUNT 1 1 1 1
WIDTH 1103
HEIGHT 1
VIEWPOINT 0 0 0 1 0 0 0
POINTS 1103
DATA ascii
1.906409 -1.8638544 -0.22887081 4290919680
1.9022646 -1.8596857 -0.21443528 4290919680
1.8855627 -1.8432417 -0.19850452 4290789120
1.9093415 -1.8663695 -0.18656352 4290919680
1.9101 -1.8669935 -0.17198455 4290919680
1.8971608 -1.8542298 -0.15608037 4290919680
1.7766922 -1.7363783 -0.13220792 4290266880
1.9049283 -1.8615876 -0.12662807 4290919680
1.8992553 -1.855927 -0.11103779 4290919680
1.8807085 -1.8376878 -0.094770707 4290789120
1.9001635 -1.8565812 -0.080308601 4290919680
1.9067472 -1.8628968 -0.065004759 4290919680
1.9054583 -1.8615205 -0.049320079 4290919680
1.8371673 -1.7946914 -0.032421909 4290528000
1.9155912 -1.8711846 -0.01799399 4290919680
1.971471 -1.925648 -0.0022267543 4291180800
2.0923522 -2.043591 0.014929295 4291703040
2.0319092 -1.9844319 0.031274404 4291441920
2.140527 -2.0903802 0.050582785 4291964160
2.1392915 -2.0890424 0.068124369 4291964160
2.1017914 -2.0522943 0.084119685 4291833600
2.0210652 -1.9733452 0.097329654 4291441920
2.1521227 -2.101176 0.12103491 4292094720
2.1514313 -2.1003692 0.1382522 4292094720
2.1072555 -2.0571125 0.15216744 4291833600
2.0001667 -1.9524491 0.16017921 4291311360
2.1534538 -2.1019473 0.1892177 4292094720
2.1079838 -2.0574355 0.20142841 4291833600
2.0974631 -2.0470383 0.21632843 4291833600
2.0471311 -1.9977908 0.22642897 4291572480
2.1710043 -2.1185453 0.25608301 4292225280
2.1563323 -2.1040955 0.26991668 4292094720
2.1451545 -2.0930569 0.28370434 4292094720
2.0608208 -2.0106449 0.28683871 4291703040
2.1218102 -2.0700192 0.30971026 4291964160
2.0255039 -1.9759396 0.3090536 4291441920
1.9571836 -1.9091711 0.31124455 4291180800
1.906871 -1.8599758 0.31519514 4290919680
1.8782666 -1.8319597 0.32189101 4290789120
1.8446069 -1.7990168 0.3269861 4290658560
2.0591493 -2.0081306 0.3767325 4291703040
2.0922124 -2.0402462 0.39425203 4291833600
2.051954 -2.0008621 0.397477 4291703040
2.0885627 -2.0364313 0.41511235 4291833600
2.0400805 -1.9890342 0.41531315 4291572480
2.0590045 -2.0073586 0.42861468 4291703040
2.1547632 -2.1005833 0.45792288 4292225280
2.1366265 -2.0827715 0.46284255 4292094720
2.1492283 -2.094924 0.47386223 4292094720
2.1189489 -2.06528 0.4748202 4291964160
2.1450722 -2.0906103 0.48784637 4292094720
2.08901 -2.0358434 0.4815309 4291833600
2.0982816 -2.0447507 0.4895699 4291964160
2.1111381 -2.0571496 0.49793488 4291964160
2.1212258 -2.0668495 0.50512272 4292094720
2.1377275 -2.0827971 0.51330465 4292094720
2.1373525 -2.0823009 0.51686722 4292094720
2.1370478 -2.0818732 0.51984179 4292094720
2.146693 -2.0911381 0.52463943 4292225280
2.140183 -2.0846655 0.52488023 4292094720
2.1400979 -2.0844514 0.52607656 4292094720
2.1365602 -2.0808752 0.52580702 4292094720
2.1366255 -2.0808079 0.52580726 4292094720
2.1198328 -2.0643241 0.52104789 4292094720
2.1200469 -2.0644028 0.51986349 4292094720
2.1033971 -2.0480614 0.51394975 4291964160
2.0931671 -2.0379722 0.50902969 4291964160
2.1460934 -2.0893717 0.51880908 4292094720
2.1261222 -2.0697985 0.51031816 4292094720
2.1026771 -2.0468457 0.50047958 4291964160
2.1405406 -2.0835729 0.50461137 4292094720
2.1172135 -2.0607369 0.49370444 4291964160
2.1451049 -2.0877531 0.49414855 4292094720
2.1360254 -2.0787857 0.48545259 4292094720
2.1468048 -2.0891449 0.48070034 4292094720
2.1106524 -2.0538344 0.46497899 4291964160
2.1250658 -2.0677299 0.45993668 4291964160
2.1296134 -2.0720243 0.45215619 4292094720
2.06636 -2.0103552 0.42971903 4291703040
2.0574744 -2.0015845 0.41841349 4291703040
2.1404445 -2.0815098 0.36043501 4292094720
2.1436419 -2.0844884 0.34775004 4292094720
2.1645541 -2.104691 0.33739811 4292094720
2.1539071 -2.0942068 0.32168809 4292094720
2.1550419 -2.0951786 0.30744267 4292094720
2.1461623 -2.0864143 0.29148155 4292094720
2.1492717 -2.0893059 0.2768662 4292094720
2.1411409 -2.0812712 0.26053458 4291964160
2.1275146 -2.0678959 0.2434056 4291964160
2.1395309 -2.0794449 0.22895417 4291964160
2.1396194 -2.0794001 0.21288691 4291964160
2.130239 -2.0701535 0.19571662 4291964160
2.1410677 -2.0805459 0.1801784 4291964160
2.1527891 -2.0918047 0.16434495 4292094720
2.1471496 -2.0861936 0.14696147 4291964160
2.1292589 -2.068681 0.12876815 4291964160
2.0853815 -2.0259244 0.10935986 4291703040
1.985074 -1.9283557 0.088039085 4291180800
1.929473 -1.8742255 0.069870912 4290919680
1.9006568 -1.8461183 0.053286284 4290789120
1.9164182 -1.8613105 0.038001146 4290919680
1.9300196 -1.874403 0.0223919 4290919680
1.9113301 -1.8561352 0.0064269309 4290919680
1.8863455 -1.8317571 -0.0092052482 4290789120
1.9048816 -1.8496405 -0.024985675 4290919680
1.9184309 -1.8626797 -0.040936872 4290919680
1.9133642 -1.8576435 -0.056515578 4290919680
1.9106451 -1.854887 -0.07203792 4290919680
1.9222845 -1.8660694 -0.088095233 4290919680
1.9279041 -1.871407 -0.10392042 4290919680
1.9132221 -1.8570385 -0.11846553 4290919680
1.9076833 -1.851546 -0.13328573 4290919680
1.9237534 -1.8670259 -0.14955257 4290919680
1.9223753 -1.8655711 -0.16441526 4290919680
1.9074911 -1.8510104 -0.17781754 4290919680
1.9210888 -1.8640883 -0.19366871 4290919680
1.9319189 -1.8744792 -0.20921239 4291050240
1.9406745 -1.8828561 -0.22444674 4291050240
1.9342591 -1.8765138 -0.23769708 4291050240
1.8527439 -1.7973192 -0.24083094 4290658560
1.9319437 -1.8740319 -0.264561 4291050240
1.941372 -1.8830594 -0.2790578 4291050240
1.9389447 -1.8805867 -0.29158792 4291050240
1.9270257 -1.8689089 -0.30227205 4291050240
1.8484379 -1.7925786 -0.30158827 4290658560
1.9416238 -1.8828301 -0.32866755 4291050240
1.95025 -1.8910762 -0.34168452 4291180800
1.9488007 -1.8895521 -0.35259381 4291180800
1.9568568 -1.897244 -0.36486053 4291180800
1.9324515 -1.8734643 -0.37057599 4291050240
1.9165475 -1.857929 -0.37728989 4291050240
1.9245058 -1.8655267 -0.3882291 4291050240
1.9351935 -1.8757689 -0.39936382 4291050240
1.93275 -1.8732827 -0.40737006 4291050240
1.9387381 -1.8789684 -0.41669995 4291180800
1.9337639 -1.8740296 -0.42319965 4291050240
1.9255862 -1.8659874 -0.42846087 4291050240
1.918885 -1.8593767 -0.43350264 4291050240
1.9120756 -1.852662 -0.43797383 4291050240
1.8878936 -1.8291162 -0.43786657 4290919680
1.8460273 -1.7884411 -0.43297023 4290658560
1.8526531 -1.7947475 -0.43884963 4290789120
1.8692431 -1.8107051 -0.44662738 4290789120
1.8082435 -1.7515056 -0.43527067 4290528000
1.8178767 -1.7607259 -0.44031364 4290528000
1.8247377 -1.7672601 -0.44419307 4290658560
1.8210466 -1.7635744 -0.44498891 4290528000
1.8244941 -1.766802 -0.44700691 4290658560
1.814563 -1.7570745 -0.44522226 4290528000
1.8209686 -1.7631662 -0.44692126 4290528000
1.8076277 -1.7501388 -0.4432537 4290528000
1.8585265 -1.7993057 -0.45479661 4290789120
1.8446072 -1.7857177 -0.44993091 4290658560
1.8826857 -1.8224659 -0.45719182 4290919680
1.9137175 -1.8523887 -0.46212378 4291050240
1.9132447 -1.8518146 -0.45886672 4291050240
1.9268396 -1.8648558 -0.45842284 4291050240
1.9313002 -1.8690554 -0.45523566 4291050240
1.9290321 -1.866743 -0.44992849 4291050240
1.9335546 -1.871002 -0.44567567 4291050240
1.9243532 -1.8619812 -0.43775803 4291050240
1.9215791 -1.8591801 -0.43083256 4291050240
1.9171154 -1.8547447 -0.42305553 4291050240
1.9123545 -1.8500223 -0.41475913 4291050240
1.9337994 -1.8706508 -0.41160092 4291050240
1.9430472 -1.8794783 -0.40524822 4291180800
1.9436234 -1.8799175 -0.39658108 4291180800
1.9414648 -1.8777117 -0.38691103 4291050240
1.9263252 -1.862952 -0.37429932 4291050240
1.9145977 -1.851494 -0.36206225 4290919680
1.9301419 -1.8664085 -0.35454947 4291050240
1.9388282 -1.8746902 -0.34524387 4291050240
1.935825 -1.8716686 -0.33343691 4291050240
1.9152188 -1.8516289 -0.31836531 4290919680
1.9254873 -1.8614395 -0.30813015 4291050240
1.9470402 -1.8821571 -0.29915595 4291050240
1.9441038 -1.8792003 -0.28596812 4291050240
1.9364984 -1.8717312 -0.27184674 4291050240
1.9069945 -1.8430982 -0.25460443 4290919680
1.9258173 -1.8611733 -0.24360421 4290919680
1.9312302 -1.8662872 -0.23046909 4291050240
1.919499 -1.8548338 -0.21508209 4290919680
1.9170465 -1.8523475 -0.20060328 4290919680
1.9328893 -1.8675382 -0.18771911 4291050240
1.9345611 -1.8690361 -0.17312251 4291050240
1.9287324 -1.8632876 -0.15769911 4290919680
1.8039964 -1.7426745 -0.13340259 4290397440
1.9184076 -1.85308 -0.12671807 4290919680
1.9337301 -1.8677634 -0.11232657 4290919680
1.9086139 -1.8433881 -0.095544904 4290919680
1.924587 -1.8586985 -0.080790281 4290919680
1.9419965 -1.875394 -0.065739006 4291050240
1.9335105 -1.8670818 -0.049668908 4290919680
1.8103833 -1.7480748 -0.031678896 4290397440
1.9601853 -1.8926021 -0.018210245 4291050240
2.0815811 -2.009686 -0.0022317888 4291703040
2.1032593 -2.0304878 0.015030731 4291703040
2.023324 -1.9531953 0.031071693 4291441920
2.1590049 -2.0840425 0.050844688 4291964160
2.1560519 -2.0810611 0.068384476 4291964160
2.106492 -2.0330973 0.083943948 4291833600
2.0360959 -1.9650302 0.097608864 4291441920
2.1506371 -2.0754433 0.12038407 4291964160
2.1535378 -2.0781119 0.13772237 4291964160
2.1119878 -2.037889 0.15176225 4291833600
2.0615134 -1.9890604 0.16427146 4291572480
2.1692231 -2.0928528 0.18964447 4292094720
2.1546392 -2.0786519 0.20484051 4291964160
2.0992734 -2.0251114 0.21540578 4291703040
2.0414848 -1.9692404 0.22463909 4291441920
2.1796906 -2.1024232 0.25577232 4292094720
2.1577673 -2.0811462 0.26868576 4292094720
2.142947 -2.0667222 0.28192496 4291964160
2.066021 -1.9924072 0.28604659 4291572480
2.126641 -2.0507383 0.30877244 4291964160
2.0233526 -1.9510138 0.30708531 4291441920
1.9818317 -1.9108572 0.31348434 4291311360
1.9583941 -1.8881402 0.32198074 4291180800
1.9541103 -1.8838916 0.33309293 4291180800
1.8916752 -1.8235855 0.33352655 4290789120
2.1212487 -2.0447671 0.38600168 4291964160
2.1544735 -2.0766633 0.4037903 4292094720
2.0571244 -1.9827055 0.39632002 4291572480
2.100358 -2.0242476 0.41519034 4291833600
2.0345008 -1.9606537 0.41192392 4291572480
2.0506899 -1.976131 0.42455661 4291572480
2.1598115 -2.0811543 0.45648846 4292094720
2.1351702 -2.057281 0.45999569 4291964160
2.1613634 -2.0823877 0.47392476 4292094720
2.1238019 -2.0460701 0.47329333 4291964160
2.1472316 -2.0685122 0.48565 4292094720
2.1699884 -2.0903032 0.49743938 4292225280
2.1065757 -2.0290916 0.48879063 4291964160
2.1131136 -2.0352609 0.49564362 4291964160
2.1161604 -2.0380673 0.50112396 4291964160
2.1327584 -2.0539236 0.5092687 4292094720
2.1387718 -2.0595853 0.5143345 4292094720
2.135628 -2.0564287 0.51660293 4292094720
2.1417813 -2.0622241 0.52051854 4292094720
2.1380739 -2.0585248 0.52143228 4292094720
2.1379886 -2.0583134 0.52261567 4292094720
2.131593 -2.0520272 0.52164257 4292094720
2.1380436 -2.0581076 0.52320027 4292094720
2.1282508 -2.048552 0.52017295 4291964160
2.118531 -2.0390677 0.51656282 4291964160
2.104624 -2.0255554 0.51134491 4291964160
2.0879459 -2.0093772 0.50488669 4291833600
2.1582069 -2.076864 0.51877946 4292094720
2.128181 -2.0478408 0.50791061 4291964160
2.0974972 -2.0181885 0.49640507 4291833600
2.1419642 -2.0608447 0.50206709 4292094720
2.1156585 -2.0354073 0.4905223 4291964160
2.1543682 -2.0725181 0.49343991 4292094720
2.1445248 -2.0629189 0.48458645 4292094720
2.1489589 -2.0670545 0.47841412 4292094720
2.111886 -2.0312667 0.46256742 4291964160
2.133498 -2.0519247 0.45909187 4291964160
2.128093 -2.0465977 0.44921419 4291964160
2.1220064 -2.040616 0.43872622 4291964160
2.1195121 -2.038089 0.42851713 4291964160
2.1454315 -2.062068 0.35923648 4291964160
2.1529396 -2.069154 0.34728935 4292094720
2.1569734 -2.0729005 0.33432272 4292094720
2.1525037 -2.0684752 0.31966963 4291964160
2.1536372 -2.0694342 0.30551547 4291964160
2.1511583 -2.0669222 0.29052022 4291964160
2.154999 -2.0704823 0.27604812 4291964160
2.1396341 -2.0555909 0.25889456 4291964160
2.1359856 -2.0519567 0.2430101 4291964160
2.1451914 -2.0606706 0.22828089 4291964160
2.1481543 -2.0633872 0.21254839 4291964160
2.15345 -2.0683436 0.19675311 4291964160
2.1532061 -2.0679793 0.18019985 4291964160
2.1577914 -2.072253 0.1638218 4291964160
2.1620913 -2.0762517 0.1471757 4291964160
2.1067383 -2.022969 0.12671515 4291703040
2.1423922 -2.057076 0.11174596 4291964160
2.0622156 -1.9799677 0.090975381 4291572480
1.9592202 -1.8809618 0.070579134 4291050240
1.93595 -1.8585043 0.054002207 4290919680
1.9388824 -1.8612024 0.038264118 4290919680
1.9510556 -1.8727701 0.022544591 4291050240
1.9423605 -1.8643067 0.0065322407 4290919680
1.9244492 -1.8469989 -0.0092991674 4290919680
1.9398948 -1.8617058 -0.025260491 4290919680
1.9466139 -1.8680366 -0.041261416 4291050240
1.9451236 -1.8664891 -0.057085648 4291050240
1.9423863 -1.8637452 -0.072776362 4291050240
1.9576941 -1.8783152 -0.089165069 4291050240
1.9590144 -1.8794637 -0.10495363 4291050240
1.947849 -1.8686343 -0.11988037 4291050240
1.9393898 -1.8604021 -0.13468696 4290919680
1.9523454 -1.8727121 -0.15086824 4291050240
1.9541525 -1.8743277 -0.16613849 4291050240
1.9391767 -1.8598467 -0.1796995 4291050240
1.9405971 -1.861092 -0.19447909 4291050240
1.9666053 -1.885916 -0.21171343 4291180800
1.968927 -1.8880239 -0.22637542 4291180800
1.9660628 -1.8851587 -0.24018802 4291180800
1.8804832 -1.8029872 -0.2430056 4290789120
1.9556255 -1.8749151 -0.26623908 4291050240
1.9628179 -1.8816923 -0.28049466 4291180800
1.967147 -1.8857238 -0.29410627 4291180800
1.9479779 -1.8672308 -0.30378187 4291050240
1.8761102 -1.798229 -0.30432597 4290789120
1.9698148 -1.887925 -0.33150631 4291180800
1.9788816 -1.8964957 -0.34469336 4291180800
1.9770143 -1.8945869 -0.35563013 4291180800
1.9786663 -1.8960508 -0.36679646 4291180800
1.9498253 -1.8682964 -0.37175116 4291050240
1.9481268 -1.8665516 -0.38129747 4291050240
1.9561198 -1.8740921 -0.39233637 4291180800
1.9616716 -1.8792928 -0.40250191 4291180800
1.9608209 -1.8783598 -0.41091478 4291180800
1.9732583 -1.8901552 -0.42168847 4291180800
1.965392 -1.8825017 -0.427659 4291180800
1.9607252 -1.8779137 -0.43378505 4291180800
1.9468477 -1.8645051 -0.43730813 4291050240
1.9335792 -1.8516814 -0.4403733 4291050240
1.9121059 -1.8310025 -0.44095612 4290919680
1.8771209 -1.7973882 -0.43775836 4290789120
1.8901868 -1.8097852 -0.44519666 4290919680
1.8968968 -1.8160957 -0.45066327 4290919680
1.839107 -1.7606568 -0.44019163 4290658560
1.8452321 -1.7664096 -0.44441065 4290658560
1.8450129 -1.7660886 -0.44659105 4290658560
1.8519721 -1.7726386 -0.44999266 4290658560
1.8447645 -1.7656287 -0.44942713 4290658560
1.8482943 -1.7688959 -0.45094782 4290658560
1.8419284 -1.7626925 -0.44952679 4290658560
1.8349154 -1.7558708 -0.44742239 4290658560
1.8925065 -1.8108671 -0.46051976 4290919680
1.8792222 -1.7980428 -0.45581299 4290789120
1.9175183 -1.8345691 -0.46305352 4291050240
1.9352019 -1.8513714 -0.46471035 4291050240
1.9411366 -1.8569322 -0.46296957 4291050240
1.9512498 -1.8664893 -0.46165633 4291180800
1.9628633 -1.8774803 -0.46011546 4291180800
1.9641515 -1.8785942 -0.4555904 4291180800
1.9687068 -1.8828326 -0.45127842 4291180800
1.9587482 -1.8731906 -0.44313359 4291180800
1.9528071 -1.8673916 -0.43543398 4291180800
1.9486313 -1.8632813 -0.42765918 4291050240
1.950279 -1.8647395 -0.42067808 4291050240
1.9554234 -1.8695406 -0.41394073 4291180800
1.9675866 -1.8810514 -0.40814209 4291180800
1.9792999 -1.8921305 -0.4016788 4291180800
1.9651049 -1.8784425 -0.38951382 4291180800
1.9415437 -1.8558036 -0.37523279 4291050240
1.9461643 -1.8601031 -0.36606526 4291050240
1.9618064 -1.8749356 -0.35844859 4291180800
1.967368 -1.8801327 -0.34847036 4291180800
1.974 -1.8863519 -0.33822024 4291180800
1.9399353 -1.8536832 -0.32078317 4291050240
1.9535766 -1.8666006 -0.31099552 4291050240
1.9716662 -1.8837663 -0.30137038 4291180800
1.9691223 -1.8812175 -0.28815821 4291180800
1.9541678 -1.8668133 -0.27292681 4291050240
1.9378927 -1.8511492 -0.25742021 4290919680
1.9503498 -1.8629315 -0.24547076 4291050240
1.9658864 -1.8776536 -0.23344168 4291050240
1.9478966 -1.8603542 -0.21719536 4291050240
1.9415475 -1.8541738 -0.20218664 4290919680
1.9610924 -1.8727213 -0.18955453 4291050240
1.9591715 -1.8707694 -0.17450982 4291050240
1.9432176 -1.8554187 -0.15816291 4290919680
1.8416036 -1.7582853 -0.13558471 4290528000
1.9530554 -1.8645774 -0.12846139 4291050240
1.9619668 -1.8729672 -0.11350981 4291050240
1.9310421 -1.8433294 -0.096307769 4290919680
1.9563957 -1.8674139 -0.081852391 4291050240
1.9657637 -1.8762379 -0.066361293 4291050240
1.9640033 -1.8744397 -0.050362438 4291050240
1.8408353 -1.756778 -0.032214213 4290528000
1.982865 -1.8922032 -0.018516861 4291180800
2.1045156 -2.0081651 -0.0024570597 4291703040
2.1151071 -2.0181448 0.01481457 4291703040
2.0448503 -1.9509861 0.031015918 4291441920
2.1666217 -2.0670378 0.050513972 4291964160
2.1681976 -2.0684114 0.068159021 4291964160
2.1082327 -2.0110795 0.083322749 4291703040
2.03021 -1.9365305 0.096569248 4291311360
2.1591377 -2.0593796 0.11995696 4291964160
2.1519353 -2.0523808 0.1366239 4291964160
2.1137683 -2.0158529 0.15081865 4291703040
1.9917432 -1.8993608 0.15761544 4291180800
2.1641092 -2.0636022 0.18791328 4291964160
2.1530595 -2.0529363 0.20332183 4291964160
2.1038826 -2.0059204 0.2144542 4291703040
2.0493786 -1.9538313 0.22403663 4291441920
2.1818736 -2.080018 0.25437525 4292094720
2.1598306 -2.0588746 0.26722187 4291964160
2.1485341 -2.0479772 0.28086632 4291964160
2.0639744 -1.9672515 0.2839635 4291572480
2.0557673 -1.9593056 0.29661524 4291572480
2.0383489 -1.9425825 0.30743879 4291441920
2.0239248 -1.9287149 0.31816491 4291441920
2.0528798 -1.9561846 0.33544186 4291572480
2.0518215 -1.9550531 0.34761137 4291572480
1.9541018 -1.8618249 0.34243828 4291050240
2.1267345 -2.0261781 0.38465798 4291833600
2.1601489 -2.057883 0.40241504 4292094720
2.1349506 -2.0337498 0.40884674 4291964160
2.0885282 -1.9894028 0.41038594 4291703040
2.0352077 -1.938491 0.40961576 4291441920
2.0550725 -1.9572889 0.42294297 4291572480
2.169106 -2.0657663 0.4557468 4292094720
2.1371696 -2.0352235 0.45771888 4291964160
2.1599362 -2.0567746 0.47083694 4292094720
2.1185915 -2.0172777 0.46937603 4291833600
2.1485908 -2.0457139 0.48313069 4292094720
2.0883269 -1.9882102 0.47594479 4291703040
2.1255691 -2.0235398 0.49034896 4291964160
2.1178565 -2.0160706 0.49389678 4291964160
2.1280606 -2.0256567 0.50105143 4291964160
2.1311865 -2.0285046 0.50598454 4291964160
2.1372342 -2.034133 0.51103717 4291964160
2.1504865 -2.0466173 0.5172444 4292094720
2.1366925 -2.0333617 0.51634467 4291964160
2.143666 -2.0398695 0.5198496 4292094720
2.1364439 -2.0328691 0.51930523 4291964160
2.1399989 -2.0361238 0.52076936 4291964160
2.1400621 -2.0360558 0.52077472 4291964160
2.1302116 -2.0265565 0.51776052 4291964160
2.1197205 -2.016449 0.51399332 4291964160
2.1064458 -2.003695 0.50896698 4291833600
2.1698771 -2.0639021 0.52181834 4292094720
2.1531818 -2.0478935 0.5147422 4292094720
2.1294084 -2.0251553 0.50543714 4291964160
2.1064053 -2.0031524 0.49581134 4291833600
2.1439736 -2.0387506 0.49982646 4291964160
2.1685345 -2.0619767 0.50008142 4292094720
2.1521459 -2.0462646 0.49029619 4292094720
2.1719038 -2.0649204 0.48816296 4292094720
2.1538475 -2.0476246 0.4769654 4292094720
2.1690936 -2.0619893 0.47259757 4292094720
2.1282628 -2.0230472 0.45556906 4291964160
2.129267 -2.0238745 0.44712418 4291964160
2.1131027 -2.008384 0.43462721 4291833600
2.1077135 -2.0031357 0.42394367 4291833600
2.163749 -2.0556104 0.36029667 4292094720
2.1505282 -2.0429218 0.34497815 4291964160
2.1689868 -2.0603273 0.33432126 4292094720
2.1572824 -2.0490801 0.31860265 4291964160
2.1519256 -2.0438635 0.30357897 4291964160
2.1530337 -2.0447874 0.28915933 4291964160
2.1532798 -2.0448923 0.27429569 4291964160
2.1515474 -2.0431187 0.25888881 4291964160
2.1406507 -2.0326431 0.24218576 4291833600
2.1499038 -2.041301 0.22750807 4291964160
2.1664183 -2.0568519 0.21316014 4291964160
2.133256 -2.0252392 0.19381954 4291833600
2.1478169 -2.0389347 0.17874321 4291964160
2.1625595 -2.0528007 0.16326331 4291964160
2.1659508 -2.0558903 0.14660959 4291964160
2.1618309 -2.0518508 0.12929541 4291964160
2.1470659 -2.0377088 0.11135525 4291833600
2.0868137 -1.9804008 0.091535777 4291572480
1.9940509 -1.8922492 0.071420804 4291180800
1.960501 -1.8602951 0.054368198 4291050240
1.9707042 -1.8698591 0.038659688 4291050240
1.9820318 -1.8804888 0.022757551 4291180800
1.9676744 -1.8667493 0.0065617436 4291050240
1.9525648 -1.8522984 -0.0094025694 4290919680
1.9680954 -1.8669139 -0.02550669 4291050240
1.9748504 -1.8732038 -0.041650031 4291050240
1.9668322 -1.8654808 -0.057425842 4291050240
1.9633414 -1.8620527 -0.073177725 4291050240
1.9859841 -1.8834088 -0.089977406 4291180800
1.9844074 -1.8817952 -0.10575091 4291180800
1.959608 -1.8581612 -0.11996228 4291050240
1.963941 -1.8621527 -0.13566361 4291050240
1.9805868 -1.8778176 -0.15223096 4291180800
1.9736966 -1.8711672 -0.1668994 4291050240
1.9673326 -1.8650165 -0.18132818 4291050240
1.9723732 -1.8696773 -0.1965988 4291050240
1.9887921 -1.8851225 -0.21294697 4291180800
2.000843 -1.8964261 -0.2288024 4291180800
1.9842162 -1.8805486 -0.24109502 4291180800
1.9118885 -1.8118857 -0.24572669 4290789120
1.9809369 -1.8772043 -0.26822391 4291180800
1.99105 -1.8866692 -0.28298634 4291180800
1.9990027 -1.8940858 -0.29724717 4291180800
1.9797165 -1.8756938 -0.30705485 4291180800
1.9110439 -1.8105155 -0.30830801 4290789120
2.0000236 -1.8946954 -0.33475989 4291311360
2.0071576 -1.9013339 -0.34771624 4291311360
2.0088704 -1.9028368 -0.359393 4291311360
2.0105207 -1.9042802 -0.37067109 4291311360
1.9887015 -1.8834955 -0.37709644 4291180800
1.9761958 -1.8715335 -0.38468167 4291180800
1.9803239 -1.875325 -0.39502344 4291180800
1.9833343 -1.8780576 -0.40472475 4291180800
1.9886278 -1.8829516 -0.41446534 4291180800
1.9935304 -1.8874749 -0.42369196 4291311360
1.98706 -1.8812304 -0.43000913 4291180800
1.985231 -1.8793806 -0.43680322 4291180800
1.971271 -1.8660475 -0.44036981 4291180800
1.9523016 -1.8479743 -0.4422015 4291050240
1.9399089 -1.8361282 -0.44491559 4291050240
1.9011433 -1.7993233 -0.44092894 4290919680
1.917858 -1.8150287 -0.44923517 4290919680
1.8668326 -1.7666279 -0.44108525 4290658560
1.8700658 -1.7695761 -0.4451423 4290658560
1.8726431 -1.7719034 -0.44853279 4290789120
1.8831532 -1.7817361 -0.45331538 4290789120
1.879416 -1.7780882 -0.4541471 4290789120
1.8757443 -1.7745029 -0.45445722 4290789120
1.8721387 -1.7709804 -0.45424747 4290789120
1.8693146 -1.7681975 -0.45369378 4290658560
1.8586857 -1.758033 -0.45071653 4290658560
1.9137349 -1.8099872 -0.46311268 4290919680
1.9032404 -1.7999485 -0.45908627 4290919680
1.9417508 -1.8362532 -0.46631059 4291050240
1.9659777 -1.8590468 -0.46948609 4291180800
1.9690852 -1.8618681 -0.46703219 4291180800
1.9792585 -1.8713698 -0.46568492 4291180800
1.990941 -1.882297 -0.46410537 4291311360
1.9872155 -1.8786566 -0.45837781 4291311360
1.9860736 -1.8774589 -0.45272592 4291311360
1.9904058 -1.8814358 -0.44778708 4291311360
1.9772648 -1.8688965 -0.43842864 4291180800
1.9673916 -1.8594475 -0.42936552 4291180800
1.9747337 -1.8662692 -0.42357159 4291180800
1.9885247 -1.8791845 -0.41859138 4291180800
1.9993372 -1.8892837 -0.41240326 4291311360
2.0075295 -1.8969057 -0.40512043 4291311360
1.9932643 -1.8833079 -0.39287382 4291311360
1.9796596 -1.8703359 -0.38044435 4291180800
1.9706343 -1.861692 -0.36857659 4291180800
1.9827667 -1.8730358 -0.36023036 4291180800
2.0020642 -1.8911464 -0.35260725 4291311360
1.9947287 -1.8840985 -0.33983165 4291180800
1.9643985 -1.8553337 -0.32298002 4291050240
1.988956 -1.8784095 -0.31482139 4291180800
1.9999319 -1.8886566 -0.30394208 4291180800
2.0009975 -1.889544 -0.29114255 4291180800
1.9932046 -1.8820667 -0.27677616 4291180800
1.9659963 -1.8562586 -0.2596443 4291050240
1.9785302 -1.8679754 -0.24757272 4291180800
1.9876399 -1.8764579 -0.23464908 4291180800
1.9797022 -1.8688467 -0.21944842 4291050240
1.9697008 -1.8592882 -0.2039095 4291050240
1.9893602 -1.8777274 -0.19114581 4291180800
1.9930514 -1.8810931 -0.17646579 4291180800
1.9888222 -1.8769833 -0.16089746 4291180800
1.8728579 -1.767429 -0.13704389 4290658560
1.9885646 -1.8765041 -0.12998736 4291180800
1.9845145 -1.8725643 -0.11409122 4291050240
1.965714 -1.8547076 -0.097405598 4291050240
1.9846689 -1.8724742 -0.082484156 4291050240
1.990455 -1.8778151 -0.066729255 4291180800
1.9959589 -1.882889 -0.050802872 4291180800
1.8757479 -1.7693765 -0.032551959 4290658560
2.0214741 -1.9067187 -0.018672654 4291311360
2.1470761 -2.025063 -0.0023847511 4291833600
2.1027954 -1.983174 0.014754199 4291703040
2.0423338 -1.9260308 0.030911932 4291311360
2.171325 -2.0475473 0.05045706 4291964160
2.1478364 -2.0252702 0.067258827 4291833600
2.1198852 -1.9987884 0.083432712 4291703040
2.0377941 -1.9212657 0.096503176 4291311360
2.1608906 -2.0371947 0.11950698 4291964160
2.1638255 -2.0398335 0.13673641 4291964160
2.1254466 -2.0035274 0.15092896 4291703040
2.0056522 -1.8904858 0.15794791 4291180800
2.1688004 -2.0441372 0.18739782 4291964160
2.1678553 -2.0431178 0.20370559 4291964160
2.1082439 -1.9868114 0.21382564 4291703040
1.9927582 -1.8778591 0.21675096 4291180800
2.1830428 -2.0570428 0.25322285 4292094720
2.1645062 -2.0394478 0.26643661 4291964160
2.1495264 -2.0252061 0.27955782 4291964160
2.0753679 -1.9552135 0.28406295 4291572480
2.0772498 -1.9568632 0.29816744 4291572480
2.0597296 -1.9402364 0.3090536 4291441920
2.1180503 -1.9950479 0.33123007 4291833600
2.046859 -1.9278696 0.3327131 4291441920
2.0906584 -1.9689991 0.35233757 4291703040
1.9908961 -1.8749241 0.34705538 4291180800
2.1726685 -2.0459793 0.39089841 4292094720
2.1612439 -2.0350926 0.40049541 4291964160
2.140238 -2.0151861 0.40769231 4291964160
2.085633 -1.9636478 0.40764534 4291703040
2.1127765 -1.9890785 0.42296934 4291833600
2.0527251 -1.9324213 0.42021149 4291572480
2.1702721 -2.0429506 0.45356008 4292094720
2.1417613 -2.0159857 0.45625129 4291964160
2.165375 -2.0380845 0.46949553 4292094720
2.1266806 -2.0015385 0.46864095 4291833600
2.1503773 -2.0237136 0.48093408 4291964160
2.1669264 -2.0391595 0.49119958 4292094720
2.1099946 -1.9854596 0.48413101 4291833600
2.115891 -1.9908825 0.49077258 4291833600
2.1433849 -2.0166252 0.50192833 4291964160
2.1429384 -2.016078 0.50601631 4291964160
2.1454308 -2.018296 0.51021105 4291964160
2.1422524 -2.0151789 0.51246071 4291964160
2.1556492 -2.0276535 0.51808667 4292094720
2.1518989 -2.0239985 0.51899713 4291964160
2.1446369 -2.017041 0.51844579 4291964160
2.1381679 -2.0108304 0.5174731 4291964160
2.1310568 -2.0040166 0.51573706 4291964160
2.1211503 -1.9945751 0.51272345 4291833600
2.1141868 -1.9879022 0.50982761 4291833600
2.1144717 -1.9880449 0.50808674 4291833600
2.1682034 -2.0384355 0.51853287 4292094720
2.154285 -2.0252225 0.51215285 4291964160
2.1310959 -2.0032966 0.50302982 4291964160
2.162334 -2.0325334 0.506145 4292094720
2.1457355 -2.0168042 0.49744901 4291964160
2.1668348 -2.0365076 0.49689832 4292094720
2.1575406 -2.0276449 0.48877361 4291964160
2.1766856 -2.0455084 0.48649269 4292094720
2.159246 -2.0289919 0.47547168 4291964160
2.1702542 -2.0392077 0.47018453 4292094720
2.1335139 -2.00456 0.45411178 4291833600
2.1345203 -2.0053792 0.44568712 4291833600
2.1596258 -2.0288379 0.44167176 4291964160
2.1754787 -2.0436022 0.43507993 4292094720
2.1684513 -2.0361731 0.35909814 4291964160
2.162394 -2.0303576 0.34497815 4291964160
2.1708107 -2.038132 0.33276638 4291964160
2.1590352 -2.0269487 0.31711203 4291964160
2.1637971 -2.0312912 0.30357897 4291964160
2.1576538 -2.0253968 0.28819007 4291964160
2.1615272 -2.0289047 0.27383581 4291964160
2.1423495 -2.0107772 0.25636804 4291833600
2.142283 -2.0105882 0.241041 4291833600
2.1515818 -2.0191882 0.22643684 4291833600
2.1545684 -2.0218639 0.21083154 4291833600
2.1599145 -2.0267529 0.19516544 4291964160
2.1494689 -2.0168242 0.17789976 4291833600
2.1642885 -2.0306015 0.16249788 4291964160
2.1676941 -2.033669 0.14592311 4291964160
2.1599047 -2.0262337 0.12847197 4291833600
2.151407 -2.0181346 0.11096868 4291833600
2.1307597 -1.9986405 0.092951067 4291703040
2.0298321 -1.9038512 0.072303854 4291311360
1.9888082 -1.865256 0.054850902 4291050240
1.9990692 -1.8747615 0.039001193 4291180800
2.0031662 -1.8784853 0.02287416 4291180800
2.0025892 -1.8778261 0.0066415789 4291180800
1.9742769 -1.8511611 -0.0094550261 4291050240
1.9993644 -1.8745661 -0.025769953 4291180800
1.9992776 -1.8743668 -0.041934177 4291180800
1.9951727 -1.8704005 -0.057934146 4291180800
1.9919478 -1.8672596 -0.073837206 4291050240
2.0107782 -1.8847928 -0.090601675 4291180800
2.0157516 -1.8893354 -0.10683283 4291180800
1.9978932 -1.8724792 -0.12163609 4291180800
1.9835656 -1.8589338 -0.13626876 4291050240
2.0024219 -1.8764873 -0.15306632 4291180800
2.0020449 -1.8760159 -0.16836944 4291180800
1.9956394 -1.8698959 -0.18292996 4291180800
1.9970618 -1.8711109 -0.19796968 4291180800
2.0172031 -1.8898629 -0.21480642 4291311360
2.0220401 -1.8942752 -0.22996037 4291311360
2.0227644 -1.8948345 -0.24443333 4291311360
1.9398526 -1.817052 -0.24795593 4290919680
2.0121782 -1.8846803 -0.27096263 4291311360
2.0266929 -1.8981559 -0.28647557 4291311360
2.0223315 -1.8939519 -0.29907018 4291311360
2.0043924 -1.8770334 -0.30918062 4291180800
1.9353344 -1.8122493 -0.31051812 4290919680
2.0284195 -1.8992946 -0.33765486 4291311360
2.0355835 -1.9058826 -0.35071111 4291441920
2.043812 -1.9134662 -0.3636435 4291441920
2.0389471 -1.9087913 -0.3738552 4291441920
2.0133827 -1.8847401 -0.37968779 4291311360
1.9950811 -1.8674903 -0.3862333 4291180800
2.0121701 -1.883368 -0.39918032 4291311360
2.021687 -1.8921566 -0.4102945 4291311360
2.0204999 -1.8909264 -0.41880476 4291311360
2.018204 -1.8886586 -0.42658997 4291311360
2.011255 -1.8820373 -0.43286476 4291311360
2.0098469 -1.8806013 -0.4398011 4291311360
1.9958047 -1.8673444 -0.44341248 4291180800
1.9868134 -1.8588148 -0.44755787 4291180800
1.975065 -1.8477069 -0.45050195 4291180800
1.9360789 -1.8111206 -0.44657657 4290919680
1.949279 -1.823354 -0.45409903 4291050240
1.8943689 -1.7718796 -0.44514462 4290789120
1.9004947 -1.7774973 -0.44991267 4290789120
1.9038019 -1.7804785 -0.45350355 4290789120
1.9107693 -1.7868819 -0.45744926 4290919680
1.9142035 -1.7899808 -0.46002537 4290919680
1.9105098 -1.7864143 -0.46035072 4290919680
1.9068834 -1.7829111 -0.4601495 4290789120
1.8997272 -1.7761084 -0.45855579 4290789120
1.893357 -1.7700412 -0.45661551 4290789120
1.9479907 -1.8210018 -0.46882692 4291050240
1.9345626 -1.8083352 -0.46409231 4290919680
1.9696887 -1.8410534 -0.47043592 4291180800
1.991172 -1.8610165 -0.47290528 4291180800
2.0007792 -1.8698778 -0.47195742 4291311360
2.0174947 -1.8853811 -0.47208866 4291311360
2.0155611 -1.8834556 -0.46727857 4291311360
2.0154221 -1.883207 -0.4623453 4291311360
2.0139704 -1.8817321 -0.45657814 4291311360
2.0111208 -1.8789512 -0.44997689 4291311360
2.005434 -1.8735201 -0.44224685 4291311360
2.0056176 -1.8735737 -0.43531826 4291311360
2.0029027 -1.8709197 -0.42726836 4291311360
2.0131648 -1.8803872 -0.42146486 4291311360
2.030359 -1.8963279 -0.41651604 4291441920
2.0359018 -1.9013849 -0.40860346 4291441920
2.0251837 -1.8912561 -0.39698657 4291311360
2.0078955 -1.874993 -0.38376471 4291311360
2.0024505 -1.8697906 -0.3724834 4291180800
2.0182831 -1.8844558 -0.36468211 4291311360
2.020299 -1.8862189 -0.35387722 4291311360
2.0201805 -1.8859897 -0.34228989 4291311360
1.9925945 -1.8601189 -0.32582849 4291180800
2.0115492 -1.8776951 -0.31666052 4291180800
2.0237911 -1.8890035 -0.30589029 4291311360
2.0359633 -1.9002454 -0.29461417 4291311360
2.0252299 -1.8901085 -0.27968928 4291311360
1.9978826 -1.8644682 -0.26241633 4291180800
2.0104949 -1.8761202 -0.25020045 4291180800
2.0114613 -1.8769037 -0.2361663 4291180800
2.0037489 -1.8695896 -0.22090277 4291180800
2.00529 -1.8709096 -0.20646185 4291180800
2.0177727 -1.8824371 -0.1928187 4291180800
2.0149229 -1.8796601 -0.17742965 4291180800
2.0143237 -1.8789829 -0.16207215 4291180800
1.9006492 -1.7728344 -0.13831931 4290658560
2.016995 -1.8812376 -0.13112707 4291180800
2.0129268 -1.8773251 -0.11509389 4291180800
1.9911036 -1.856855 -0.098125957 4291050240
2.009434 -1.8738314 -0.083058268 4291180800
2.0189095 -1.882549 -0.067314334 4291180800
2.0069063 -1.8712385 -0.050803151 4291180800
1.9035774 -1.774783 -0.032854911 4290658560
2.0501027 -1.9112742 -0.018833922 4291311360
2.1660676 -2.019259 -0.0023927372 4291833600
2.1387296 -1.9936482 0.014924577 4291703040
2.039623 -1.9011449 0.030702729 4291311360
2.1729777 -2.0253179 0.050220404 4291964160
2.1709139 -2.0232668 0.067611203 4291964160
2.1212568 -1.9768627 0.083031982 4291703040
2.052609 -1.9127672 0.096675359 4291311360
2.1633327 -2.0158203 0.11899047 4291833600
2.1647105 -2.0169773 0.13604742 4291833600
2.1261234 -1.9808986 0.1501549 4291703040
2.0100584 -1.8726435 0.15743299 4291180800
2.1741009 -2.0253439 0.18683302 4291964160
2.1658521 -2.0175323 0.20240936 4291964160
2.1095672 -1.9649783 0.21279508 4291703040
1.9934524 -1.856705 0.21564618 4291180800
2.1847818 -2.0347815 0.25204515 4291964160
2.1763518 -2.0268023 0.26643661 4291964160
2.154732 -2.006542 0.27870968 4291833600
2.0721595 -1.9295266 0.28208026 4291441920
2.0240929 -1.8846499 0.28895628 4291311360
2.0855501 -1.941751 0.31122506 4291572480
2.1332738 -1.9860591 0.3317956 4291833600
2.1222835 -1.9757025 0.34309629 4291703040
2.0882912 -1.9439356 0.3500239 4291572480
2.0625224 -1.9198272 0.35758543 4291441920
2.1707618 -2.0204508 0.38843083 4291964160
2.1592805 -2.0096381 0.39795512 4291964160
2.1381657 -1.989861 0.40508223 4291833600
2.0941391 -1.9487654 0.40708181 4291703040
2.1105654 -1.9639275 0.42022881 4291703040
2.0567079 -1.9136914 0.41873726 4291441920
2.1720047 -2.0208437 0.45145392 4291964160
2.1433418 -1.9940498 0.45410532 4291833600
2.1627483 -2.0119781 0.46637648 4291964160
2.134691 -1.9857516 0.46784872 4291833600
2.1512911 -2.0010674 0.47852281 4291964160
2.1715457 -2.0197804 0.48957083 4292094720
2.110693 -1.9630568 0.48165882 4291703040
2.1209559 -1.9724776 0.48927349 4291833600
2.1233354 -1.9745662 0.4945308 4291833600
2.1474309 -1.9968475 0.5043214 4291964160
2.1506591 -1.9997234 0.50867498 4291964160
2.1467421 -1.9959555 0.51074415 4291964160
2.1465051 -1.9956096 0.5130859 4291964160
2.1535556 -2.0020382 0.51657468 4291964160
2.1426468 -1.9917716 0.51515067 4291964160
2.1426339 -1.9916339 0.51573682 4291964160
2.1426964 -1.9915665 0.51573706 4291964160
2.1856577 -2.0313699 0.52544636 4292094720
2.1221256 -1.9721982 0.50896245 4291833600
2.1087012 -1.9595989 0.50394815 4291703040
2.1728263 -2.0190625 0.51681632 4292094720
2.1595514 -2.0066006 0.51061678 4291964160
2.1492293 -1.9968839 0.50455528 4291964160
2.1741393 -2.0199008 0.506145 4292094720
2.1466134 -1.9942019 0.49495053 4291964160
2.17505 -2.0204923 0.49607423 4292094720
2.1620884 -2.0083253 0.48714483 4291964160
2.1748259 -2.0200295 0.48343837 4292094720
2.1793289 -2.0240846 0.47728905 4292094720
2.1683464 -2.0137575 0.46722138 4291964160
2.1830842 -2.0273168 0.46214071 4292094720
2.1739709 -2.0187266 0.4514609 4291964160
2.1797233 -2.0239406 0.44336277 4292094720
2.1670437 -2.0120404 0.43104118 4291964160
2.1730008 -2.0167511 0.35789964 4291964160
2.1741867 -2.0177245 0.34497815 4291964160
2.1688073 -2.0126054 0.33065617 4291964160
2.1671636 -2.0109537 0.31657967 4291964160
2.1646564 -2.0085006 0.30205259 4291964160
2.14534 -1.9904522 0.28499156 4291833600
2.1825943 -2.0248892 0.27500546 4291964160
2.1503766 -1.9948738 0.2559334 4291833600
2.1550348 -1.9990691 0.24116123 4291833600
2.1559992 -1.9998376 0.22567168 4291833600
2.1558423 -1.999566 0.20981263 4291833600
2.1147306 -1.9613111 0.19004697 4291703040
2.1502044 -1.9940856 0.17699607 4291833600
2.1724217 -2.0145628 0.16222452 4291964160
2.175844 -2.0176094 0.14567792 4291964160
2.1716735 -2.0136151 0.12847197 4291833600
2.1530769 -1.9962465 0.11045303 4291833600
2.1565835 -1.9993715 0.093567826 4291833600
2.0477772 -1.8983774 0.072547853 4291311360
2.0172393 -1.8699496 0.055333607 4291180800
2.0241804 -1.8762658 0.039277166 4291180800
2.0353448 -1.8864956 0.023115708 4291311360
2.0310984 -1.8824409 0.0066996412 4291180800
2.0092325 -1.8620582 -0.0095703136 4291180800
2.0161104 -1.8683144 -0.025845053 4291180800
2.0314331 -1.8823954 -0.042377874 4291180800
2.0163033 -1.8682576 -0.058230657 4291180800
2.0203917 -1.871928 -0.07448601 4291180800
2.0383971 -1.8884913 -0.091348805 4291311360
2.0479832 -1.8972527 -0.10795339 4291311360
2.0199697 -1.8711832 -0.12231433 4291180800
2.0148783 -1.8663492 -0.13767055 4291180800
2.0365701 -1.8863231 -0.1548339 4291311360
2.0407681 -1.8900924 -0.170697 4291311360
2.0204091 -1.8711185 -0.18419804 4291180800
2.0233612 -1.8737345 -0.19949116 4291180800
2.0486624 -1.8970451 -0.21697578 4291311360
2.0542483 -1.9020976 -0.23235901 4291441920
2.0549672 -1.9026434 -0.24698097 4291441920
1.9642881 -1.8185713 -0.24972074 4290919680
2.0439906 -1.892242 -0.27375728 4291311360
2.0470169 -1.8949242 -0.28778291 4291311360
2.0471947 -1.8949692 -0.30110919 4291311360
2.0364435 -1.8848987 -0.31242526 4291311360
1.9597098 -1.813761 -0.3127282 4290919680
2.0503793 -1.8975585 -0.33946422 4291441920
2.0668533 -1.9126838 -0.35417256 4291441920
2.0648038 -1.9106669 -0.36539158 4291441920
2.0634155 -1.9092619 -0.37629563 4291441920
2.0483255 -1.8951797 -0.38418856 4291441920
2.0306392 -1.8786974 -0.39099142 4291311360
2.0405443 -1.8877425 -0.40262052 4291311360
2.0396276 -1.8867754 -0.41169748 4291311360
2.0452733 -1.891879 -0.42164785 4291441920
2.046586 -1.8929739 -0.43025064 4291441920
2.0468442 -1.8930933 -0.43814304 4291441920
2.0483184 -1.8943373 -0.44579682 4291441920
2.0312903 -1.878471 -0.44885725 4291311360
2.0113745 -1.8599362 -0.45064187 4291311360
2.0060756 -1.8549193 -0.4551025 4291180800
1.9603549 -1.8125294 -0.4497326 4291050240
1.9736226 -1.8246816 -0.4572857 4291050240
1.9184107 -1.7735245 -0.4483583 4290789120
1.9281843 -1.7824477 -0.45400155 4290919680
1.9315063 -1.7854061 -0.45761728 4290919680
1.9348919 -1.7884229 -0.46072194 4290919680
1.9347262 -1.7881571 -0.46244583 4290919680
1.9382442 -1.7912956 -0.46451083 4290919680
1.9382135 -1.7911543 -0.46518359 4290919680
1.9310182 -1.7843925 -0.46359143 4290919680
1.924614 -1.7783624 -0.461647 4290919680
1.9723115 -1.8223206 -0.47211695 4291050240
1.9660463 -1.8164175 -0.46909836 4291050240
2.0042601 -1.8516061 -0.47610822 4291180800
2.0093298 -1.8561728 -0.47464126 4291311360
2.0326324 -1.8775808 -0.47688267 4291311360
2.0429268 -1.8869709 -0.47545904 4291441920
2.0441692 -1.8879995 -0.4713527 4291441920
2.0473709 -1.8908376 -0.46713933 4291441920
2.0459182 -1.8893768 -0.46131742 4291441920
2.0365348 -1.8805927 -0.45320389 4291311360
2.0351651 -1.8792094 -0.44638121 4291311360
2.027384 -1.8719066 -0.43766803 4291311360
2.0213151 -1.8661855 -0.42886943 4291311360
2.0524123 -1.8947766 -0.42736304 4291441920
2.0551794 -1.8972117 -0.4193331 4291441920
2.0598419 -1.9013959 -0.41117787 4291441920
2.0496774 -1.891894 -0.39962038 4291441920
2.0329003 -1.8762902 -0.38644791 4291311360
2.0344272 -1.877581 -0.37639025 4291311360
2.0391161 -1.8817898 -0.3664591 4291311360
2.0523939 -1.8939238 -0.3575601 4291441920
2.0537353 -1.8950422 -0.34609863 4291441920
2.0245609 -1.8680044 -0.32927039 4291311360
2.0428991 -1.8848058 -0.31986156 4291311360
2.0522957 -1.8933557 -0.3085261 4291441920
2.0570426 -1.8976154 -0.29605955 4291441920
2.0487142 -1.8898133 -0.28140712 4291311360
2.0196869 -1.8629199 -0.26385015 4291180800
2.0415757 -1.8829911 -0.25269875 4291311360
2.043602 -1.8847413 -0.23864663 4291311360
2.0285296 -1.8707227 -0.22242934 4291180800
2.0300846 -1.8720385 -0.20788816 4291180800
2.0463068 -1.886879 -0.1944916 4291311360
2.0537193 -1.8935945 -0.17987141 4291311360
2.0292685 -1.8709322 -0.16239479 4291180800
1.9359083 -1.784744 -0.14012617 4290789120
2.0455472 -1.885703 -0.13226679 4291311360
2.0524809 -1.8919755 -0.11672323 4291311360
2.0037472 -1.8469363 -0.098217078 4291050240
2.0387559 -1.8790869 -0.083816305 4291311360
2.0537875 -1.8928219 -0.068108372 4291311360
2.0464485 -1.8859391 -0.051525101 4291311360
1.9418275 -1.7894112 -0.033334583 4290789120
2.071789 -1.9090514 -0.018930644 4291441920
2.1598582 -1.9900774 -0.0023730295 4291833600
2.1360571 -1.9680232 0.014825662 4291703040
2.0719919 -1.9088775 0.03102204 4291441920
2.177387 -2.0058489 0.050051361 4291833600
2.1826649 -2.0105844 0.067611203 4291964160
2.1327386 -1.9644703 0.083031982 4291703040
2.1092954 -1.9427541 0.098810427 4291572480
2.1310532 -1.9626704 0.11658406 4291703040
2.1734858 -2.0016241 0.13586369 4291833600
2.1236703 -1.9556243 0.14917445 4291703040
2.0135903 -1.854138 0.15686086 4291180800
2.1785221 -2.0058827 0.18620548 4291964160
2.1672943 -1.9954188 0.20145422 4291833600
2.110708 -1.9431975 0.21176453 4291572480
2.0005691 -1.8416833 0.21525161 4291050240
2.1929343 -2.0186436 0.25162452 4291964160
2.1705356 -1.9978992 0.26429504 4291833600
2.159061 -1.9872119 0.2777673 4291833600
2.0833662 -1.917421 0.28208026 4291441920
2.0526032 -1.8889893 0.29145023 4291311360
2.1107264 -1.9423569 0.31328797 4291572480
2.1484647 -1.9769603 0.33236113 4291833600
2.1301043 -1.9599421 0.34250876 4291703040
2.0930076 -1.9256874 0.34892797 4291572480
2.0459299 -1.8822545 0.35280141 4291311360
2.1759291 -2.0017276 0.38726199 4291964160
2.149801 -1.9775664 0.39407784 4291833600
2.1322265 -1.9612763 0.40178531 4291703040
2.084326 -1.9170953 0.40299609 4291572480
2.11833 -1.9482483 0.41950762 4291703040
2.05035 -1.8856076 0.41519907 4291441920
2.1764648 -2.0014629 0.4499495 4291964160
2.144012 -1.9714954 0.45180604 4291833600
2.1606188 -1.9866406 0.46341336 4291964160
2.1324141 -1.9605834 0.46483833 4291833600
2.1600068 -1.9858274 0.47787982 4291964160
2.1731076 -1.9977458 0.48729056 4291964160
2.1119285 -1.9413812 0.4793514 4291703040
2.117893 -1.9467415 0.48594218 4291703040
2.1282718 -1.9561579 0.49301767 4291833600
2.1488698 -1.9749657 0.50194848 4291833600
2.1448617 -1.9711577 0.50457889 4291833600
2.1547074 -1.9800813 0.50988591 4291964160
2.1479414 -1.973739 0.51067173 4291833600
2.1477773 -1.9734639 0.51242197 4291833600
2.1476882 -1.9732574 0.51358986 4291833600
2.1440482 -1.9697889 0.51330614 4291833600
2.1477361 -1.9730527 0.51417446 4291833600
2.1304672 -1.9570649 0.50942832 4291833600
2.1270518 -1.9538044 0.50740516 4291833600
2.1099262 -1.9379513 0.50153393 4291703040
2.1772971 -1.999705 0.51509982 4291964160
2.1574168 -1.9813212 0.50737399 4291964160
2.1368728 -1.9623303 0.49896193 4291833600
2.1786098 -2.0005322 0.50446373 4291964160
2.1516588 -1.9756594 0.49345142 4291833600
2.1729805 -1.9951113 0.49294272 4291964160
2.1857233 -2.0066843 0.48982745 4292094720
2.186558 -2.0073242 0.48343837 4292094720
2.1874478 -2.0080144 0.47649685 4292094720
2.1727653 -1.9944105 0.46566182 4291964160
2.1846666 -2.0052085 0.4599947 4291964160
2.1784122 -1.9993416 0.44995645 4291964160
2.1776326 -1.9985001 0.44056168 4291964160
2.1844494 -2.0046299 0.43217286 4291964160
2.1687315 -1.9893957 0.35528138 4291833600
2.1756573 -1.995623 0.34336081 4291964160
2.1731722 -1.9932179 0.32954553 4291964160
2.1779974 -1.9975173 0.31645676 4291964160
2.1660571 -1.9864413 0.30062798 4291833600
2.1598346 -1.9806099 0.28537926 4291833600
2.1840796 -2.0027168 0.27371776 4291964160
2.168458 -1.9882668 0.2567023 4291833600
2.1629722 -1.9831119 0.24075238 4291833600
2.1573248 -1.9778093 0.22460045 4291833600
2.135561 -1.957733 0.2067252 4291703040
2.1327419 -1.9550253 0.19063871 4291703040
2.1617858 -1.9815242 0.17699607 4291833600
2.1701362 -1.9890529 0.16118574 4291833600
2.1772535 -1.9954504 0.14499144 4291833600
2.1723201 -1.9908034 0.12782188 4291833600
2.1692052 -1.9878232 0.11068439 4291833600
2.1638598 -1.9827999 0.093380719 4291833600
2.0875478 -1.9127525 0.073560767 4291441920
2.0494778 -1.8777517 0.055916872 4291311360
2.0557213 -1.8833532 0.039675586 4291311360
2.0536749 -1.8813599 0.023198999 4291311360
2.0560417 -1.8834093 0.0067456071 4291311360
2.0347953 -1.8638293 -0.0096401852 4291180800
2.0512953 -1.8788245 -0.026155327 4291311360
2.0600626 -1.8867356 -0.042745069 4291311360
2.0522223 -1.8794363 -0.058950752 4291311360
2.0555918 -1.8824035 -0.075378127 4291311360
2.0633705 -1.8894075 -0.091973074 4291311360
2.0730047 -1.8981099 -0.10868755 4291441920
2.0578911 -1.8841525 -0.12394375 4291311360
2.0470808 -1.8741364 -0.1391224 4291311360
2.0652006 -1.8906063 -0.15617047 4291311360
2.0694151 -1.8943452 -0.17216705 4291441920
2.0526202 -1.8788524 -0.18613352 4291311360
2.0555801 -1.8814431 -0.20158353 4291311360
2.0764043 -1.9003832 -0.21873754 4291441920
2.0826249 -1.9059563 -0.23430867 4291441920
2.0799801 -1.9034158 -0.24865012 4291441920
1.9924796 -1.823228 -0.25195 4291050240
2.0652597 -1.8897065 -0.27512664 4291441920
2.0756357 -1.8990809 -0.29024586 4291441920
2.0794733 -1.9024719 -0.30422136 4291441920
2.0686533 -1.8924537 -0.31566989 4291441920
1.9951606 -1.8251054 -0.31668311 4291050240
2.0852585 -1.9074037 -0.34339312 4291441920
2.0955329 -1.9166808 -0.35716739 4291572480
2.0905361 -1.91199 -0.36796767 4291572480
2.0920582 -1.9132614 -0.37947974 4291572480
2.0768778 -1.8992586 -0.38746184 4291441920
2.0620105 -1.8855437 -0.39490989 4291441920
2.0639153 -1.8871665 -0.40505549 4291441920
2.0783277 -1.9002246 -0.41726723 4291441920
2.0737748 -1.8959424 -0.42523912 4291441920
2.0787337 -1.9003562 -0.43467391 4291572480
2.0753384 -1.8971325 -0.44186887 4291441920
2.0666201 -1.8890437 -0.44737703 4291441920
2.0560436 -1.8792576 -0.45189989 4291441920
2.0505829 -1.874148 -0.45697215 4291441920
2.0314114 -1.856509 -0.4583886 4291311360
1.9992714 -1.8270209 -0.45621076 4291180800
2.0053251 -1.8324374 -0.46214956 4291180800
1.9534492 -1.7849214 -0.4541091 4290919680
1.9596329 -1.7904586 -0.45894229 4291050240
1.9731517 -1.8026966 -0.4649877 4291050240
1.9700058 -1.7997088 -0.4665783 4291050240
1.9698365 -1.7994407 -0.4683241 4291050240
1.9697355 -1.799235 -0.46953765 4291050240
1.962432 -1.7924507 -0.46848178 4291050240
1.9522891 -1.7830738 -0.46619609 4290919680
1.9487592 -1.7797376 -0.4649435 4290919680
2.0076225 -1.8333797 -0.47800434 4291180800
1.9904157 -1.8175516 -0.47237816 4291180800
2.0259261 -1.8498614 -0.47868654 4291311360
2.0375731 -1.8603786 -0.47874427 4291311360
2.0646427 -1.8849753 -0.48180792 4291441920
2.0677173 -1.8876634 -0.47866091 4291441920
2.0762515 -1.8953348 -0.47619602 4291572480
2.0721924 -1.89151 -0.47028023 4291441920
2.0743792 -1.8933868 -0.46523958 4291441920
2.0715117 -1.8906502 -0.45852843 4291441920
2.0606637 -1.8806306 -0.44956306 4291441920
2.0553229 -1.875638 -0.44133282 4291441920
2.0525899 -1.8730257 -0.43318233 4291441920
2.0772905 -1.8954461 -0.43023652 4291441920
2.0873842 -1.9045359 -0.4236328 4291572480
2.0950053 -1.9113687 -0.41596705 4291572480
2.0782161 -1.8959316 -0.40302405 4291441920
2.061358 -1.8804333 -0.38976827 4291441920
2.0558696 -1.8753085 -0.37832946 4291311360
2.0712867 -1.8892523 -0.37025616 4291441920
2.0800583 -1.8971332 -0.36044791 4291441920
2.0786734 -1.8957505 -0.34843397 4291441920
2.0523586 -1.8716333 -0.33201215 4291311360
2.0685272 -1.8862591 -0.322148 4291441920
2.0845914 -1.9007879 -0.31171104 4291441920
2.0857 -1.9016788 -0.29858434 4291441920
2.0773356 -1.8939328 -0.28381798 4291441920
2.0584595 -1.8766049 -0.26748249 4291311360
2.0701752 -1.8871664 -0.25487342 4291441920
2.0722203 -1.8889115 -0.24069932 4291441920
2.0637047 -1.8810306 -0.22508076 4291311360
2.0542974 -1.8723378 -0.20924698 4291311360
2.0749609 -1.8910517 -0.19616449 4291441920
2.0747275 -1.8907197 -0.18074349 4291441920
2.0607948 -1.8779043 -0.16403936 4291311360
1.9602981 -1.7862135 -0.14113587 4290919680
2.0739033 -1.8896109 -0.13338618 4291311360
2.0630219 -1.8795779 -0.11669794 4291311360
2.0358975 -1.8547482 -0.099261604 4291180800
2.0674031 -1.8833317 -0.084541492 4291311360
2.0788226 -1.8936149 -0.06857156 4291441920
2.0780981 -1.8928356 -0.052043423 4291441920
1.9736584 -1.7975932 -0.033700645 4290919680
2.1066091 -1.9185628 -0.019146346 4291572480
2.1684587 -1.9747666 -0.0023697976 4291833600
2.1511838 -1.9589111 0.014851184 4291703040
2.0719881 -1.8866749 0.030856878 4291311360
2.1823826 -1.9870706 0.049899224 4291833600
2.1802962 -1.9850457 0.067178428 4291833600
2.1293645 -1.9385526 0.082459502 4291572480
2.0991461 -1.9109215 0.097811766 4291441920
2.1745045 -1.9793978 0.11832824 4291833600
