# .PCD v0.7 - Point Cloud Data file format
VERSION 0.7
FIELDS x y z rgba
SIZE 4 4 4 4
TYPE F F F U
COUNT 1 1 1 1
WIDTH 1103
HEIGHT 1
VIEWPOINT 0 0 0 1 0 0 0
POINTS 1103
DATA ascii
3.4665627 0.19222529 0.38799983 4293661440
3.4567435 0.19178973 0.37072223 4293661440
3.4304624 0.19043969 0.35143894 4293530880
3.4330721 0.19069274 0.33483881 4293530880
3.4544423 0.19198862 0.31957787 4293661440
3.4444234 0.19154035 0.30100441 4293530880
3.4129086 0.18989539 0.28043684 4293400320
3.4202611 0.19041228 0.26288053 4293530880
3.4314437 0.19114298 0.24523115 4293530880
3.4342158 0.19140561 0.2266371 4293530880
3.4084461 0.19007675 0.20603985 4293400320
3.4467733 0.19232273 0.18902072 4293530880
3.455951 0.19294374 0.1699305 4293530880
3.4550753 0.19300374 0.15011448 4293530880
3.4069409 0.19042227 0.12836519 4293400320
3.4343946 0.19206496 0.10944311 4293530880
3.4223418 0.19149877 0.089054666 4293400320
3.4281101 0.19192958 0.069070272 4293530880
3.3910558 0.1899619 0.048333038 4293400320
3.4120276 0.19124421 0.028465141 4293400320
3.4103475 0.19125752 0.0082635051 4293400320
3.3804116 0.18968521 -0.011828345 4293269760
3.3935099 0.19052714 -0.03195833 4293400320
3.3964543 0.19079949 -0.052053228 4293400320
3.405489 0.19141434 -0.072256014 4293400320
3.3791728 0.19004168 -0.091529623 4293269760
3.4049788 0.19160029 -0.11211249 4293400320
3.420028 0.19255491 -0.13245809 4293400320
3.4303463 0.19324395 -0.15262398 4293530880
3.3889849 0.19102073 -0.1701483 4293400320
3.4041431 0.1919824 -0.19017509 4293400320
3.4193254 0.1929464 -0.21016733 4293400320
3.4165838 0.19289936 -0.2288989 4293400320
3.3874495 0.19136122 -0.24543834 4293400320
3.4157348 0.19306673 -0.26586291 4293400320
3.4381673 0.19444303 -0.28581154 4293530880
3.430804 0.19413474 -0.30304983 4293530880
3.4244354 0.1938823 -0.31997156 4293530880
3.4142568 0.19341362 -0.33610067 4293530880
3.4178455 0.19372463 -0.35317972 4293530880
3.4297426 0.19450705 -0.37079987 4293530880
3.4215147 0.19414829 -0.38585025 4293530880
3.4035134 0.19323409 -0.399248 4293400320
3.424458 0.19453114 -0.41677821 4293530880
3.4342115 0.19519345 -0.43261257 4293530880
3.4446607 0.19589593 -0.44813246 4293661440
3.4522059 0.19643383 -0.46284202 4293661440
3.4305475 0.19530956 -0.47305962 4293530880
3.4033537 0.19386862 -0.48179463 4293530880
3.4125125 0.1944979 -0.49506009 4293530880
3.4230096 0.19520408 -0.50802219 4293530880
3.4214163 0.19522104 -0.51863885 4293530880
3.4274902 0.19567564 -0.5298363 4293661440
3.4279003 0.1958071 -0.53956866 4293661440
3.4285154 0.19595028 -0.54871446 4293661440
3.4270351 0.19597371 -0.55688941 4293661440
3.4329977 0.19642287 -0.56563944 4293661440
3.4220712 0.19590557 -0.57094198 4293661440
3.4155989 0.19564269 -0.57628977 4293530880
3.4097409 0.19541463 -0.58104885 4293530880
3.3906844 0.19442935 -0.58284378 4293530880
3.3862934 0.1942843 -0.58644587 4293530880
3.3955061 0.19491988 -0.59172344 4293530880
3.3774447 0.19398953 -0.59155047 4293530880
3.3770516 0.19407338 -0.59376389 4293530880
3.3718593 0.19388127 -0.59443575 4293400320
3.3803988 0.19447884 -0.59683222 4293530880
3.3892088 0.19509253 -0.59858012 4293530880
3.4067087 0.19620726 -0.60115951 4293530880
3.406425 0.19629829 -0.59989417 4293530880
3.4116471 0.19670674 -0.59889317 4293530880
3.4125812 0.19686817 -0.59643495 4293530880
3.4278162 0.1978551 -0.59576315 4293661440
3.4207423 0.19755463 -0.5905115 4293661440
3.4271474 0.19803256 -0.58689684 4293661440
3.4240546 0.19796178 -0.58096761 4293661440
3.4202051 0.19784702 -0.57424539 4293661440
3.4136941 0.197578 -0.56642842 4293530880
3.4148691 0.19775364 -0.5592398 4293530880
3.4040201 0.19723266 -0.54945737 4293530880
3.3807423 0.1959905 -0.5371182 4293400320
3.3821461 0.1961785 -0.52813607 4293400320
3.411798 0.19800597 -0.52286726 4293530880
3.4227693 0.19875059 -0.5140155 4293530880
3.4293134 0.19923869 -0.50385505 4293661440
3.3965316 0.19744116 -0.4874317 4293530880
3.3851051 0.19688365 -0.47367054 4293400320
3.3936141 0.19748552 -0.46216965 4293400320
3.4074423 0.19839764 -0.45078367 4293530880
3.4078584 0.19852929 -0.4370583 4293530880
3.4101174 0.19876839 -0.42306554 4293530880
3.3749502 0.19682495 -0.40409681 4293400320
3.3960783 0.19816419 -0.39147359 4293400320
3.4099076 0.19907862 -0.37741366 4293530880
3.4179215 0.19965425 -0.36218819 4293530880
3.4244671 0.20014454 -0.34633508 4293530880
3.3802788 0.19766849 -0.32515395 4293400320
3.3989754 0.19886896 -0.30978629 4293400320
3.412792 0.19978493 -0.29346663 4293400320
3.4082587 0.199627 -0.27519882 4293400320
3.3792498 0.19803444 -0.25483119 4293400320
3.4070344 0.19977011 -0.23847161 4293400320
3.4014013 0.19954704 -0.21939281 4293400320
3.3987758 0.19950014 -0.2003143 4293400320
3.4056993 0.20001389 -0.18155615 4293400320
3.4051259 0.20008756 -0.16216536 4293400320
3.4118383 0.20058955 -0.14291033 4293400320
3.4251044 0.20147747 -0.12365972 4293530880
3.3915834 0.19961256 -0.10270452 4293400320
3.4268951 0.20179887 -0.08371108 4293530880
3.4322088 0.20221996 -0.063656427 4293530880
3.4241772 0.20185472 -0.043301653 4293400320
3.4254708 0.20203897 -0.023057777 4293400320
3.4442143 0.20325306 -0.0027877814 4293530880
3.4457786 0.203454 0.017619461 4293530880
3.3852332 0.19998586 0.0373412 4293269760
3.4629617 0.20468691 0.05864875 4293530880
3.4686639 0.2051333 0.079165854 4293661440
3.4479637 0.20401782 0.098907217 4293530880
3.267132 0.19342092 0.11277243 4292878080
3.4579873 0.20482896 0.13939671 4293530880
3.4579444 0.20493543 0.15928036 4293530880
3.4302936 0.20340484 0.17756183 4293530880
3.199548 0.18982327 0.18367773 4292747520
3.4688833 0.2059118 0.21850325 4293661440
3.4639657 0.2057291 0.23729205 4293661440
3.4078879 0.20250602 0.2519851 4293400320
3.0991678 0.18425873 0.24576263 4292355840
3.5011866 0.20827085 0.29609692 4293792000
3.4954617 0.20804051 0.31371209 4293792000
3.4667292 0.20643972 0.32874119 4293661440
3.3479524 0.19947223 0.33413172 4293269760
3.120795 0.18603651 0.32664001 4292486400
3.4856699 0.20789729 0.38137844 4293792000
3.47615 0.20743909 0.39641672 4293661440
3.4397383 0.20537467 0.40773788 4293530880
3.4101775 0.2037172 0.41912168 4293530880
3.2904851 0.19667079 0.41832238 4293139200
3.4985631 0.2092178 0.45906562 4293792000
3.4814308 0.20830303 0.4705219 4293792000
3.4728785 0.20790082 0.48250517 4293792000
3.4491932 0.20659167 0.49171987 4293661440
3.4195349 0.20492309 0.49933463 4293530880
3.3750782 0.20236532 0.50396913 4293400320
3.4842253 0.2090195 0.53115773 4293792000
3.4775908 0.20873113 0.54040802 4293792000
3.4961286 0.20995404 0.5529803 4293792000
3.4675977 0.20835 0.55744791 4293792000
3.4693358 0.20856382 0.56606781 4293792000
3.4597416 0.20809613 0.57216644 4293792000
3.4460857 0.20738341 0.57688093 4293661440
3.4450514 0.2074298 0.58300859 4293661440
3.4363992 0.20701718 0.58715272 4293661440
3.4193728 0.20609929 0.58914322 4293661440
3.4235795 0.20646079 0.59408551 4293661440
3.427897 0.20682923 0.59836274 4293661440
3.4362612 0.20744225 0.60265815 4293661440
3.4358931 0.20752837 0.60472369 4293661440
3.4218819 0.20678999 0.60367399 4293661440
3.4306018 0.2074251 0.60592347 4293661440
3.4168329 0.20670034 0.60349303 4293661440
3.4518158 0.20892547 0.60895914 4293792000
3.4284577 0.20761977 0.60342216 4293661440
3.4365258 0.20821673 0.60271454 4293661440
3.4593372 0.20970795 0.60386378 4293792000
3.4496095 0.20922701 0.59861809 4293661440
3.4747925 0.21086398 0.59871024 4293792000
3.4614491 0.21016338 0.59145385 4293792000
3.473547 0.21100745 0.58785468 4293792000
3.4703443 0.21092232 0.58096814 4293792000
3.4761937 0.21138744 0.57491606 4293792000
3.4625146 0.21066479 0.56498587 4293792000
3.4639392 0.21086071 0.55689305 4293792000
3.4566507 0.21052602 0.54677153 4293661440
3.4537256 0.21045677 0.53673679 4293661440
3.4692171 0.21151017 0.52890927 4293792000
3.4718359 0.2117793 0.51845843 4293792000
3.4757376 0.21212691 0.50758463 4293792000
3.4179091 0.20929329 0.41338941 4293530880
3.4538293 0.21160175 0.40244505 4293661440
3.4703438 0.21272297 0.38855514 4293661440
3.4605296 0.2122305 0.37125459 4293661440
3.4292948 0.21042304 0.35143894 4293530880
3.4289191 0.21050812 0.3345477 4293530880
3.453265 0.21211167 0.31957787 4293661440
3.4472263 0.21184945 0.30135208 4293530880
3.416718 0.21008231 0.2808457 4293530880
3.4240696 0.21064231 0.26326311 4293530880
3.4402277 0.21174482 0.24594289 4293530880
3.4469857 0.21226947 0.22755758 4293530880
3.4262104 0.21109813 0.20718454 4293530880
3.4542634 0.21293549 0.18949631 4293530880
3.4581609 0.21328481 0.17009738 4293530880
3.4524856 0.21304366 0.15005334 4293530880
3.4057736 0.21026859 0.12836519 4293400320
3.4255862 0.21159983 0.10919986 4293530880
3.4311457 0.21205144 0.089314386 4293530880
3.4269338 0.21189921 0.069070272 4293530880
3.3948815 0.21002437 0.048404183 4293400320
3.408211 0.21095648 0.028443072 4293400320
3.4077673 0.21103649 0.0082600918 4293400320
3.3742588 0.20906776 -0.011810877 4293269760
3.3923421 0.2102952 -0.03195833 4293400320
3.3952851 0.2105847 -0.052053228 4293400320
3.4142945 0.2118714 -0.072467804 4293400320
3.3789282 0.20978333 -0.091554545 4293269760
3.4045997 0.21148452 -0.11213867 4293400320
3.427824 0.21303527 -0.13280585 4293530880
3.4336476 0.21350549 -0.15282361 4293530880
3.3838272 0.21051435 -0.16994804 4293400320
3.416918 0.21268077 -0.19095476 4293400320
3.4231243 0.21317501 -0.2104736 4293530880
3.4243643 0.21336024 -0.22949956 4293530880
3.3961453 0.21170911 -0.24615358 4293400320
3.4245026 0.21358486 -0.26663768 4293530880
3.436976 0.21447122 -0.28581154 4293530880
3.4395566 0.21474072 -0.30392835 4293530880
3.4243283 0.21389797 -0.32007256 4293530880
3.4081056 0.21299213 -0.33561161 4293400320
3.4305577 0.21450348 -0.35461646 4293530880
3.4235897 0.21417576 -0.37026331 4293530880
3.4252846 0.21438983 -0.38640967 4293530880
3.4112513 0.21361907 -0.4002949 4293530880
3.4321833 0.21503812 -0.41786382 4293530880
3.4379673 0.21550894 -0.43323648 4293661440
3.4523685 0.21652055 -0.44929168 4293661440
3.4599059 0.21710241 -0.46403605 4293661440
3.4481368 0.21647267 -0.475651 4293661440
3.4021664 0.21369398 -0.48179463 4293530880
3.4162602 0.21468696 -0.4957768 4293530880
3.4218142 0.21514392 -0.50802219 4293530880
3.4350226 0.21608272 -0.52088338 4293661440
3.4351692 0.21620029 -0.53120905 4293661440
3.4414902 0.21670668 -0.5418973 4293661440
3.4322431 0.21623264 -0.54950333 4293661440
3.4258351 0.215937 -0.55688941 4293661440
3.4229319 0.21586196 -0.56417859 4293661440
3.4257941 0.21615051 -0.57176352 4293661440
3.4251273 0.21621647 -0.57810014 4293661440
3.4134638 0.21558787 -0.58188748 4293530880
3.3993304 0.21480243 -0.58453518 4293530880
3.3949382 0.21463197 -0.58814961 4293530880
3.3943129 0.21469951 -0.59172344 4293530880
3.393801 0.21477418 -0.59462428 4293530880
3.3983202 0.21516736 -0.59771365 4293530880
3.3931272 0.21494558 -0.59839582 4293530880
3.3929682 0.21504253 -0.59926248 4293530880
3.4103415 0.21625119 -0.60252476 4293530880
3.3966622 0.21549094 -0.59959805 4293530880
3.4052236 0.21614149 -0.59989417 4293530880
3.4211569 0.21726075 -0.60077453 4293661440
3.4240711 0.21755382 -0.59865451 4293661440
3.4280095 0.21791218 -0.59600735 4293661440
3.4293683 0.21810672 -0.59220982 4293661440
3.4210167 0.21768349 -0.58605427 4293661440
3.4326828 0.21853408 -0.58263773 4293661440
3.4264643 0.21824628 -0.57550001 4293661440
3.4272535 0.21840467 -0.56887978 4293661440
3.4198651 0.2180417 -0.56025654 4293661440
3.417592 0.21800458 -0.55184376 4293530880
3.3982704 0.21687926 -0.54009455 4293530880
3.3956597 0.21681976 -0.53043449 4293530880
3.4070456 0.21765426 -0.52232444 4293530880
3.4288125 0.21915296 -0.51510602 4293661440
3.4379685 0.21984661 -0.5053063 4293661440
3.4052024 0.21785873 -0.48884988 4293530880
3.3888423 0.21691896 -0.47436228 4293400320
3.375592 0.21617728 -0.45987895 4293400320
3.402271 0.21799317 -0.45025992 4293530880
3.4066439 0.21838081 -0.4370583 4293530880
3.4237573 0.21958585 -0.42490923 4293530880
3.3836551 0.2171206 -0.40528366 4293400320
3.3998232 0.21826532 -0.3920452 4293400320
3.4225764 0.21983403 -0.37895119 4293530880
3.4216623 0.21988325 -0.3627142 4293530880
3.4143069 0.21951827 -0.34543103 4293530880
3.3790698 0.21735935 -0.32515395 4293400320
3.397759 0.21866873 -0.30978629 4293400320
3.4165413 0.21998528 -0.29389426 4293530880
3.406539 0.2194487 -0.27515852 4293400320
3.394959 0.21880981 -0.25610763 4293400320
3.4034679 0.2194656 -0.23830742 4293400320
3.4051602 0.21968216 -0.21971409 4293400320
3.4115026 0.22019894 -0.20113657 4293400320
3.4094737 0.22017555 -0.18182266 4293400320
3.3912983 0.21910881 -0.16156489 4293400320
3.4056265 0.22014198 -0.14270143 4293400320
3.4238725 0.22142942 -0.12365972 4293530880
3.4003375 0.22001463 -0.10300668 4293400320
3.4206731 0.22143833 -0.083589189 4293400320
3.4349632 0.22247177 -0.063730471 4293530880
3.4089735 0.22089605 -0.043124929 4293400320
3.429225 0.2223165 -0.023091374 4293530880
3.4429717 0.22331631 -0.0027877814 4293530880
3.4495242 0.22385015 0.017644983 4293530880
3.4068069 0.22118558 0.037592746 4293400320
3.465106 0.22507994 0.05870628 4293661440
3.4654181 0.22520953 0.079120383 4293661440
3.4507065 0.22436233 0.09902171 4293530880
3.2659497 0.21245262 0.11277243 4292878080
3.4540985 0.22480083 0.13929038 4293530880
3.46666 0.22572772 0.15973969 4293661440
3.4290502 0.22338699 0.17756183 4293530880
3.2033689 0.20878595 0.18396379 4292747520
3.4789336 0.22685619 0.21921587 4293661440
3.4666903 0.22616719 0.23756494 4293661440
3.4116261 0.22268243 0.25235316 4293400320
3.1030154 0.20263681 0.2461572 4292355840
3.4859931 0.22775646 0.29491922 4293661440
3.4941902 0.22840226 0.31371209 4293792000
3.4793756 0.22754365 0.33006054 4293661440
3.3655994 0.22020911 0.33601528 4293269760
3.1236281 0.20447563 0.32705566 4292486400
3.4843996 0.228202 0.38137844 4293792000
3.4748824 0.22768834 0.39641672 4293661440
3.4434381 0.22573663 0.4083254 4293661440
3.4049709 0.22332232 0.41863459 4293530880
3.2942331 0.21616328 0.41895184 4293139200
3.4873908 0.22894807 0.45776692 4293792000
3.4851024 0.22890779 0.47119039 4293792000
3.4666662 0.22780626 0.48181832 4293661440
3.4439795 0.22642408 0.49115634 4293661440
3.4222326 0.22510232 0.49991158 4293530880
3.3827243 0.22261032 0.50529593 4293400320
3.4785106 0.22902361 0.53048098 4293792000
3.4750724 0.22890687 0.54021478 4293792000
3.4849896 0.22967009 0.55142081 4293792000
3.4712512 0.22887422 0.55824012 4293792000
3.4641373 0.22851446 0.56542724 4293792000
3.4584703 0.22824977 0.57216644 4293792000
3.4497397 0.22778243 0.57770503 4293661440
3.448704 0.22782284 0.58384144 4293661440
3.4489055 0.22794499 0.58950645 4293661440
3.4230309 0.22634289 0.58999068 4293661440
3.4409988 0.22763957 0.59732831 4293661440
3.4354808 0.22738293 0.59990764 4293661440
3.444823 0.22810994 0.60438257 4293661440
3.4395394 0.22786862 0.60558885 4293661440
3.4294631 0.22730927 0.6052348 4293661440
3.4342482 0.2277348 0.60679162 4293661440
3.4253972 0.22725594 0.60522926 4293661440
3.4456267 0.22870678 0.60809201 4293661440
3.4409482 0.22850482 0.60584462 4293661440
3.4401686 0.22856161 0.60357678 4293661440
3.4531419 0.2295325 0.60300547 4293792000
3.4581637 0.22997542 0.60032481 4293792000
3.4627874 0.23039219 0.59686291 4293792000
3.4700017 0.23098168 0.59313512 4293792000
3.4624202 0.23058626 0.58618903 4293792000
3.4739771 0.23146553 0.58179224 4293792000
3.4650583 0.23098063 0.57328725 4293792000
3.4651675 0.23109727 0.56562889 4293792000
3.462652 0.23103876 0.55689305 4293792000
3.4652212 0.23131953 0.54833108 4293792000
3.4475107 0.23024607 0.53597039 4293661440
3.4629939 0.2313894 0.52815706 4293792000
3.4754775 0.2323332 0.51919556 4293792000
3.4793794 0.23270385 0.50830585 4293792000
3.4215844 0.22953545 0.41398865 4293530880
3.442627 0.23105572 0.40128982 4293661440
3.4789615 0.23360412 0.38966578 4293661440
3.4632027 0.23265526 0.3716805 4293661440
3.4329734 0.23073281 0.35194772 4293530880
3.4325995 0.23081602 0.33503231 4293530880
3.4443707 0.23171623 0.31887427 4293530880
3.4509034 0.23226461 0.30178672 4293661440
3.410464 0.22965045 0.28043684 4293400320
3.4247706 0.23072189 0.26341587 4293530880
3.4462509 0.23227775 0.24646606 4293530880
3.4538574 0.23289943 0.22809693 4293530880
3.4161773 0.23046641 0.20665552 4293400320
3.4439981 0.23245198 0.18900426 4293530880
3.4568596 0.23342915 0.17009738 4293530880
3.4561696 0.23349164 0.15027003 4293530880
3.4144609 0.23078164 0.12874112 4293400320
3.4292812 0.23189157 0.10935886 4293530880
3.424865 0.23170103 0.089184523 4293530880
3.4301283 0.23216535 0.069160745 4293530880
3.4025788 0.23040807 0.048532248 4293400320
3.4095674 0.23098892 0.028465141 4293400320
3.4114685 0.23122539 0.0082721887 4293400320
3.3729835 0.22872335 -0.011810877 4293269760
3.3873694 0.22980577 -0.031923555 4293400320
3.4039764 0.23103987 -0.052206226 4293400320
3.4139962 0.23182769 -0.072488911 4293400320
3.3866246 0.2300759 -0.091797851 4293400320
3.4214611 0.23255056 -0.11273676 4293400320
3.429718 0.23322003 -0.13292962 4293530880
3.4423125 0.23418508 -0.1532674 4293530880
3.3915112 0.23083605 -0.17039862 4293400320
3.4106402 0.23224567 -0.1906763 4293400320
3.4118659 0.23243682 -0.20986108 4293400320
3.423141 0.23331298 -0.22950478 4293530880
3.3898787 0.23115289 -0.24579282 4293400320
3.4232001 0.2335331 -0.26663768 4293530880
3.4330339 0.23431233 -0.28559241 4293530880
3.4382472 0.23477665 -0.30392835 4293530880
3.4358509 0.23472147 -0.32127196 4293530880
3.4157429 0.2334556 -0.33649191 4293530880
3.4292498 0.23448698 -0.35461646 4293530880
3.4290254 0.23457988 -0.37099272 4293530880
3.4239774 0.2343426 -0.38640967 4293530880
3.4198577 0.23416859 -0.40145811 4293530880
3.4276998 0.23481376 -0.41747746 4293530880
3.4439342 0.23603459 -0.43415433 4293661440
3.4577727 0.23709218 -0.45016712 4293661440
3.4605565 0.23739228 -0.46430093 4293661440
3.4517586 0.23689771 -0.47633293 4293661440
3.4156811 0.23452948 -0.48389381 4293530880
3.4248247 0.2352654 -0.49721023 4293530880
3.4303715 0.23575471 -0.50948787 4293661440
3.4425831 0.23670262 -0.52223009 4293661440
3.4423201 0.23679319 -0.53251916 4293661440
3.4382017 0.23661841 -0.54158735 4293661440
3.4438088 0.23711301 -0.55156684 4293661440
3.4387393 0.23687251 -0.5592019 4293661440
3.4407415 0.23711903 -0.56733209 4293661440
3.4421039 0.23732157 -0.57470661 4293661440
3.4238093 0.2361683 -0.57810014 4293661440
3.4121349 0.23547073 -0.58188492 4293530880
3.398021 0.23460399 -0.58453518 4293530880
3.4110463 0.23561095 -0.59116799 4293530880
3.3979185 0.23481143 -0.59258044 4293530880
3.3974056 0.23488323 -0.59548551 4293530880
3.4058523 0.23557469 -0.59926969 4293530880
3.3967299 0.23505095 -0.59926248 4293530880
3.39657 0.2351471 -0.60013044 4293530880
3.4090235 0.23611689 -0.60252476 4293530880
3.4041913 0.23588964 -0.60115951 4293530880
3.4225597 0.23727052 -0.60318154 4293661440
3.4237635 0.23746203 -0.60146505 4293661440
3.4276593 0.23784043 -0.59951395 4293661440
3.4306133 0.23815371 -0.59669119 4293661440
3.4329548 0.23842463 -0.593059 4293661440
3.4325507 0.23850492 -0.58825815 4293661440
3.4500394 0.239829 -0.5858109 4293661440
3.4349732 0.23889011 -0.57715309 4293661440
3.4298596 0.23864275 -0.56953353 4293661440
3.4271007 0.23855898 -0.56166011 4293661440
3.4211884 0.23825543 -0.55263919 4293661440
3.4068017 0.23736107 -0.54166108 4293530880
3.4041955 0.23728696 -0.53197485 4293530880
3.4164813 0.23825116 -0.5239749 4293530880
3.4412892 0.24008982 -0.51718175 4293661440
3.4478371 0.2406555 -0.50695425 4293661440
3.4088128 0.23803924 -0.48955896 4293530880
3.387521 0.23665938 -0.47436228 4293400320
3.3930562 0.23715319 -0.46243861 4293530880
3.4072287 0.23825131 -0.45109206 4293530880
3.4191666 0.23919402 -0.43883625 4293530880
3.4224198 0.23952965 -0.42490923 4293530880
3.3773801 0.23648402 -0.40469024 4293400320
3.398494 0.2380697 -0.3920452 4293400320
3.4261951 0.24011838 -0.37950033 4293530880
3.4153631 0.23946707 -0.36218819 4293530880
3.4219024 0.2400336 -0.34633508 4293530880
3.3876758 0.23773968 -0.32610983 4293400320
3.3964272 0.23846106 -0.30978629 4293400320
3.4128606 0.23972258 -0.2936928 4293530880
3.4052026 0.23929217 -0.27515852 4293400320
3.3886528 0.23823617 -0.2557323 4293400320
3.4071071 0.23964114 -0.23865594 4293400320
3.4214411 0.24075736 -0.22085136 4293530880
3.4250989 0.24112289 -0.20201759 4293530880
3.4031525 0.23968533 -0.18155695 4293400320
3.4057043 0.23997258 -0.16231506 4293400320
3.414166 0.2406766 -0.14311558 4293400320
3.4171131 0.24099223 -0.12346421 4293400320
3.3972063 0.23969555 -0.10295238 4293400320
3.4193249 0.24136414 -0.083589189 4293400320
3.4336088 0.24248081 -0.063730471 4293530880
3.4215927 0.24174027 -0.043301653 4293400320
3.4228842 0.24193959 -0.023057777 4293400320
3.438417 0.24314605 -0.0027851933 4293530880
3.4481614 0.24394399 0.017644983 4293530880
3.4094503 0.24131297 0.03763679 4293400320
3.4653285 0.24537732 0.05873327 4293661440
3.4790056 0.24645564 0.079462044 4293661440
3.4682703 0.24580464 0.099565133 4293661440
3.2786133 0.23246671 0.11325455 4293008640
3.4792864 0.24680509 0.14036171 4293661440
3.4747536 0.24659327 0.16017611 4293661440
3.4376521 0.24406882 0.17807786 4293530880
3.2070775 0.22779958 0.18424986 4292747520
3.4775529 0.24712132 0.21921587 4293661440
3.4752655 0.24706851 0.23824717 4293661440
3.4202187 0.24326304 0.25308928 4293530880
3.1057596 0.2209952 0.24647285 4292486400
3.4985223 0.2490533 0.29609692 4293792000
3.4788914 0.24776566 0.31246284 4293661440
3.4690685 0.24717563 0.3292138 4293661440
3.3642592 0.23981406 0.33601528 4293269760
3.1372647 0.22373229 0.32861438 4292616960
3.4968927 0.24948938 0.38289848 4293792000
3.4734969 0.24792987 0.39641672 4293661440
3.4519701 0.24650232 0.40950048 4293661440
3.4125223 0.24379314 0.41973051 4293530880
3.2929177 0.2353525 0.41895184 4293139200
3.4958878 0.24996962 0.45906562 4293792000
3.4886522 0.24956241 0.47185889 4293792000
3.4791121 0.24898981 0.48374152 4293792000
3.4465518 0.24676839 0.49171987 4293661440
3.4307332 0.24574414 0.50135398 4293661440
3.3764372 0.24196152 0.50455886 4293400320
3.4810617 0.24956903 0.53108275 4293792000
3.4835362 0.24985644 0.54174763 4293792000
3.4786663 0.24961698 0.550641 4293792000
3.4885707 0.25043786 0.56125051 4293792000
3.4627471 0.24869338 0.56542724 4293792000
3.4620023 0.24874921 0.57298082 4293792000
3.4768839 0.24992827 0.5824846 4293792000
3.4386184 0.24728622 0.58236808 4293661440
3.452435 0.24838886 0.59034711 4293792000
3.4354157 0.24727288 0.5923636 4293661440
3.4445281 0.24803753 0.59818161 4293661440
3.4439237 0.24810277 0.60162419 4293661440
3.4434354 0.24817634 0.60438257 4293661440
3.4381535 0.24790423 0.60558885 4293661440
3.4329922 0.24764048 0.60610193 4293661440
3.4377744 0.24809401 0.6076597 4293661440
3.4328554 0.24784742 0.60679185 4293661440
3.4491472 0.24913259 0.60895914 4293792000
3.4395585 0.24854863 0.60584462 4293661440
3.443691 0.24895599 0.60443896 4293661440
3.4566588 0.25000265 0.60386378 4293792000
3.4616787 0.25047505 0.60117817 4293792000
3.4574544 0.25027856 0.59618491 4293792000
3.4685972 0.25119472 0.59313512 4293792000
3.4704313 0.25143713 0.58778334 4293792000
3.4725697 0.25170171 0.58179224 4293792000
3.4784148 0.25223523 0.57573044 4293792000
3.4834507 0.25271043 0.56884396 4293792000
3.4612472 0.25120896 0.55689305 4293792000
3.4539628 0.25078937 0.54677153 4293661440
3.4559667 0.25104401 0.53750324 4293661440
3.4532073 0.25095263 0.52687854 4293661440
3.4829431 0.2532236 0.52052236 4293792000
3.4743142 0.25270596 0.50777233 4293792000
3.4291005 0.25011641 0.41506732 4293530880
3.4531071 0.25197649 0.40267572 4293661440
3.4749153 0.25367761 0.38937151 4293661440
3.4766636 0.25391504 0.37327757 4293661440
3.4395857 0.25131571 0.35276973 4293530880
3.4412463 0.25154573 0.33601359 4293530880
3.46049 0.25306171 0.32049763 4293661440
3.4494917 0.25236636 0.30178672 4293661440
3.4229841 0.25053516 0.28158161 4293530880
3.4323177 0.25132671 0.26410452 4293530880
3.4474747 0.25254545 0.24665463 4293530880
3.4474659 0.25265369 0.22776818 4293530880
3.4237363 0.25102276 0.20719774 4293530880
3.4465687 0.25280565 0.18922295 4293530880
3.455441 0.25356558 0.17009738 4293530880
3.4497688 0.25325832 0.15005334 4293530880
3.4085751 0.2503418 0.128572 4293400320
3.4318593 0.25216031 0.10948607 4293530880
3.4324298 0.25231063 0.08941827 4293530880
3.4337029 0.25251269 0.069261312 4293530880
3.4011786 0.25022829 0.048532248 4293400320
3.4194834 0.251683 0.028559681 4293400320
3.4204459 0.2518619 0.0082973745 4293400320
3.3774993 0.24880622 -0.011831566 4293269760
3.4013412 0.25066999 -0.03206845 4293400320
3.4083531 0.2512944 -0.052294917 4293400320
3.4286642 0.25290024 -0.072830409 4293530880
3.3852265 0.24980317 -0.091797851 4293400320
3.420048 0.25248075 -0.11273676 4293400320
3.4382665 0.25393432 -0.13331603 4293530880
3.4499342 0.25490502 -0.15367027 4293530880
3.3901088 0.25059178 -0.17039862 4293400320
3.4042506 0.25174466 -0.19039786 4293400320
3.4104538 0.25231111 -0.20986108 4293400320
3.4217236 0.25325295 -0.22950478 4293530880
3.3934479 0.25126737 -0.24615358 4293400320
3.4217813 0.2534734 -0.26663768 4293530880
3.4316106 0.25430992 -0.28559241 4293530880
3.4467549 0.25554112 -0.30480683 4293530880
3.4344249 0.25473547 -0.32127196 4293530880
3.4161081 0.25348479 -0.33666766 4293530880
3.4251971 0.25426742 -0.35434458 4293530880
3.4315665 0.25484866 -0.37142199 4293530880
3.4314728 0.25495008 -0.38741663 4293530880
3.4184353 0.25408942 -0.40145811 4293530880
3.4275618 0.25487605 -0.4176344 4293530880
3.4474478 0.25646371 -0.43477827 4293661440
3.4576197 0.25732964 -0.45033473 4293661440
3.4591148 0.25755018 -0.46430093 4293661440
3.45032 0.25700435 -0.47633293 4293661440
3.419194 0.25479388 -0.48459351 4293530880
3.4318731 0.25584713 -0.49844143 4293661440
3.4370317 0.2563403 -0.51069027 4293661440
3.4541638 0.25772715 -0.52420574 4293661440
3.45468 0.25787479 -0.53465456 4293661440
3.4545827 0.25797665 -0.54439521 4293661440
3.442369 0.25717333 -0.55156684 4293661440
3.4375167 0.25691941 -0.559237 4293661440
3.4343817 0.25679362 -0.56652051 4293661440
3.4406629 0.25737196 -0.57470661 4293661440
3.4263086 0.25640649 -0.57876456 4293661440
3.4342992 0.25711292 -0.5859102 4293661440
3.4196999 0.25612798 -0.58851117 4293661440
3.4145288 0.25584856 -0.59201986 4293661440
3.4014051 0.25497264 -0.59343749 4293530880
3.391068 0.25430492 -0.59462428 4293530880
3.4004931 0.25511914 -0.5985781 4293530880
3.4002132 0.25520557 -0.60012919 4293530880
3.4000525 0.25530094 -0.60099834 4293530880
3.4125004 0.25634339 -0.60339296 4293661440
3.4170058 0.2567898 -0.60367644 4293661440
3.4446902 0.25897914 -0.60733736 4293661440
3.4183929 0.25711006 -0.60077453 4293661440
3.4262154 0.25780666 -0.59951395 4293661440
3.4340801 0.25850692 -0.59754598 4293661440
3.4415498 0.25917795 -0.59479463 4293661440
3.4360173 0.25886989 -0.58910078 4293661440
3.4388373 0.25919098 -0.58415532 4293661440
3.4420779 0.25954399 -0.57859111 4293661440
3.436481 0.25923052 -0.57087409 4293661440
3.429589 0.25881898 -0.56230551 4293661440
3.4272134 0.25874799 -0.5538466 4293661440
3.4142246 0.25787523 -0.54307097 4293530880
3.4027553 0.25711647 -0.53197485 4293530880
3.415035 0.25815225 -0.5239749 4293530880
3.4366734 0.25989655 -0.51670682 4293661440
3.4463766 0.26073924 -0.50695425 4293661440
3.417536 0.25866523 -0.49101987 4293530880
3.3869953 0.2564607 -0.47448981 4293400320
3.3976676 0.25737616 -0.46326363 4293530880
3.4206111 0.25922224 -0.45305607 4293530880
3.4101491 0.25853714 -0.43786481 4293530880
3.4212642 0.25948793 -0.42494625 4293530880
3.3709946 0.25578171 -0.40409681 4293400320
3.4059646 0.25854275 -0.3930741 4293530880
3.4197824 0.2596997 -0.37895119 4293530880
3.4337418 0.26086828 -0.3642922 4293530880
3.4303665 0.26072025 -0.34733963 4293530880
3.3862331 0.25747293 -0.32610983 4293400320
3.4049106 0.25900066 -0.3106924 4293400320
3.4177198 0.26008302 -0.29423639 4293530880
3.4037507 0.25912753 -0.27515852 4293400320
3.4021218 0.25911105 -0.25685832 4293400320
3.4155998 0.26024547 -0.23935299 4293530880
3.4199805 0.26068732 -0.22085136 4293530880
3.4286129 0.26145366 -0.20231126 4293530880
3.4166336 0.26064813 -0.18235409 4293400320
3.4092281 0.2601909 -0.16255249 4293400320
3.4196761 0.26109633 -0.14340788 4293530880
3.4176311 0.2610482 -0.12353579 4293400320
3.3978431 0.25964409 -0.10301578 4293400320
3.4178605 0.26128173 -0.083589189 4293400320
3.4321377 0.26248163 -0.063730471 4293530880
3.4201262 0.26167107 -0.043301653 4293400320
3.4353752 0.26294634 -0.023151848 4293530880
3.4501066 0.2641829 -0.0027958613 4293530880
3.4506698 0.26433507 0.017665399 4293530880
3.4039984 0.26086742 0.037592746 4293400320
3.4738092 0.2663272 0.058902308 4293661440
3.4815845 0.26703334 0.079555131 4293661440
3.4717627 0.2663897 0.099708252 4293661440
3.3586125 0.25781378 0.11606792 4293269760
3.4714625 0.2665861 0.14010637 4293661440
3.4876988 0.26794311 0.16084208 4293661440
3.4461291 0.26485845 0.1785939 4293530880
3.2056959 0.24648081 0.18424986 4292747520
3.4810295 0.26776078 0.21952964 4293661440
3.4876933 0.26838356 0.23920229 4293661440
3.4187434 0.2631858 0.25308928 4293530880
3.1143589 0.23985173 0.24726197 4292486400
3.4970117 0.26943219 0.29609692 4293792000
3.5061877 0.27024996 0.31505057 4293792000
3.4675696 0.26738295 0.3292138 4293661440
3.3816555 0.260865 0.33789882 4293400320
3.1408663 0.24238949 0.32913396 4292616960
3.4973588 0.27001154 0.38311523 4293792000
3.4858623 0.26923415 0.39800021 4293792000
3.4504752 0.26661003 0.40950048 4293661440
3.415992 0.26405355 0.42033938 4293530880
3.2914908 0.25453371 0.41895184 4293139200
3.5032692 0.27102146 0.46023449 4293792000
3.4920793 0.27026615 0.47252738 4293792000
3.4825401 0.26963794 0.48442841 4293792000
3.4549263 0.26760909 0.49312875 4293661440
3.4292433 0.26572815 0.50135398 4293661440
3.3848312 0.26239368 0.50603306 4293530880
3.4844768 0.27022839 0.53183496 4293792000
3.4859624 0.27045375 0.54236072 4293792000
3.4870009 0.27064455 0.55220056 4293792000
3.4821303 0.27037656 0.5604583 4293792000
3.4661596 0.26924604 0.56623101 4293792000
3.4752495 0.27006197 0.57542396 4293792000
3.4468515 0.26796407 0.57770503 4293661440
3.4518652 0.26846296 0.58486652 4293792000
3.4411013 0.26773459 0.58866584 4293661440
3.4388297 0.26766652 0.59321105 4293661440
3.4430246 0.26810184 0.59818161 4293661440
3.4424198 0.26816356 0.60162419 4293661440
3.4468412 0.26861694 0.60524482 4293661440
3.4415605 0.26831418 0.60645401 4293661440
3.4501464 0.26909262 0.60939705 4293792000
3.4362707 0.26811898 0.6076597 4293661440
3.4313531 0.26784375 0.60679185 4293661440
3.4613831 0.27029723 0.61138713 4293792000
3.4478714 0.26935109 0.60757494 4293792000
3.4559302 0.27008989 0.60685313 4293792000
3.4738047 0.27159661 0.60712516 4293792000
3.4690018 0.27133074 0.60271418 4293792000
3.4746058 0.2718789 0.59940535 4293792000
3.4769022 0.27216852 0.59481639 4293792000
3.4826698 0.27273005 0.59011531 4293792000
3.4808774 0.27269971 0.58344036 4293792000
3.4817274 0.27287635 0.57653207 4293792000
3.4819191 0.27300143 0.56884396 4293792000
3.4794116 0.27291483 0.56006199 4293792000
3.4573667 0.27129498 0.54755127 4293792000
3.4544454 0.27117494 0.53750324 4293661440
3.4753406 0.27292505 0.53048915 4293792000
3.4863386 0.27389896 0.52125949 4293792000
3.4816613 0.27364156 0.50907052 4293792000
3.4325337 0.27048075 0.41566658 4293530880
3.4565315 0.27248102 0.40325335 4293661440
3.478332 0.27430955 0.38992682 4293792000
3.4751253 0.27416649 0.37327757 4293661440
3.452939 0.27252528 0.35429612 4293661440
3.434638 0.27118945 0.33551696 4293530880
3.465261 0.2737169 0.32108176 4293661440
3.4628596 0.27363667 0.30309057 4293661440
3.426434 0.27086663 0.28199044 4293530880
3.4337807 0.27155593 0.26433432 4293530880
3.4499223 0.27294156 0.24693933 4293530880
3.4585133 0.27373055 0.22859955 4293661440
3.4222157 0.2709659 0.20719774 4293530880
3.4500141 0.273276 0.18949631 4293530880
3.4505162 0.27342486 0.1699305 4293530880
3.458194 0.27414259 0.15048672 4293661440
3.4020779 0.26980162 0.12838404 4293400320
3.4402955 0.27294123 0.10980408 4293530880
3.4309015 0.27230442 0.08941827 4293530880
3.4321735 0.27251387 0.069261312 4293530880
3.4005733 0.27011231 0.048545238 4293400320
3.4040034 0.2704924 0.028443072 4293400320
3.4148464 0.27146196 0.0082874876 4293400320
3.3899484 0.26958987 -0.011880476 4293400320
3.4048071 0.27087918 -0.032115459 4293400320
3.406831 0.27114791 -0.052294917 4293400320
3.4260125 0.27278286 -0.072806604 4293530880
3.3886962 0.26991883 -0.091933019 4293400320
3.4274857 0.27311689 -0.11303247 4293530880
3.4343824 0.27377501 -0.13322501 4293530880
3.4434114 0.27460364 -0.15344837 4293530880
3.3885913 0.27033901 -0.17039862 4293400320
3.412679 0.27236861 -0.19095476 4293400320
3.4278302 0.2736862 -0.21102487 4293530880
3.4241683 0.27350208 -0.22977173 4293530880
3.4028594 0.27190766 -0.24694699 4293400320
3.4215887 0.27351242 -0.26674232 4293530880
3.4439783 0.27541104 -0.28675038 4293530880
3.4491794 0.27593604 -0.30515823 4293661440
3.437845 0.27513796 -0.32173637 4293530880
3.4145732 0.27338344 -0.33666766 4293530880
3.4286153 0.27461609 -0.35485768 4293530880
3.4362683 0.27533773 -0.37209821 4293530880
3.4304259 0.27497804 -0.38747275 4293530880
3.4199672 0.27424783 -0.40181881 4293530880
3.4547148 0.27714348 -0.42113248 4293661440
3.4646862 0.27805293 -0.4371492 4293661440
3.4686143 0.27847785 -0.45197037 4293661440
3.4723752 0.2788896 -0.46629101 4293792000
3.4625885 0.27821305 -0.47824234 4293661440
3.4352946 0.27612865 -0.48709518 4293661440
3.4342701 0.27615491 -0.49901479 4293661440
3.439424 0.27667806 -0.51127654 4293661440
3.4526036 0.27784744 -0.52420574 4293661440
3.4567626 0.27829143 -0.53521872 4293661440
3.453021 0.27809939 -0.54439521 4293661440
3.4408121 0.27722493 -0.55156684 4293661440
3.4497361 0.27805302 -0.56147897 4293661440
3.4439027 0.27769172 -0.56834835 4293661440
3.439105 0.27741361 -0.57470661 4293661440
3.4345858 0.27715769 -0.58042562 4293661440
3.4327428 0.27711752 -0.5859102 4293661440
3.4220793 0.27636486 -0.58918774 4293661440
3.422802 0.27653146 -0.59372354 4293661440
3.3949518 0.27438876 -0.59258044 4293530880
3.4032748 0.27516907 -0.59703577 4293530880
3.3989491 0.27492681 -0.5985781 4293530880
3.4025953 0.27532932 -0.60082251 4293530880
3.4158983 0.27651379 -0.60407382 4293661440
3.4158568 0.27661845 -0.60426116 4293661440
3.4291945 0.27780697 -0.60610545 4293661440
3.4293795 0.27793041 -0.60491318 4293661440
3.4354906 0.27853429 -0.60405433 4293661440
3.443311 0.27927727 -0.60277981 4293661440
3.4325156 0.27851021 -0.59754598 4293661440
3.4488215 0.2799423 -0.59632313 4293792000
3.4480834 0.27999145 -0.59143913 4293661440
3.4372687 0.27922195 -0.58415532 4293661440
3.4493544 0.28031281 -0.5800789 4293661440
3.4447453 0.28004718 -0.57250834 4293661440
3.4410102 0.27985233 -0.56443578 4293661440
3.440408 0.27991217 -0.55623299 4293661440
3.4126642 0.27776286 -0.54307097 4293530880
3.4149868 0.27805987 -0.53413129 4293530880
3.4263668 0.27909485 -0.52595407 4293661440
3.4400291 0.2803165 -0.51744819 4293661440
3.4595912 0.28201994 -0.50913113 4293661440
3.425837 0.27937672 -0.49243808 4293661440
3.3992629 0.27731711 -0.47642669 4293530880
3.4000609 0.27748972 -0.46380252 4293530880
3.4198301 0.27921131 -0.45316041 4293530880
3.4323115 0.28033888 -0.44091272 4293661440
3.4295857 0.28022471 -0.42617539 4293530880
3.3891623 0.27702901 -0.40646127 4293400320
3.405797 0.27849641 -0.39323536 4293530880
3.4281178 0.28043002 -0.38004947 4293530880
3.4321637 0.28086954 -0.3642922 4293530880
3.4197874 0.27996489 -0.34642771 4293530880
3.389636 0.27760372 -0.32658777 4293400320
3.4083066 0.27924058 -0.31114545 4293530880
3.4211116 0.28039789 -0.29466403 4293530880
3.4071503 0.27936137 -0.27556026 4293400320
3.3906159 0.27811292 -0.25610763 4293400320
3.4229736 0.2808753 -0.23998033 4293530880
3.4184036 0.28060839 -0.22085136 4293530880
3.4270315 0.28142503 -0.20231126 4293530880
3.4150569 0.28054971 -0.18235409 4293400320
3.4207983 0.28112954 -0.16317949 4293530880
3.4210875 0.28126153 -0.14353336 4293530880
3.4160523 0.28095561 -0.12353579 4293400320
3.4062345 0.28025585 -0.10331794 4293400320
3.4325757 0.28253174 -0.083987907 4293530880
3.4264865 0.28213891 -0.063654982 4293530880
3.4235413 0.28200468 -0.043364957 4293530880
3.4361277 0.28315011 -0.023167644 4293530880
3.4493032 0.28434491 -0.0027965051 4293530880
3.4490712 0.28443491 0.017665399 4293530880
3.3936055 0.27996814 0.037495349 4293400320
3.4721987 0.28656182 0.058902308 4293661440
3.4758978 0.28697702 0.079462044 4293661440
3.4651706 0.286201 0.099565133 4293661440
3.3470933 0.27655444 0.11572355 4293269760
3.4788127 0.2875478 0.14046824 4293661440
3.4801829 0.28777114 0.16057007 4293661440
3.4445276 0.28493181 0.1785939 4293530880
3.2042053 0.26515368 0.18424986 4292747520
3.4843836 0.28844914 0.21984342 4293661440
3.4771221 0.287958 0.23858829 4293661440
3.4171519 0.28309965 0.25308928 4293530880
3.1178758 0.25840425 0.24765654 4292486400
3.5142505 0.29136628 0.29769525 4293792000
3.5086017 0.29100889 0.31541449 4293792000
3.4798279 0.28873244 0.33053172 4293661440
3.2950952 0.27350882 0.32940328 4293139200
3.1344447 0.26027319 0.32861438 4292616960
3.4987016 0.29063046 0.38344133 4293792000
3.4941363 0.29036176 0.39913127 4293792000
3.4352884 0.28558019 0.40788865 4293530880
3.3526943 0.2788201 0.41274348 4293269760
3.2025943 0.26643863 0.4078275 4292878080
3.5016308 0.29142764 0.46023449 4293792000
3.504272 0.2917583 0.47439918 4293792000
3.4858456 0.29033443 0.48511526 4293792000
3.4582415 0.28814468 0.49383315 4293661440
3.4463732 0.28726482 0.50409448 4293661440
3.3881733 0.28252089 0.50677019 4293530880
3.4877694 0.29093599 0.53258717 4293792000
3.494175 0.29158086 0.54389358 4293792000
3.4853649 0.29095593 0.55220056 4293792000
3.4854157 0.29107043 0.56125051 4293792000
3.4733841 0.29017556 0.5676778 4293792000
3.4637849 0.28948319 0.5737952 4293792000
3.4589922 0.28919205 0.58001238 4293792000
3.4677777 0.29003629 0.58783901 4293792000
3.4581473 0.28934023 0.59186023 4293792000
3.4372118 0.28769732 0.59321105 4293661440
3.4266758 0.28692383 0.59562159 4293661440
3.4457076 0.28862643 0.60248244 4293661440
3.4452178 0.28869441 0.60524482 4293661440
3.4536796 0.28951272 0.60887641 4293792000
3.4485202 0.28918931 0.60939705 4293792000
3.4483893 0.28928745 0.61009043 4293792000
3.439548 0.28865457 0.60852808 4293661440
3.4646566 0.29087132 0.61225426 4293792000
3.4511509 0.28984666 0.6084401 4293792000
3.4641137 0.29104495 0.60857755 4293792000
3.4633281 0.29108852 0.60558033 4293792000
3.4634345 0.29120705 0.60203153 4293792000
3.4729626 0.29211804 0.59940535 4293792000
3.4840982 0.29316491 0.59632951 4293792000
3.4810216 0.2930162 0.59011531 4293792000
3.4792295 0.2929754 0.58344036 4293792000
3.4849944 0.29357111 0.57734644 4293792000
3.4940386 0.29444352 0.57109451 4293922560
3.481698 0.29351375 0.56069577 4293792000
3.4655702 0.29226378 0.54911083 4293792000
3.4653509 0.29235494 0.53945601 4293792000
3.4776318 0.29350105 0.53109092 4293792000
3.4905114 0.29469848 0.52213126 4293792000
3.4800079 0.2939218 0.50907052 4293792000
3.4496953 0.29206616 0.41794378 4293661440
3.4578581 0.29286665 0.40360031 4293661440
3.4766748 0.29457036 0.38992682 4293792000
3.4823856 0.29516444 0.37423584 4293792000
3.4512925 0.29263818 0.35429612 4293661440
3.4419253 0.29195285 0.33638927 4293530880
3.4636073 0.29390156 0.32108176 4293661440
3.4651771 0.29414442 0.30343828 4293661440
3.4297631 0.2912468 0.2823993 4293530880
3.4321401 0.29155725 0.26433432 4293530880
3.453243 0.29345918 0.2472952 4293661440
3.4641728 0.29449764 0.22908317 4293661440
3.4305248 0.29174569 0.20780021 4293530880
3.4546328 0.29390523 0.18984082 4293661440
3.4578216 0.29428595 0.17037182 4293661440
3.4718788 0.29559219 0.15115461 4293661440
3.4104052 0.29046628 0.12875997 4293400320
3.4247046 0.29179254 0.10935886 4293530880
3.4415634 0.29333788 0.089739174 4293530880
3.4449737 0.29373756 0.069552973 4293530880
3.4098973 0.29085466 0.048701715 4293400320
3.4236472 0.2921358 0.028620947 4293530880
3.4231706 0.29220349 0.0083116796 4293530880
3.393302 0.28976125 -0.011897944 4293400320
3.4067473 0.29101717 -0.032149211 4293400320
3.4133658 0.29169059 -0.052420422 4293400320
3.4383109 0.2939311 -0.073103115 4293530880
3.4010878 0.29085663 -0.092313603 4293400320
3.4258363 0.29308149 -0.11303247 4293530880
3.4350741 0.29398051 -0.13331603 4293530880
3.4467299 0.2950871 -0.15367027 4293530880
3.3919342 0.29050317 -0.17064893 4293400320
3.4160082 0.29267311 -0.19123322 4293530880
3.4311497 0.29407898 -0.21133111 4293530880
3.4234333 0.29352593 -0.22983326 4293530880
3.3972425 0.29138786 -0.24665838 4293400320
3.4298706 0.29429498 -0.26751709 4293530880
3.4522445 0.29632398 -0.28757748 4293661440
3.4445324 0.29577103 -0.30489439 4293530880
3.4332943 0.29491472 -0.32146582 4293530880
3.4241283 0.29423574 -0.33777305 4293530880
3.4431665 0.29598066 -0.35653615 4293661440
3.4445117 0.29620528 -0.37317136 4293661440
3.4384491 0.29579279 -0.38856703 4293661440
3.423259 0.29459438 -0.40240043 4293530880
3.4579866 0.29769239 -0.42173558 4293661440
3.4630075 0.29823419 -0.4371492 4293661440
3.4768131 0.29953319 -0.4532584 4293792000
3.4736571 0.29937124 -0.4666895 4293792000
3.4609089 0.2983821 -0.47824234 4293661440
3.43856 0.2965641 -0.48779491 4293661440
3.44118 0.29689899 -0.50026166 4293661440
3.4476089 0.29756278 -0.51274228 4293661440
3.4509263 0.29795831 -0.52420574 4293661440
3.4649286 0.29927698 -0.536744 4293792000
3.4464211 0.29778749 -0.54361898 4293661440
3.4527898 0.29844707 -0.55375624 4293661440
3.4392068 0.29738185 -0.56003773 4293661440
3.4360716 0.29721951 -0.56733209 4293661440
3.4374304 0.29744583 -0.57470661 4293661440
3.4329128 0.29716358 -0.58042562 4293661440
3.4261594 0.29668742 -0.58507162 4293661440
3.4204111 0.29629791 -0.58918774 4293661440
3.4162242 0.29604337 -0.59287173 4293661440
3.4021292 0.29492959 -0.59412313 4293530880
3.4065206 0.29541811 -0.59789699 4293530880
3.4012146 0.29506564 -0.59926969 4293530880
3.4058394 0.29557464 -0.60168922 4293530880
3.396847 0.29490176 -0.60099834 4293530880
3.4092817 0.2960892 -0.60339296 4293661440
3.4275177 0.29778144 -0.60610545 4293661440
3.427702 0.29790595 -0.60491318 4293661440
3.4432352 0.29936495 -0.60571247 4293661440
3.4327929 0.29856575 -0.60123283 4293661440
3.4467959 0.29989275 -0.60032588 4293792000
3.4471319 0.3000311 -0.59632313 4293792000
3.4552314 0.30084544 -0.59295577 4293792000
3.4493351 0.30044124 -0.58649349 4293792000
3.4525752 0.30083275 -0.58090544 4293792000
3.4430554 0.30011222 -0.57250834 4293661440
3.4491529 0.30075291 -0.56604934 4293661440
3.4239659 0.29866508 -0.5538466 4293661440
3.410866 0.29763037 -0.54305154 4293530880
3.4271662 0.29916123 -0.53629977 4293661440
3.43453 0.29991272 -0.52746648 4293661440
3.4513452 0.30149034 -0.51940572 4293661440
3.4578893 0.30217144 -0.50913113 4293661440
3.4330266 0.30010745 -0.49371445 4293661440
3.4123888 0.2984114 -0.47850192 4293530880
3.4091675 0.29823762 -0.46527389 4293530880
3.4230835 0.29956335 -0.45381507 4293530880
3.4378881 0.30096778 -0.44184682 4293661440
3.4342325 0.30075645 -0.42696333 4293661440
3.382545 0.29633698 -0.40586782 4293400320
3.4140131 0.29920191 -0.39437857 4293530880
3.4287531 0.30060226 -0.38030761 4293530880
3.4367652 0.30141345 -0.36496079 4293530880
3.4319739 0.30110192 -0.34783405 4293530880
3.3879611 0.29734772 -0.32658777 4293400320
3.411582 0.29952884 -0.31159851 4293530880
3.4104874 0.2995407 -0.29389426 4293530880
3.4059627 0.29925114 -0.27560055 4293400320
3.4029315 0.29909253 -0.25716513 4293400320
3.4173043 0.30046397 -0.23970151 4293530880
3.4266517 0.30139434 -0.22149393 4293530880
3.4253337 0.30138686 -0.20231126 4293530880
3.4173434 0.30079201 -0.18256666 4293530880
3.4230824 0.30140552 -0.16336945 4293530880
3.4293435 0.30206537 -0.14395115 4293530880
3.4342673 0.3026078 -0.12425616 4293530880
3.4184835 0.30132526 -0.10374097 4293530880
3.4258924 0.30208677 -0.083866015 4293530880
3.4352436 0.30302012 -0.063849375 4293530880
3.417856 0.30159459 -0.043314464 4293400320
3.4344196 0.3031649 -0.023167644 4293530880
3.4525685 0.30487627 -0.0028005452 4293530880
3.4503312 0.30478793 0.017680649 4293530880
3.4018774 0.30061543 0.037605457 4293400320
3.4704702 0.30678669 0.058902308 4293661440
3.4741666 0.30722347 0.079462044 4293661440
3.4734013 0.30726576 0.09985137 4293661440
3.2740495 0.28973424 0.11325455 4293008640
3.4744413 0.30757776 0.14036171 4293661440
3.4848387 0.30860856 0.16086511 4293661440
3.4341378 0.30422732 0.17814408 4293530880
3.1110358 0.27570251 0.17898171 4292486400
3.491591 0.30953819 0.2204082 4293792000
3.4940491 0.3098667 0.23986958 4293792000
3.4432592 0.30547148 0.25515038 4293530880
3.1212823 0.27700588 0.24805111 4292486400
3.5148313 0.31204364 0.29789338 4293792000
3.5117295 0.31187946 0.31585369 4293792000
3.4741352 0.30865067 0.33015621 4293661440
3.2984016 0.29314253 0.32989895 4293139200
3.1417913 0.2793234 0.32954961 4292616960
3.5127885 0.31241843 0.38517815 4293792000
3.4923851 0.31071439 0.39913127 4293792000
3.4434578 0.30647042 0.40906373 4293661440
3.3599107 0.29914105 0.4138394 4293400320
3.2059283 0.28553313 0.40845698 4292878080
3.4958458 0.31146505 0.45970485 4293792000
3.5070255 0.31257218 0.47501042 4293922560
3.4752305 0.3098484 0.483881 4293792000
3.4477811 0.30751023 0.49258694 4293661440
3.4446411 0.30733925 0.50409448 4293661440
3.3207624 0.29639167 0.49693739 4293269760
3.4909384 0.31169111 0.53333938 4293792000
3.4924169 0.3119337 0.54389358 4293792000
3.4895997 0.31179258 0.55314988 4293792000
3.4836607 0.31137225 0.56125051 4293792000
3.4814653 0.31128627 0.56928527 4293792000
3.4757977 0.3108896 0.57607543 4293792000
3.4572487 0.30933997 0.58001238 4293792000
3.4573417 0.30945778 0.58636558 4293792000
3.456403 0.3094832 0.59186023 4293792000
3.4492197 0.30894926 0.59558403 4293792000
3.4583135 0.30987331 0.6014244 4293792000
3.4478924 0.30904874 0.60316908 4293792000
3.4523072 0.30955377 0.60679674 4293792000
3.4519341 0.30962965 0.60887641 4293792000
3.4467769 0.30927622 0.60939705 4293792000
3.4515498 0.3098138 0.61095858 4293792000
3.4466355 0.30948186 0.61009073 4293792000
3.462903 0.3110522 0.61225426 4293792000
3.4533274 0.31030145 0.60913217 4293792000
3.4525485 0.31034082 0.60685313 4293792000
3.4704041 0.31205571 0.60712516 4293792000
3.480325 0.31305802 0.60527426 4293792000
3.480036 0.31314221 0.60093081 4293792000
3.482331 0.31345904 0.59632951 4293792000
3.4792554 0.31329235 0.59011531 4293792000
3.4868543 0.31408703 0.58501595 4293922560
3.4930515 0.31475589 0.57897526 4293922560
3.4884536 0.31445208 0.57047141 4293792000
3.4848459 0.31423724 0.56148797 4293792000
3.4677436 0.31280491 0.54973465 4293792000
3.4734306 0.3134279 0.54098886 4293792000
3.4807858 0.31420186 0.53184313 4293792000
3.4976008 0.31583047 0.52345812 4293922560
3.4930193 0.31552741 0.5112341 4293792000
3.4479351 0.31215984 0.41794378 4293661440
3.4620252 0.31354514 0.40429306 4293661440
3.4838073 0.31562823 0.39092639 4293792000
3.4829395 0.31565991 0.37448663 4293792000
3.4593592 0.3136324 0.35530573 4293661440
3.4462364 0.3125518 0.33698285 4293661440
3.4816701 0.31587571 0.32292131 4293792000
3.4607809 0.31409013 0.30320838 4293661440
3.4369411 0.31203538 0.28313521 4293530880
3.4403131 0.3124505 0.2650995 4293530880
3.4614084 0.31447601 0.24800694 4293661440
3.4663732 0.31503689 0.22934616 4293661440
3.4337373 0.31217957 0.20810144 4293530880
3.4528618 0.31402764 0.18984082 4293661440
3.4659951 0.31533188 0.17086217 4293661440
3.4561684 0.31454733 0.15054786 4293661440
3.4225874 0.31159952 0.12928626 4293530880
3.4392262 0.3132233 0.10987898 4293530880
3.4487557 0.31420046 0.089972921 4293530880
3.4432039 0.3138037 0.069552973 4293530880
3.4131238 0.3111704 0.04877286 4293400320
3.4258704 0.31244102 0.028654264 4293530880
3.4354386 0.3134225 0.0083457595 4293530880
3.391556 0.30952641 -0.011897944 4293400320
3.4189353 0.31213346 -0.03228084 4293530880
