# .PCD v0.7 - Point Cloud Data file format
VERSION 0.7
FIELDS x y z rgba
SIZE 4 4 4 4
TYPE F F F U
COUNT 1 1 1 1
WIDTH 1104
HEIGHT 1
VIEWPOINT 0 0 0 1 0 0 0
POINTS 1104
DATA ascii
3.1915371 -1.3463448 0.54697031 4293661440
3.1880088 -1.3447384 0.55529726 4293661440
3.1814959 -1.3418734 0.56243569 4293661440
3.1635909 -1.3342044 0.56684911 4293530880
3.1592231 -1.3322455 0.57297796 4293530880
3.1674092 -1.3355803 0.5807243 4293661440
3.158566 -1.3317347 0.58467311 4293530880
3.1578572 -1.331319 0.58942938 4293530880
3.143203 -1.3250246 0.5908742 4293530880
3.1427011 -1.3246968 0.59426898 4293530880
3.1550128 -1.3297696 0.59940219 4293530880
3.1547236 -1.329531 0.60145074 4293530880
3.1454685 -1.3255142 0.60108143 4293530880
3.1454 -1.325369 0.60175943 4293530880
3.1372747 -1.3218291 0.60019118 4293530880
3.1560066 -1.3296046 0.60305357 4293530880
3.1517332 -1.3276877 0.60081148 4293530880
3.1646762 -1.333023 0.60114121 4293661440
3.1676271 -1.3341489 0.59885812 4293661440
3.1768517 -1.3379165 0.59704798 4293661440
3.1729941 -1.3361746 0.59207672 4293661440
3.1787927 -1.338499 0.58821267 4293661440
3.1850748 -1.3410262 0.58373255 4293661440
3.1870944 -1.3417587 0.57777697 4293661440
3.1842837 -1.3404577 0.57027674 4293661440
3.1846125 -1.3404783 0.56268287 4293661440
3.1730475 -1.335493 0.55236572 4293661440
3.1614738 -1.3305048 0.54147178 4293530880
3.1617043 -1.330485 0.5320074 4293530880
3.1913207 -1.3428299 0.52678055 4293661440
3.1932459 -1.3435218 0.51627731 4293661440
3.1903236 -1.3421743 0.50440359 4293661440
3.142947 -1.3213719 0.41159162 4293400320
3.1679215 -1.3317548 0.39967248 4293530880
3.1899455 -1.3408954 0.38670599 4293530880
3.1770732 -1.3353672 0.36903489 4293530880
3.1458313 -1.3221195 0.34904778 4293400320
3.1588249 -1.3274636 0.33367538 4293400320
3.1801682 -1.3363154 0.31863105 4293530880
3.1658599 -1.3301859 0.29962686 4293530880
3.1332448 -1.3163664 0.27882457 4293400320
3.1425686 -1.3201674 0.26157948 4293400320
3.1600251 -1.327384 0.24456966 4293400320
3.1631768 -1.3285909 0.22606516 4293400320
3.1387422 -1.318212 0.2054711 4293400320
3.1583111 -1.3263139 0.18756226 4293400320
3.1651497 -1.3290687 0.16853315 4293400320
3.1713185 -1.3315419 0.1492058 4293400320
3.1294978 -1.3138669 0.12768258 4293269760
3.1465654 -1.3209162 0.10857826 4293400320
3.1551554 -1.3244057 0.088902786 4293400320
3.1574206 -1.3252398 0.068884842 4293400320
3.1391532 -1.3174566 0.048447352 4293269760
3.1433265 -1.3190919 0.028394366 4293400320
3.1431189 -1.3188887 0.008246351 4293400320
3.113945 -1.3065319 -0.011797616 4293269760
3.1329319 -1.3143827 -0.031945404 4293269760
3.1435111 -1.3187048 -0.052161828 4293400320
3.143625 -1.3186364 -0.072216213 4293400320
3.130707 -1.3131022 -0.091811404 4293269760
3.1515226 -1.3217164 -0.11234571 4293400320
3.1638129 -1.326754 -0.13266294 4293400320
3.1638992 -1.3266733 -0.15240209 4293400320
3.1193378 -1.3078727 -0.16954982 4293269760
3.1426952 -1.3175499 -0.19007219 4293400320
3.155519 -1.3228097 -0.20997114 4293400320
3.1601245 -1.3246236 -0.22919932 4293400320
3.136507 -1.314608 -0.24601798 4293400320
3.1596196 -1.3241786 -0.26622751 4293400320
3.1803873 -1.3327646 -0.28620079 4293530880
3.1830883 -1.333779 -0.3043676 4293530880
3.1809196 -1.3327528 -0.32173637 4293530880
3.1514518 -1.32029 -0.33581683 4293400320
3.1807363 -1.3324411 -0.35578129 4293530880
3.1830022 -1.3332727 -0.37249514 4293530880
3.1738658 -1.3293285 -0.38742536 4293530880
3.1617849 -1.3241519 -0.40145811 4293530880
3.1828187 -1.3328432 -0.41928679 4293530880
3.1911383 -1.3362093 -0.43510827 4293661440
3.2044892 -1.3416814 -0.45122373 4293661440
3.2060909 -1.3422337 -0.46524164 4293661440
3.195781 -1.3377993 -0.47696844 4293661440
3.1617537 -1.3234384 -0.48443621 4293530880
3.1562994 -1.3210387 -0.49557459 4293530880
3.179379 -1.3305812 -0.51069027 4293530880
3.1733861 -1.3279558 -0.5206145 4293530880
3.1772945 -1.3294741 -0.53155804 4293661440
3.1771619 -1.3293015 -0.54122663 4293661440
3.1798456 -1.3303069 -0.55075836 4293661440
3.1750641 -1.3281893 -0.55835599 4293661440
3.1701777 -1.3260282 -0.56526434 4293530880
3.1676242 -1.3248432 -0.57191551 4293530880
3.1704035 -1.3258886 -0.57886511 4293661440
3.1653786 -1.3236703 -0.58371288 4293530880
3.16746 -1.3244238 -0.58918518 4293530880
3.1541073 -1.3187242 -0.591084 4293530880
3.1494775 -1.3166722 -0.59390312 4293530880
3.1490502 -1.3163774 -0.59681469 4293530880
3.1532745 -1.3180268 -0.59991229 4293530880
3.1485202 -1.3159235 -0.60060012 4293530880
3.1402423 -1.3123478 -0.5999077 4293530880
3.1525264 -1.3173652 -0.60243911 4293530880
3.1608133 -1.3207114 -0.60350037 4293530880
3.1709518 -1.3248305 -0.60420299 4293661440
3.1790388 -1.3280921 -0.60379857 4293661440
3.1722341 -1.3251323 -0.59985989 4293661440
3.1656406 -1.3222612 -0.59527242 4293530880
3.1705964 -1.3242142 -0.59216189 4293661440
3.1731458 -1.3251618 -0.58790082 4293661440
3.1809978 -1.3283236 -0.58391976 4293661440
3.1716781 -1.3243148 -0.57611144 4293661440
3.1720057 -1.3243346 -0.56940329 4293530880
3.168591 -1.3227922 -0.56137013 4293530880
3.1462111 -1.3133332 -0.54939204 4293530880
3.142432 -1.3116397 -0.54009455 4293530880
3.1427591 -1.3116602 -0.53088951 4293530880
3.1709743 -1.3233191 -0.5256952 4293530880
3.182359 -1.3279529 -0.51698077 4293661440
3.1875517 -1.3300022 -0.50661242 4293661440
3.1584911 -1.3177601 -0.49031079 4293530880
3.139411 -1.3096839 -0.47518155 4293400320
3.1437395 -1.3113737 -0.46311221 4293400320
3.1660521 -1.3205644 -0.45305607 4293530880
3.1713905 -1.322674 -0.43994188 4293530880
3.1726267 -1.3230726 -0.42573419 4293530880
3.1339481 -1.3068269 -0.40586782 4293400320
3.1668212 -1.320418 -0.39483586 4293530880
3.1698477 -1.321563 -0.37946805 4293530880
3.1731336 -1.3228159 -0.36367702 4293530880
3.1721413 -1.3222853 -0.34698033 4293530880
3.1237061 -1.3019801 -0.3249743 4293269760
3.1373913 -1.3075686 -0.30925643 4293400320
3.1492414 -1.3123913 -0.29287633 4293400320
3.1466422 -1.311192 -0.27477947 4293400320
3.1339869 -1.3058031 -0.25559121 4293269760
3.1428528 -1.3093812 -0.23789982 4293400320
3.155756 -1.3146408 -0.22012602 4293400320
3.1499958 -1.312125 -0.20076886 4293400320
3.1368759 -1.3065442 -0.18083917 4293269760
3.1354165 -1.3058208 -0.16147457 4293269760
3.153156 -1.3130926 -0.142823 4293400320
3.1466961 -1.3102864 -0.12285145 4293400320
3.125108 -1.301182 -0.10233322 4293269760
3.149909 -1.3113921 -0.083202854 4293400320
3.1569641 -1.3142129 -0.063312545 4293400320
3.1321208 -1.3037554 -0.042828396 4293269760
3.1472051 -1.3099184 -0.022906609 4293400320
3.1581292 -1.3143487 -0.0027639524 4293400320
3.1555297 -1.3131505 0.017446293 4293400320
3.1216698 -1.298945 0.037231091 4293269760
3.1804116 -1.3232706 0.058238082 4293400320
3.1952374 -1.3293214 0.078846969 4293530880
3.1752043 -1.3208699 0.098477423 4293400320
2.9997077 -1.2477536 0.11194596 4292747520
3.1830728 -1.3239086 0.13872746 4293530880
3.1984367 -1.3301809 0.15928036 4293530880
3.1599987 -1.3140787 0.17683938 4293400320
2.9327869 -1.219485 0.18201856 4292616960
3.1924379 -1.3273332 0.21739598 4293530880
3.1949849 -1.3282745 0.23660982 4293530880
3.1511905 -1.3099513 0.25189066 4293400320
2.9377961 -1.2211349 0.25184524 4292616960
3.2096546 -1.3340183 0.29343492 4293661440
3.2106028 -1.3342942 0.31148824 4293661440
3.2032228 -1.3311092 0.32835472 4293530880
3.0833778 -1.2811936 0.3326447 4293139200
2.8686941 -1.1918833 0.32456172 4292355840
3.2026265 -1.3305074 0.37877268 4293661440
3.1988592 -1.3288244 0.39431617 4293661440
3.1602514 -1.3126701 0.40491769 4293530880
3.1375444 -1.3031229 0.41680801 4293400320
3.0177026 -1.2532375 0.41467142 4293008640
3.2102726 -1.3330927 0.45529935 4293661440
3.1990595 -1.3283185 0.46731311 4293661440
3.1957798 -1.326839 0.47989511 4293661440
3.1611207 -1.3123326 0.48707062 4293530880
3.154762 -1.3095766 0.49789226 4293530880
3.0963228 -1.2852038 0.49969384 4293269760
3.1841333 -1.3215345 0.5246138 4293661440
3.1901417 -1.3239107 0.53576946 4293661440
3.1948195 -1.3257343 0.54611838 4293661440
3.1912827 -1.3241493 0.55443752 4293661440
3.1756377 -1.3175408 0.55996174 4293530880
3.1759191 -1.3175405 0.56760591 4293661440
3.1624272 -1.3118269 0.57210129 4293530880
3.1706333 -1.3151141 0.57984388 4293530880
3.166321 -1.3132089 0.58463079 4293530880
3.1610572 -1.3109094 0.58854491 4293530880
3.1418154 -1.3028141 0.58913606 4293530880
3.1540527 -1.3077724 0.5949297 4293530880
3.1536539 -1.3074908 0.59765738 4293530880
3.1497238 -1.3057455 0.59901363 4293530880
3.1495428 -1.3055546 0.60037887 4293530880
3.1449239 -1.3035241 0.60019392 4293530880
3.1449649 -1.3034253 0.60019416 4293530880
3.1591918 -1.3092054 0.6021955 4293530880
3.1558158 -1.3076901 0.60013455 4293530880
3.1633284 -1.3106868 0.59943819 4293530880
3.1671937 -1.3121717 0.59734088 4293530880
3.180079 -1.3173929 0.59622866 4293661440
3.1762092 -1.315673 0.59126955 4293661440
3.1911266 -1.3217348 0.58910006 4293661440
3.1928687 -1.3223388 0.58378577 4293661440
3.1821339 -1.3177758 0.57552922 4293661440
3.1966307 -1.3236616 0.57115716 4293661440
3.1750741 -1.3146186 0.55970097 4293530880
3.1808059 -1.3168747 0.55244422 4293661440
3.1737657 -1.3138433 0.54233611 4293530880
3.1694322 -1.3119327 0.53209823 4293530880
3.1854177 -1.3184323 0.5246219 4293661440
3.1882536 -1.3194889 0.51431763 4293661440
3.1844025 -1.3177778 0.50235039 4293530880
3.1458039 -1.3010577 0.4109661 4293400320
3.1802163 -1.3151733 0.40025008 4293530880
3.2022955 -1.3241862 0.3872613 4293661440
3.1893938 -1.3187338 0.36956725 4293530880
3.1488843 -1.3018683 0.34853896 4293400320
3.1701846 -1.3105581 0.33406308 4293530880
3.1658142 -1.3086349 0.31642357 4293400320
3.1689527 -1.3098158 0.29919225 4293400320
3.1362557 -1.2961857 0.27841574 4293269760
3.1585002 -1.305263 0.26226813 4293400320
3.1584866 -1.3051412 0.24385791 4293400320
3.1708636 -1.3101391 0.22606516 4293400320
3.1412401 -1.2977836 0.20513615 4293269760
3.1684549 -1.3089107 0.18770857 4293400320
3.1699293 -1.3094033 0.16837858 4293400320
3.1724474 -1.3103267 0.14889722 4293400320
3.1273465 -1.2915835 0.12728561 4293269760
3.1530058 -1.3020648 0.10853688 4293400320
3.153578 -1.3021852 0.088643067 4293400320
3.1512263 -1.3010981 0.068583153 4293400320
3.1374187 -1.2952819 0.048303291 4293269760
3.1400545 -1.2962546 0.028296107 4293269760
3.1535258 -1.3016998 0.0082536172 4293400320
3.1166217 -1.286352 -0.011779162 4293269760
3.135071 -1.2938515 -0.031889807 4293269760
3.1369982 -1.2945315 -0.051927723 4293269760
3.1558752 -1.3022054 -0.072322108 4293400320
3.1249039 -1.2893109 -0.091419376 4293269760
3.1450326 -1.2975003 -0.11184297 4293269760
3.1619735 -1.304373 -0.1322649 4293400320
3.1757295 -1.3099309 -0.15260173 4293400320
3.1269047 -1.2896765 -0.16954982 4293269760
3.1466262 -1.2976949 -0.18984944 4293400320
3.150532 -1.2991899 -0.20913208 4293400320
3.1594865 -1.3027663 -0.22859865 4293400320
3.1302814 -1.290609 -0.24493571 4293269760
3.1597199 -1.3026303 -0.26559195 4293400320
3.1805403 -1.3110969 -0.28552228 4293530880
3.1834342 -1.3121728 -0.30366451 4293530880
3.1767437 -1.3092983 -0.32053697 4293530880
3.168292 -1.3056985 -0.33679494 4293400320
3.177736 -1.3094738 -0.3545863 4293530880
3.1827197 -1.3114104 -0.37156162 4293530880
3.1814852 -1.3107848 -0.38741663 4293530880
3.1648543 -1.3038166 -0.40087649 4293530880
3.1825457 -1.3109878 -0.41823754 4293530880
3.1918559 -1.3147057 -0.43415433 4293530880
3.1984975 -1.3173238 -0.44929168 4293661440
3.2010257 -1.3182474 -0.46338424 4293661440
3.1943607 -1.3153852 -0.47560456 4293661440
3.161284 -1.3016487 -0.48319408 4293530880
3.1776695 -1.3082787 -0.49772471 4293530880
3.1779301 -1.3082691 -0.50922453 4293530880
3.1764975 -1.3075627 -0.51986635 4293530880
3.1813307 -1.3094354 -0.53094792 4293530880
3.1907091 -1.3131783 -0.54222178 4293661440
3.1829765 -1.3098788 -0.54996943 4293661440
3.1704266 -1.3045979 -0.55619437 4293530880
3.1824121 -1.3094128 -0.56607592 4293661440
3.1834993 -1.3097432 -0.57339424 4293661440
3.1735148 -1.3055189 -0.57803458 4293530880
3.1713057 -1.3044935 -0.58339441 4293530880
3.1660078 -1.3021979 -0.58749378 4293530880
3.1571803 -1.2984513 -0.59023213 4293530880
3.1662068 -1.3020474 -0.59561718 4293530880
3.1566663 -1.298008 -0.59681469 4293530880
3.1563454 -1.29776 -0.59904784 4293530880
3.1652427 -1.301302 -0.60233349 4293530880
3.1523893 -1.295902 -0.6007756 4293530880
3.1601481 -1.2989755 -0.60243911 4293530880
3.1684544 -1.3022734 -0.60350037 4293530880
3.170418 -1.302964 -0.60264456 4293530880
3.1658478 -1.3009695 -0.59984332 4293530880
3.1671441 -1.3013859 -0.59745347 4293530880
3.1738007 -1.3040045 -0.59536809 4293530880
3.1828156 -1.3075916 -0.59301108 4293661440
3.1780741 -1.305527 -0.58739465 4293661440
3.1854093 -1.3084233 -0.58332026 4293661440
3.1665678 -1.3005677 -0.57379705 4293530880
3.1751046 -1.3039575 -0.56858617 4293530880
3.1687553 -1.3012335 -0.56004661 4293530880
3.1665952 -1.3002303 -0.55161929 4293530880
3.1545889 -1.2951845 -0.54087782 4293530880
3.1431487 -1.2903721 -0.52967638 4293400320
3.1706758 -1.3015566 -0.52437961 4293530880
3.1830482 -1.3065186 -0.51584738 4293530880
3.2065558 -1.3160498 -0.50840551 4293661440
3.166115 -1.2993357 -0.49031079 4293530880
3.1424069 -1.2894909 -0.47448981 4293400320
3.1513267 -1.2930354 -0.46311221 4293400320
3.1661685 -1.299009 -0.45198199 4293530880
3.161607 -1.2970215 -0.43752897 4293400320
3.1765289 -1.3030264 -0.42523187 4293530880
3.1327827 -1.2849667 -0.40474048 4293400320
3.1532404 -1.293242 -0.39219654 4293400320
3.1728954 -1.3011867 -0.37891892 4293530880
3.1715858 -1.3005332 -0.36262503 4293530880
3.1659827 -1.2981194 -0.34547356 4293400320
3.1229494 -1.2803603 -0.32411399 4293269760
3.1412704 -1.2877563 -0.30889398 4293400320
3.1556346 -1.2935292 -0.29276502 4293400320
3.1452074 -1.2891394 -0.27399364 4293400320
3.1275868 -1.2818024 -0.25445586 4293269760
3.1496925 -1.2907467 -0.23784427 4293400320
3.1482081 -1.2900229 -0.21907152 4293400320
3.1492734 -1.2903438 -0.20024025 4293400320
3.1439791 -1.2880592 -0.18081295 4293269760
3.1325252 -1.2832518 -0.16093789 4293269760
3.1450384 -1.2882625 -0.14211291 4293269760
3.1496527 -1.290037 -0.12267135 4293269760
3.1326361 -1.2829524 -0.10233322 4293269760
3.1491699 -1.2896081 -0.082983449 4293269760
3.1645672 -1.2957975 -0.063312545 4293400320
3.1484609 -1.2890868 -0.042948402 4293269760
3.1531208 -1.2908791 -0.022894535 4293400320
3.1611059 -1.2940322 -0.0027599123 4293400320
3.1658223 -1.2958468 0.017461158 4293400320
3.1291847 -1.2807354 0.037231091 4293269760
3.1775594 -1.300418 0.058046129 4293400320
3.1983018 -1.3087895 0.078733087 4293530880
3.1782205 -1.3004555 0.098334305 4293400320
3.0815699 -1.2607952 0.11472489 4293139200
3.1907322 -1.3053409 0.13872746 4293530880
3.1885653 -1.3043375 0.15840763 4293530880
3.1546605 -1.2903525 0.17611694 4293400320
2.9315255 -1.1989759 0.18150364 4292486400
3.1871843 -1.3034219 0.2165174 4293530880
3.1975892 -1.3075598 0.23623449 4293530880
3.1587689 -1.2915696 0.25189066 4293400320
2.9494746 -1.2058843 0.25223979 4292616960
3.2173724 -1.3152957 0.29343492 4293661440
3.2146342 -1.3140584 0.31113133 4293661440
3.1980221 -1.3071506 0.32703537 4293530880
3.0825 -1.2598193 0.33175251 4293139200
2.8673034 -1.1717633 0.32362649 4292355840
3.218606 -1.3152099 0.37974983 4293661440
3.2019479 -1.3082856 0.39375064 4293530880
3.1724422 -1.2961135 0.40550524 4293530880
3.1230311 -1.275812 0.4138855 4293269760
3.0203609 -1.2337587 0.41404197 4292878080
3.2133954 -1.3124917 0.45464998 4293661440
3.202157 -1.3077841 0.46664461 4293661440
3.1942859 -1.3044524 0.47852141 4293530880
3.1732957 -1.2957643 0.48777506 4293530880
3.144932 -1.2840672 0.49515173 4293400320
3.0946012 -1.2634038 0.49821958 4293269760
3.1963553 -1.3048289 0.52536601 4293661440
3.1978011 -1.3053018 0.53576946 4293661440
3.1942585 -1.3037387 0.54471481 4293661440
3.1943727 -1.3036683 0.55364531 4293661440
3.1923847 -1.30274 0.56156683 4293661440
3.1698387 -1.2934232 0.56516278 4293530880
3.1779771 -1.2966276 0.57353795 4293530880
3.1736767 -1.2947568 0.57901102 4293530880
3.1565762 -1.2876647 0.5814364 4293530880
3.1732037 -1.2943313 0.58939242 4293530880
3.1493526 -1.2844871 0.58913606 4293530880
3.1488476 -1.2841657 0.59252656 4293530880
3.1484487 -1.2838876 0.59524322 4293530880
3.1609259 -1.2888598 0.59970576 4293530880
3.1570959 -1.2871826 0.60037887 4293530880
3.1433458 -1.2814612 0.59845763 4293530880
3.1479456 -1.2832212 0.59932607 4293530880
3.1539979 -1.2855728 0.59976757 4293530880
3.1633811 -1.2892815 0.60013455 4293530880
3.1581407 -1.28703 0.59702402 4293530880
3.1793466 -1.2955556 0.59819919 4293661440
3.1749253 -1.2936376 0.59383923 4293530880
3.1838207 -1.2971455 0.59126955 4293661440
3.1859922 -1.2979136 0.58674628 4293661440
3.186821 -1.2981344 0.58128726 4293661440
3.194325 -1.301074 0.57635331 4293661440
3.186013 -1.2975718 0.56789958 4293661440
3.1826794 -1.2960976 0.55970097 4293530880
3.1847665 -1.2968309 0.55181044 4293530880
3.1685588 -1.2901151 0.54015273 4293530880
3.1724458 -1.2915816 0.53133178 4293530880
3.1930451 -1.2998511 0.5246219 4293661440
3.1958871 -1.300891 0.51431763 4293661440
3.1966088 -1.3010676 0.50307161 4293661440
3.1533737 -1.2826015 0.4109661 4293400320
3.1786671 -1.292773 0.39909565 4293530880
3.200794 -1.3016548 0.38615239 4293530880
3.1841712 -1.2947783 0.36807925 4293530880
3.1518507 -1.2815205 0.3480337 4293400320
3.1649013 -1.2867109 0.33271065 4293400320
3.1850915 -1.2948028 0.31759217 4293530880
3.1636527 -1.2859715 0.29798192 4293400320
3.1354868 -1.274408 0.27768746 4293269760
3.1559365 -1.282604 0.26143551 4293400320
3.163903 -1.2857258 0.24370021 4293400320
3.1738634 -1.2896575 0.22574754 4293400320
3.1450911 -1.277851 0.20490736 4293269760
3.1723695 -1.2888181 0.18750337 4293400320
3.177547 -1.2908052 0.16839327 4293400320
3.1708145 -1.2879542 0.14847967 4293400320
3.1348605 -1.2732354 0.12730248 4293269760
3.1568768 -1.2820618 0.10842784 4293400320
3.1528182 -1.2802982 0.088428624 4293269760
3.1541643 -1.2807294 0.068503074 4293269760
3.131058 -1.2712326 0.048111327 4293269760
3.1392574 -1.2744468 0.028243802 4293269760
3.1610992 -1.2831982 0.0082775448 4293400320
3.1245706 -1.2682557 -0.011756191 4293269760
3.1333337 -1.271698 -0.031769946 4293269760
3.1445303 -1.2761272 -0.051900778 4293269760
3.1448092 -1.2761253 -0.071867965 4293269760
3.1231432 -1.2672192 -0.091120377 4293269760
3.1525826 -1.2790489 -0.11181314 4293269760
3.1695638 -1.2858224 -0.13223405 4293400320
3.1703918 -1.2860423 -0.15194878 4293400320
3.1243014 -1.2672319 -0.16897112 4293269760
3.1571417 -1.2804366 -0.18999487 4293400320
3.1568892 -1.2802187 -0.20901881 4293400320
3.1624451 -1.2823561 -0.22823077 4293400320
3.1377928 -1.2722449 -0.24490131 4293269760
3.1748805 -1.2871664 -0.26619229 4293400320
3.1865118 -1.2917653 -0.28533795 4293530880
3.1864557 -1.2916261 -0.30318928 4293530880
3.1760597 -1.2872958 -0.31966496 4293400320
3.1666687 -1.2833738 -0.33578077 4293400320
3.1761391 -1.2870958 -0.35352385 4293400320
3.1857462 -1.2908723 -0.37098879 4293530880
3.1854312 -1.2906283 -0.38693297 4293530880
3.1724439 -1.2852502 -0.40084076 4293530880
3.1855769 -1.2904543 -0.41759884 4293530880
3.194911 -1.2941186 -0.43349516 4293530880
3.206166 -1.2985603 -0.44925681 4293661440
3.2086997 -1.2994691 -0.46334994 4293661440
3.2018166 -1.2965645 -0.47554114 4293661440
3.1642725 -1.2812455 -0.48246202 4293530880
3.1632693 -1.2807236 -0.4942531 4293530880
3.1763768 -1.2859143 -0.50772822 4293530880
3.1841092 -1.2889283 -0.51983678 4293530880
3.1889532 -1.2907724 -0.53091949 4293530880
3.1937747 -1.2926073 -0.54141843 4293661440
3.1906013 -1.2912062 -0.54994369 4293661440
3.1825957 -1.2878501 -0.55697083 4293530880
3.1854606 -1.2888929 -0.56524163 4293530880
3.1783211 -1.285888 -0.57107306 4293530880
3.1765428 -1.2850524 -0.57718486 4293530880
3.1706729 -1.2825619 -0.58186764 4293530880
3.1653771 -1.280304 -0.58595872 4293530880
3.1615336 -1.2786337 -0.58962137 4293530880
3.1564305 -1.2764546 -0.59234929 4293530880
3.1398213 -1.269623 -0.59220392 4293400320
3.1477191 -1.2727015 -0.59597802 4293530880
3.1347241 -1.2673328 -0.59509802 4293400320
3.155364 -1.2755619 -0.59990573 4293530880
3.1508081 -1.273605 -0.59922606 4293530880
3.1723921 -1.2822137 -0.60281211 4293530880
3.1643007 -1.2788275 -0.60005301 4293530880
3.1779816 -1.2842406 -0.60071504 4293530880
3.182934 -1.2861255 -0.59901184 4293661440
3.181385 -1.2853833 -0.59538233 4293530880
3.1817412 -1.285411 -0.59141505 4293530880
3.1856666 -1.2868804 -0.58741486 4293661440
3.1838763 -1.2860408 -0.58167338 4293530880
3.1915054 -1.2890058 -0.57696432 4293661440
3.1781127 -1.2834805 -0.56779832 4293530880
3.176321 -1.2826409 -0.56007904 4293530880
3.1617143 -1.2766269 -0.54949278 4293530880
3.149297 -1.2714981 -0.53872317 4293400320
3.15065 -1.2719293 -0.52971804 4293400320
3.1690755 -1.2792519 -0.52291244 4293530880
3.1860573 -1.2859906 -0.51515466 4293530880
3.1967728 -1.2901988 -0.50570023 4293530880
3.1608157 -1.2755713 -0.48838007 4293400320
3.1499019 -1.2710518 -0.47454759 4293400320
3.1506855 -1.271253 -0.46197745 4293400320
3.1691213 -1.2785757 -0.45139194 4293530880
3.1737442 -1.2803249 -0.43823183 4293530880
3.1786594 -1.2821916 -0.42457628 4293530880
3.131963 -1.2632411 -0.40374556 4293269760
3.1524642 -1.2713948 -0.39124447 4293400320
3.1629429 -1.2755054 -0.37691242 4293400320
3.1745324 -1.2800632 -0.36218253 4293400320
3.1689134 -1.2776816 -0.34505764 4293400320
3.1303906 -1.2620353 -0.32420218 4293269760
3.147095 -1.2686547 -0.30882263 4293400320
3.1502156 -1.2697977 -0.29166198 4293400320
3.1443796 -1.2673305 -0.2733674 4293269760
3.1304128 -1.2615869 -0.25417957 4293269760
3.1433165 -1.2666724 -0.23690073 4293269760
3.1473765 -1.2681935 -0.21859781 4293269760
3.1579421 -1.2723354 -0.20042162 4293400320
3.1514676 -1.2696118 -0.18092231 4293269760
3.1399863 -1.2648717 -0.16104901 4293269760
3.1497455 -1.2686881 -0.14210096 4293269760
3.1441762 -1.26633 -0.12228236 4293269760
3.1350801 -1.262552 -0.10228647 4293269760
3.1520333 -1.2692642 -0.082980633 4293269760
3.1591194 -1.2720025 -0.0631743 4293269760
3.1513214 -1.2687474 -0.043007355 4293269760
3.1513538 -1.2686455 -0.022950722 4293269760
3.1719642 -1.2768269 -0.0028881808 4293400320
3.1752291 -1.2780252 0.017344898 4293400320
3.1282885 -1.2590175 0.037006453 4293269760
3.185127 -1.2817765 0.057917565 4293400320
3.1910825 -1.2840567 0.078239329 4293400320
3.1857898 -1.2818106 0.098204702 4293400320
3.0805645 -1.2393606 0.11428938 4293008640
3.1983314 -1.2866234 0.13859697 4293530880
3.1999388 -1.2871531 0.15846446 4293530880
3.1700556 -1.2750171 0.17642687 4293400320
2.933876 -1.1799171 0.18109852 4292486400
3.1994047 -1.2865881 0.21670192 4293530880
3.1968737 -1.2854536 0.23549208 4293530880
3.1533375 -1.2678328 0.25073436 4293400320
2.9389248 -1.1815186 0.2506243 4292616960
3.2167134 -1.2930789 0.29255196 4293530880
3.2176688 -1.2933455 0.31056073 4293530880
3.1964002 -1.2846799 0.32597101 4293530880
3.0898399 -1.241739 0.33163637 4293139200
2.8602877 -1.1493827 0.32196206 4292355840
3.2133555 -1.2911428 0.37811324 4293530880
3.2049615 -1.2876531 0.3930712 4293530880
3.1703253 -1.2736217 0.40416208 4293400320
3.1396761 -1.2611942 0.4149968 4293400320
3.0146625 -1.2108669 0.41217998 4292878080
3.2035618 -1.2866231 0.4520798 4293530880
3.2155354 -1.2913147 0.46738195 4293661440
3.2027135 -1.2860488 0.47854897 4293530880
3.1670651 -1.2716187 0.48557046 4293530880
3.1524141 -1.2656211 0.49506456 4293400320
3.1065519 -1.2470952 0.4988746 4293269760
3.1993704 -1.2842395 0.52453333 4293661440
3.1983085 -1.2836965 0.53450698 4293661440
3.2018538 -1.2850028 0.54464287 4293661440
3.1928036 -1.2812542 0.55199367 4293530880
3.1999731 -1.2840146 0.56150419 4293661440
3.1943188 -1.2816292 0.56811935 4293661440
3.1937673 -1.2812915 0.57496852 4293661440
3.176641 -1.2743047 0.57813078 4293530880
3.1686487 -1.2709831 0.58223486 4293530880
3.1725075 -1.2724152 0.58783001 4293530880
3.1568305 -1.2660124 0.58910465 4293530880
3.1563227 -1.2656937 0.59250063 4293530880
3.1559212 -1.2654176 0.59522295 4293530880
3.155628 -1.265185 0.5972687 4293530880
3.1463032 -1.2613317 0.59690154 4293400320
3.1508014 -1.26302 0.59845465 4293530880
3.1786933 -1.2740848 0.60375124 4293530880
3.1706171 -1.270732 0.60151082 4293530880
3.1689098 -1.2699323 0.59977686 4293530880
3.1656246 -1.2685003 0.59704518 4293530880
3.1823068 -1.2750691 0.59736842 4293530880
3.182446 -1.2750088 0.59387302 4293530880
3.192183 -1.2787935 0.59146214 4293661440
3.1889603 -1.2773862 0.58595216 4293661440
3.1910956 -1.278125 0.58074522 4293661440
3.1973066 -1.2804964 0.57558858 4293661440
3.2018666 -1.2822058 0.56944406 4293661440
3.1984553 -1.2807231 0.56121993 4293661440
3.195966 -1.2796098 0.55252272 4293661440
3.1668818 -1.2678497 0.53867716 4293530880
3.1799469 -1.2729642 0.53142244 4293530880
3.1918728 -1.277622 0.52328968 4293530880
3.2026024 -1.2818 0.51428682 4293661440
3.1995695 -1.2804694 0.50246024 4293530880
3.1607077 -1.264421 0.4109661 4293400320
3.181448 -1.2726022 0.39851642 4293530880
3.2082369 -1.283201 0.38614899 4293530880
3.186959 -1.2745743 0.36754167 4293530880
3.1721108 -1.2685204 0.34945127 4293400320
3.1630177 -1.264769 0.33173236 4293400320
3.1832502 -1.272743 0.31666124 4293400320
3.1756318 -1.2695813 0.29840332 4293400320
3.1559341 -1.2615914 0.27883485 4293400320
3.1632714 -1.2644093 0.26141793 4293400320
3.1758871 -1.2693362 0.24403618 4293400320
3.1728997 -1.2680266 0.22513357 4293400320
3.1477644 -1.2578669 0.20458177 4293269760
3.1751039 -1.2686762 0.18720306 4293400320
3.1802914 -1.2706331 0.16811873 4293400320
3.1828189 -1.2715269 0.14866464 4293400320
3.13379 -1.2518259 0.12693048 4293269760
3.1671817 -1.2650492 0.10849337 4293400320
3.1677551 -1.2651628 0.088603012 4293400320
3.1661305 -1.2643987 0.068562642 4293400320
3.1383274 -1.2531811 0.048068374 4293269760
3.1502597 -1.2578311 0.028231774 4293269760
3.1554344 -1.2597823 0.0081959162 4293269760
3.1183543 -1.2448648 -0.011754872 4293139200
3.1322463 -1.2502965 -0.031736936 4293269760
3.1471832 -1.2561442 -0.051878132 4293269760
3.1568627 -1.2598927 -0.072032385 4293269760
3.1257453 -1.24736 -0.091042496 4293139200
3.1459699 -1.2553163 -0.11137982 4293269760
3.1722729 -1.2656963 -0.13210249 4293400320
3.1731031 -1.2659118 -0.15179014 4293400320
3.1315444 -1.249218 -0.16903496 4293269760
3.1551857 -1.258534 -0.18950376 4293269760
3.1604972 -1.2605375 -0.20884088 4293400320
3.1605053 -1.2604257 -0.22763163 4293400320
3.1450627 -1.2541525 -0.24497011 4293269760
3.1729743 -1.2651672 -0.26548788 4293400320
3.1892636 -1.2715462 -0.28499576 4293400320
3.1892085 -1.2714082 -0.30282193 4293530880
3.1861079 -1.270056 -0.32000765 4293400320
3.1656799 -1.2617978 -0.3349725 4293400320
3.1881118 -1.2706227 -0.35410944 4293530880
3.1801896 -1.2673495 -0.36955872 4293400320
3.1835721 -1.2685816 -0.38588628 4293530880
3.1705582 -1.2632805 -0.39974892 4293400320
3.1929471 -1.272085 -0.41766998 4293530880
3.1976936 -1.2738595 -0.43294168 4293530880
3.2069464 -1.2774289 -0.44839868 4293530880
3.212358 -1.2794675 -0.46287626 4293661440
3.2046196 -1.2762687 -0.4749262 4293530880
3.1669903 -1.2611672 -0.4818269 4293400320
3.1788588 -1.2657778 -0.49560612 4293530880
3.1807771 -1.2664258 -0.50731987 4293530880
3.1960638 -1.272396 -0.52064413 4293530880
3.1999981 -1.2738458 -0.53158653 4293661440
3.1919792 -1.2705375 -0.53992027 4293530880
3.1888015 -1.2691566 -0.54841733 4293530880
3.1899519 -1.2694983 -0.55701929 4293530880
3.1836548 -1.2668765 -0.56366378 4293530880
3.1838222 -1.2668272 -0.57078427 4293530880
3.1838844 -1.266736 -0.57722324 4293530880
3.1734207 -1.2624575 -0.58106363 4293530880
3.1598713 -1.2569523 -0.58362138 4293530880
3.1642621 -1.2585837 -0.58879614 4293530880
3.159148 -1.2564347 -0.59151465 4293530880
3.1470778 -1.2515197 -0.5922218 4293400320
3.1504176 -1.2527332 -0.59512699 4293400320
3.1465447 -1.2510787 -0.59597343 4293400320
3.1626568 -1.2573699 -0.5999096 4293530880
3.1672418 -1.2590775 -0.60096139 4293530880
3.1751485 -1.2621051 -0.60193831 4293530880
3.1662154 -1.2584392 -0.59901994 4293530880
3.1761737 -1.2622817 -0.59897166 4293530880
3.1866295 -1.2663211 -0.59830147 4293530880
3.1841607 -1.2652242 -0.59449905 4293530880
3.1936755 -1.2688887 -0.59222984 4293661440
3.1930308 -1.2685164 -0.58737445 4293661440
3.1829898 -1.2644116 -0.58012396 4293530880
3.1860514 -1.2655119 -0.57459742 4293530880
3.1762912 -1.2615196 -0.56610554 4293530880
3.1790783 -1.2625109 -0.55920744 4293530880
3.165354 -1.2569454 -0.54878557 4293530880
3.1602499 -1.2548037 -0.53927279 4293400320
3.161608 -1.2552279 -0.53025079 4293400320
3.1731048 -1.2596771 -0.52227932 4293530880
3.1888278 -1.2658029 -0.51431614 4293530880
3.1949675 -1.2681239 -0.50414491 4293530880
3.1635232 -1.2555281 -0.48756155 4293400320
3.1525815 -1.2510709 -0.47374037 4293400320
3.14047 -1.2461504 -0.45929611 4293400320
3.1635463 -1.2551922 -0.44942993 4293400320
3.1718609 -1.2583758 -0.43682626 4293400320
3.1684797 -1.2569191 -0.4220989 4293400320
3.134124 -1.2431766 -0.4029462 4293269760
3.149672 -1.2492292 -0.3898434 4293400320
3.1726956 -1.2582455 -0.37704244 4293400320
3.1848288 -1.2629416 -0.3623524 4293400320
3.1766958 -1.259601 -0.344935 4293400320
3.1319554 -1.2417469 -0.32344058 4293269760
3.149735 -1.2486817 -0.30818674 4293269760
3.1604576 -1.2528176 -0.29174712 4293400320
3.1558087 -1.2508601 -0.27353492 4293269760
3.1330047 -1.2417074 -0.25360623 4293269760
3.1483874 -1.2476896 -0.23653257 4293269760
3.1580715 -1.2514125 -0.21862616 4293269760
3.1652284 -1.2541335 -0.20020697 4293400320
3.1448116 -1.2459296 -0.17990692 4293269760
3.1435132 -1.245301 -0.16063693 4293269760
3.1467931 -1.2464859 -0.14141485 4293269760
3.1579399 -1.2507865 -0.12230417 4293269760
3.1343231 -1.2413186 -0.10179374 4293269760
3.1546483 -1.2492535 -0.082620747 4293269760
3.16593 -1.2536061 -0.062923178 4293269760
3.1455624 -1.2454268 -0.042586982 4293269760
3.1586087 -1.2504774 -0.022703944 4293269760
3.1696863 -1.2547479 -0.002629485 4293400320
3.1732371 -1.2560381 0.017546566 4293400320
3.1308353 -1.2391409 0.037202306 4293139200
3.1970999 -1.2652513 0.058259409 4293400320
3.2030666 -1.2674961 0.078612201 4293400320
3.1838167 -1.2597631 0.098177306 4293400320
3.0829959 -1.2197585 0.11436818 4293008640
3.195127 -1.2640061 0.13840094 4293400320
3.1979978 -1.2650256 0.15826574 4293400320
3.1726897 -1.2548993 0.17642677 4293400320
2.9359674 -1.1611614 0.18105039 4292486400
3.1974647 -1.2644662 0.21633251 4293400320
3.2033517 -1.2666779 0.23568596 4293530880
3.1777327 -1.2564322 0.25234884 4293400320
2.9493713 -1.166034 0.25117242 4292616960
3.2194533 -1.272694 0.2923829 4293530880
3.2250426 -1.2747864 0.31080958 4293530880
3.2037239 -1.2662432 0.32621494 4293530880
3.1052468 -1.2272083 0.33276114 4293139200
2.9695854 -1.1734864 0.33372012 4292616960
3.2198699 -1.2722739 0.3782472 4293530880
3.205148 -1.2663404 0.39242336 4293530880
3.177583 -1.2553341 0.40438235 4293400320
3.1330154 -1.2376136 0.41338256 4293269760
3.0215621 -1.1934772 0.41237885 4292878080
3.2190783 -1.2713766 0.45343798 4293661440
3.2192063 -1.2713102 0.46704647 4293661440
3.20175 -1.2643002 0.47750416 4293530880
3.1906257 -1.2597916 0.48824954 4293530880
3.1458204 -1.2419864 0.49307489 4293400320
3.1090593 -1.22736 0.49830154 4293269760
3.2154248 -1.269233 0.5261234 4293661440
3.2056258 -1.2652487 0.53465939 4293661440
3.2045856 -1.2647216 0.54400682 4293661440
3.191843 -1.2595768 0.55070186 4293530880
3.1981144 -1.2619355 0.56002176 4293530880
3.2016284 -1.263206 0.5682348 4293661440
3.1974065 -1.2614241 0.57441473 4293661440
3.1756566 -1.2527281 0.57672644 4293530880
3.1667318 -1.2490925 0.58063781 4293530880
3.1834376 -1.2555664 0.58858186 4293530880
3.182822 -1.255208 0.59266126 4293530880
3.154386 -1.2438792 0.59083575 4293400320
3.1585677 -1.2454135 0.59440124 4293530880
3.1536939 -1.2433773 0.59556752 4293400320
3.1535118 -1.2431911 0.59691912 4293400320
3.1534405 -1.2430485 0.59759247 4293400320
3.1731517 -1.2507033 0.60131454 4293530880
3.1687226 -1.2488426 0.59975851 4293530880
3.1725099 -1.2502201 0.59905452 4293530880
3.172884 -1.2502522 0.59700274 4293530880
3.1850228 -1.2549199 0.5964551 4293530880
3.1714115 -1.2494419 0.59039211 4293530880
3.1912546 -1.2571436 0.58985627 4293530880
3.1943638 -1.2582525 0.58550817 4293530880
3.2020893 -1.2611793 0.58130556 4293661440
3.2048473 -1.2621493 0.57550591 4293661440
3.2009552 -1.2605004 0.5678466 4293661440
3.2010937 -1.2604388 0.56025195 4293661440
3.1858494 -1.2543206 0.54935569 4293530880
3.1782365 -1.2512081 0.5392015 4293530880
3.1893296 -1.2554594 0.5315876 4293530880
3.1992047 -1.2592307 0.52309513 4293530880
3.2099597 -1.2633474 0.51407915 4293661440
3.205621 -1.2615236 0.50203705 4293530880
3.1553733 -1.240762 0.40931445 4293400320
3.1843519 -1.2520416 0.39795047 4293400320
3.2111201 -1.2624499 0.38559705 4293530880
3.194416 -1.2557669 0.36754689 4293530880
3.1665702 -1.2447054 0.3480337 4293400320
3.1824622 -1.2508368 0.33300176 4293400320
3.1869888 -1.2525004 0.31630445 4293400320
3.1737871 -1.2471969 0.29754728 4293400320
3.1373413 -1.2327611 0.2765606 4293269760
3.1698208 -1.2454084 0.26136562 4293400320
3.1740286 -1.2469465 0.24334432 4293400320
3.1849613 -1.2511259 0.22548454 4293400320
3.1411865 -1.2338164 0.20370236 4293269760
3.1685846 -1.2444631 0.18640983 4293400320
3.1784277 -1.2482136 0.16765767 4293400320
3.1828146 -1.2498211 0.14834949 4293400320
3.1413171 -1.233412 0.12697235 4293269760
3.1559751 -1.2390529 0.10789359 4293269760
3.1658514 -1.2428156 0.088381946 4293269760
3.1604981 -1.2405995 0.06832201 4293269760
3.1438005 -1.2339312 0.048082907 4293269760
3.1399326 -1.2322992 0.028118765 4293269760
3.1507006 -1.236411 0.0082120271 4293269760
3.1121414 -1.2211666 -0.01165509 4293139200
3.1442163 -1.2336384 -0.031732369 4293269760
3.15081 -1.2361113 -0.051763151 4293269760
3.1548126 -1.2375671 -0.071762115 4293269760
3.1238115 -1.2252928 -0.090717107 4293139200
3.152575 -1.2364608 -0.11129425 4293269760
3.1742878 -1.2448617 -0.13181697 4293400320
3.1721418 -1.2439051 -0.15132762 4293400320
3.1340919 -1.2288707 -0.16871464 4293269760
3.1495388 -1.2348133 -0.18865854 4293269760
3.1585834 -1.2382449 -0.20816141 4293269760
3.1678841 -1.2417762 -0.22756347 4293400320
3.1383607 -1.2300897 -0.24381024 4293269760
3.1828365 -1.2474067 -0.2656225 4293400320
3.1837184 -1.247637 -0.28376663 4293400320
3.1966531 -1.2525899 -0.30275005 4293530880
3.1862094 -1.2483822 -0.31920058 4293400320
3.1718631 -1.2426463 -0.3347733 4293400320
3.1804047 -1.2458773 -0.35235864 4293400320
3.1876118 -1.2485851 -0.36948651 4293400320
3.1863754 -1.2479854 -0.38525489 4293400320
3.1742578 -1.2431244 -0.39921242 4293400320
3.1874571 -1.248178 -0.41591027 4293530880
3.2097743 -1.256801 -0.43349516 4293530880
3.2144289 -1.258507 -0.44832909 4293530880
3.206008 -1.2550939 -0.46081784 4293530880
3.2167079 -1.2591662 -0.47554114 4293661440
3.1660793 -1.2392331 -0.48050293 4293400320
3.1700625 -1.2406774 -0.49302197 4293400320
3.1799045 -1.2444141 -0.50593966 4293530880
3.1867559 -1.2469798 -0.51786119 4293530880
3.19117 -1.2485915 -0.52883017 4293530880
3.1956608 -1.2502328 -0.5392316 4293530880
3.1880722 -1.2471485 -0.54696554 4293530880
3.2010639 -1.2521147 -0.55761135 4293530880
3.1853206 -1.2458413 -0.5626024 4293530880
3.1866474 -1.2462448 -0.56992084 4293530880
3.1778882 -1.242704 -0.57475889 4293530880
3.1716311 -1.2401423 -0.5793519 4293530880
3.1800814 -1.2433313 -0.58595872 4293530880
3.1624525 -1.2363243 -0.58706588 4293530880
3.145658 -1.2296449 -0.58759862 4293400320
3.1498156 -1.231156 -0.59134269 4293400320
3.149493 -1.2309158 -0.5935576 4293400320
3.1492794 -1.2307183 -0.59509802 4293400320
3.1445899 -1.2287718 -0.59509444 4293400320
3.1654353 -1.2368027 -0.59922606 4293530880
3.1696892 -1.23835 -0.59951562 4293530880
3.1781631 -1.2415456 -0.59989733 4293530880
3.1793308 -1.2418865 -0.59819376 4293530880
3.1830115 -1.243209 -0.59625942 4293530880
3.1812239 -1.2423956 -0.59260231 4293530880
3.1836526 -1.2432288 -0.5890373 4293530880
3.1968873 -1.2482812 -0.58676165 4293530880
3.1940539 -1.2470593 -0.58083826 4293530880
3.1808622 -1.2417938 -0.57238519 4293530880
3.1945045 -1.2470039 -0.56809199 4293530880
3.1689875 -1.2369285 -0.55620641 4293530880
3.1589017 -1.2328774 -0.54646987 4293400320
3.1500986 -1.2293276 -0.53637326 4293400320
3.1606555 -1.233333 -0.52894783 4293400320
3.1804619 -1.2409467 -0.52236956 4293530880
3.1962199 -1.2469794 -0.5144133 4293530880
3.2115903 -1.2528597 -0.50570023 4293530880
3.1754653 -1.2386522 -0.48838007 4293400320
3.1469684 -1.2274225 -0.47191864 4293400320
3.1513233 -1.2290071 -0.45993969 4293400320
3.1645961 -1.2340689 -0.44866854 4293400320
3.1779542 -1.239163 -0.43678951 4293400320
3.1804402 -1.2400172 -0.4228552 4293400320
3.1367555 -1.2228715 -0.40249896 4293269760
3.1569643 -1.2306358 -0.38999662 4293400320
3.1661491 -1.2341015 -0.37555519 4293400320
3.1745965 -1.2372793 -0.3605203 4293400320
3.1794138 -1.2390417 -0.34460533 4293400320
3.134567 -1.2214512 -0.32313856 4293269760
3.1440339 -1.2250264 -0.30710053 4293269760
3.1492047 -1.2269272 -0.29022491 4293269760
3.1538246 -1.2286129 -0.27292523 4293269760
3.1346836 -1.2210429 -0.25335374 4293269760
3.1519556 -1.2276567 -0.23645753 4293269760
3.1514318 -1.2273388 -0.21787128 4293269760
3.1548796 -1.2285674 -0.19930506 4293269760
3.1483681 -1.2259177 -0.179912 4293269760
3.1414812 -1.2231224 -0.16038372 4293269760
3.1512806 -1.2268238 -0.1415156 4293269760
3.1633754 -1.231418 -0.12246262 4293269760
3.1356077 -1.2204953 -0.10183271 4293139200
3.1518929 -1.2267201 -0.082594976 4293269760
3.1686013 -1.2331084 -0.063072264 4293269760
3.1481867 -1.2250499 -0.042766836 4293269760
3.1612635 -1.2300241 -0.022916943 4293269760
3.1735802 -1.2347016 -0.0028763553 4293269760
3.1787109 -1.2365828 0.017284025 4293400320
3.1241088 -1.2152284 0.036786981 4293139200
3.1858692 -1.2391371 0.057664566 4293400320
3.20117 -1.2449725 0.078125633 4293400320
3.1874673 -1.2395281 0.097804494 4293400320
3.0854828 -1.1997572 0.11394539 4293008640
3.1907563 -1.2405763 0.13763288 4293400320
3.2016857 -1.2447098 0.15782192 4293400320
3.1753898 -1.234372 0.17591122 4293400320
2.9343987 -1.1405852 0.18029808 4292486400
3.2002263 -1.2437953 0.21576115 4293400320
3.1976871 -1.2426928 0.23446928 4293400320
3.1632495 -1.2291951 0.25036648 4293269760
2.9432013 -1.143581 0.24983552 4292486400
3.2247312 -1.2528529 0.29193348 4293530880
3.2221937 -1.2517506 0.30956849 4293530880
3.2074413 -1.2459036 0.32559422 4293530880
3.0855486 -1.1984439 0.32965437 4293008640
2.9634924 -1.1509295 0.33204678 4292616960
3.2189968 -1.2500432 0.37703729 4293530880
3.2125807 -1.2474353 0.39219609 4293530880
3.1849515 -1.2365919 0.40416208 4293400320
3.136579 -1.2176974 0.41268373 4293269760
3.0156207 -1.1706294 0.41041788 4292878080
3.2219198 -1.2505958 0.45258307 4293661440
3.2128108 -1.2469441 0.4648422 4293530880
3.2137885 -1.2472073 0.4779996 4293530880
3.1980202 -1.2409724 0.48806605 4293530880
3.1775298 -1.2329063 0.4967187 4293400320
3.1116521 -1.2072328 0.49740061 4293269760
3.2099693 -1.2452611 0.52385622 4293530880
3.2084434 -1.2445532 0.53374064 4293530880
3.2092547 -1.2447518 0.54339743 4293661440
3.2080746 -1.2441782 0.55208957 4293661440
3.1926329 -1.2380741 0.55764657 4293530880
3.1915581 -1.2375419 0.56502503 4293530880
3.1910083 -1.2372135 0.57183737 4293530880
3.1738067 -1.2304294 0.57496631 4293530880
3.1904552 -1.2367684 0.58355385 4293530880
3.1825247 -1.2335792 0.58698261 4293530880
3.1819069 -1.2332247 0.59106219 4293530880
3.1616714 -1.2252678 0.59078419 4293400320
3.161268 -1.2249972 0.59349859 4293400320
3.1609728 -1.2247685 0.59553844 4293400320
3.1607878 -1.2245827 0.59690154 4293400320
3.188695 -1.2352794 0.6028769 4293530880
3.1804676 -1.2319775 0.60132051 4293530880
3.1668422 -1.226585 0.59804219 4293530880
3.1798191 -1.2314965 0.59908468 4293530880
3.1918724 -1.2360492 0.59923816 4293530880
3.2001708 -1.2391471 0.59797043 4293530880
3.2099376 -1.2428129 0.59626001 4293661440
3.1985962 -1.2383063 0.58993655 4293530880
3.2017102 -1.2393962 0.58560115 4293530880
3.1965773 -1.2372937 0.57907939 4293530880
3.2076137 -1.2414497 0.57480055 4293661440
3.2119899 -1.2430274 0.56862956 4293661440
3.1946385 -1.2361971 0.55798447 4293530880
3.18856 -1.2337297 0.54871947 4293530880
3.1855316 -1.232443 0.53936976 4293530880
3.1828239 -1.2312804 0.52946931 4293530880
3.2103043 -1.2417953 0.52390331 4293530880
3.2077181 -1.2406791 0.5127517 4293530880
3.2000506 -1.2375978 0.50023693 4293530880
3.1625068 -1.2224654 0.40931445 4293400320
3.1776528 -1.2282053 0.39621678 4293400320
3.2007656 -1.2370231 0.38348517 4293530880
3.2016361 -1.2372439 0.36754426 4293530880
3.1607354 -1.2213242 0.34660557 4293269760
3.1720145 -1.2255679 0.33115566 4293400320
3.1941903 -1.2340206 0.3162989 4293400320
3.1856046 -1.2305887 0.2979753 4293400320
3.1525929 -1.2177225 0.277271 4293269760
3.1676805 -1.223436 0.26059169 4293269760
3.1774764 -1.2271045 0.2430497 4293400320
3.1698146 -1.2240313 0.22389545 4293269760
3.144556 -1.2141641 0.20344926 4293269760
3.172014 -1.2246516 0.18617773 4293269760
3.1772187 -1.2265463 0.16720174 4293400320
3.1844118 -1.2292082 0.14807376 4293400320
3.1390862 -1.2115989 0.12657961 4293139200
3.1630993 -1.2207531 0.10787552 4293269760
3.1653464 -1.2215061 0.088149592 4293269760
3.1676311 -1.2222733 0.068301581 4293269760
3.1471636 -1.2142621 0.048004523 4293269760
3.1494849 -1.215044 0.028118232 4293269760
3.1513624 -1.2156546 0.0081715733 4293269760
3.1186943 -1.2029402 -0.011677849 4293139200
3.141979 -1.2118082 -0.031664152 4293139200
3.1532519 -1.2160422 -0.051713523 4293269760
3.1667068 -1.2211168 -0.07189852 4293269760
3.1355188 -1.2089771 -0.090880811 4293139200
3.1596828 -1.2181801 -0.11132394 4293269760
3.1814437 -1.2264551 -0.13184771 4293400320
3.1830204 -1.226948 -0.15153666 4293400320
3.1411552 -1.2106971 -0.16874652 4293269760
3.1603627 -1.2179862 -0.188914 4293269760
3.175014 -1.2235181 -0.20880736 4293400320
3.1666417 -1.2201775 -0.22699688 4293269760
3.1454303 -1.2118908 -0.24384449 4293269760
3.1769807 -1.223932 -0.26457295 4293400320
3.1955385 -1.2309662 -0.28421569 4293400320
3.2038515 -1.2340529 -0.30278599 4293530880
3.1887376 -1.2281164 -0.31877217 4293400320
3.1697168 -1.2206763 -0.33383113 4293400320
3.1922052 -1.2292216 -0.35290784 4293400320
3.1982181 -1.2314216 -0.36991954 4293530880
3.1889095 -1.2277224 -0.38473141 4293400320
3.1814008 -1.2247168 -0.399248 4293400320
3.1980555 -1.2310129 -0.41639185 4293530880
3.207736 -1.2346234 -0.43228257 4293530880
3.2153695 -1.2374455 -0.44748843 4293530880
3.2048941 -1.2332984 -0.45965788 4293530880
3.2063758 -1.233753 -0.47298333 4293530880
3.1731994 -1.2208729 -0.48053512 4293400320
3.1805067 -1.2235695 -0.49356782 4293400320
3.1916709 -1.2277495 -0.50670302 4293530880
3.1902294 -1.2270799 -0.51729214 4293530880
3.1891201 -1.2265382 -0.52733326 4293530880
3.1945462 -1.2285099 -0.53786153 4293530880
3.1952384 -1.2286608 -0.54699117 4293530880
3.1905513 -1.2267435 -0.55455786 4293530880
3.1924796 -1.2273698 -0.56262499 4293530880
3.1938088 -1.2277657 -0.56994176 4293530880
3.1850295 -1.2242758 -0.57477802 4293530880
3.1741569 -1.2199821 -0.57853055 4293530880
3.157321 -1.2133974 -0.58047581 4293400320
3.1741571 -1.2197533 -0.58793098 4293530880
3.161922 -1.2149377 -0.58932376 4293400320
3.147697 -1.2093583 -0.58962917 4293400320
3.1611655 -1.214419 -0.59442872 4293400320
3.1517572 -1.2106911 -0.59423566 4293400320
3.1516538 -1.2105377 -0.59509635 4293400320
3.1633525 -1.2149171 -0.59748906 4293400320
3.1597943 -1.2134366 -0.59630156 4293400320
3.1853018 -1.2231172 -0.59989154 4293530880
3.1864717 -1.2234516 -0.59818524 4293530880
3.1901608 -1.224753 -0.59624803 4293530880
3.1929679 -1.2257156 -0.59344292 4293530880
3.1954026 -1.2265352 -0.58986938 4293530880
3.1773796 -1.2195026 -0.58185446 4293530880
3.1975451 -1.227127 -0.58014709 4293530880
3.1880052 -1.223351 -0.57235909 4293530880
3.1841776 -1.2217674 -0.56495762 4293530880
3.1668894 -1.2150198 -0.55456066 4293400320
3.1706038 -1.2163305 -0.54723006 4293400320
3.166393 -1.2146012 -0.53790146 4293400320
3.153914 -1.2097006 -0.52659577 4293400320
3.1746812 -1.2175516 -0.52020717 4293400320
3.1904683 -1.2234913 -0.51228899 4293530880
3.2027667 -1.2280921 -0.50312942 4293530880
3.1733506 -1.2166983 -0.48690715 4293400320
3.148556 -1.2070782 -0.47104192 4293269760
3.1537704 -1.2089638 -0.45920536 4293400320
3.1716986 -1.215722 -0.44860435 4293400320
3.1758242 -1.2171888 -0.43545187 4293400320
3.1779296 -1.2178813 -0.42150471 4293400320
3.1400852 -1.2032651 -0.40195119 4293269760
3.1640475 -1.2123332 -0.38992003 4293400320
3.1732523 -1.2157458 -0.37547532 4293400320
3.1817179 -1.2188746 -0.36043718 4293400320
3.1818995 -1.2188295 -0.34401685 4293400320
3.1332307 -1.2000741 -0.3221904 4293269760
3.1548045 -1.2082235 -0.307372 4293269760
3.1562657 -1.2086694 -0.290131 4293269760
3.1562407 -1.2085462 -0.27242678 4293269760
3.1389132 -1.2017982 -0.25302956 4293269760
3.1518981 -1.2066562 -0.23582286 4293269760
3.1547661 -1.2076405 -0.21751 4293269760
3.1572866 -1.2084917 -0.19890468 4293269760
3.1638148 -1.2108765 -0.18028153 4293269760
3.1485176 -1.2049084 -0.16027306 4293269760
3.1564748 -1.2078398 -0.14131913 4293269760
3.15927 -1.2087958 -0.12191543 4293269760
3.151963 -1.2058864 -0.10201865 4293269760
3.1589479 -1.208445 -0.082476459 4293269760
3.1756923 -1.2147361 -0.062951542 4293269760
3.1412215 -1.2014376 -0.042456105 4293139200
3.1645997 -1.210265 -0.022766866 4293269760
3.1841331 -1.2176207 -0.002754489 4293400320
3.1746225 -1.2138697 0.017348927 4293269760
3.1273577 -1.1956844 0.036867734 4293139200
3.1892552 -1.2192349 0.057724949 4293400320
3.1952507 -1.2214119 0.077935949 4293400320
3.1759155 -1.2139065 0.097361095 4293269760
3.0793061 -1.1768694 0.11358848 4293008640
3.1956847 -1.2212327 0.13766775 4293400320
3.1995044 -1.2225771 0.15749256 4293400320
3.1740837 -1.2127492 0.17557546 4293269760
2.9362862 -1.1217862 0.18013054 4292486400
3.2191577 -1.2297393 0.21668336 4293530880
3.2086236 -1.2255998 0.23487535 4293400320
3.1782324 -1.2138768 0.25111824 4293400320
2.936729 -1.1215326 0.24884655 4292486400
3.2319236 -1.2341506 0.29205906 4293530880
3.2284522 -1.2327087 0.3096036 4293530880
3.2235267 -1.2307121 0.32662123 4293530880
3.1513464 -1.2030408 0.33605281 4293269760
2.9608064 -1.1301948 0.33111665 4292616960
3.226171 -1.2313733 0.37715352 4293530880
3.2192204 -1.2286044 0.39224645 4293530880
3.1920481 -1.2181194 0.40427223 4293400320
3.1342938 -1.1959668 0.41157183 4293269760
3.026046 -1.1545534 0.41102049 4292878080
3.2152004 -1.2266074 0.45073771 4293530880
3.2199667 -1.2283099 0.46494138 4293530880
3.2116911 -1.2250375 0.47672167 4293530880
3.1921918 -1.2174848 0.4861854 4293530880
3.1883039 -1.2158874 0.49738312 4293530880
3.1148841 -1.187776 0.49689278 4293269760
3.2124977 -1.2248827 0.52318436 4293530880
3.2109704 -1.2241848 0.53305036 4293530880
3.212708 -1.2247316 0.54284537 4293530880
3.2059908 -1.2220556 0.55057234 4293530880
3.1951294 -1.2178005 0.55690503 4293530880
3.2032733 -1.2207893 0.56589687 4293530880
3.1898174 -1.2155464 0.5704065 4293530880
3.1762657 -1.2102679 0.57418066 4293530880
3.1846619 -1.2133526 0.58124232 4293530880
3.1850054 -1.2133689 0.58617198 4293530880
3.1935952 -1.2165264 0.59194702 4293530880
3.1650283 -1.2055306 0.59012336 4293400320
3.1554193 -1.2017572 0.59110463 4293400320
3.1551251 -1.2015316 0.59313053 4293400320
3.1595426 -1.2031002 0.59534955 4293400320
3.1829104 -1.2118838 0.60044914 4293530880
3.1829486 -1.2117838 0.60044944 4293530880
3.1923032 -1.2152303 0.60150182 4293530880
3.1776962 -1.2095555 0.59733933 4293530880
3.1943784 -1.2157906 0.5983547 4293530880
3.2036157 -1.2191911 0.59725624 4293530880
3.203274 -1.2189459 0.59366596 4293530880
3.2057214 -1.2197618 0.58989644 4293530880
3.1959436 -1.2159265 0.58320093 4293530880
3.2083063 -1.2205147 0.5798595 4293530880
3.201853 -1.2179446 0.57243383 4293530880
