# .PCD v0.7 - Point Cloud Data file format
VERSION 0.7
FIELDS x y z rgba
SIZE 4 4 4 4
TYPE F F F U
COUNT 1 1 1 1
WIDTH 1090
HEIGHT 1
VIEWPOINT 0 0 0 1 0 0 0
POINTS 1090
DATA ascii
3.1252553 -1.2142018 0.58904856 4293400320
3.1336248 -1.2173402 0.58854645 4293400320
3.1327281 -1.2168785 0.58561069 4293400320
3.1461527 -1.2219795 0.58465362 4293400320
3.1393962 -1.2192416 0.57925755 4293400320
3.1342242 -1.2171197 0.57349509 4293400320
3.1476979 -1.2222382 0.57046062 4293400320
3.1534171 -1.224345 0.5653224 4293400320
3.1443245 -1.220701 0.55688083 4293400320
3.1390347 -1.2185339 0.54849941 4293400320
3.1328921 -1.2160362 0.53936267 4293400320
3.1225183 -1.2118967 0.52891916 4293269760
3.1330881 -1.2158856 0.52141124 4293400320
3.154485 -1.2240753 0.51500684 4293400320
3.151711 -1.222885 0.50400734 4293400320
3.1486328 -1.2215768 0.49240276 4293400320
2.6233718 -1.0173867 0.33968058 4291441920
2.5706525 -0.99684834 0.32066688 4291180800
2.5691895 -0.9961881 0.30794567 4291180800
2.5277901 -0.98004442 0.29030922 4291050240
2.4863043 -0.96387023 0.27276111 4290919680
2.4857888 -0.96358055 0.25962141 4290919680
2.472676 -0.95840818 0.24495232 4290919680
2.4371502 -0.94455034 0.22805844 4290789120
2.3882859 -0.92552602 0.21013382 4290528000
2.4039683 -0.93151659 0.19784194 4290658560
2.398567 -0.92933691 0.18354049 4290528000
2.3835475 -0.9234314 0.16842198 4290528000
2.3427422 -0.90753806 0.15162835 4290397440
2.3502774 -0.91037208 0.13799568 4290397440
2.346612 -0.90886748 0.12353271 4290397440
2.3259475 -0.9007799 0.10819006 4290266880
2.2828355 -0.88400131 0.092079408 4290136320
2.2858872 -0.88510042 0.077978879 4290136320
2.2813649 -0.88326699 0.063545361 4290136320
2.243516 -0.86853212 0.048381604 4290005760
2.2148209 -0.85734338 0.033782542 4289875200
2.2091177 -0.85505587 0.019715298 4289875200
2.1993299 -0.851188 0.0056888121 4289875200
2.1587298 -0.83539689 -0.0081037069 4289744640
2.1769106 -0.842354 -0.021965591 4289744640
2.1944962 -0.84907949 -0.036023885 4289875200
2.2088785 -0.85456437 -0.050192345 4289875200
2.1994746 -0.85084677 -0.063797437 4289875200
2.2300019 -0.86257547 -0.078623265 4290005760
2.2531683 -0.87145495 -0.09343899 4290005760
2.2630894 -0.8752104 -0.10780907 4290136320
2.2563119 -0.87250781 -0.12128623 4290005760
2.2915595 -0.88605517 -0.13706248 4290136320
2.2983186 -0.88858569 -0.15123944 4290266880
2.3171372 -0.8957777 -0.16619682 4290266880
2.3152299 -0.89495677 -0.17958619 4290266880
2.3506393 -0.90855956 -0.19586614 4290397440
2.3635387 -0.91345996 -0.21033235 4290397440
2.3754251 -0.91796803 -0.2246163 4290528000
2.3533649 -0.90935802 -0.23538829 4290397440
2.3891535 -0.92310071 -0.25175729 4290528000
2.4130745 -0.93225604 -0.26691362 4290658560
2.4286354 -0.93818003 -0.28105348 4290658560
2.4192216 -0.93445617 -0.29202273 4290658560
2.3721747 -0.91619807 -0.29784805 4290528000
2.4472191 -0.94509393 -0.3187947 4290789120
2.4838862 -0.95916468 -0.33490461 4290919680
2.4929214 -0.96256369 -0.34711888 4290919680
2.5006971 -0.96547574 -0.35883868 4291050240
2.52384 -0.9743197 -0.37248501 4291050240
2.5780802 -0.99516588 -0.39060542 4291311360
2.6430619 -1.0201541 -0.41036513 4291572480
2.7341871 -1.0552274 -0.4342849 4291833600
2.8177445 -1.0873737 -0.4571147 4292225280
2.9006851 -1.1192759 -0.47986934 4292486400
2.9651914 -1.1440598 -0.49948296 4292747520
3.006995 -1.1600803 -0.51500911 4292878080
3.0311973 -1.1693081 -0.5271073 4293008640
3.0398173 -1.1725236 -0.53597009 4293008640
3.0354192 -1.1707176 -0.5419271 4293008640
3.0259562 -1.1669586 -0.54632163 4293008640
2.9714577 -1.1458341 -0.54183239 4292747520
2.984556 -1.1507772 -0.54896045 4292878080
3.00142 -1.1571714 -0.55618465 4292878080
2.9350016 -1.1314583 -0.54727262 4292616960
2.9309242 -1.1297808 -0.54926455 4292616960
2.930624 -1.1295593 -0.55131757 4292616960
2.9341016 -1.1307938 -0.55343735 4292616960
2.9257352 -1.1274638 -0.55267435 4292616960
3.0044942 -1.157706 -0.56772417 4292878080
2.9779575 -1.1473734 -0.56222129 4292747520
3.0272326 -1.1662493 -0.57035816 4293008640
3.0371833 -1.1699733 -0.57039303 4293008640
3.0491645 -1.1744787 -0.57012588 4293008640
3.0529125 -1.1758121 -0.56763875 4293008640
3.0365427 -1.1693978 -0.56076461 4293008640
3.0252495 -1.1649395 -0.55421084 4293008640
2.9700668 -1.1435832 -0.53908074 4292747520
2.90904 -1.1199807 -0.52247167 4292486400
2.8243368 -1.087268 -0.50129795 4292225280
2.7369304 -1.053521 -0.47944409 4291964160
2.6505642 -1.0201806 -0.45763731 4291572480
2.5727637 -0.99014306 -0.43720976 4291311360
2.5077875 -0.96504617 -0.41885826 4291050240
2.4956844 -0.9602986 -0.40908286 4291050240
2.4908073 -0.95833212 -0.40007606 4290919680
2.4873934 -0.95692891 -0.39087415 4290919680
2.4415526 -0.93920541 -0.37473843 4290789120
2.4054315 -0.92522371 -0.35997382 4290658560
2.393728 -0.92063576 -0.34863979 4290658560
2.4130237 -0.92796993 -0.34139219 4290658560
2.4077067 -0.92583841 -0.33021939 4290658560
2.3895712 -0.9187786 -0.31702086 4290528000
2.345037 -0.90157086 -0.30025157 4290397440
2.3573282 -0.90621126 -0.29056931 4290397440
2.3543444 -0.90497935 -0.27863574 4290397440
2.3555574 -0.9053607 -0.26689714 4290397440
2.3375468 -0.89835399 -0.25277102 4290397440
2.2862575 -0.87856025 -0.23513085 4290136320
2.2986135 -0.88322562 -0.2239812 4290266880
2.2931712 -0.88105172 -0.21081375 4290136320
2.2847791 -0.87774503 -0.19722064 4290136320
2.2358925 -0.85888368 -0.180242 4290005760
2.2598519 -0.86800581 -0.16907878 4290005760
2.2476649 -0.86324382 -0.15495951 4290005760
2.2331157 -0.85757548 -0.14066693 4290005760
2.1759832 -0.83555669 -0.12396973 4289744640
2.208446 -0.84794247 -0.11238903 4289875200
2.1916971 -0.84143269 -0.098087706 4289875200
2.2013557 -0.84506142 -0.084905334 4289875200
2.1847229 -0.8385976 -0.070661224 4289744640
2.2156143 -0.85037529 -0.057788316 4289875200
2.2330956 -0.85700434 -0.04420023 4290005760
2.2357483 -0.85794175 -0.030144598 4290005760
2.2648001 -0.86900842 -0.01621226 4290005760
2.2872849 -0.8775534 -0.001889657 4290136320
2.3144536 -0.88789374 0.0127452 4290266880
2.2900496 -0.87844914 0.027099621 4290136320
2.3520606 -0.90215135 0.042684205 4290397440
2.3721671 -0.90977794 0.057980012 4290397440
2.3835924 -0.91407388 0.073198847 4290528000
2.3346324 -0.89521432 0.086250208 4290266880
2.4199719 -0.92785048 0.10439285 4290658560
2.4416935 -0.93609089 0.12033989 4290658560
2.4248762 -0.92955613 0.13428773 4290658560
2.1920602 -0.84022903 0.13462035 4289875200
2.5012863 -0.95866704 0.16853482 4290919680
2.5150123 -0.96383715 0.18428057 4291050240
2.4891481 -0.95383549 0.19685443 4290919680
2.2875872 -0.87651539 0.19401301 4290136320
2.5846601 -0.99024916 0.23376748 4291311360
2.6137254 -1.0012907 0.25085914 4291311360
2.708415 -1.0374676 0.27464721 4291703040
2.8638017 -1.0968859 0.30562633 4292225280
2.8434491 -1.0889881 0.31823176 4292225280
3.1566503 -1.2088246 0.36929682 4293400320
3.1510451 -1.2065647 0.38421407 4293269760
3.1331921 -1.1996157 0.39709494 4293269760
3.1120782 -1.1914196 0.40893313 4293139200
2.9673188 -1.1358935 0.40331224 4292616960
3.1684632 -1.2127777 0.4444752 4293400320
3.1699526 -1.2132336 0.45801187 4293400320
3.1655579 -1.2114376 0.47016779 4293400320
3.1418304 -1.202244 0.47880837 4293269760
3.1204083 -1.1939343 0.48708364 4293269760
3.0470507 -1.1657565 0.4863582 4293008640
3.156729 -1.2076041 0.51439899 4293400320
3.1564834 -1.2073964 0.52430201 4293400320
3.1578362 -1.2078001 0.53387052 4293400320
3.1557546 -1.2068903 0.54224086 4293400320
3.154964 -1.2064743 0.55019861 4293400320
3.1438584 -1.2021143 0.55569208 4293400320
3.1442466 -1.2021495 0.56254703 4293400320
3.1470315 -1.2031009 0.56918323 4293400320
3.134515 -1.1982031 0.57237309 4293400320
3.1173794 -1.1915406 0.57400435 4293269760
3.1296608 -1.1961222 0.58037221 4293400320
3.1383598 -1.1993338 0.58542329 4293400320
3.1379604 -1.1990683 0.5881018 4293400320
3.1422691 -1.2006016 0.59097689 4293400320
3.1282866 -1.1951464 0.58971667 4293400320
3.1245348 -1.1936005 0.58968741 4293269760
3.1245732 -1.1935028 0.5896818 4293269760
3.1227398 -1.1926901 0.58863264 4293269760
3.132199 -1.1961902 0.58901894 4293400320
3.1359875 -1.1975241 0.58764243 4293400320
3.1396911 -1.1988254 0.58555669 4293400320
3.1494648 -1.2024438 0.58390439 4293400320
3.1598241 -1.2062852 0.58165413 4293400320
3.1504037 -1.2025756 0.5750851 4293400320
3.1593051 -1.2058597 0.5711894 4293400320
3.1558247 -1.2044176 0.56438178 4293400320
3.1550076 -1.2039922 0.55740345 4293400320
3.1552413 -1.2039678 0.54996562 4293400320
3.145514 -1.200143 0.54017961 4293400320
3.1386971 -1.1974291 0.53031343 4293400320
3.1400623 -1.1978369 0.52123332 4293400320
3.1578126 -1.2044945 0.51421374 4293400320
3.1679692 -1.2082546 0.50527781 4293400320
3.155643 -1.2034398 0.49218735 4293400320
2.6872699 -1.0240899 0.34717116 4291703040
2.5939713 -0.98844147 0.32284817 4291311360
2.5749836 -0.98111355 0.30794704 4291180800
2.5427818 -0.96875268 0.29137599 4291050240
2.4881918 -0.94786537 0.27235684 4290919680
2.4783719 -0.94403529 0.258268 4290919680
2.482903 -0.94567192 0.24541652 4290919680
2.4556775 -0.93521416 0.22928043 4290789120
2.4076397 -0.91683298 0.21136612 4290658560
2.4093862 -0.91741127 0.19784859 4290658560
2.408633 -0.91703784 0.18390386 4290658560
2.3926482 -0.91086602 0.16869329 4290528000
2.33496 -0.88882047 0.15079392 4290266880
2.3639708 -0.89977854 0.13849765 4290397440
2.3472304 -0.89332241 0.12329832 4290397440
2.3311863 -0.88713241 0.10820162 4290266880
2.2879767 -0.87060678 0.092091605 4290136320
2.2957056 -0.87346512 0.07815095 4290136320
2.2771587 -0.86632657 0.063299522 4290136320
2.2485676 -0.85536838 0.048396081 4290005760
2.2244802 -0.84612548 0.033868786 4289875200
2.2140908 -0.842094 0.019731142 4289875200
2.2055993 -0.83878505 0.0057087666 4289875200
2.1649191 -0.82323664 -0.0080917068 4289744640
2.1962142 -0.83505797 -0.02209265 4289875200
2.2054267 -0.83848149 -0.036103278 4289875200
2.2269328 -0.84657782 -0.050469365 4289875200
2.2173007 -0.8428365 -0.064149924 4289875200
2.2540884 -0.85673904 -0.079272918 4290005760
2.2769191 -0.86533481 -0.094190001 4290136320
2.2868581 -0.86902982 -0.10867419 4290136320
2.2791266 -0.86600983 -0.12221453 4290136320
2.3051145 -0.87580168 -0.13753994 4290266880
2.3258817 -0.8836084 -0.15268521 4290266880
2.3307436 -0.88537157 -0.1667726 4290266880
2.3292961 -0.88473797 -0.18024652 4290266880
2.3689742 -0.89972389 -0.1969249 4290397440
2.3837571 -0.90525258 -0.21162915 4290528000
2.4056675 -0.91348678 -0.22693869 4290658560
2.3551965 -0.89423716 -0.23501651 4290397440
2.4132485 -0.916192 -0.25369862 4290658560
2.4380257 -0.925511 -0.26904103 4290658560
2.4382789 -0.92551953 -0.2815091 4290789120
2.4396057 -0.92593545 -0.29379541 4290789120
2.3997927 -0.91073841 -0.30061322 4290658560
2.4879878 -0.94411975 -0.32335123 4290919680
2.5117319 -0.95303959 -0.33787221 4291050240
2.5419858 -0.96442765 -0.35312971 4291180800
2.5643835 -0.97283322 -0.3671253 4291180800
2.6196845 -0.99371815 -0.3857365 4291441920
2.7363286 -1.0378661 -0.41362467 4291833600
2.8343785 -1.0749538 -0.43905497 4292225280
2.9423854 -1.1158104 -0.46627867 4292616960
3.0251865 -1.1471014 -0.48963985 4292878080
3.0535326 -1.1577401 -0.50399655 4293008640
3.0848911 -1.1695188 -0.51845604 4293139200
3.0994802 -1.1749382 -0.52963513 4293139200
3.107744 -1.1779592 -0.53918439 4293269760
3.1139245 -1.18019 -0.54778481 4293269760
3.1120687 -1.1793748 -0.55434722 4293269760
3.1189873 -1.1818848 -0.56183845 4293269760
3.1098781 -1.1783211 -0.56578642 4293269760
3.088666 -1.170173 -0.5668233 4293139200
3.0880392 -1.1698247 -0.57094222 4293139200
3.0710716 -1.1632866 -0.5713526 4293139200
3.0844693 -1.1682507 -0.57673734 4293139200
3.0795469 -1.1662757 -0.57803082 4293139200
3.0793374 -1.1660857 -0.57952869 4293139200
3.0792358 -1.1659366 -0.58036804 4293139200
3.0864687 -1.1685644 -0.58191037 4293139200
3.1075077 -1.1764184 -0.58537108 4293269760
3.102674 -1.1744771 -0.58327091 4293269760
3.102994 -1.1744868 -0.58145833 4293269760
3.1085064 -1.1764616 -0.5799337 4293269760
3.1103008 -1.1770289 -0.57703084 4293269760
3.1081126 -1.1760893 -0.57271594 4293269760
3.0992529 -1.1726255 -0.5665192 4293269760
3.083467 -1.1665421 -0.55843574 4293139200
3.0689831 -1.1609522 -0.5499922 4293139200
3.0240481 -1.1438454 -0.5355745 4292878080
2.9540529 -1.1172637 -0.51635349 4292616960
2.8414152 -1.0745605 -0.48952565 4292225280
2.7396824 -1.035989 -0.46456975 4291833600
2.6365335 -0.99688941 -0.43941385 4291441920
2.5665214 -0.97032523 -0.41979188 4291180800
2.5435567 -0.96155167 -0.40767592 4291180800
2.523495 -0.95387697 -0.39570358 4291050240
2.468771 -0.93310279 -0.37811339 4290919680
2.4372766 -0.92111164 -0.36397055 4290789120
2.4213223 -0.91499513 -0.35191908 4290658560
2.4285438 -0.91763681 -0.3428711 4290658560
2.4325678 -0.91907001 -0.33293706 4290658560
2.4311154 -0.91843402 -0.32186764 4290658560
2.3725674 -0.8962304 -0.30315456 4290528000
2.3753998 -0.89721507 -0.29220188 4290528000
2.3781986 -0.8981868 -0.28089157 4290528000
2.3794234 -0.89856398 -0.26906273 4290528000
2.3609717 -0.89151108 -0.25479913 4290397440
2.3090553 -0.87182438 -0.23701102 4290266880
2.3214471 -0.87641984 -0.22576922 4290266880
2.3122718 -0.87287289 -0.21216494 4290266880
2.2982717 -0.86750543 -0.19801371 4290136320
2.2632735 -0.85421377 -0.18211398 4290005760
2.2750809 -0.85858846 -0.16991235 4290136320
2.2619367 -0.85354686 -0.15567073 4290005760
2.2558451 -0.85116726 -0.14185831 4290005760
2.2032626 -0.83124787 -0.12532018 4289875200
2.2133744 -0.83498341 -0.11246669 4289875200
2.2152033 -0.83559394 -0.098998129 4289875200
2.2088292 -0.83311033 -0.085084192 4289875200
2.1912785 -0.82641196 -0.070796356 4289744640
2.2235899 -0.83851808 -0.057950504 4289875200
2.2380786 -0.8439014 -0.044285167 4290005760
2.2434621 -0.84585088 -0.030267425 4290005760
2.2698538 -0.85571986 -0.016300373 4290005760
2.3008101 -0.8673076 -0.0019867623 4290136320
2.319618 -0.87431419 0.012653549 4290266880
2.3162191 -0.87294996 0.027256116 4290266880
2.3573089 -0.88835156 0.042589866 4290397440
2.3893404 -0.90033692 0.058173679 4290528000
2.3842342 -0.89832729 0.072959371 4290528000
2.3398421 -0.88151735 0.086155638 4290266880
2.4253719 -0.91365308 0.10429475 4290658560
2.4414172 -0.91960979 0.11995965 4290658560
2.4386845 -0.91849297 0.1346533 4290658560
2.1922801 -0.82560998 0.1342459 4289744640
2.4975278 -0.94047624 0.16780686 4290919680
2.5159559 -0.94732535 0.18383908 4290919680
2.4863024 -0.9360708 0.19609331 4290919680
2.2926915 -0.86309582 0.19392316 4290136320
2.5857644 -0.97333181 0.23324639 4291180800
2.6545851 -0.99914211 0.25411177 4291441920
2.8268318 -1.0638716 0.28591019 4292094720
2.9782236 -1.1207407 0.31701899 4292616960
2.8767881 -1.0824661 0.32114086 4292355840
3.1720662 -1.1934584 0.37016022 4293400320
3.1664438 -1.1912295 0.38512078 4293400320
3.1485322 -1.1843781 0.39804256 4293269760
3.1190193 -1.1731645 0.40882835 4293139200
2.9692938 -1.1167414 0.40258554 4292616960
3.175529 -1.1941919 0.44437441 4293400320
3.177021 -1.1946391 0.4579142 4293400320
3.1642714 -1.1897314 0.46883726 4293400320
3.1488345 -1.1838144 0.47871843 4293269760
3.1273637 -1.1756302 0.48699796 4293269760
3.119926 -1.1727225 0.49680114 4293269760
3.1683905 -1.1908257 0.51507229 4293400320
3.1635163 -1.1888803 0.52422732 4293400320
3.1602478 -1.1875387 0.53302032 4293400320
3.1498437 -1.1835161 0.53995669 4293400320
3.1573701 -1.186231 0.54933351 4293400320
3.1637754 -1.188524 0.55791348 4293400320
3.1420128 -1.1802359 0.56084728 4293400320
3.1540358 -1.1846391 0.56913656 4293400320
3.1368761 -1.1780815 0.57149106 4293269760
3.1335411 -1.1767167 0.57566327 4293269760
3.1329327 -1.1763759 0.57965869 4293269760
3.1407275 -1.1791903 0.58453953 4293400320
3.1403265 -1.1789271 0.5872196 4293400320
3.1317341 -1.1755892 0.58767492 4293269760
3.1398489 -1.1785227 0.59057516 4293400320
3.1443851 -1.1801126 0.59211522 4293400320
3.1315138 -1.1751697 0.58968478 4293269760
3.1388955 -1.1778274 0.59037578 4293400320
3.1262436 -1.1729678 0.58661133 4293269760
3.1429486 -1.1791229 0.58766335 4293400320
3.1512709 -1.1821322 0.58644199 4293400320
3.1564524 -1.1839629 0.58393764 4293400320
3.1493006 -1.1811674 0.57847333 4293400320
3.1592481 -1.184785 0.5754692 4293400320
3.1663098 -1.18732 0.5712415 4293400320
3.1674378 -1.1876293 0.56526411 4293400320
3.1619997 -1.185477 0.557468 4293400320
3.1622324 -1.185451 0.55003643 4293400320
3.157105 -1.1834157 0.54104859 4293400320
3.1410241 -1.1772754 0.52961642 4293269760
3.1423891 -1.1776744 0.52055591 4293269760
3.164804 -1.1859615 0.51430941 4293400320
3.170351 -1.1879265 0.50464272 4293400320
3.1626272 -1.1849191 0.49229509 4293400320
2.8215694 -1.0564851 0.36372006 4292094720
2.6378293 -0.98759234 0.3275851 4291441920
2.5853097 -0.96783668 0.30850235 4291311360
2.5437269 -0.9521786 0.29084364 4291050240
2.4843552 -0.92986536 0.27133924 4290919680
2.4968801 -0.9344638 0.25962493 4290919680
2.4883704 -0.93118995 0.24541652 4290919680
2.4610846 -0.92089099 0.22928043 4290789120
2.4129405 -0.90279001 0.21136612 4290658560
2.4100208 -0.90161133 0.19746602 4290528000
2.4139349 -0.90298909 0.18390386 4290658560
2.3979146 -0.89691049 0.16869329 4290528000
2.3580678 -0.88192177 0.1519518 4290397440
2.3644967 -0.88424152 0.13822429 4290397440
2.3570728 -0.88138092 0.12354349 4290397440
2.3363154 -0.87353539 0.10820162 4290266880
2.2930102 -0.85726178 0.092091605 4290136320
2.2960746 -0.85832518 0.077991948 4290136320
2.2821674 -0.85304463 0.063299522 4290136320
2.2572589 -0.84365338 0.048476532 4290005760
2.2271659 -0.83232629 0.03383527 4289875200
2.2152126 -0.82777989 0.019697824 4289875200
2.2159879 -0.82799017 0.0057230718 4289875200
2.1827934 -0.81550908 -0.0081406171 4289744640
2.2159483 -0.82781678 -0.022242269 4289875200
2.2336097 -0.83433455 -0.036484446 4289875200
2.2407806 -0.83693296 -0.050671831 4290005760
2.2362206 -0.83514971 -0.064555429 4289875200
2.2768314 -0.85023493 -0.079897188 4290136320
2.2968969 -0.85764581 -0.094808117 4290136320
2.2984219 -0.8581329 -0.10898428 4290136320
2.3019111 -0.8593533 -0.12316575 4290136320
2.3326275 -0.8707369 -0.13887651 4290266880
2.3487575 -0.87667388 -0.15384899 4290397440
2.3582973 -0.8801502 -0.16837439 4290397440
2.3531001 -0.87812632 -0.18168955 4290397440
2.3927765 -0.89284706 -0.1984677 4290528000
2.4040458 -0.8969661 -0.21296281 4290528000
2.4156153 -0.9011963 -0.22737795 4290658560
2.3874202 -0.8905921 -0.23771018 4290528000
2.4277971 -0.90556723 -0.2546691 4290658560
2.4574721 -0.91654801 -0.27059314 4290789120
2.4659872 -0.91963559 -0.28408468 4290789120
2.4673052 -0.92003882 -0.29648063 4290789120
2.4320462 -0.90680397 -0.30398652 4290658560
2.524214 -0.94107908 -0.32734123 4291050240
2.5684583 -0.95748234 -0.34474668 4291180800
2.6150966 -0.97477478 -0.36249107 4291311360
2.6874537 -1.0016497 -0.3839024 4291572480
2.7831643 -1.0372227 -0.40891141 4291964160
2.933543 -1.0931605 -0.44246545 4292486400
3.0262592 -1.1276021 -0.46775234 4292878080
3.0764267 -1.1461848 -0.48645362 4293008640
3.1056118 -1.1569473 -0.50155753 4293139200
3.1194077 -1.161975 -0.51374334 4293269760
3.1290298 -1.1654472 -0.52472401 4293269760
3.1348481 -1.1675023 -0.53450733 4293269760
3.1281686 -1.1649027 -0.54154128 4293269760
3.1315565 -1.1660523 -0.54968208 4293269760
3.1289866 -1.1649835 -0.55614227 4293269760
3.136452 -1.1676508 -0.56374943 4293269760
3.1267459 -1.1639255 -0.56761181 4293269760
3.1067219 -1.1563605 -0.56889081 4293269760
3.1111639 -1.1579026 -0.5739606 4293269760
3.1152501 -1.1593119 -0.57830524 4293269760
3.0938506 -1.1512376 -0.57722747 4293139200
3.0935321 -1.1510085 -0.57938731 4293139200
3.1189051 -1.1603374 -0.585693 4293269760
3.1095712 -1.1567538 -0.58480543 4293269760
3.1012704 -1.1535549 -0.58342397 4293139200
3.1138537 -1.1581241 -0.58528548 4293269760
3.1324348 -1.164923 -0.58757973 4293269760
3.1287143 -1.1634274 -0.58499783 4293269760
3.1290894 -1.163455 -0.58249915 4293269760
3.140841 -1.1677121 -0.58142471 4293400320
3.1319993 -1.164313 -0.57585764 4293269760
3.1253235 -1.1617194 -0.57003778 4293269760
3.1237481 -1.1610222 -0.56449622 4293269760
3.1100879 -1.1558338 -0.55614233 4293269760
3.1043139 -1.153577 -0.5485903 4293139200
3.0656447 -1.1390978 -0.53469008 4293008640
3.029942 -1.1257235 -0.52086669 4292878080
2.9234314 -1.0860466 -0.49464682 4292486400
2.804275 -1.0416802 -0.46635079 4292094720
2.7060826 -1.0051087 -0.44165382 4291703040
2.6264107 -0.97542262 -0.42003757 4291441920
2.5801072 -0.9581337 -0.40369859 4291311360
2.5090361 -0.93165141 -0.38344246 4291050240
2.4648848 -0.91516918 -0.36729091 4290789120
2.4438643 -0.90727723 -0.35442105 4290789120
2.4691668 -0.91658247 -0.34784657 4290789120
2.4508998 -0.90971398 -0.33471501 4290789120
2.4452655 -0.9075352 -0.32303548 4290789120
2.3913136 -0.88742608 -0.30488402 4290528000
2.3988044 -0.89012021 -0.29443794 4290528000
2.398298 -0.88984656 -0.28264838 4290528000
2.3995328 -0.89021897 -0.27074558 4290528000
2.3847821 -0.88466132 -0.25680819 4290528000
2.3318279 -0.86493397 -0.23882718 4290266880
2.3442547 -0.86945969 -0.22749083 4290397440
2.3303964 -0.86423647 -0.21336234 4290266880
2.3173056 -0.85929888 -0.1992189 4290266880
2.2911744 -0.84952712 -0.18395764 4290136320
2.2978163 -0.85190761 -0.17123672 4290136320
2.2893281 -0.84867889 -0.1572129 4290136320
2.2654462 -0.83974463 -0.14215198 4290005760
2.2305403 -0.8267262 -0.1265956 4289875200
2.2326355 -0.82742292 -0.11319852 4289875200
2.2312732 -0.82683837 -0.099499315 4289875200
2.2183311 -0.82196319 -0.08526428 4289875200
2.201962 -0.81581926 -0.070986755 4289744640
2.2207119 -0.82268667 -0.057749599 4289875200
2.2464252 -0.83213216 -0.044353638 4290005760
2.2483523 -0.83276564 -0.030267425 4290005760
2.2748008 -0.84248066 -0.016300373 4290005760
2.302073 -0.85249883 -0.0019835301 4290136320
2.3248782 -0.86086094 0.012654668 4290266880
2.3128262 -0.85631567 0.02715702 4290266880
2.3624446 -0.87460232 0.042589866 4290397440
2.3767316 -0.87980664 0.057740904 4290397440
2.392158 -0.88543165 0.073042735 4290528000
2.3355656 -0.8644011 0.085811272 4290266880
2.430654 -0.89950681 0.10429475 4290658560
2.4467335 -0.90537 0.11995965 4290658560
2.4533606 -0.90773451 0.13516933 4290658560
2.3022621 -0.8517465 0.14067446 4290136320
2.512325 -0.92937177 0.16843441 4290919680
2.5214326 -0.9326508 0.18383908 4290919680
2.491714 -0.92156923 0.19609331 4290919680
2.2789814 -0.84280795 0.1923449 4290136320
2.6253061 -0.97079128 0.23629901 4291311360
2.7433922 -1.0143594 0.2620427 4291833600
2.9748344 -1.0998281 0.30022621 4292616960
3.0519032 -1.1282122 0.32415667 4292878080
2.8970394 -1.0708594 0.32269958 4292355840
3.1789656 -1.174957 0.37016022 4293400320
3.1696026 -1.1713833 0.38466835 4293400320
3.1600368 -1.1677352 0.39863011 4293269760
3.1211464 -1.1532525 0.40821949 4293139200
3.0554965 -1.128886 0.41337436 4293008640
3.1824329 -1.1756704 0.44437441 4293400320
3.1922939 -1.1791993 0.4591175 4293400320
3.1841576 -1.1760801 0.47076046 4293400320
3.1556783 -1.1654485 0.47871843 4293269760
3.13416 -1.1573896 0.48699796 4293269760
3.1313448 -1.1562382 0.49753824 4293269760
3.1669278 -1.1692641 0.51371837 4293400320
3.1703892 -1.1704289 0.52422732 4293400320
3.16751 -1.1692529 0.53308707 4293400320
3.1659484 -1.1685634 0.5415411 4293400320
3.164228 -1.1678153 0.54933351 4293400320
3.1669438 -1.1687046 0.55726194 4293400320
3.1613343 -1.1665218 0.5630734 4293400320
3.1525586 -1.1631711 0.56763744 4293400320
3.1483107 -1.1614914 0.57233167 4293400320
3.1475983 -1.1611161 0.57699311 4293400320
3.1397333 -1.1581028 0.57965869 4293269760
3.139226 -1.1578037 0.58299464 4293269760
3.1471419 -1.1606108 0.5872196 4293400320
3.1468472 -1.1603899 0.58923215 4293400320
3.1337254 -1.1554395 0.58814716 4293269760
3.1382711 -1.1570035 0.58968449 4293269760
3.1383076 -1.1569049 0.58968478 4293269760
3.1457045 -1.1595196 0.59037578 4293400320
3.1367209 -1.1560962 0.58730346 4293269760
3.1543863 -1.1624945 0.58852553 4293400320
3.1581047 -1.1637522 0.58644199 4293400320
3.1632969 -1.1655526 0.58393764 4293400320
3.1561289 -1.1627989 0.57847333 4293400320
3.1614723 -1.1646547 0.57462859 4293400320
3.1777999 -1.1705563 0.57207429 4293400320
3.1650479 -1.1657461 0.56361598 4293400320
3.1651495 -1.1656706 0.55681646 4293400320
3.1598234 -1.1635964 0.54842889 4293400320
3.1546805 -1.16159 0.53946418 4293400320
3.1524646 -1.1606616 0.53039622 4293400320
3.1538339 -1.1610532 0.52132231 4293400320
3.1623824 -1.1640874 0.51280493 4293400320
3.1725774 -1.167727 0.50390559 4293400320
3.1694772 -1.1664729 0.49229509 4293400320
2.9804137 -1.0962051 0.38336638 4292616960
2.7401915 -1.0077529 0.33956227 4291833600
2.6107612 -0.96005952 0.31086668 4291311360
2.5445652 -0.93562639 0.29031128 4291050240
2.4969568 -0.91803193 0.27212676 4290919680
2.4892037 -0.91509265 0.258268 4290919680
2.4974921 -0.91805059 0.24578443 4290919680
2.4626679 -0.90516186 0.22893274 4290789120
2.4088047 -0.88527834 0.21054843 4290528000
2.4199123 -0.8892743 0.19784859 4290658560
2.4144735 -0.88718957 0.18354799 4290528000
2.402715 -0.88278317 0.16866629 4290528000
2.3631659 -0.86816818 0.1519518 4290397440
2.3611729 -0.86735183 0.13773224 4290397440
2.3574803 -0.8659113 0.12329832 4290397440
2.3413651 -0.8599087 0.10820162 4290266880
2.3026562 -0.84561008 0.092279568 4290136320
2.3010364 -0.84493321 0.077991948 4290136320
2.2870989 -0.83973378 0.063299522 4290136320
2.268012 -0.832645 0.048602454 4290005760
2.2404253 -0.82243741 0.033963334 4289875200
2.2252517 -0.81678796 0.019744441 4289875200
2.2321527 -0.8192414 0.0057523949 4289875200
2.2051384 -0.80924809 -0.0082062287 4289744640
2.2216694 -0.81523544 -0.022251638 4289875200
2.2515745 -0.82612878 -0.036698643 4290005760
2.2643907 -0.83075047 -0.051095415 4290005760
2.2541871 -0.82692671 -0.064933904 4290005760
2.2995746 -0.84349471 -0.080521457 4290136320
2.3196795 -0.85078663 -0.095542274 4290266880
2.3305824 -0.85470241 -0.11027124 4290266880
2.3162558 -0.84936577 -0.12366638 4290266880
2.3525784 -0.86260134 -0.13976271 4290397440
2.3640604 -0.86672711 -0.15451798 4290397440
2.3653407 -0.86711222 -0.1685137 4290397440
2.3710816 -0.86913222 -0.18268384 4290397440
2.4091678 -0.88300711 -0.19939716 4290528000
2.435431 -0.89254624 -0.21527873 4290658560
2.4475484 -0.89689994 -0.22988798 4290658560
2.4103315 -0.88317591 -0.239475 4290528000
2.4601314 -0.9013356 -0.25750563 4290789120
2.4851868 -0.9104268 -0.27305609 4290919680
2.4841685 -0.90996522 -0.28556359 4290919680
2.4897876 -0.91193479 -0.29853866 4290919680
2.4489739 -0.89689869 -0.305444 4290789120
2.5892003 -0.94816214 -0.33504656 4291311360
2.6579719 -0.97325158 -0.35599431 4291441920
2.7590606 -1.0101682 -0.38162431 4291833600
2.8697851 -1.0506053 -0.40906706 4292225280
2.9938233 -1.095908 -0.4389165 4292747520
3.0653086 -1.1219665 -0.46134582 4293008640
3.1043401 -1.1361423 -0.4787896 4293139200
3.1229975 -1.1428593 -0.49275625 4293269760
3.1299419 -1.1452891 -0.50440061 4293269760
3.1446872 -1.1505725 -0.51679391 4293269760
3.1369741 -1.1476388 -0.52492601 4293269760
3.146234 -1.1509144 -0.53529626 4293269760
3.1432457 -1.1497093 -0.54298258 4293269760
3.1470456 -1.150987 -0.5512144 4293269760
3.1440587 -1.1497827 -0.557621 4293269760
3.138571 -1.1476641 -0.5629189 4293269760
3.1418071 -1.1487355 -0.5691213 4293269760
3.1356084 -1.1463574 -0.57294762 4293269760
3.1266556 -1.1429729 -0.5755803 4293269760
3.1219516 -1.1411421 -0.57830524 4293269760
3.1168969 -1.1391836 -0.58027911 4293269760
3.121201 -1.1406455 -0.58331484 4293269760
3.1163621 -1.1387662 -0.58395964 4293269760
3.120883 -1.1403069 -0.58567333 4293269760
3.1250575 -1.141721 -0.58663756 4293269760
3.1381102 -1.146378 -0.58857936 4293269760
3.1391687 -1.1466529 -0.58757973 4293269760
3.1308136 -1.1434895 -0.58413476 4293269760
3.1408377 -1.1470389 -0.5834322 4293269760
3.151293 -1.150745 -0.58210856 4293400320
3.1479867 -1.1494255 -0.57755601 4293400320
3.1366684 -1.1451812 -0.57088035 4293269760
3.1434257 -1.1475363 -0.56683433 4293269760
3.1427097 -1.147163 -0.56077105 4293269760
3.1239567 -1.1402066 -0.55087829 4293269760
3.1213651 -1.1391495 -0.54324162 4293269760
3.0948782 -1.129373 -0.53088945 4293139200
3.0633152 -1.117746 -0.51720458 4293008640
3.0080037 -1.0974567 -0.49915901 4292747520
2.9242699 -1.0668027 -0.4762412 4292486400
2.8043883 -1.0229689 -0.44754043 4292094720
2.7056792 -0.98686606 -0.42243952 4291703040
2.5869281 -0.94346088 -0.39449954 4291311360
2.5210602 -0.9193489 -0.37485704 4291050240
2.4807603 -0.90456456 -0.35900149 4290919680
2.483315 -0.90540767 -0.34909064 4290919680
2.4795718 -0.90395468 -0.33790568 4290919680
2.477551 -0.90312982 -0.32659996 4290789120
2.4188328 -0.88163948 -0.30773249 4290658560
2.4263511 -0.88429344 -0.2971817 4290658560
2.43064 -0.88577002 -0.28584692 4290658560
2.4224315 -0.88269246 -0.27274436 4290658560
2.4064791 -0.87679404 -0.25859013 4290528000
2.3580954 -0.85908169 -0.24100077 4290397440
2.3643684 -0.86128294 -0.22895184 4290397440
2.3550484 -0.85780406 -0.21515815 4290397440
2.3400679 -0.85226423 -0.20074546 4290266880
2.305455 -0.83957601 -0.18470833 4290136320
2.3111768 -0.84157753 -0.17186406 4290136320
2.303611 -0.83874059 -0.15785547 4290136320
2.2877214 -0.83287376 -0.14324278 4290136320
2.248456 -0.81849873 -0.1273396 4290005760
2.2608023 -0.82291269 -0.1143816 4290005760
2.2502522 -0.81899256 -0.10013117 4290005760
2.2405231 -0.81537181 -0.085933208 4289875200
2.2126176 -0.80513775 -0.071177833 4289875200
2.236362 -0.81369835 -0.058032304 4289875200
2.2495468 -0.81841564 -0.044320375 4290005760
2.2597556 -0.82204932 -0.030355945 4290005760
2.2843695 -0.83092201 -0.016333971 4290136320
2.3070009 -0.83907199 -0.0019835301 4290136320
2.3251555 -0.84559226 0.012629146 4290266880
2.3050833 -0.83821052 0.027008299 4290136320
2.3675001 -0.86082333 0.042589866 4290397440
2.3949714 -0.8707267 0.058059789 4290528000
2.3972762 -0.87147939 0.073042735 4290528000
2.3691821 -0.86118209 0.08686056 4290397440
2.4405489 -0.88703668 0.10449579 4290658560
2.451967 -0.89109945 0.11995965 4290658560
2.4360807 -0.88523936 0.13393085 4290658560
2.2940488 -0.83354533 0.13987347 4290136320
2.5036266 -0.90960664 0.16749309 4290919680
2.5268235 -0.91794455 0.18383908 4290919680
2.5143886 -0.91333777 0.19745561 4290919680
2.2932229 -0.83291906 0.19313404 4290136320
2.6626194 -0.96699244 0.23914634 4291441920
2.8963194 -1.0517631 0.27605996 4292355840
3.0934844 -1.1232511 0.31153482 4293008640
3.084614 -1.1199206 0.32693243 4293008640
2.9163177 -1.058714 0.32415438 4292355840
3.1938856 -1.1593664 0.37110469 4293400320
3.1719084 -1.151276 0.38412762 4293269760
3.1667867 -1.1493044 0.39863011 4293269760
3.1278124 -1.1350485 0.40821949 4293139200
3.0620217 -1.1110649 0.41337436 4293008640
3.183717 -1.1551092 0.44360647 4293400320
3.1909299 -1.1576127 0.45794353 4293400320
3.1779196 -1.1527798 0.46883726 4293400320
3.1796391 -1.1532905 0.48132578 4293400320
3.1371291 -1.1377602 0.48642099 4293269760
3.1296599 -1.13494 0.49621144 4293269760
3.1736865 -1.1507931 0.51371837 4293400320
3.1773584 -1.1520115 0.52426094 4293400320
3.165911 -1.1477485 0.5316835 4293400320
3.1754067 -1.1510781 0.54200262 4293400320
3.1756177 -1.1510417 0.55013722 4293400320
3.1736991 -1.1502335 0.55726194 4293400320
3.168077 -1.1480833 0.5630734 4293400320
3.1639173 -1.1464634 0.5684703 4293400320
3.1550243 -1.143129 0.57233167 4293400320
3.1589427 -1.1444364 0.57784057 4293400320
3.1547651 -1.1428107 0.58119476 4293400320
3.1542547 -1.1425138 0.58453953 4293400320
3.1492198 -1.1405782 0.58635741 4293400320
3.1535544 -1.142036 0.58923215 4293400320
3.140404 -1.1371621 0.58814716 4293269760
3.1403289 -1.1370233 0.5888164 4293269760
3.1403646 -1.1369246 0.58881664 4293269760
3.157037 -1.1428484 0.59124291 4293400320
3.1514761 -1.1407235 0.58881176 4293400320
3.1472125 -1.1390682 0.58593893 4293269760
3.1564941 -1.1423154 0.5848971 4293400320
3.1662343 -1.1457279 0.58323771 4293400320
3.1711907 -1.1474087 0.57999879 4293400320
3.1774738 -1.1495692 0.57630986 4293400320
3.1752937 -1.1486677 0.57040864 4293400320
3.1671486 -1.1456087 0.56279188 4293400320
3.1746738 -1.1482178 0.55730563 4293400320
3.1758308 -1.1485234 0.55003643 4293400320
3.1613948 -1.1431904 0.53946418 4293400320
3.1591735 -1.142275 0.53039622 4293400320
3.1512516 -1.1392987 0.51978946 4293269760
3.1821272 -1.1503484 0.51491117 4293400320
3.1793268 -1.1492231 0.50390559 4293400320
3.1762195 -1.1479871 0.49229509 4293400320
3.067986 -1.1081647 0.39379346 4293008640
2.8933449 -1.044981 0.35778034 4292355840
2.6691196 -0.96390355 0.31714144 4291572480
2.5574579 -0.92348814 0.29116341 4291050240
2.5022631 -0.90346861 0.27212676 4290919680
2.4991736 -0.90226436 0.25875261 4290919680
2.5027983 -0.90348411 0.24578443 4290919680
2.4585295 -0.88741618 0.22806349 4290789120
2.4186089 -0.87292087 0.21095727 4290528000
2.4237294 -0.87468284 0.19774066 4290658560
2.4158485 -0.87175304 0.18326329 4290528000
2.3997552 -0.86586058 0.16810153 4290528000
2.364428 -0.8530302 0.15171082 4290397440
2.3771234 -0.85752594 0.13836887 4290397440
2.367183 -0.85385591 0.12354349 4290397440
2.3473918 -0.84663385 0.10825033 4290266880
2.3064873 -0.83179891 0.092237316 4290136320
2.3059201 -0.83151251 0.077991948 4290136320
2.2919524 -0.82639444 0.063299522 4290136320
2.2631741 -0.81593764 0.048396081 4290005760
2.2414165 -0.80801386 0.033906415 4289875200
2.2343998 -0.80540508 0.019783638 4289875200
2.2509258 -0.8112821 0.0057884948 4290005760
2.2286313 -0.80316752 -0.0082761003 4289875200
2.2536628 -0.81210858 -0.022524305 4290005760
2.2713971 -0.81841856 -0.036943391 4290005760
2.2896402 -0.82491052 -0.051555838 4290136320
2.2862403 -0.82360446 -0.065717883 4290136320
2.3184731 -0.83513379 -0.081011444 4290136320
2.3435163 -0.84407145 -0.096319869 4290266880
2.3533812 -0.84754097 -0.11111442 4290266880
2.3521743 -0.84702289 -0.1253185 4290266880
2.3772886 -0.85598218 -0.14093202 4290397440
2.4000607 -0.86409652 -0.15653928 4290528000
2.3885598 -0.85987109 -0.1698081 4290528000
2.4070737 -0.86645055 -0.18506484 4290528000
2.4367855 -0.87705916 -0.20125662 4290658560
2.4686475 -0.88843942 -0.21775363 4290789120
2.4724038 -0.88970357 -0.23173171 4290789120
2.4305706 -0.87456352 -0.24097548 4290658560
2.4924977 -0.8967576 -0.26034215 4290919680
2.5090959 -0.90264028 -0.27510056 4290919680
2.5170822 -0.905424 -0.28873581 4290919680
2.5221756 -0.90716672 -0.30178329 4290919680
2.4859345 -0.89404345 -0.30939892 4290789120
2.7073166 -0.9735654 -0.34959108 4291703040
2.8167667 -1.0128243 -0.37646571 4292094720
2.9558756 -1.0627388 -0.40798375 4292616960
3.0773246 -1.1062948 -0.43772414 4293008640
3.1260118 -1.1236868 -0.45732874 4293139200
3.1211786 -1.1218388 -0.4687629 4293139200
3.1332593 -1.1260697 -0.4822298 4293269760
3.1426358 -1.1293281 -0.49480829 4293269760
3.1551714 -1.1337209 -0.50739336 4293269760
3.1513371 -1.1322315 -0.51679391 4293269760
3.1519744 -1.1323485 -0.5263232 4293269760
3.1482394 -1.1308951 -0.53450733 4293269760
3.1545358 -1.133045 -0.54378325 4293269760
3.1490548 -1.1309646 -0.55040282 4293269760
3.1460624 -1.1297783 -0.55679947 4293269760
3.1452043 -1.1293586 -0.5629189 4293269760
3.1438072 -1.1287454 -0.56828272 4293269760
3.1338997 -1.1250771 -0.57142794 4293269760
3.1332617 -1.124737 -0.5755803 4293269760
3.128547 -1.1229336 -0.57830524 4293269760
3.1197724 -1.1196736 -0.57959014 4293269760
3.1324289 -1.1241047 -0.58417928 4293269760
3.1229439 -1.1205902 -0.58395964 4293269760
3.1274736 -1.1221048 -0.58567333 4293269760
3.1446338 -1.1281501 -0.58906859 4293269760
3.1447361 -1.1280752 -0.58857936 4293269760
3.1457961 -1.1283441 -0.58757973 4293269760
3.1493948 -1.129523 -0.58636373 4293269760
3.1424336 -1.1269151 -0.58249915 4293269760
3.1495969 -1.1293722 -0.58056992 4293269760
3.1537747 -1.1307585 -0.57739943 4293400320
3.1432872 -1.1268868 -0.57088035 4293269760
3.1466253 -1.127972 -0.56621665 4293269760
3.1456263 -1.1275024 -0.56010979 4293269760
3.1398339 -1.125315 -0.55251253 4293269760
3.1316652 -1.1222762 -0.54388702 4293269760
3.1190643 -1.1176499 -0.53391224 4293139200
3.1097558 -1.1142042 -0.52394062 4293139200
3.0934145 -1.1082395 -0.51225221 4293139200
3.0783997 -1.1027513 -0.50028765 4293008640
3.0384018 -1.0883155 -0.48386556 4292878080
2.9266026 -1.0481666 -0.45597121 4292486400
2.6878963 -0.96257842 -0.40903473 4291572480
2.5889926 -0.92706764 -0.38414827 4291180800
2.5265021 -0.90460151 -0.36485207 4291050240
2.5107443 -0.89887053 -0.35220432 4290919680
2.5034008 -0.89615273 -0.34043568 4290919680
2.4956472 -0.89328867 -0.32829377 4290919680
2.4463651 -0.87556201 -0.31058097 4290658560
2.4492338 -0.87650192 -0.29935381 4290658560
2.4544761 -0.87829107 -0.28804344 4290789120
2.4510572 -0.87698078 -0.27538741 4290658560
2.4424608 -0.87381846 -0.26190507 4290658560
2.3714957 -0.84834588 -0.24186106 4290397440
2.3871627 -0.85386574 -0.23067346 4290528000
2.3825216 -0.85212123 -0.21721084 4290397440
2.35695 -0.84289193 -0.20176901 4290397440
2.3365982 -0.83553082 -0.18681026 4290266880
2.3404603 -0.83682895 -0.17367612 4290266880
2.3328872 -0.83403862 -0.15952593 4290266880
2.3150954 -0.82759571 -0.1446524 4290136320
2.254272 -0.80577284 -0.12740095 4290005760
2.2740238 -0.81275243 -0.11480899 4290005760
2.272862 -0.81225663 -0.10092495 4290005760
2.2612219 -0.80801672 -0.086545058 4290005760
2.2276218 -0.79593122 -0.071510106 4289875200
2.2445536 -0.80190152 -0.05812265 4289875200
2.2524862 -0.80465573 -0.044285167 4290005760
2.26074 -0.80752414 -0.030305453 4290005760
2.2822497 -0.81512642 -0.016284579 4290005760
2.3203261 -0.82864356 -0.0019908021 4290136320
2.3345449 -0.83363879 0.012653549 4290266880
2.3136945 -0.82611138 0.027052343 4290136320
2.3724754 -0.8470152 0.042589866 4290397440
2.3965211 -0.85551512 0.057975542 4290528000
2.3995709 -0.85651886 0.072959371 4290528000
2.3548918 -0.8404873 0.086155638 4290266880
2.4315596 -0.86776483 0.10389266 4290658560
2.4618213 -0.87847728 0.12018932 4290658560
2.4590681 -0.87740779 0.13491131 4290658560
2.2063751 -0.78716755 0.1342459 4289744640
2.5135837 -0.89668119 0.16780686 4290919680
2.5368273 -0.90488309 0.1841802 4291050240
2.5154338 -0.89716297 0.19712387 4290919680
2.4260752 -0.86520618 0.20389478 4290658560
2.7811122 -0.99172378 0.2492657 4291833600
3.0787718 -1.0977581 0.29283565 4292878080
3.1506958 -1.1232915 0.31663194 4293139200
3.1098325 -1.1086127 0.32891512 4293008640
2.9224365 -1.041705 0.32415438 4292355840
3.2005861 -1.1407384 0.37110469 4293400320
3.1879215 -1.1361116 0.38525867 4293400320
3.1687517 -1.1291678 0.39804256 4293269760
3.1306324 -1.1154734 0.4077324 4293139200
2.993031 -1.0663387 0.40321502 4292616960
3.2034693 -1.141199 0.44542468 4293400320
3.1927476 -1.1372664 0.45724571 4293400320
3.1929798 -1.1372361 0.47007361 4293400320
3.169044 -1.1285988 0.47871843 4293269760
3.1437047 -1.1194633 0.48642099 4293269760
3.136219 -1.1166867 0.49621144 4293269760
3.184063 -1.1336093 0.51432014 4293400320
3.1970496 -1.1381197 0.52640688 4293400320
3.1902249 -1.1355773 0.53464663 4293400320
3.182059 -1.132558 0.54200262 4293400320
3.1822701 -1.1325204 0.55013722 4293400320
3.1803467 -1.1317234 0.55726194 4293400320
3.1793585 -1.1312592 0.56389743 4293400320
3.170543 -1.1280104 0.5684703 4293400320
3.1486285 -1.1201022 0.56997794 4293269760
3.1655567 -1.1260122 0.57784057 4293400320
3.1483727 -1.1197884 0.57880533 4293269760
3.1525037 -1.1211461 0.58299464 4293269760
3.1604519 -1.1238608 0.5872196 4293400320
3.1518025 -1.1206737 0.58767492 4293269760
3.1553276 -1.1218153 0.58970803 4293400320
3.1515398 -1.1203572 0.58968449 4293269760
3.1469352 -1.118609 0.58881664 4293269760
3.154362 -1.1211373 0.58950865 4293269760
3.1757016 -1.1286095 0.59209937 4293400320
3.1584363 -1.1223618 0.58680111 4293400320
3.1807334 -1.1301726 0.58815855 4293400320
3.1867828 -1.1322093 0.58579779 4293400320
3.1694639 -1.125944 0.57847333 4293400320
3.1748285 -1.1277375 0.57462859 4293400320
3.1823416 -1.1302936 0.57048202 4293400320
3.1775599 -1.1284828 0.56346405 4293400320
3.1813097 -1.1297021 0.55730563 4293400320
3.1824684 -1.1300009 0.55003643 4293400320
3.1680014 -1.124752 0.53946418 4293400320
3.1564665 -1.120545 0.52883667 4293269760
3.157836 -1.1209196 0.51978946 4293269760
3.1887753 -1.1317891 0.51491117 4293400320
3.190629 -1.1323342 0.50464272 4293400320
3.1828539 -1.1294622 0.49229509 4293400320
3.1193037 -1.1061988 0.39954636 4293139200
3.0791323 -1.091844 0.37996107 4293008640
2.8026824 -0.99371713 0.33231762 4291964160
2.587795 -0.91743529 0.2940037 4291180800
2.5074844 -0.88887453 0.27212676 4290919680
2.512831 -0.89068097 0.25962493 4290919680
2.5174053 -0.89221334 0.24670421 4290919680
2.473048 -0.87640488 0.22893274 4290789120
2.427937 -0.86033255 0.2113301 4290658560
2.4287844 -0.86054689 0.19774066 4290658560
2.4293485 -0.86066079 0.18390386 4290658560
2.4179273 -0.85652906 0.16902202 4290528000
2.3731215 -0.84057313 0.1519518 4290397440
2.37959 -0.84278017 0.13822429 4290397440
2.3721175 -0.84004974 0.12354349 4290397440
2.3475757 -0.8312757 0.10803363 4290266880
2.3160043 -0.82001436 0.092425272 4290136320
2.3013036 -0.81472802 0.077673934 4290136320
2.2945085 -0.81224126 0.063238345 4290136320
2.2822726 -0.80782914 0.048703015 4290005760
2.2537706 -0.79766089 0.034022417 4290005760
2.2522516 -0.79704374 0.019900247 4290005760
2.2560871 -0.79832125 0.0057897079 4290005760
2.2469985 -0.79502583 -0.0083269654 4289875200
2.2762673 -0.80530119 -0.022702947 4290005760
2.2902665 -0.81017286 -0.037172887 4290136320
2.303833 -0.8148905 -0.051767632 4290136320
2.3094335 -0.81678987 -0.066246651 4290136320
2.3430839 -0.82860833 -0.081701316 4290266880
2.3662939 -0.83673269 -0.097054027 4290397440
2.3781407 -0.84083778 -0.11205024 4290397440
2.356863 -0.83323127 -0.12530752 4290266880
2.3907075 -0.84511197 -0.14143324 4290397440
2.4102316 -0.85192853 -0.15687625 4290528000
2.4114034 -0.85225749 -0.17107618 4290528000
2.4346507 -0.86038768 -0.18679647 4290658560
2.4654715 -0.87119246 -0.20320316 4290789120
2.4784799 -0.87570149 -0.2181672 4290789120
2.5047834 -0.88490653 -0.23427936 4290919680
2.4628506 -0.87000525 -0.24366915 4290789120
2.5112882 -0.88702708 -0.26176056 4290919680
2.5372932 -0.89612287 -0.27761498 4291050240
2.5579391 -0.90332419 -0.29281384 4291050240
2.5723951 -0.90833843 -0.3071537 4291180800
2.6084657 -0.92098314 -0.3239758 4291311360
2.8704789 -1.0133919 -0.36989123 4292225280
3.0293877 -1.069386 -0.40404329 4292747520
3.1144431 -1.0993007 -0.42897865 4293139200
3.1510134 -1.1120976 -0.44727647 4293269760
3.1633339 -1.1163342 -0.46182951 4293269760
3.1360652 -1.1066004 -0.47002241 4293139200
3.1434999 -1.1091127 -0.48280317 4293269760
3.1538265 -1.1126448 -0.49554116 4293269760
3.1570611 -1.1136744 -0.50664514 4293269760
3.1662686 -1.1168106 -0.51816666 4293269760
3.1631765 -1.1156082 -0.52709943 4293269760
3.1640873 -1.1158177 -0.53608519 4293269760
3.1564291 -1.1130055 -0.54298258 4293269760
3.1561112 -1.1127819 -0.55049366 4293269760
3.1618941 -1.1147093 -0.55844253 4293269760
3.1517308 -1.1110148 -0.5629189 4293269760
3.1503303 -1.1104099 -0.56828272 4293269760
3.1404014 -1.1067992 -0.57142794 4293269760
3.1527727 -1.111048 -0.5779655 4293269760
3.1303904 -1.1030499 -0.57744825 4293269760
3.1134992 -1.096988 -0.57722747 4293139200
3.1389251 -1.1058356 -0.58417928 4293269760
3.1340642 -1.1040124 -0.58482635 4293269760
3.1209538 -1.0992839 -0.58324313 4293139200
3.138149 -1.1052296 -0.58663756 4293269760
3.1382642 -1.1051594 -0.58615303 4293269760
3.1476719 -1.1083612 -0.58671391 4293269760
3.1532161 -1.1102021 -0.58586097 4293269760
3.1535921 -1.1102232 -0.58335859 4293269760
3.1561234 -1.1110029 -0.58056992 4293269760
3.1565182 -1.1110305 -0.57670683 4293269760
3.1497993 -1.1085542 -0.57088035 4293269760
3.1484933 -1.1079835 -0.56538159 4293269760
3.1558633 -1.1104656 -0.56077105 4293269760
3.1593659 -1.1115866 -0.55480045 4293269760
3.1474602 -1.1072866 -0.54550052 4293269760
3.1301796 -1.1010966 -0.53470767 4293269760
3.1208532 -1.0977057 -0.52472389 4293139200
3.1082077 -1.0931482 -0.5136385 4293139200
3.1341958 -1.1021775 -0.50830311 4293269760
3.1389191 -1.1037277 -0.49884039 4293269760
3.1180303 -1.0962726 -0.48479271 4293139200
2.8528178 -1.0029254 -0.43323532 4292225280
2.7036278 -0.95038134 -0.40032917 4291572480
2.5866046 -0.909154 -0.37276024 4291180800
2.5479443 -0.89547551 -0.35668474 4291050240
2.5403967 -0.89273328 -0.34475356 4291050240
2.5326433 -0.88991922 -0.3324728 4291050240
2.4776549 -0.87050998 -0.31390417 4290789120
2.4721072 -0.86847353 -0.30152592 4290789120
2.4820583 -0.87188184 -0.29067922 4290789120
2.4786432 -0.8705948 -0.27791223 4290789120
2.4649444 -0.86569619 -0.26377064 4290789120
2.3985367 -0.84228897 -0.24411424 4290528000
2.4061184 -0.84486645 -0.23202555 4290528000
2.3968465 -0.84152627 -0.21806613 4290528000
2.3796904 -0.83541882 -0.20329559 4290397440
2.3496492 -0.82478952 -0.18746631 4290266880
2.3631802 -0.82945591 -0.1750005 4290397440
2.3508897 -0.82505912 -0.16042553 4290266880
2.3311694 -0.81805593 -0.14535648 4290266880
2.2862539 -0.80221349 -0.12894209 4290005760
2.2985106 -0.80643308 -0.11580608 4290136320
2.2963381 -0.8055898 -0.10175724 4290136320
2.2885237 -0.80276763 -0.087409496 4290005760
2.2512023 -0.78959662 -0.072118178 4289875200
2.2633381 -0.79377341 -0.058488324 4290005760
2.2763934 -0.79827172 -0.044663001 4290005760
2.2691808 -0.79566234 -0.030355945 4290005760
2.2822416 -0.80016148 -0.016250981 4290005760
2.3191216 -0.81300986 -0.001985671 4290136320
2.3348505 -0.81844163 0.012629146 4290266880
2.3231866 -0.81427103 0.027107397 4290136320
2.3726521 -0.83152485 0.042505346 4290397440
2.3964632 -0.83978522 0.057854794 4290397440
2.4119849 -0.84513938 0.073185861 4290528000
2.3550327 -0.82510072 0.085983455 4290266880
2.4412892 -0.8552351 0.1040937 4290658560
2.4621837 -0.86246806 0.11995965 4290658560
2.4594257 -0.86141527 0.1346533 4290658560
2.2988944 -0.80510801 0.13958742 4290136320
2.5140555 -0.88037205 0.16749309 4290919680
2.5331123 -0.88695598 0.18353218 4290919680
2.5206182 -0.88249236 0.19712387 4290919680
2.4847059 -0.8698315 0.20839281 4290789120
2.9721217 -1.0403584 0.26583773 4292486400
3.1481016 -1.1018472 0.29881424 4293139200
3.1777775 -1.1121218 0.31869698 4293269760
3.1199956 -1.09179 0.32931167 4293139200
2.9415989 -1.0292593 0.32560918 4292486400
3.2024863 -1.1204304 0.37056181 4293400320
3.1982379 -1.1188312 0.3857111 4293400320
3.1752768 -1.1106868 0.39804256 4293269760
3.1370783 -1.0972147 0.4077324 4293139200
3.0888066 -1.0802225 0.41526279 4293008640
3.2100639 -1.1225156 0.44542468 4293400320
3.2042019 -1.1203527 0.45794353 4293400320
3.1911364 -1.1156718 0.46883726 4293400320
3.2068801 -1.121063 0.48343909 4293400320
3.1501737 -1.1011285 0.48642099 4293269760
3.1510751 -1.1013324 0.49753824 4293269760
3.1906135 -1.1150391 0.51432014 4293400320
3.1905661 -1.11491 0.52426094 4293400320
3.1921246 -1.115342 0.53386682 4293400320
3.1886036 -1.1139995 0.54200262 4293400320
3.1841555 -1.1123332 0.54933351 4293400320
3.1952696 -1.1161031 0.55872786 4293400320
3.1765838 -1.1094642 0.5622493 4293400320
3.1770613 -1.109519 0.5684703 4293400320
3.1681302 -1.1062883 0.57233167 4293400320
3.1767156 -1.1091744 0.57868803 4293400320
3.1594946 -1.1030501 0.57965869 4293269760
3.1627028 -1.1040586 0.58368123 4293400320
3.1669462 -1.1054283 0.5872196 4293400320
3.1582785 -1.1022916 0.58767492 4293269760
3.1711085 -1.1066577 0.59144229 4293400320
3.1533647 -1.1003543 0.5888164 4293269760
3.1830106 -1.110587 0.59434581 4293400320
3.1654899 -1.1043622 0.59037578 4293400320
3.1775734 -1.108466 0.59123421 4293400320
3.1695721 -1.105563 0.58766335 4293400320
3.1909709 -1.1129147 0.58884257 4293400320
3.1886733 -1.1120009 0.58494443 4293400320
3.1759701 -1.1074589 0.57847333 4293400320
3.1906531 -1.1124666 0.57630986 4293400320
3.1795621 -1.1084875 0.56881636 4293400320
3.1840806 -1.1099505 0.56346405 4293400320
3.1831791 -1.1095243 0.55649126 4293400320
3.188998 -1.1114401 0.55003643 4293400320
