# .PCD v0.7 - Point Cloud Data file format
VERSION 0.7
FIELDS x y z rgba
SIZE 4 4 4 4
TYPE F F F U
COUNT 1 1 1 1
WIDTH 1079
HEIGHT 1
VIEWPOINT 0 0 0 1 0 0 0
POINTS 1079
DATA ascii
3.2944212 -0.74916649 -0.0058518127 4293269760
3.2943335 -0.74903142 0.014137782 4293269760
3.2919488 -0.74837458 0.034084469 4293269760
3.3064461 -0.75155228 0.054228403 4293269760
3.3123057 -0.75276738 0.07429599 4293269760
3.3314569 -0.75700009 0.094719738 4293400320
3.287266 -0.74685168 0.11312443 4293269760
3.3077731 -0.75139171 0.13344806 4293269760
3.3170459 -0.75338078 0.15335275 4293400320
3.318171 -0.75352043 0.17277636 4293400320
3.2369919 -0.73498696 0.18731026 4293139200
3.3274941 -0.75540417 0.21151122 4293400320
3.328392 -0.75549197 0.23035887 4293400320
3.3322701 -0.75625569 0.24918188 4293400320
3.2421134 -0.73569775 0.26028204 4293139200
3.3409169 -0.75798446 0.28617996 4293530880
3.3494849 -0.75981063 0.30466443 4293530880
3.3421237 -0.75802624 0.32137728 4293530880
3.3102245 -0.75068218 0.33518639 4293400320
3.1377976 -0.71150148 0.33346099 4292747520
3.3506262 -0.75960553 0.37221569 4293530880
3.3322771 -0.7553339 0.38596612 4293530880
3.3317678 -0.75510365 0.40124696 4293530880
3.2875631 -0.74497974 0.41064101 4293269760
3.2587745 -0.73834914 0.42116341 4293269760
3.3300025 -0.75436044 0.44423923 4293530880
3.3471136 -0.75811893 0.45999208 4293530880
3.3341775 -0.75507706 0.47112939 4293530880
3.335402 -0.75524008 0.48367357 4293530880
3.3188639 -0.75138491 0.49304515 4293530880
3.3055341 -0.74825674 0.50222087 4293400320
3.3335001 -0.75446898 0.51710832 4293530880
3.3300502 -0.75357562 0.52662528 4293530880
3.3345072 -0.75447029 0.53677988 4293530880
3.3243842 -0.75206912 0.54396057 4293530880
3.3315792 -0.75358295 0.55332166 4293530880
3.3223128 -0.75137651 0.5593124 4293530880
3.3232715 -0.75148124 0.56634587 4293530880
3.3226933 -0.75123888 0.57245761 4293530880
3.3248155 -0.75160676 0.57836521 4293530880
3.320224 -0.75045848 0.58242863 4293530880
3.3195705 -0.75019991 0.58648914 4293530880
3.3276761 -0.75191933 0.59140998 4293530880
3.3094535 -0.74769479 0.59096789 4293530880
3.3004837 -0.74556017 0.5914554 4293400320
3.3089261 -0.74735606 0.59435278 4293530880
3.31797 -0.74928731 0.59666348 4293530880
3.31319 -0.74809921 0.59579712 4293530880
3.3267694 -0.75105333 0.59751499 4293530880
3.3126106 -0.74775034 0.59356982 4293530880
3.3196115 -0.74922043 0.5927043 4293530880
3.3149095 -0.7480514 0.58905989 4293530880
3.3298531 -0.75131208 0.58818853 4293530880
3.3309696 -0.75145507 0.58417648 4293530880
3.3288174 -0.75086153 0.57890993 4293530880
3.3245106 -0.74978268 0.57260221 4293530880
3.3177021 -0.74814069 0.56521535 4293530880
3.3140695 -0.74721485 0.55772734 4293530880
3.3084245 -0.74583608 0.54927188 4293400320
3.3063612 -0.74526465 0.5407871 4293400320
3.302669 -0.74432671 0.53142351 4293400320
3.3173788 -0.74753261 0.52436012 4293530880
3.3328972 -0.75091982 0.51672864 4293530880
3.3324127 -0.75070399 0.50598514 4293530880
3.3142161 -0.74650192 0.49204442 4293400320
3.2950215 -0.7413618 0.40468633 4293400320
3.3285909 -0.74880356 0.39370415 4293400320
3.3384459 -0.75091332 0.37929067 4293530880
3.2968595 -0.74146253 0.35879272 4293400320
3.2755527 -0.73657113 0.3403897 4293269760
3.3181069 -0.74602836 0.32809091 4293400320
3.313499 -0.7448889 0.31060219 4293400320
3.2850797 -0.73840189 0.290723 4293269760
3.2679944 -0.73446196 0.27175626 4293269760
3.2919114 -0.73972976 0.25583231 4293269760
3.3006589 -0.74159044 0.23827699 4293269760
3.2981126 -0.7409156 0.21961537 4293269760
3.2769737 -0.73606795 0.19961828 4293269760
3.3040869 -0.74205005 0.18227388 4293269760
3.3112395 -0.74355167 0.16344173 4293269760
3.3039775 -0.74181908 0.14372692 4293269760
3.2815356 -0.73668182 0.12337662 4293269760
3.2901239 -0.73850572 0.10411859 4293269760
3.2876129 -0.73783994 0.084363781 4293269760
3.2691998 -0.73360884 0.064241365 4293139200
3.2751942 -0.73485082 0.044585709 4293139200
3.2656472 -0.73260868 0.024697561 4293139200
3.2783952 -0.73536414 0.0049153394 4293269760
3.2447875 -0.72773045 -0.014791993 4293139200
3.2624676 -0.73159093 -0.034653861 4293139200
3.2732487 -0.73390454 -0.054576907 4293139200
3.2767406 -0.73458469 -0.074405208 4293269760
3.2649322 -0.73183775 -0.093750894 4293139200
3.2850523 -0.7362417 -0.11398283 4293269760
3.2910576 -0.73748386 -0.13375346 4293269760
3.2942574 -0.73809755 -0.15332191 4293269760
3.268213 -0.73216462 -0.17121744 4293139200
3.2816966 -0.73508036 -0.19094868 4293269760
3.2920895 -0.73730356 -0.21043202 4293269760
3.2901261 -0.73676121 -0.22894184 4293269760
3.2717447 -0.73254585 -0.24594054 4293269760
3.312546 -0.74157029 -0.26727557 4293400320
3.3128972 -0.74154496 -0.28526327 4293400320
3.3028846 -0.73920184 -0.30199212 4293400320
3.2631569 -0.73021501 -0.3153992 4293139200
3.2904141 -0.73620617 -0.33490208 4293269760
3.2998295 -0.73820728 -0.35239962 4293400320
3.3024733 -0.73869413 -0.36884317 4293400320
3.2912786 -0.73608822 -0.38328707 4293269760
3.2426138 -0.72511041 -0.39264575 4293139200
3.318923 -0.74205607 -0.41688132 4293400320
3.3146417 -0.74099457 -0.43081626 4293400320
3.3163216 -0.74126464 -0.44503599 4293400320
3.3102231 -0.73979735 -0.45769188 4293400320
3.310209 -0.73968887 -0.47065267 4293400320
3.2915549 -0.73541886 -0.48035389 4293400320
3.2830884 -0.73342383 -0.4909032 4293400320
3.2950354 -0.73598534 -0.50396836 4293400320
3.2965019 -0.73620707 -0.51489836 4293400320
3.2876325 -0.73412234 -0.52359992 4293400320
3.2939849 -0.73543388 -0.53412557 4293400320
3.2832882 -0.73294187 -0.54125655 4293400320
3.2896161 -0.73424727 -0.55056745 4293400320
3.2744517 -0.73075938 -0.55561876 4293400320
3.2628942 -0.72807652 -0.56058359 4293269760
3.2537224 -0.7259261 -0.56526971 4293269760
3.2492597 -0.72482562 -0.57009667 4293269760
3.2447751 -0.72372037 -0.57424468 4293269760
3.2147954 -0.71693414 -0.5731566 4293139200
3.2286465 -0.71991515 -0.57921302 4293139200
3.2233779 -0.7186358 -0.5811677 4293139200
3.2230272 -0.71845198 -0.58332998 4293139200
3.2227895 -0.71829313 -0.58483309 4293139200
3.222666 -0.7181595 -0.58567536 4293139200
3.2384853 -0.72157514 -0.58874065 4293269760
3.2289815 -0.71935248 -0.58650714 4293269760
3.2415488 -0.72204268 -0.58760601 4293269760
3.2502637 -0.72387451 -0.58731073 4293269760
3.263684 -0.72675252 -0.58716851 4293269760
3.2695403 -0.7279467 -0.58496261 4293400320
3.2845683 -0.73118037 -0.58369792 4293400320
3.2960579 -0.73362589 -0.58109099 4293400320
3.2832813 -0.73067439 -0.57352579 4293400320
3.2860763 -0.73118567 -0.5680393 4293400320
3.2836683 -0.73053986 -0.56099427 4293400320
3.2744403 -0.72837824 -0.55215907 4293400320
3.2822416 -0.73000145 -0.54556912 4293400320
3.2620921 -0.72541332 -0.53372717 4293269760
3.2625587 -0.72540659 -0.52470702 4293269760
3.2629392 -0.72538054 -0.51507044 4293269760
3.2831678 -0.72976249 -0.50792372 4293400320
3.303921 -0.73425949 -0.50014776 4293400320
3.292038 -0.73150855 -0.48682117 4293400320
3.2796526 -0.72864676 -0.47295618 4293269760
3.2537353 -0.72278208 -0.45674437 4293269760
3.2695301 -0.72617608 -0.44593024 4293269760
3.2805059 -0.72849965 -0.43384814 4293269760
3.2822528 -0.72877473 -0.42000312 4293269760
3.2624626 -0.72427201 -0.40300378 4293269760
3.266248 -0.72499949 -0.38855085 4293269760
3.2887819 -0.72988409 -0.37578404 4293269760
3.2956243 -0.73128796 -0.36066291 4293269760
3.3048797 -0.73322612 -0.34533146 4293400320
3.2461479 -0.72009391 -0.32273468 4293139200
3.2702036 -0.72531295 -0.30823091 4293269760
3.2761517 -0.72651786 -0.29151964 4293269760
3.2745697 -0.72605407 -0.27379504 4293269760
3.2472134 -0.71988076 -0.25376335 4293139200
3.2746625 -0.72584772 -0.23776677 4293269760
3.2816122 -0.72727311 -0.21982417 4293269760
3.2787857 -0.72653347 -0.20096299 4293269760
3.2580886 -0.7218377 -0.18091752 4293139200
3.2606254 -0.72228605 -0.16208667 4293139200
3.2725351 -0.72480845 -0.14347045 4293139200
3.2729797 -0.72479308 -0.12412154 4293139200
3.250042 -0.71960455 -0.10387675 4293139200
3.2813182 -0.72640997 -0.085236169 4293269760
3.2838333 -0.72685206 -0.065542161 4293269760
3.2807772 -0.726062 -0.045670554 4293269760
3.283159 -0.7264744 -0.025836632 4293269760
3.3036418 -0.73088819 -0.0059933504 4293269760
3.3123419 -0.73269624 0.014057031 4293269760
3.2816381 -0.72579557 0.033810437 4293269760
3.3195877 -0.73406672 0.054233845 4293400320
3.3264303 -0.73546302 0.074374728 4293400320
3.3363907 -0.73754746 0.094599888 4293400320
3.286716 -0.72646052 0.11282636 4293269760
3.3160326 -0.73282003 0.1334684 4293400320
3.3231676 -0.73428017 0.15329783 4293400320
3.3274176 -0.73510301 0.17289223 4293400320
3.2510049 -0.71812189 0.18773633 4293139200
3.32213 -0.73370522 0.2107649 4293400320
3.3230324 -0.73378921 0.22955857 4293400320
3.331789 -0.73560596 0.24868894 4293400320
3.2551455 -0.71858466 0.26085079 4293139200
3.3501828 -0.73943204 0.28646255 4293530880
3.3587596 -0.7412076 0.30497369 4293530880
3.3465247 -0.73839414 0.3212499 4293530880
3.3145833 -0.73123753 0.335062 4293400320
3.1458149 -0.69392562 0.33375457 4292747520
3.3550375 -0.73992419 0.37209398 4293530880
3.3366637 -0.73576045 0.38584742 4293530880
3.3274233 -0.73361015 0.40008685 4293400320
3.301585 -0.72780466 0.41173166 4293400320
3.263063 -0.71920764 0.42105526 4293269760
3.3312817 -0.73411787 0.44372058 4293530880
3.3466766 -0.7373935 0.45922634 4293530880
3.3482387 -0.73762321 0.47238702 4293530880
3.3349528 -0.73458499 0.48287922 4293530880
3.3328938 -0.73401845 0.49437919 4293530880
3.3098793 -0.7288413 0.50213176 4293400320
3.3330524 -0.73382711 0.51627785 4293530880
3.3344257 -0.7340163 0.5265438 4293530880
3.3388872 -0.73488486 0.53670269 4293530880
3.3287499 -0.73254299 0.54388809 4293530880
3.3258979 -0.73180383 0.55159295 4293530880
3.3314927 -0.7329219 0.56005615 4293530880
3.3372676 -0.73407936 0.5679208 4293530880
3.335721 -0.73362768 0.57389003 4293530880
3.329175 -0.73207772 0.57831717 4293530880
3.3053195 -0.7267257 0.57902604 4293400320
3.3191071 -0.72964412 0.58560604 4293530880
3.3233726 -0.73047054 0.58984673 4293530880
3.3137867 -0.72825527 0.59094179 4293530880
3.3086526 -0.72701818 0.59212118 4293530880
3.3045957 -0.72601813 0.59279078 4293400320
3.3223095 -0.72979718 0.59665459 4293530880
3.3175216 -0.72863692 0.5957942 4293530880
3.3214948 -0.72939974 0.59579879 4293530880
3.3217497 -0.72934657 0.59443665 4293530880
3.3239465 -0.7297197 0.59271961 4293530880
3.3268528 -0.73024851 0.5904277 4293530880
3.3255339 -0.72985071 0.58669382 4293530880
3.3326769 -0.73130864 0.58375043 4293530880
3.3283422 -0.73025 0.57811719 4293530880
3.3288438 -0.73025197 0.57264882 4293530880
3.3316619 -0.73076183 0.56690133 4293530880
3.3231223 -0.72878277 0.55857921 4293530880
3.3127322 -0.726399 0.54933715 4293400320
3.3068058 -0.72499406 0.54023081 4293400320
3.3069665 -0.72492296 0.53150111 4293400320
3.3399193 -0.73203373 0.52730936 4293530880
3.3420613 -0.73239577 0.51756418 4293530880
3.331913 -0.73006696 0.5053525 4293530880
3.3185239 -0.72702944 0.49214697 4293400320
3.2992847 -0.7221415 0.40468052 4293400320
3.3328967 -0.72938746 0.39369828 4293400320
3.3379085 -0.73037809 0.37873703 4293530880
3.2927783 -0.72040683 0.35788539 4293269760
3.2797883 -0.71746379 0.34038392 4293269760
3.3223968 -0.72667277 0.32808506 4293400320
3.3177822 -0.72556007 0.31059635 4293400320
3.2854323 -0.7183879 0.29037559 4293269760
3.280982 -0.71731269 0.27247277 4293269760
3.3010361 -0.72159022 0.25620151 4293269760
3.3088214 -0.72318721 0.2385498 4293269760
3.3034689 -0.72191495 0.21968177 4293269760
3.289984 -0.71886748 0.20014106 4293269760
3.3122563 -0.72362679 0.18248068 4293269760
3.3178136 -0.72473645 0.16354783 4293400320
3.3033624 -0.72147906 0.14351201 4293269760
3.2955353 -0.71966815 0.12373155 4293269760
3.296958 -0.71987581 0.10419303 4293269760
3.2967391 -0.71972537 0.084480256 4293269760
3.2880712 -0.71773207 0.064514473 4293269760
3.2794197 -0.71574295 0.044579953 4293139200
3.2845151 -0.71675181 0.024793927 4293269760
3.2921801 -0.71832067 0.0049183541 4293269760
3.2587423 -0.7109291 -0.01484785 4293139200
3.2813294 -0.71575069 -0.034823455 4293139200
3.2774687 -0.71480709 -0.054582652 4293139200
3.2995241 -0.71951079 -0.074842282 4293269760
3.2819221 -0.71557313 -0.09413033 4293269760
3.2990508 -0.71920204 -0.11433237 4293269760
3.304085 -0.72019565 -0.13412069 4293269760
3.2985017 -0.71887672 -0.15332767 4293269760
3.277302 -0.71415782 -0.17148109 4293139200
3.2908008 -0.71699429 -0.19124049 4293269760
3.2875524 -0.71618438 -0.20987286 4293269760
3.2827497 -0.71503633 -0.22813445 4293269760
3.2913506 -0.71680534 -0.24711002 4293269760
3.3168101 -0.72224182 -0.26728138 4293400320
3.3220296 -0.72327346 -0.28569022 4293400320
3.3217335 -0.72310489 -0.30333841 4293400320
3.2673557 -0.71117401 -0.31540492 4293139200
3.3059742 -0.71946931 -0.33606493 4293400320
3.3040743 -0.71895218 -0.3524054 4293400320
3.3086603 -0.71984512 -0.36906624 4293400320
3.2955112 -0.71688271 -0.38329282 4293269760
3.2506647 -0.70703214 -0.39312276 4293139200
3.3280392 -0.7237429 -0.41749781 4293400320
3.3140557 -0.72059941 -0.43019056 4293400320
3.3254282 -0.72296494 -0.44569337 4293400320
3.3231924 -0.72237378 -0.45890528 4293400320
3.3096228 -0.71932125 -0.46996897 4293400320
3.2957835 -0.71621084 -0.48035964 4293400320
3.2921402 -0.71531481 -0.49163318 4293400320
3.2954016 -0.71591765 -0.50338179 4293400320
3.3055651 -0.71801829 -0.51565987 4293400320
3.2918537 -0.71493685 -0.52360564 4293400320
3.3030396 -0.71725839 -0.53491509 4293400320
3.3019745 -0.71692121 -0.54365158 4293400320
3.2851582 -0.71316719 -0.5491184 4293400320
3.2786534 -0.71165043 -0.55562449 4293400320
3.2805586 -0.71195769 -0.56290805 4293400320
3.2858372 -0.71299601 -0.57013601 4293400320
3.2630594 -0.70795155 -0.57179457 4293269760
3.2489364 -0.70478433 -0.57425034 4293269760
3.2285452 -0.70025939 -0.5748809 4293139200
3.227973 -0.70003015 -0.57835412 4293139200
3.2323222 -0.700867 -0.58204204 4293139200
3.2319701 -0.70068496 -0.58420759 4293139200
3.2269197 -0.69948512 -0.58483869 4293139200
3.2267952 -0.6993522 -0.58568096 4293139200
3.2561057 -0.70559251 -0.59119827 4293269760
3.2427404 -0.70259166 -0.58826274 4293269760
3.2505119 -0.70416683 -0.58848494 4293269760
3.2544258 -0.70490634 -0.58731639 4293269760
3.2861516 -0.71166378 -0.59046859 4293400320
3.2833533 -0.71094918 -0.58669287 4293400320
3.2839577 -0.71097064 -0.58284694 4293400320
3.2916076 -0.71251589 -0.57956654 4293400320
3.3009706 -0.71443075 -0.57589066 4293400320
3.2854619 -0.71096694 -0.56721097 4293400320
3.2926888 -0.71241927 -0.56182462 4293400320
3.2834501 -0.71031177 -0.55297905 4293400320
3.2864387 -0.71084726 -0.54557484 4293400320
3.28074 -0.70950514 -0.53610522 4293400320
3.2570741 -0.70428115 -0.52315736 4293269760
3.2730255 -0.7076171 -0.51601148 4293269760
3.2886212 -0.71087492 -0.50812435 4293400320
3.303308 -0.71393526 -0.49942032 4293400320
3.3010807 -0.71334219 -0.48754352 4293400320
3.2755284 -0.70771348 -0.4717606 4293269760
3.2666063 -0.70567614 -0.45797607 4293269760
3.2789474 -0.70822829 -0.44665253 4293269760
3.2885721 -0.71019328 -0.43436787 4293269760
3.3048713 -0.7135976 -0.42237288 4293400320
3.2802126 -0.70816523 -0.4046922 4293269760
3.262573 -0.70424825 -0.38762078 4293269760
3.2929783 -0.71069336 -0.37578973 4293269760
3.3046885 -0.71310532 -0.36120218 4293400320
3.2993708 -0.71184534 -0.3443175 4293269760
3.250288 -0.70115215 -0.32274032 4293139200
3.2792406 -0.70728004 -0.30869719 4293269760
3.2900672 -0.70949996 -0.2923958 4293269760
3.278744 -0.70694709 -0.2738007 4293269760
3.2474535 -0.70009357 -0.25346264 4293139200
3.2885866 -0.70884067 -0.23848468 4293269760
3.2857933 -0.70812553 -0.21982984 4293269760
3.2829628 -0.70740259 -0.20096867 4293269760
3.2719998 -0.70492899 -0.1814698 4293139200
3.2647779 -0.70326138 -0.1620923 4293139200
3.2718186 -0.70466357 -0.14325961 4293139200
3.2918007 -0.70884985 -0.1246903 4293269760
3.2492936 -0.69959104 -0.10372368 4293139200
3.2806079 -0.70621425 -0.085112341 4293139200
3.2928994 -0.70874399 -0.065648012 4293269760
3.2947271 -0.70902294 -0.045817684 4293269760
3.2834251 -0.70647883 -0.025809338 4293139200
3.3029554 -0.71056336 -0.0059874044 4293269760
3.3126435 -0.71253115 0.014036983 4293269760
3.2955873 -0.70875108 0.033899643 4293269760
3.3189199 -0.71365011 0.054151207 4293269760
3.3368707 -0.71739137 0.07450407 4293400320
3.3445401 -0.71892315 0.094702534 4293400320
3.2783399 -0.7045905 0.11239789 4293139200
3.3218055 -0.71381003 0.13352445 4293400320
3.331296 -0.71573251 0.15346973 4293400320
3.3404322 -0.71757847 0.17333722 4293400320
3.2502522 -0.69810897 0.18745226 4293139200
3.3263481 -0.71432543 0.21075918 4293400320
3.3418844 -0.71754384 0.23055339 4293400320
3.3311419 -0.71512413 0.24832273 4293400320
3.2553773 -0.6987595 0.2605356 4293139200
3.3583312 -0.72072518 0.28678718 4293530880
3.3630207 -0.72161508 0.30496791 4293530880
3.3556373 -0.71991658 0.32170773 4293530880
3.3324108 -0.71482295 0.33642295 4293400320
3.1498041 -0.67557478 0.33374915 4292747520
3.3544302 -0.71931243 0.37155288 4293530880
3.345752 -0.71733838 0.38639963 4293530880
3.3355255 -0.71503335 0.40054509 4293400320
3.3145053 -0.71041751 0.41280833 4293400320
3.2671974 -0.70017409 0.42104962 4293269760
3.3451993 -0.71676308 0.44499847 4293530880
3.3606083 -0.7199477 0.46054247 4293530880
3.352479 -0.71809357 0.47238126 4293530880
3.3440173 -0.71616894 0.48357037 4293530880
3.3419528 -0.71561384 0.49508712 4293530880
3.314069 -0.70953554 0.5021261 4293400320
3.3469405 -0.71645468 0.51776147 4293530880
3.3483107 -0.71663481 0.52805591 4293530880
3.3431118 -0.71541029 0.53669691 4293530880
3.3377898 -0.71416003 0.54466707 4293530880
3.3436208 -0.71529436 0.55381668 4293530880
3.335706 -0.71349066 0.56005043 4293530880
3.3414874 -0.71461457 0.56791508 4293530880
3.3351159 -0.71314156 0.57305902 4293530880
3.3382046 -0.71369016 0.5791446 4293530880
3.3326342 -0.71238923 0.58305222 4293530880
3.3367953 -0.71316713 0.58796871 4293530880
3.3410633 -0.7139678 0.59222317 4293530880
3.3179731 -0.70892751 0.59093606 4293530880
3.3224666 -0.70977712 0.59383082 4293530880
3.3400867 -0.71342814 0.59837389 4293530880
3.3265047 -0.71041983 0.59664893 4293530880
3.3265271 -0.71031529 0.59664917 4293530880
3.3305049 -0.7110548 0.59665275 4293530880
3.325942 -0.7099725 0.59443092 4293530880
3.3281412 -0.71033281 0.59271395 4293530880
3.3282435 -0.71024609 0.58992642 4293530880
3.3384044 -0.71230406 0.58821064 4293530880
3.3368804 -0.71187073 0.5837447 4293530880
3.3286824 -0.71001518 0.57744497 4293530880
3.3330414 -0.71083635 0.5726431 4293530880
3.340687 -0.7123577 0.56771219 4293530880
3.3273115 -0.70940042 0.55857354 4293530880
3.3255978 -0.70892817 0.55076468 4293530880
3.3196669 -0.70755816 0.5416376 4293530880
3.320797 -0.70769221 0.53303999 4293530880
3.349081 -0.71360785 0.52808142 4293530880
3.3607788 -0.71599096 0.5197925 4293530880
3.3361096 -0.7106328 0.50534683 4293530880
3.3323836 -0.70973355 0.49356863 4293530880
3.3034356 -0.70289671 0.40467489 4293400320
3.3322306 -0.70891368 0.39312252 4293400320
3.3469682 -0.71194118 0.37927908 4293530880
3.3154016 -0.70512736 0.35987395 4293400320
3.3024037 -0.70226127 0.34228292 4293269760
3.312942 -0.70439643 0.32674369 4293400320
3.3219528 -0.70620656 0.31059068 4293400320
3.2983332 -0.70108581 0.29113865 4293269760
3.2851052 -0.6981734 0.27246717 4293269760
3.3051839 -0.70233393 0.25619587 4293269760
3.3201513 -0.70540816 0.23905616 4293400320
3.3164043 -0.70450902 0.2202542 4293269760
3.2989986 -0.70071137 0.20042907 4293269760
3.3333645 -0.707901 0.18339723 4293400320
3.3170938 -0.70434487 0.16330461 4293269760
3.3013904 -0.70091003 0.14324458 4293269760
3.2996721 -0.70044273 0.12372594 4293269760
3.3033941 -0.70112932 0.10425859 4293269760
3.305681 -0.70151138 0.084594764 4293269760
3.2921968 -0.69854963 0.064508878 4293269760
3.2852914 -0.69698334 0.044597205 4293139200
3.288635 -0.69758976 0.024788341 4293269760
3.2914176 -0.69807708 0.0049082786 4293269760
3.26772 -0.69295335 -0.014878481 4293139200
3.2756612 -0.69453412 -0.034719773 4293139200
3.2917604 -0.69784248 -0.054763369 4293269760
3.2987695 -0.69922459 -0.074734375 4293269760
3.2820385 -0.69557875 -0.094019197 4293139200
3.3129621 -0.70202422 -0.11468177 4293269760
3.3131123 -0.70195282 -0.13432711 4293269760
3.3172932 -0.70273453 -0.1540218 4293269760
3.2814071 -0.69503605 -0.17148666 4293139200
3.2998056 -0.69882709 -0.19153214 4293269760
3.3004565 -0.69886178 -0.21044339 4293269760
3.2907639 -0.6967082 -0.22841308 4293269760
3.3003492 -0.6986329 -0.24748397 4293269760
3.3209615 -0.70288891 -0.26728702 4293400320
3.3310614 -0.70492065 -0.28611702 4293400320
3.3307621 -0.70475304 -0.3037909 4293400320
3.2540617 -0.68843454 -0.31372577 4293139200
3.3075304 -0.69963372 -0.33580738 4293269760
3.3218298 -0.70255172 -0.35386896 4293400320
3.3127978 -0.70053875 -0.36907187 4293400320
3.3044922 -0.69867975 -0.38386542 4293400320
3.2595866 -0.68908983 -0.39371744 4293139200
3.3321991 -0.70432311 -0.41750345 4293400320
3.3279033 -0.70331067 -0.43145916 4293400320
3.3247335 -0.70253605 -0.44504744 4293400320
3.3273444 -0.70298189 -0.45891091 4293400320
3.3234482 -0.7020539 -0.47135356 4293400320
3.2999003 -0.69697857 -0.48036522 4293400320
3.3010924 -0.69712514 -0.49236298 4293400320
3.3033872 -0.69750404 -0.50397968 4293400320
3.30002 -0.69668829 -0.51415402 4293400320
3.300797 -0.69674665 -0.5243814 4293400320
3.3023303 -0.69696432 -0.53413689 4293400320
3.3012652 -0.69663388 -0.54286075 4293400320
3.3076043 -0.69786417 -0.55219519 4293400320
3.2875702 -0.69353473 -0.55644917 4293400320
3.2808056 -0.69200301 -0.56225288 4293400320
3.2706418 -0.68975532 -0.56678939 4293269760
3.2574844 -0.68687731 -0.57010788 4293269760
3.2491305 -0.68501186 -0.57357323 4293269760
3.2277503 -0.68040305 -0.574027 4293139200
3.2416346 -0.68322206 -0.58008862 4293269760
3.2363505 -0.6820038 -0.58204752 4293139200
3.2359974 -0.68182379 -0.58421302 4293139200
3.2309401 -0.68065339 -0.58484411 4293139200
3.2356322 -0.68153507 -0.58656186 4293139200
3.2259877 -0.67939931 -0.58499134 4293139200
3.2506325 -0.68447858 -0.58896822 4293269760
3.2497416 -0.68418407 -0.5876171 4293269760
3.2719681 -0.68875182 -0.58975959 4293269760
3.2806044 -0.69045985 -0.58874023 4293400320
3.2874396 -0.69178843 -0.58669841 4293400320
3.2841876 -0.69099563 -0.58216715 4293400320
3.2957029 -0.6933071 -0.57957208 4293400320
3.3002536 -0.69415379 -0.57505369 4293400320
3.2991974 -0.69382173 -0.56888461 4293400320
3.2919574 -0.69219035 -0.56100553 4293400320
3.2962229 -0.6929763 -0.55445027 4293400320
3.2943881 -0.69248044 -0.54622275 4293400320
3.2886832 -0.69117182 -0.53674334 4293400320
3.2794902 -0.68913096 -0.52611804 4293269760
3.2674208 -0.68648678 -0.51448959 4293269760
3.2878687 -0.69066864 -0.50738102 4293400320
3.3122518 -0.69567484 -0.50015908 4293400320
3.3187406 -0.69692439 -0.48955566 4293400320
3.2976105 -0.69237888 -0.47436598 4293400320
3.2755101 -0.68763113 -0.45866269 4293269760
3.2830179 -0.68909454 -0.44665805 4293269760
3.3023598 -0.69303888 -0.43565848 4293400320
3.304117 -0.69329488 -0.4217563 4293400320
3.2755382 -0.68719131 -0.40361592 4293269760
3.2666206 -0.68521047 -0.38762626 4293269760
3.3067894 -0.69351673 -0.37690866 4293400320
3.3136528 -0.6948418 -0.36174133 4293400320
3.3170931 -0.69544911 -0.34575063 4293400320
3.2591884 -0.68320686 -0.32323131 4293139200
3.2735593 -0.68610477 -0.3077814 4293269760
3.2941446 -0.69030279 -0.29240131 4293269760
3.292562 -0.68985832 -0.27462488 4293269760
3.2651398 -0.68400514 -0.25454032 4293139200
3.2841678 -0.68787521 -0.23787063 4293269760
3.2970469 -0.69045722 -0.22031918 4293269760
3.3007069 -0.69110942 -0.20181775 4293269760
3.2760513 -0.68583816 -0.18147528 4293139200
3.2737079 -0.6852352 -0.16234283 4293139200
3.2895591 -0.6884371 -0.14387132 4293269760
3.2909837 -0.68862152 -0.12450811 4293269760
3.2679894 -0.6837011 -0.10420523 4293139200
3.2895591 -0.6880967 -0.085247345 4293269760
3.2969725 -0.6895324 -0.065653525 4293269760
3.2988017 -0.68980086 -0.045823202 4293269760
3.2874851 -0.68732285 -0.025814833 4293139200
3.3119333 -0.692316 -0.0060045952 4293269760
3.3255484 -0.69504499 0.014063656 4293269760
3.3045545 -0.69054663 0.033941559 4293269760
3.3302157 -0.69578993 0.054258704 4293400320
3.3347735 -0.69662637 0.074363418 4293400320
3.3530169 -0.70031875 0.094817273 4293400320
3.2774971 -0.68444461 0.11222784 4293139200
3.3210166 -0.69341129 0.13332547 4293269760
3.3402989 -0.69731909 0.15368621 4293400320
3.3396673 -0.69707233 0.17308125 4293400320
3.2640383 -0.6811865 0.18800373 4293139200
3.3408072 -0.69708008 0.21140248 4293400320
3.3508918 -0.69906747 0.23088132 4293400320
3.3498976 -0.69874513 0.24939853 4293400320
3.2632968 -0.68058318 0.26083973 4293139200
3.3536923 -0.69930577 0.28603816 4293530880
3.3671675 -0.70199805 0.30496231 4293530880
3.3597744 -0.70034277 0.32170212 4293530880
3.3228781 -0.69254392 0.33505076 4293400320
3.149791 -0.65638995 0.3333343 4292747520
3.3634305 -0.70075929 0.37208259 4293530880
3.3537657 -0.69863278 0.3868404 4293530880
3.3444965 -0.69658941 0.4011195 4293530880
3.3147001 -0.69027537 0.41232178 4293400320
3.2673352 -0.68030834 0.42054668 4293269760
3.3493183 -0.6972512 0.4449929 4293530880
3.3686273 -0.70115352 0.46106562 4293530880
3.3566055 -0.69853956 0.47237569 4293530880
3.3578279 -0.6986801 0.48495856 4293530880
3.3460648 -0.69612139 0.49508154 4293530880
3.3229892 -0.6912123 0.50285017 4293400320
3.3519416 -0.69711709 0.51789188 4293530880
3.34759 -0.69610018 0.52729142 4293530880
3.3520594 -0.69691628 0.53746361 4293530880
3.3515632 -0.69670081 0.54623085 4293530880
3.3428979 -0.69478899 0.55301487 4293530880
3.3398058 -0.69403523 0.56004488 4293530880
3.3455937 -0.69512546 0.56790954 4293530880
3.3488708 -0.69569427 0.57470405 4293530880
3.3471329 -0.6952222 0.57997215 4293530880
3.3328669 -0.69215071 0.58237475 4293530880
3.3408933 -0.69370562 0.58796316 4293530880
3.3224847 -0.6897763 0.58821791 4293530880
3.3220468 -0.68957579 0.59093058 4293530880
3.3265452 -0.69039917 0.59382528 4293530880
3.3263345 -0.69024605 0.59518659 4293530880
3.3440909 -0.69381797 0.59905308 4293530880
3.3306086 -0.69091374 0.59664363 4293530880
3.3394136 -0.69262958 0.59750682 4293530880
3.3405356 -0.69275302 0.59629488 4293530880
3.336082 -0.69172138 0.59339219 4293530880
3.3371494 -0.69183391 0.59077168 4293530880
3.3424973 -0.69283319 0.5882051 4293530880
3.3457975 -0.69340819 0.58457911 4293530880
3.3462799 -0.69339979 0.57977217 4293530880
3.3458183 -0.69319606 0.57412314 4293530880
3.3447802 -0.6928733 0.56770664 4293530880
3.3410521 -0.69199401 0.56018174 4293530880
3.3345051 -0.69053191 0.5515554 4293530880
3.3334038 -0.69019699 0.54320151 4293530880
3.3248634 -0.6883235 0.5330345 4293530880
3.3396304 -0.69127142 0.52595091 4293530880
3.3600512 -0.69538772 0.51904231 4293530880
3.3498809 -0.69317776 0.50680047 4293530880
3.3413081 -0.69129878 0.49427676 4293530880
3.3037052 -0.68284959 0.40421075 4293269760
3.3411686 -0.69048166 0.39368707 4293400320
3.3516397 -0.69253844 0.37933892 4293530880
3.3194532 -0.68578857 0.35986847 4293400320
3.2976689 -0.68118793 0.34137532 4293269760
3.3306379 -0.68788832 0.32807389 4293400320
3.3396654 -0.68964672 0.31185162 4293400320
3.2974825 -0.6808393 0.29070619 4293269760
3.2939978 -0.68001729 0.27286297 4293269760
3.3092194 -0.68305373 0.25619042 4293269760
3.326793 -0.68657434 0.23923522 4293400320
3.3204525 -0.68516314 0.22024873 4293269760
3.3030248 -0.68146676 0.20042363 4293269760
3.3302429 -0.68697405 0.18300106 4293400320
3.3335114 -0.68754387 0.1638999 4293400320
3.3213298 -0.68492991 0.14391908 4293269760
3.3076117 -0.68200016 0.12386478 4293269760
3.3198063 -0.68440926 0.10463612 4293269760
3.3137133 -0.68305099 0.08468923 4293269760
3.2815213 -0.67631841 0.064224653 4293139200
3.2932138 -0.67862386 0.044642612 4293269760
3.2934237 -0.67856467 0.024788348 4293269760
3.3052232 -0.6808911 0.0049117971 4293269760
3.2570097 -0.67086542 -0.014808569 4293139200
3.284549 -0.67643124 -0.034779802 4293139200
3.2957702 -0.6786378 -0.054768786 4293269760
3.2978909 -0.67897159 -0.074626282 4293269760
3.2909307 -0.67743731 -0.094167389 4293269760
3.3095124 -0.6811564 -0.11442439 4293269760
3.3180392 -0.68280667 -0.13436924 4293269760
3.3262231 -0.68438596 -0.15425676 4293400320
3.2942045 -0.67770046 -0.17195633 4293269760
3.3038211 -0.67957425 -0.19153756 4293269760
3.304472 -0.67960501 -0.21044882 4293269760
3.3094256 -0.68051976 -0.22944242 4293269760
3.299479 -0.67837292 -0.24712102 4293269760
3.325 -0.68351203 -0.26729247 4293400320
3.3351116 -0.68548477 -0.2861225 4293400320
3.3250551 -0.68331528 -0.30290267 4293400320
3.2628932 -0.67044842 -0.31420314 4293139200
3.3066766 -0.6793341 -0.33531615 4293269760
3.3258665 -0.68316901 -0.35387442 4293400320
3.3168228 -0.68120861 -0.3690773 4293400320
3.3085067 -0.67939788 -0.38387084 4293400320
3.258682 -0.66907185 -0.39313361 4293139200
3.3313847 -0.68388224 -0.41689822 4293400320
3.3504078 -0.68767864 -0.4338643 4293530880
3.3433387 -0.68612319 -0.44700763 4293530880
3.3360245 -0.68451768 -0.45955786 4293530880
3.3181622 -0.68075019 -0.47003442 4293400320
3.3039048 -0.67772263 -0.48037061 4293400320
3.308975 -0.6786567 -0.49294779 4293400320
3.3073947 -0.6782276 -0.50398511 4293400320
3.3040228 -0.67743134 -0.51415938 4293400320
3.2999601 -0.6764937 -0.52361661 4293400320
3.301497 -0.67670292 -0.53335857 4293400320
3.305809 -0.67748022 -0.54295528 4293400320
3.3067799 -0.67757297 -0.55139238 4293400320
3.3002529 -0.67613059 -0.55792892 4293400320
3.2799509 -0.67186892 -0.5614292 4293269760
3.2746048 -0.6706692 -0.56679475 4293269760
3.2662587 -0.66885573 -0.57095927 4293269760
3.2569275 -0.66684103 -0.57426113 4293269760
3.2364852 -0.66255403 -0.57489163 4293139200
3.2407353 -0.66331816 -0.57922941 4293139200
3.2402689 -0.66311747 -0.58205283 4293139200
3.2447383 -0.66392571 -0.58509028 4293269760
3.2444971 -0.6637705 -0.5865978 4293269760
3.2395477 -0.66265285 -0.58656716 4293139200
3.234714 -0.66155899 -0.58587235 4293139200
3.2642114 -0.66747987 -0.59072351 4293269760
3.2720017 -0.66896409 -0.59094101 4293269760
3.2759254 -0.66965777 -0.58976495 4293269760
3.2759013 -0.66954488 -0.58718765 4293269760
3.2956553 -0.6734702 -0.58746165 4293400320
3.3016717 -0.67458946 -0.58457124 4293400320
3.3045139 -0.67506021 -0.58042759 4293400320
3.3042417 -0.67489493 -0.57505906 4293400320
3.3031836 -0.67456919 -0.56889004 4293400320
3.3068557 -0.67520833 -0.56287479 4293400320
3.305038 -0.6747272 -0.5552699 4293400320
3.3014643 -0.67388791 -0.5467425 4293400320
3.2922568 -0.6718998 -0.53668374 4293400320
3.2834494 -0.6699937 -0.5261234 4293269760
3.2810481 -0.66939396 -0.51602232 4293269760
3.3005559 -0.67325985 -0.50873435 4293400320
3.3259413 -0.67832208 -0.50163078 4293400320
3.3104825 -0.67506009 -0.48774874 4293400320
3.3015883 -0.67313641 -0.47437134 4293400320
3.2755017 -0.66771132 -0.45811245 4293269760
3.2869768 -0.66993737 -0.44666338 4293269760
3.3063414 -0.67376906 -0.43566385 4293400320
3.3081 -0.67401499 -0.42176166 4293400320
3.2833772 -0.66887021 -0.40410206 4293269760
3.2744503 -0.66694182 -0.38809493 4293269760
3.3107736 -0.67422163 -0.37691402 4293400320
3.3225162 -0.67649794 -0.36228028 4293400320
3.3210883 -0.67609423 -0.34575599 4293400320
3.2631135 -0.66418976 -0.32323658 4293139200
3.2970166 -0.67097253 -0.30962935 4293269760
3.2981105 -0.6710822 -0.29240665 4293269760
3.2916417 -0.66965443 -0.27422088 4293269760
3.2739546 -0.6659469 -0.25492859 4293139200
3.3066916 -0.67248738 -0.23922926 4293269760
3.3107922 -0.67320716 -0.22098234 4293269760
3.3095682 -0.67284501 -0.2021244 4293269760
3.2936757 -0.66950357 -0.18224511 4293269760
3.2874324 -0.66812265 -0.16283827 4293139200
3.2886186 -0.66825062 -0.14366014 4293269760
3.300051 -0.6704585 -0.12470939 4293269760
3.2719169 -0.6646347 -0.10421053 4293139200
3.3023293 -0.67069411 -0.085485809 4293269760
3.3146513 -0.67308074 -0.065939389 4293269760
3.3184559 -0.67373866 -0.046055108 4293269760
3.2914336 -0.66814351 -0.025820155 4293139200
3.3159103 -0.67299426 -0.006009955 4293269760
3.3284395 -0.67542076 0.014054255 4293269760
3.2987213 -0.66928148 0.033841372 4293269760
3.3270094 -0.67490208 0.054140281 4293269760
3.3524933 -0.67995238 0.07465554 4293400320
3.353121 -0.67996442 0.094703458 4293400320
3.3136029 -0.67184311 0.11330353 4293269760
3.3347936 -0.6760217 0.13370694 4293400320
3.3540959 -0.67981648 0.1541249 4293400320
3.3348618 -0.67580664 0.17262514 4293400320
3.2679515 -0.66214579 0.18799846 4293139200
3.3408983 -0.67679995 0.21115217 4293400320
3.3588192 -0.68031251 0.23114271 4293400320
3.3441358 -0.67722625 0.24867223 4293400320
3.2769785 -0.66352457 0.26160836 4293139200
3.3665006 -0.68152165 0.28677616 4293530880
3.3848693 -0.68512183 0.30618483 4293530880
3.3637974 -0.68074518 0.32169673 4293530880
3.3307581 -0.67395049 0.33543587 4293400320
3.1720867 -0.64176154 0.33527476 4292878080
3.367456 -0.68114084 0.37207717 4293530880
3.3577788 -0.67907083 0.38683501 4293530880
3.3586504 -0.67913294 0.40232369 4293530880
3.3186653 -0.67094135 0.41231644 4293400320
3.2848592 -0.66400075 0.42228273 4293269760
3.3669329 -0.68046409 0.44678453 4293530880
3.3775127 -0.68248653 0.46172112 4293661440
3.3703294 -0.68092233 0.47372887 4293530880
3.361841 -0.67909539 0.48495317 4293530880
3.3500636 -0.67660528 0.49507615 4293530880
3.3356874 -0.67359191 0.50415802 4293530880
3.3559458 -0.67756695 0.51788652 4293530880
3.3564329 -0.6775527 0.52804494 4293530880
3.3609049 -0.67834228 0.53823042 4293530880
3.3555651 -0.67715317 0.54622549 4293530880
3.3430178 -0.67451149 0.55237252 4293530880
3.3534667 -0.67650634 0.56165326 4293530880
3.3495865 -0.67561281 0.56790417 4293530880
3.3528666 -0.67616254 0.57469869 4293530880
3.3511262 -0.67570066 0.57996678 4293530880
3.340708 -0.67349106 0.58304131 4293530880
3.3497088 -0.67519355 0.58880365 4293530880
3.3356304 -0.67224801 0.58983016 4293530880
3.330837 -0.67117298 0.59177995 4293530880
3.3305106 -0.6709978 0.59381998 4293530880
3.3346517 -0.67172199 0.59595603 4293530880
3.3345561 -0.67159349 0.59663808 4293530880
3.3432686 -0.67323756 0.59818739 4293530880
3.3482208 -0.67412472 0.59836107 4293530880
3.3388174 -0.67212409 0.59527773 4293530880
3.3361912 -0.67148733 0.59270304 4293530880
3.3459535 -0.67334199 0.59161705 4293530880
3.3377807 -0.67159039 0.58667725 4293530880
3.3584783 -0.67564303 0.58608568 4293530880
3.3454289 -0.67291176 0.57893372 4293530880
3.3410971 -0.67193335 0.57263225 4293530880
3.3487599 -0.67336541 0.56770128 4293530880
3.3498642 -0.67347962 0.56098324 4293530880
3.3481505 -0.67302787 0.55314255 4293530880
3.3325267 -0.66978294 0.54241145 4293530880
3.3288169 -0.66893142 0.5330292 4293530880
3.3532915 -0.67373872 0.52746338 4293530880
3.3640451 -0.67579043 0.51903689 4293530880
3.3625917 -0.67539161 0.50810838 4293530880
3.3404267 -0.67083687 0.49355778 4293530880
3.3211656 -0.66614491 0.40584746 4293400320
3.3636715 -0.67455804 0.39584866 4293530880
3.3556461 -0.67284435 0.37933519 4293530880
3.3331716 -0.66823667 0.36091524 4293400320
3.3103898 -0.66356903 0.34227565 4293269760
3.3394973 -0.66929442 0.32855007 4293400320
3.3348663 -0.66826254 0.31103769 4293400320
3.3111904 -0.66341829 0.29156142 4293269760
3.2979314 -0.66066068 0.27286527 4293269760
3.3268595 -0.66634727 0.25724378 4293400320
3.3356552 -0.6680035 0.23958805 4293400320
3.3293083 -0.66662955 0.22057556 4293400320
3.3107607 -0.66281545 0.20065807 4293269760
3.3440084 -0.66936225 0.18354063 4293400320
3.3423855 -0.66893357 0.16414671 4293400320
3.3230767 -0.66496873 0.14383493 4293269760
3.3150742 -0.66326547 0.12400578 4293269760
3.3237653 -0.66489959 0.10464887 4293269760
3.313658 -0.66277623 0.084603198 4293269760
3.3001401 -0.65997201 0.064518437 4293269760
3.2963581 -0.65911376 0.044648588 4293269760
3.2973492 -0.65920931 0.024805574 4293269760
3.3042591 -0.66048694 0.0049256901 4293269760
3.2706971 -0.65368187 -0.014839525 4293139200
3.2933655 -0.65810645 -0.03481403 4293139200
3.2996967 -0.65926802 -0.054747328 4293269760
3.3067217 -0.6605677 -0.074717328 4293269760
3.2988567 -0.65889525 -0.094260752 4293269760
3.3209462 -0.66320056 -0.11466282 4293269760
3.3219905 -0.66330558 -0.13434398 4293269760
3.3224325 -0.66329032 -0.1538675 4293269760
3.2981267 -0.65833902 -0.17192975 4293269760
3.3126497 -0.66113251 -0.19179623 4293269760
3.3132994 -0.66115886 -0.21073468 4293269760
3.3084729 -0.66009325 -0.22907259 4293269760
3.315341 -0.66135907 -0.247991 4293269760
3.3387334 -0.66591758 -0.26805273 4293400320
3.3390801 -0.66588235 -0.28609243 4293400320
3.3277798 -0.66352648 -0.30275977 4293400320
3.275562 -0.65302038 -0.31502283 4293139200
3.3229547 -0.66235703 -0.33654213 4293400320
3.3187461 -0.66141474 -0.35266134 4293400320
3.3256421 -0.66268361 -0.36959097 4293400320
3.2998586 -0.65744615 -0.38237643 4293269760
3.2377505 -0.64497995 -0.39010295 4293139200
3.3463988 -0.66650069 -0.41825515 4293530880
3.3446612 -0.66604942 -0.43257174 4293530880
3.3473125 -0.6664713 -0.44697854 4293530880
3.3448484 -0.66587538 -0.46020031 4293530880
3.3269618 -0.66221201 -0.47069627 4293400320
3.3078299 -0.65830207 -0.48034394 4293400320
3.3177578 -0.66017097 -0.49364614 4293400320
3.3258727 -0.66167873 -0.50618136 4293400320
3.3030984 -0.65704626 -0.51337993 4293400320
3.3135691 -0.65902179 -0.52513427 4293400320
3.3199463 -0.66018319 -0.5356884 4293400320
3.3097322 -0.6580478 -0.54293525 4293400320
3.3039155 -0.65678644 -0.55024028 4293400320
3.304168 -0.65673059 -0.55791193 4293400320
3.2935135 -0.65450883 -0.56307203 4293400320
3.2881575 -0.65333945 -0.56845731 4293400320
3.2528791 -0.64623052 -0.56792772 4293269760
3.2704525 -0.64961338 -0.57595778 4293269760
3.2403202 -0.6435281 -0.57488388 4293139200
3.2532692 -0.64599234 -0.58077985 4293269760
3.1925447 -0.6338405 -0.57277483 4293008640
3.1921947 -0.63366729 -0.57490814 4293008640
3.1967854 -0.63447374 -0.57726598 4293008640
3.2482102 -0.64456594 -0.58744591 4293269760
3.2433696 -0.64350021 -0.58675379 4293139200
3.2632432 -0.64733332 -0.5898568 4293269760
3.2720072 -0.64896321 -0.59025323 4293269760
3.2797976 -0.65039939 -0.58977848 4293269760
3.2884526 -0.65200621 -0.58876193 4293400320
3.2947176 -0.65313882 -0.58661854 4293400320
3.3007388 -0.65422267 -0.58373666 4293400320
3.3084154 -0.65563363 -0.58045268 4293400320
3.313868 -0.65660363 -0.57608503 4293400320
3.3109503 -0.65591621 -0.56958836 4293400320
3.3046601 -0.65456128 -0.56186956 4293400320
3.3040965 -0.65433985 -0.55449277 4293400320
3.305357 -0.65447915 -0.54678279 4293400320
3.2961376 -0.65254515 -0.53672707 4293400320
3.2873185 -0.65069073 -0.52616972 4293269760
3.2887917 -0.65087205 -0.51668286 4293269760
3.3005636 -0.6530894 -0.50818813 4293400320
3.3224394 -0.65730309 -0.5005663 4293400320
3.328943 -0.65847695 -0.48995847 4293400320
3.3058729 -0.65380597 -0.47449136 4293400320
3.279356 -0.64845532 -0.45817772 4293269760
3.2957056 -0.65157461 -0.44739437 4293269760
3.3102303 -0.65433216 -0.43573609 4293400320
3.3119903 -0.65456784 -0.42183706 4293400320
3.2784722 -0.6478377 -0.40309796 4293269760
3.2831719 -0.64865446 -0.38875502 4293269760
3.3097899 -0.65379697 -0.37644193 4293269760
3.3215432 -0.65600413 -0.36183462 4293400320
3.3249905 -0.65657151 -0.34584695 4293400320
3.266947 -0.64500773 -0.32332882 4293139200
3.2960048 -0.65062809 -0.30926454 4293269760
3.3068709 -0.65265876 -0.29294083 4293269760
3.314086 -0.65396869 -0.27587819 4293269760
3.272908 -0.64573783 -0.25464877 4293139200
3.3053863 -0.6520279 -0.23895836 4293269760
3.3123734 -0.65329194 -0.22093676 4293269760
3.3085568 -0.65242684 -0.2019347 4293269760
3.2926588 -0.64918178 -0.18208589 4293269760
3.2964869 -0.64982319 -0.16321366 4293269760
3.3022814 -0.65085161 -0.14421096 4293269760
3.3125341 -0.65275741 -0.12515914 4293269760
3.2796803 -0.64617622 -0.1044582 4293139200
3.2973781 -0.64954746 -0.085375711 4293269760
3.318542 -0.65359968 -0.06606479 4293269760
3.3203764 -0.65384698 -0.046153542 4293269760
3.3090332 -0.65150172 -0.026063375 4293269760
3.3198028 -0.65350676 -0.006139318 4293269760
3.3334494 -0.65607685 0.013927352 4293269760
3.317311 -0.65278947 0.033852465 4293269760
3.3358204 -0.65631479 0.054084532 4293400320
3.3564286 -0.66025132 0.074521504 4293400320
3.3707895 -0.66295874 0.094947793 4293530880
3.3125894 -0.6514076 0.113006 4293269760
3.3469479 -0.65804428 0.13389754 4293400320
3.3513706 -0.65879858 0.15368849 4293400320
3.3475971 -0.65794295 0.17294165 4293400320
3.2717879 -0.64294308 0.1878677 4293139200
3.3487382 -0.65793836 0.21126382 4293400320
3.3627625 -0.66057688 0.23100963 4293400320
3.3529551 -0.65853751 0.24890091 4293400320
3.2808254 -0.64427 0.26148051 4293139200
3.3753421 -0.66270107 0.28705889 4293530880
3.3888426 -0.66523433 0.30605552 4293530880
3.3814249 -0.6636644 0.32286739 4293530880
3.3346674 -0.65438116 0.33531204 4293400320
3.1758096 -0.623124 0.33515871 4292878080
3.3801887 -0.66307777 0.37291935 4293530880
3.3714707 -0.66125476 0.38783225 4293530880
3.3621736 -0.65931886 0.40215823 4293530880
3.3225582 -0.65144402 0.41220468 4293400320
3.2838435 -0.64374834 0.42155319 4293269760
3.3621221 -0.65896821 0.44552213 4293530880
3.3766091 -0.66169173 0.46095583 4293530880
3.3742802 -0.66112214 0.47362798 4293530880
3.3696685 -0.660106 0.48541349 4293530880
3.3675876 -0.65958571 0.49698097 4293530880
3.330857 -0.65228546 0.5027563 4293400320
3.3638425 -0.65862745 0.51840985 4293530880
3.364243 -0.65859336 0.52857089 4293530880
3.3696873 -0.6595459 0.53892577 4293530880
3.3594916 -0.65743989 0.54615331 4293530880
3.3556485 -0.65657675 0.5537383 4293530880
3.362231 -0.65775204 0.5623973 4293530880
3.3670578 -0.65858388 0.57013255 4293661440
3.3567848 -0.65646487 0.574646 4293530880
3.3589118 -0.65676945 0.58058572 4293530880
3.3494465 -0.65480959 0.58383918 4293530880
3.3536189 -0.65551406 0.58876687 4293530880
3.3530626 -0.65529513 0.59218097 4293530880
3.3395572 -0.65254807 0.59260911 4293530880
3.3343937 -0.65143055 0.59380013 4293530880
3.3520739 -0.65477228 0.59834886 4293530880
3.3519762 -0.65464365 0.59903949 4293530880
3.3384597 -0.65189701 0.59663606 4293530880
3.3521178 -0.65445274 0.59836489 4293530880
3.36291 -0.65644878 0.59887236 4293661440
3.3536098 -0.65452588 0.5951122 4293530880
3.3574958 -0.65517491 0.59298563 4293530880
3.355202 -0.6546191 0.58907408 4293530880
3.3623788 -0.65590972 0.58612055 4293530880
3.3589909 -0.655141 0.58064103 4293530880
3.3585274 -0.65494251 0.57499057 4293530880
3.3574862 -0.65463173 0.56857163 4293530880
3.3537486 -0.65379596 0.56104332 4293530880
3.3482752 -0.65262246 0.55259156 4293530880
3.3363879 -0.65020055 0.54248381 4293530880
3.3375213 -0.65031469 0.53388 4293530880
3.3560836 -0.65382171 0.52737808 4293530880
3.3679388 -0.65602225 0.5191288 4293530880
3.3577428 -0.65393102 0.50689292 4293530880
3.3442905 -0.65120697 0.49366128 4293530880
3.3337066 -0.64876688 0.40690741 4293400320
3.3674877 -0.65522993 0.39584193 4293530880
3.36921 -0.65545899 0.38042217 4293530880
3.3369524 -0.64908355 0.36090505 4293400320
3.3141444 -0.64454663 0.34226364 4293269760
3.3432844 -0.6501047 0.32853597 4293400320
3.3425581 -0.64985895 0.31138337 4293400320
3.3198349 -0.64534074 0.29197034 4293269760
3.3065624 -0.64265943 0.27324632 4293269760
3.3257358 -0.64627922 0.25684628 4293269760
3.3345392 -0.64788461 0.23921494 4293400320
3.3330808 -0.64749753 0.22054844 4293400320
3.3145118 -0.64378977 0.20062879 4293269760
3.3379934 -0.64824319 0.18297727 4293400320
3.3337722 -0.64732027 0.16351175 4293400320
3.3366482 -0.64777452 0.14421655 4293400320
3.3251166 -0.64543414 0.12419821 4293269760
3.3151152 -0.64339119 0.10422482 4293269760
3.3174083 -0.64373279 0.084559798 4293269760
3.3176162 -0.64367002 0.064733006 4293269760
3.3000872 -0.64016926 0.044600837 4293269760
3.3108957 -0.64216143 0.024823511 4293269760
3.3079956 -0.64149666 0.0048733884 4293269760
3.2793036 -0.63583511 -0.014918566 4293139200
3.2970879 -0.63917822 -0.034870375 4293139200
3.3171678 -0.6429649 -0.055041503 4293269760
3.3149443 -0.64243126 -0.07488171 4293269760
3.3025825 -0.63993478 -0.094323002 4293269760
3.3335266 -0.64582241 -0.1150368 4293269760
3.3385785 -0.64669657 -0.13493593 4293400320
3.3212781 -0.64324474 -0.15370567 4293269760
3.3067501 -0.64033031 -0.17225645 4293269760
3.316386 -0.64209157 -0.19186661 4293269760
3.3219349 -0.64306158 -0.21112023 4293269760
3.3170998 -0.64202297 -0.22948658 4293269760
3.3151608 -0.64154458 -0.24777 4293269760
3.3376012 -0.64577967 -0.2677328 4293400320
3.3379495 -0.64574277 -0.28574702 4293400320
3.3452177 -0.64704317 -0.30408722 4293400320
3.2792497 -0.6341908 -0.31509811 4293139200
3.319221 -0.64181101 -0.33585879 4293269760
3.3296628 -0.6437242 -0.353504 4293400320
3.3342633 -0.6445083 -0.37021181 4293400320
3.3123493 -0.64017171 -0.38347289 4293269760
3.2511413 -0.62824923 -0.39135531 4293139200
3.3550332 -0.64820361 -0.41894162 4293530880
3.3532903 -0.64776158 -0.43327814 4293530880
3.3510737 -0.64722806 -0.44705242 4293530880
3.3486063 -0.64664608 -0.46027297 4293530880
3.3355615 -0.64402354 -0.47145671 4293400320
3.3164048 -0.64022273 -0.48112017 4293400320
3.3263409 -0.64203393 -0.49443781 4293400320
3.3150403 -0.63974923 -0.50402552 4293400320
3.3213661 -0.64086342 -0.51571023 4293400320
3.3211694 -0.64071983 -0.52581131 4293400320
3.3139746 -0.63922727 -0.53417921 4293400320
3.3221712 -0.640701 -0.54442447 4293400320
3.2979329 -0.6359247 -0.54867625 4293400320
3.3127191 -0.63866752 -0.55878055 4293400320
3.2972093 -0.63557392 -0.56311804 4293400320
3.291847 -0.63443536 -0.5684998 4293400320
3.2786391 -0.63178635 -0.57183248 4293269760
3.274122 -0.6308111 -0.5759927 4293269760
3.2439561 -0.62489903 -0.57491452 4293139200
3.1965878 -0.61567825 -0.57002038 4293008640
3.1961272 -0.61548609 -0.57279682 4293008640
3.2006116 -0.61624515 -0.57579774 4293008640
3.1955385 -0.61516535 -0.57640493 4293008640
3.2605572 -0.62756562 -0.58903039 4293269760
3.2557113 -0.62652761 -0.58833385 4293269760
3.2717402 -0.62950295 -0.59073055 4293269760
3.2756801 -0.63015324 -0.59024674 4293269760
3.2931497 -0.63340342 -0.59150791 4293400320
3.2931263 -0.63329089 -0.58892059 4293400320
3.3032534 -0.63512826 -0.58745784 4293400320
3.3044453 -0.63524848 -0.58370787 4293400320
3.3165433 -0.63746309 -0.58119315 4293400320
3.3175898 -0.63755447 -0.57604432 4293400320
3.3107958 -0.63614041 -0.56887442 4293400320
3.3180583 -0.63742483 -0.56346607 4293400320
3.3126528 -0.63627738 -0.55524814 4293400320
3.3090701 -0.63547987 -0.54671764 4293400320
3.2998405 -0.63359898 -0.53665578 4293400320
3.2871313 -0.63105112 -0.52547026 4293269760
3.2924867 -0.63196856 -0.51659912 4293269760
3.3178663 -0.63672537 -0.51019436 4293400320
3.3287413 -0.63869941 -0.50085658 4293400320
3.3326831 -0.63934356 -0.48985437 4293400320
3.3144493 -0.63573712 -0.47508079 4293400320
3.2966619 -0.63221735 -0.45996949 4293269760
3.2945404 -0.6317001 -0.44661003 4293269760
3.3139482 -0.63530695 -0.43560702 4293400320
3.3205824 -0.63646591 -0.4223237 4293400320
3.2958043 -0.63160914 -0.40464032 4293269760
3.2868581 -0.62978512 -0.38860849 4293269760
3.3183856 -0.63570911 -0.37684473 4293400320
3.3301539 -0.63784921 -0.36220771 4293400320
3.3287215 -0.63746238 -0.34568051 4293400320
3.2754996 -0.62716717 -0.32364497 4293139200
3.2948112 -0.63075018 -0.30862761 4293269760
3.3193848 -0.63533819 -0.29354155 4293269760
3.3178003 -0.6349225 -0.2756899 4293269760
3.2863684 -0.62880045 -0.2552233 4293139200
3.319181 -0.63496089 -0.23949376 4293269760
3.3209822 -0.63519228 -0.22106215 4293269760
3.3259857 -0.63603532 -0.20257007 4293269760
3.2963421 -0.63025874 -0.18187456 4293269760
3.2913432 -0.62919158 -0.16255696 4293139200
3.3108788 -0.63281029 -0.14420703 4293269760
3.3162344 -0.63372016 -0.1249343 4293269760
3.2882509 -0.62826467 -0.10439052 4293139200
3.3098953 -0.63228399 -0.085377753 4293269760
3.318315 -0.63377798 -0.065749332 4293269760
3.3191669 -0.63382733 -0.04584451 4293269760
