# .PCD v0.7 - Point Cloud Data file format
VERSION 0.7
FIELDS x y z rgba
SIZE 4 4 4 4
TYPE F F F U
COUNT 1 1 1 1
WIDTH 1102
HEIGHT 1
VIEWPOINT 0 0 0 1 0 0 0
POINTS 1102
DATA ascii
1.5449369 -2.3665874 0.17004666 4291441920
1.6662533 -2.5519996 0.16614673 4292094720
1.6117502 -2.4685137 0.14408149 4291833600
1.5748464 -2.4119499 0.1243598 4291572480
1.4302777 -2.1907597 0.098051429 4290658560
1.3893346 -2.1280408 0.080548704 4290397440
1.3860518 -2.12291 0.065556973 4290397440
1.3376282 -2.0487649 0.048979063 4290136320
1.3820328 -2.1165438 0.035652008 4290397440
1.3824997 -2.1171472 0.020733159 4290397440
1.3303573 -2.0373294 0.0056347917 4290005760
1.3007995 -1.9920423 -0.0085234288 4289875200
1.3626025 -2.0864036 -0.023749944 4290266880
1.3877019 -2.1246567 -0.039198175 4290397440
1.3457632 -2.0604498 -0.052441712 4290136320
1.3819705 -2.1156759 -0.068714552 4290397440
1.3886231 -2.1257312 -0.083863437 4290397440
1.3886981 -2.1257343 -0.098587193 4290397440
1.3343065 -2.0425119 -0.10869889 4290136320
1.3834342 -2.1174676 -0.12719734 4290397440
1.3824705 -2.1158834 -0.14139281 4290397440
1.3769242 -2.1072979 -0.15489331 4290397440
1.3251629 -2.0281107 -0.1623928 4290005760
1.3871989 -2.1227686 -0.18389241 4290397440
1.3937385 -2.1326444 -0.19845173 4290528000
1.3994627 -2.1412728 -0.21279532 4290528000
1.3792746 -2.1103225 -0.22280003 4290397440
1.2593007 -1.9269749 -0.2150238 4289614080
1.3914195 -2.1286399 -0.25043923 4290528000
1.3984166 -2.1392083 -0.26419118 4290528000
1.3953618 -2.1344252 -0.27577582 4290528000
1.3644762 -2.087146 -0.28123569 4290266880
1.2640116 -1.933635 -0.27087751 4289744640
1.4039229 -2.1471374 -0.31228271 4290528000
1.4081367 -2.1534488 -0.32417527 4290658560
1.4060897 -2.1502008 -0.33427259 4290658560
1.3970586 -2.1362913 -0.3422446 4290528000
1.3397226 -2.0486488 -0.33748567 4290136320
1.3910791 -2.1269162 -0.35977224 4290528000
1.3956573 -2.1337786 -0.36987987 4290528000
1.3920038 -2.1280761 -0.37738308 4290528000
1.3941207 -2.1311796 -0.38601384 4290528000
1.3881984 -2.122014 -0.39194843 4290528000
1.3756264 -2.1027019 -0.39545208 4290397440
1.3757458 -2.1027553 -0.40209544 4290397440
1.3717718 -2.0965626 -0.40705714 4290397440
1.342464 -2.0517204 -0.40386981 4290266880
1.306549 -1.9968036 -0.39796454 4290005760
1.3164748 -2.0118182 -0.4054991 4290136320
1.3161666 -2.0112195 -0.40943331 4290136320
1.3315687 -2.0345812 -0.41783178 4290136320
1.3335022 -2.0373979 -0.42155075 4290136320
1.3360195 -2.0411031 -0.42497176 4290266880
1.3412821 -2.0489933 -0.42878482 4290266880
1.34119 -2.0487163 -0.430388 4290266880
1.3384449 -2.0443931 -0.43063143 4290266880
1.3384479 -2.0442593 -0.43125474 4290266880
1.3357986 -2.0400808 -0.43051592 4290266880
1.3256356 -2.0244477 -0.42684764 4290136320
1.3230805 -2.0204124 -0.42514035 4290136320
1.3157096 -2.0090363 -0.42139328 4290136320
1.307842 -1.9969038 -0.4170126 4290005760
1.3414683 -2.0480063 -0.42536199 4290266880
1.3679552 -2.0882213 -0.43082768 4290397440
1.3745428 -2.0981083 -0.42943352 4290397440
1.3866371 -2.1163824 -0.42921266 4290528000
1.3890114 -2.1198442 -0.42543346 4290528000
1.3927144 -2.1253288 -0.42154744 4290528000
1.3905648 -2.1218958 -0.4153918 4290528000
1.3941948 -2.1272659 -0.41048023 4290528000
1.3841976 -2.1118789 -0.40110198 4290528000
1.3816541 -2.1078451 -0.39348739 4290397440
1.3823367 -2.1087232 -0.38635153 4290397440
1.4017738 -2.1381578 -0.38391879 4290528000
1.4068123 -2.1456637 -0.37695226 4290658560
1.4048593 -2.1425231 -0.36765903 4290528000
1.3912215 -2.1215937 -0.35498086 4290528000
1.3806382 -2.1053162 -0.34284395 4290397440
1.3824612 -2.1079242 -0.33347151 4290397440
1.3927989 -2.1234901 -0.3256965 4290528000
1.4012344 -2.1361578 -0.3169688 4290528000
1.3789188 -2.1020274 -0.30101216 4290397440
1.3769948 -2.0989301 -0.28938302 4290397440
1.3966093 -2.128603 -0.28183198 4290528000
1.4017204 -2.1362054 -0.2708194 4290528000
1.3983911 -2.1309662 -0.25785375 4290528000
1.3699598 -2.0875435 -0.24023449 4290266880
1.3867649 -2.112932 -0.23043415 4290397440
1.3888565 -2.1159384 -0.21774684 4290397440
1.3930955 -2.1222093 -0.20510095 4290397440
1.3699864 -2.0868926 -0.18835917 4290266880
1.389459 -2.1163266 -0.1773487 4290397440
1.3996634 -2.131664 -0.16465926 4290528000
1.3901355 -2.1170008 -0.14944284 4290397440
1.3074569 -1.9911422 -0.12705816 4289875200
1.3861427 -2.1105759 -0.12045623 4290397440
1.3723339 -2.0894105 -0.10490651 4290266880
1.3101594 -1.994746 -0.086285092 4289875200
1.3758304 -2.0943711 -0.076119959 4290266880
1.3945338 -2.122613 -0.062322676 4290397440
1.3874243 -2.1116316 -0.047150813 4290397440
1.3464621 -2.0492225 -0.031250633 4290136320
1.398751 -2.12848 -0.017487751 4290397440
1.3922997 -2.1185002 -0.0024035831 4290397440
1.5199568 -2.3122098 0.01357077 4291180800
-3.3386579 5.0667515 -0.059528187 4278190335
1.6928692 -2.5743973 0.051273156 4292225280
1.6295445 -2.4780245 0.066862203 4291833600
1.534283 -2.3331783 0.079414889 4291311360
1.5895798 -2.4169319 0.099046037 4291572480
1.6601269 -2.5238225 0.12082434 4292094720
1.6862024 -2.5631905 0.14030083 4292225280
1.6402037 -2.4931581 0.15351088 4291964160
1.6306195 -2.4784031 0.1693389 4291833600
1.6772878 -2.5490167 0.19112204 4292094720
1.6506032 -2.5083117 0.20463574 4291964160
1.6383479 -2.4895079 0.21930544 4291964160
1.6509074 -2.5083559 0.23702171 4291964160
1.6854818 -2.5605984 0.25805834 4292225280
1.7056668 -2.5910058 0.27714416 4292355840
1.6490506 -2.5049174 0.28321379 4291964160
1.6428416 -2.4952948 0.29697797 4291964160
1.6357614 -2.4843533 0.31013608 4291964160
1.5943873 -2.4214106 0.3160764 4291703040
1.512114 -2.296464 0.31257048 4291180800
1.4458073 -2.1957462 0.31075999 4290789120
1.3622609 -2.0689089 0.30372292 4290266880
1.3763756 -2.0901403 0.31739166 4290397440
1.4686327 -2.2298181 0.34937233 4290919680
1.4568498 -2.2117822 0.35697863 4290919680
1.4556057 -2.2097225 0.36665115 4290919680
1.4900604 -2.261764 0.38505426 4291050240
1.5460995 -2.3465056 0.40913552 4291441920
1.5218645 -2.3096025 0.411843 4291311360
1.6532717 -2.5085196 0.45653564 4292094720
1.6760437 -2.5428271 0.47173512 4292225280
1.6458408 -2.4968805 0.4715313 4292094720
1.6583273 -2.5156062 0.48285338 4292094720
1.6784574 -2.5459075 0.49597555 4292225280
1.6991597 -2.5770721 0.50886041 4292355840
1.6540784 -2.50861 0.50147212 4292094720
1.6612799 -2.5193312 0.50912732 4292225280
1.6739594 -2.538347 0.51792014 4292225280
1.6812521 -2.5492055 0.52450615 4292355840
1.6891382 -2.560962 0.53069955 4292355840
1.6862152 -2.5563548 0.53290498 4292355840
1.691494 -2.5641654 0.53706801 4292355840
1.6530415 -2.5057819 0.52675033 4292094720
1.6886476 -2.5594995 0.53927922 4292355840
1.6805245 -2.5470295 0.53730255 4292355840
1.6806045 -2.5469766 0.53730267 4292355840
1.6785706 -2.5437264 0.53600115 4292225280
1.6679046 -2.5274165 0.53133744 4292225280
1.6502311 -2.5005076 0.52385831 4292094720
1.7000204 -2.5756707 0.53701842 4292355840
1.6851755 -2.5530441 0.52918631 4292355840
1.6671166 -2.5255601 0.51979983 4292225280
1.644207 -2.4907434 0.50840199 4292094720
1.6797256 -2.5443082 0.51433897 4292225280
1.6563598 -2.5088077 0.50171071 4292094720
1.6466297 -2.4939349 0.49272156 4292094720
1.621145 -2.4552402 0.47860971 4291964160
1.5880532 -2.4050484 0.46195689 4291703040
1.572952 -2.3820674 0.45018983 4291572480
1.4993358 -2.2706163 0.42169312 4291180800
1.46624 -2.2204425 0.40458596 4290919680
1.4573463 -2.2068644 0.39387843 4290919680
1.4215124 -2.1525631 0.37575045 4290658560
1.6577547 -2.5087616 0.36234498 4292094720
1.6820787 -2.5453763 0.35412818 4292225280
1.6802572 -2.5424821 0.33986837 4292225280
1.6866539 -2.552006 0.32684118 4292225280
1.6952375 -2.5648339 0.31374261 4292225280
1.6884264 -2.5544038 0.29745424 4292225280
1.6810348 -2.5430987 0.28086329 4292225280
1.6846077 -2.5483582 0.26581368 4292225280
1.6410013 -2.4823539 0.24346949 4291964160
1.659741 -2.5105255 0.23025489 4291964160
1.6577007 -2.5073097 0.21377315 4291964160
1.6486238 -2.493468 0.19626968 4291964160
1.5776039 -2.3860838 0.17206186 4291572480
1.6366025 -2.4750512 0.16178389 4291833600
1.6545832 -2.5020719 0.14654578 4291964160
1.6204605 -2.4504175 0.12676916 4291703040
1.5125899 -2.287421 0.10265955 4291050240
1.4094363 -2.1315632 0.080962636 4290528000
1.4116458 -2.1347876 0.066140167 4290528000
1.3392181 -2.0253389 0.048601519 4290005760
1.3968858 -2.1122847 0.035694767 4290397440
1.4080654 -2.12905 0.020892961 4290528000
1.3499366 -2.0412011 0.0056381701 4290136320
1.4046086 -2.1236115 -0.0092730466 4290397440
1.4078481 -2.1283903 -0.024385473 4290528000
1.4050274 -2.124023 -0.039362688 4290397440
1.3709987 -2.072561 -0.052989613 4290266880
1.4075258 -2.1275718 -0.069403447 4290528000
1.4120264 -2.1342518 -0.084557168 4290528000
1.4115475 -2.1334176 -0.099357069 4290528000
1.3566698 -2.0505092 -0.10957705 4290136320
1.4012649 -2.1176808 -0.12772562 4290397440
1.4129779 -2.1352396 -0.14327867 4290528000
1.4024131 -2.1191897 -0.15640333 4290397440
1.3529435 -2.044456 -0.164372 4290136320
1.4100136 -2.1304286 -0.18529895 4290528000
1.42047 -2.146086 -0.20050909 4290528000
1.4251305 -2.1529996 -0.21482065 4290658560
1.4047569 -2.1221581 -0.22494839 4290528000
1.2809601 -1.9353545 -0.21682252 4289744640
1.416997 -2.1403849 -0.25282681 4290528000
1.4191021 -2.1434419 -0.26576278 4290528000
1.4105291 -2.1303978 -0.27633736 4290528000
1.3848511 -2.0915651 -0.28294572 4290397440
1.2856858 -1.9419458 -0.27312154 4289744640
1.4268335 -2.1546206 -0.31461036 4290658560
1.4338211 -2.1650324 -0.3272104 4290658560
1.4317489 -2.1617856 -0.3374041 4290658560
1.4101843 -2.1291583 -0.34243488 4290528000
1.3620405 -2.056474 -0.34011194 4290266880
1.4083736 -2.1261828 -0.3610585 4290528000
1.4184607 -2.1412597 -0.372639 4290658560
1.4125819 -2.1322744 -0.37961373 4290528000
1.4109421 -2.1296766 -0.38725203 4290528000
1.4136523 -2.1336327 -0.39564899 4290528000
1.3982319 -2.1102705 -0.39843705 4290528000
1.4010779 -2.1144295 -0.40592194 4290528000
1.391605 -2.1000292 -0.40932998 4290528000
1.3702189 -2.0676835 -0.4086206 4290397440
1.3285248 -2.0047519 -0.40112072 4290136320
1.3385353 -2.0197029 -0.40868962 4290136320
1.3458544 -2.0305977 -0.41501486 4290136320
1.3510314 -2.0382643 -0.42023006 4290266880
1.3584303 -2.0492742 -0.42567876 4290266880
1.3664167 -2.0611665 -0.43084747 4290266880
1.3635501 -2.0567145 -0.43209228 4290266880
1.3661797 -2.0605376 -0.43457657 4290266880
1.363409 -2.0562286 -0.43483073 4290266880
1.3634113 -2.0560932 -0.43546006 4290266880
1.3607383 -2.0519297 -0.43472248 4290266880
1.3504853 -2.0363562 -0.4310506 4290266880
1.3479081 -2.0323367 -0.42933512 4290266880
1.3404729 -2.0210052 -0.42557508 4290136320
1.3352629 -2.0130227 -0.42204052 4290136320
1.3615562 -2.0524454 -0.42795768 4290266880
1.3959143 -2.103996 -0.43579689 4290528000
1.3998363 -2.1097455 -0.43351763 4290528000
1.4093122 -2.1238484 -0.43242133 4290528000
1.4144398 -2.1314068 -0.4294408 4290658560
1.42091 -2.1409826 -0.42633107 4290658560
1.4160151 -2.1334617 -0.41930413 4290658560
1.4116994 -2.1268117 -0.41200191 4290528000
1.4123352 -2.1276081 -0.40568912 4290528000
1.3988347 -2.1071458 -0.39490029 4290528000
1.4077346 -2.1203678 -0.390021 4290528000
1.4196832 -2.1381705 -0.3854292 4290658560
1.4324386 -2.1571827 -0.38047543 4290658560
1.4282817 -2.1507661 -0.37053204 4290658560
1.4139799 -2.1291001 -0.35764503 4290528000
1.4011208 -2.1096053 -0.34489867 4290528000
1.4051518 -2.1154974 -0.33599469 4290528000
1.415586 -2.1310108 -0.32814503 4290528000
1.4295987 -2.1518981 -0.32057786 4290658560
1.3988428 -2.1055124 -0.30270478 4290397440
1.3996572 -2.1065669 -0.29159057 4290397440
1.4194502 -2.136133 -0.28395435 4290528000
1.4235164 -2.1420681 -0.27264315 4290528000
1.4289758 -2.1500945 -0.26121685 4290658560
1.3950653 -2.0989859 -0.24252082 4290397440
1.4095376 -2.1205492 -0.23219135 4290528000
1.4171739 -2.1318426 -0.22027171 4290528000
1.4077016 -2.1174431 -0.20545289 4290397440
1.3904123 -2.0913084 -0.18951704 4290397440
1.4150366 -2.1281049 -0.17906171 4290528000
1.4225699 -2.1392372 -0.16591594 4290528000
1.4101938 -2.120481 -0.15029633 4290397440
1.3295543 -1.9992648 -0.12810244 4290005760
1.4117075 -2.1223984 -0.12163605 4290528000
1.4209994 -2.1361654 -0.1077375 4290528000
1.4230942 -2.1391294 -0.09305238 4290528000
1.4001184 -2.1044748 -0.076818094 4290397440
1.4179652 -2.1310744 -0.062846892 4290528000
1.4130205 -2.123477 -0.047635514 4290397440
1.3374705 -2.0099649 -0.030759227 4290005760
1.427214 -2.1444092 -0.017727368 4290528000
1.4207059 -2.1344674 -0.0024716824 4290528000
1.4163913 -2.1278164 0.012662235 4290528000
1.3508772 -2.0293922 0.026572209 4290136320
1.482959 -2.2272749 0.044760443 4290919680
1.5823785 -2.376152 0.064411201 4291441920
1.5969719 -2.397831 0.081849955 4291572480
1.5624211 -2.3458345 0.096532129 4291311360
1.6670393 -2.5024574 0.1202516 4291964160
1.6535938 -2.482095 0.13641837 4291964160
1.6657875 -2.5001624 0.15450302 4291964160
1.6089996 -2.4148514 0.16565515 4291703040
1.6865698 -2.5308871 0.19048086 4292094720
1.6624194 -2.4944911 0.20427689 4291964160
1.6528242 -2.4799085 0.21928342 4291964160
1.6164306 -2.4251821 0.2300836 4291703040
1.6948384 -2.5424352 0.25720337 4292225280
1.7074593 -2.5611305 0.27500105 4292225280
1.6531122 -2.4795234 0.28141803 4291964160
1.6308253 -2.4459441 0.29224017 4291833600
1.6314263 -2.4466453 0.30661127 4291833600
1.6034981 -2.4046285 0.31508583 4291703040
1.5575221 -2.335597 0.31906775 4291441920
1.448094 -2.1715825 0.30852482 4290658560
1.4117862 -2.1170559 0.3119247 4290528000
1.3260328 -1.9885244 0.30319801 4290005760
1.546955 -2.3190358 0.36465505 4291311360
1.5100609 -2.2636356 0.36669132 4291050240
1.4818516 -2.2212424 0.36995369 4290919680
1.5692301 -2.3518236 0.40183428 4291441920
1.5624937 -2.3415618 0.40983152 4291441920
1.5618389 -2.3404016 0.418899 4291441920
1.7094508 -2.5610602 0.46783441 4292355840
1.6699586 -2.5017869 0.4659214 4292094720
1.6929523 -2.5359926 0.48071444 4292225280
1.6570385 -2.482085 0.47826195 4292094720
1.6800933 -2.5163813 0.49211624 4292225280
1.6900105 -2.5310264 0.50171 4292225280
1.7081915 -2.558028 0.51326609 4292355840
1.6973541 -2.5416362 0.51557988 4292355840
1.6700839 -2.5006783 0.51221144 4292094720
1.6675792 -2.4967539 0.51571578 4292094720
1.6749901 -2.5076549 0.52167809 4292225280
1.6720439 -2.5030732 0.52383149 4292094720
1.690518 -2.5305119 0.53207016 4292225280
1.6772758 -2.5105431 0.52976513 4292225280
1.6799771 -2.5144067 0.53183722 4292225280
1.67452 -2.5060792 0.53071582 4292225280
1.6745987 -2.5060265 0.53071594 4292225280
1.6615876 -2.4864159 0.52597106 4292094720
1.6590414 -2.4824452 0.52391267 4292094720
1.7042698 -2.5498538 0.53620213 4292355840
1.6864973 -2.5231354 0.52811551 4292225280
1.6786412 -2.5112352 0.52254194 4292225280
1.6609656 -2.4846699 0.51337022 4292094720
1.698929 -2.5412152 0.52064931 4292355840
1.6758658 -2.5066075 0.50868326 4292094720
1.66052 -2.4835312 0.49857384 4292094720
1.6977518 -2.5389771 0.50350398 4292225280
1.6929287 -2.5316179 0.49532574 4292225280
1.636107 -2.4466169 0.4717043 4291964160
1.6472747 -2.4631424 0.46722642 4291964160
1.5702443 -2.3479867 0.43766296 4291441920
1.5710006 -2.3489752 0.42953035 4291441920
1.5008092 -2.2440517 0.40201205 4291050240
1.4764419 -2.2075453 0.38676965 4290919680
1.6987075 -2.5383914 0.36799693 4292225280
1.670333 -2.4959118 0.34860325 4292094720
1.6767806 -2.505393 0.33621019 4292094720
1.6909739 -2.5264306 0.32481256 4292094720
1.6918713 -2.5276308 0.31039134 4292094720
1.687207 -2.520535 0.29464671 4292094720
1.6825142 -2.5133979 0.27865475 4292094720
1.6811181 -2.5111802 0.26295212 4292094720
1.6952313 -2.5320957 0.24924596 4292094720
1.6715629 -2.49666 0.22985457 4291964160
1.6806134 -2.5100248 0.21480516 4292094720
1.6603441 -2.4796643 0.19592334 4291964160
1.6230007 -2.4238462 0.17540577 4291703040
1.6586126 -2.4768209 0.16249859 4291964160
1.6874919 -2.519752 0.14811222 4292094720
1.5973773 -2.3852606 0.12390034 4291572480
1.5631871 -2.3341618 0.10509791 4291311360
1.4253294 -2.1285176 0.081137948 4290528000
1.4324127 -2.1389666 0.066497408 4290528000
1.3431972 -2.0058641 0.048314586 4290005760
1.4283262 -2.1326535 0.036134571 4290528000
1.4282452 -2.1324222 0.02097817 4290528000
1.4135369 -2.1103899 0.0057614008 4290397440
1.4230212 -2.1244156 -0.0093396269 4290528000
1.4255762 -2.1281135 -0.024503237 4290528000
1.420164 -2.1199379 -0.039462466 4290528000
1.3936353 -2.0802965 -0.053427409 4290266880
1.4282528 -2.1317708 -0.069841236 4290528000
1.4378037 -2.1458907 -0.085386135 4290528000
1.4350902 -2.141736 -0.10016669 4290528000
1.3847388 -2.0666094 -0.11090817 4290266880
1.4241545 -2.1252208 -0.12871259 4290528000
1.4309586 -2.1352453 -0.14386342 4290528000
1.425862 -2.1275408 -0.15766503 4290528000
1.3698368 -2.0439785 -0.16499881 4290136320
1.4329643 -2.1378942 -0.18670569 4290528000
1.445168 -2.155956 -0.20225127 4290658560
1.450982 -2.1644993 -0.21684627 4290658560
1.4304236 -2.1337678 -0.22709703 4290528000
1.3083102 -1.9518117 -0.21955925 4289875200
1.4372101 -2.1436422 -0.25422764 4290658560
1.4448749 -2.1549377 -0.26826614 4290658560
1.4389914 -2.1460598 -0.27949426 4290658560
1.4103099 -2.1032405 -0.28567085 4290397440
1.3025155 -1.9426496 -0.27431086 4289744640
1.4498787 -2.1619093 -0.31693819 4290658560
1.4547088 -2.1689775 -0.32911468 4290789120
1.4575903 -2.1731436 -0.34053588 4290789120
1.4336189 -2.1373413 -0.34512496 4290658560
1.3900192 -2.0723298 -0.34411114 4290397440
1.4339892 -2.137646 -0.36445734 4290658560
1.4386388 -2.1444404 -0.37467718 4290658560
1.4431863 -2.1510811 -0.38449883 4290658560
1.4365606 -2.1410952 -0.39088348 4290658560
1.4337763 -2.1368246 -0.39781567 4290658560
1.423727 -2.1217451 -0.40220287 4290528000
1.4188811 -2.1144073 -0.40752736 4290528000
1.4170312 -2.111526 -0.41321319 4290528000
1.3877466 -2.0678353 -0.4102709 4290397440
1.3478861 -2.0084188 -0.40345111 4290136320
1.3607321 -2.0273986 -0.41188034 4290266880
1.373612 -2.0464253 -0.41992238 4290266880
1.3733317 -2.0458777 -0.4234786 4290266880
1.3813424 -2.0576582 -0.429122 4290397440
1.3860983 -2.0645962 -0.43327779 4290397440
1.3887014 -2.0683317 -0.43626565 4290397440
1.3831081 -2.0598793 -0.43615881 4290397440
1.3885562 -2.0678415 -0.43903029 4290397440
1.3808633 -2.056267 -0.43722299 4290397440
1.3809143 -2.0562038 -0.43735856 4290397440
1.3782667 -2.0521281 -0.43612579 4290266880
1.3679718 -2.0366864 -0.43196377 4290266880
1.3599221 -2.0245824 -0.42802206 4290266880
1.3497179 -2.0092771 -0.42292219 4290136320
1.3866913 -2.0640748 -0.43210015 4290397440
1.415851 -2.1072536 -0.43820563 4290528000
1.4198085 -2.1129823 -0.43590799 4290528000
1.4251209 -2.1207221 -0.43349504 4290658560
1.437847 -2.1394722 -0.43278363 4290658560
1.4410717 -2.1441057 -0.42865038 4290658560
1.4469407 -2.1526647 -0.42477506 4290658560
1.4370809 -2.1378615 -0.41579714 4290658560
1.429671 -2.1266978 -0.4071258 4290658560
1.4353683 -2.1349978 -0.40173542 4290658560
1.4277937 -2.1235895 -0.39216951 4290528000
1.4481356 -2.1536293 -0.38977361 4290658560
1.4554832 -2.1643724 -0.38326883 4290789120
1.4485297 -2.1538835 -0.372549 4290658560
1.4341062 -2.1323066 -0.35961324 4290658560
1.4161558 -2.1054976 -0.34559539 4290528000
1.4335165 -2.131098 -0.33983636 4290658560
1.4412789 -2.1424496 -0.33123323 4290658560
1.4427146 -2.1444104 -0.32073152 4290658560
1.4271772 -2.1211858 -0.30619124 4290528000
1.428007 -2.1222475 -0.29495049 4290528000
1.447981 -2.1517093 -0.28718412 4290658560
1.4465326 -2.1493874 -0.2746779 4290658560
1.4526007 -2.1582141 -0.26326284 4290658560
1.4103271 -2.0953395 -0.2430694 4290397440
1.4324459 -2.1279724 -0.23394877 4290528000
1.4351401 -2.1317937 -0.22115482 4290528000
1.4422491 -2.1421599 -0.20871314 4290658560
1.4159539 -2.1029963 -0.19135875 4290397440
1.4435872 -2.143791 -0.181128 4290658560
1.4405894 -2.1391697 -0.16658641 4290528000
1.4359221 -2.1320741 -0.1517463 4290528000
1.3517905 -2.0071971 -0.12914692 4290005760
1.4350017 -2.1303556 -0.12260349 4290528000
1.4382528 -2.1349959 -0.10812542 4290528000
1.415435 -2.1010056 -0.091743961 4290397440
1.4275773 -2.1188214 -0.077683821 4290528000
1.4460164 -2.1459634 -0.063573554 4290528000
1.4359877 -2.1309266 -0.04802284 4290528000
1.3943049 -2.0690019 -0.031868357 4290266880
1.4480761 -2.1484752 -0.017860645 4290658560
1.4350926 -2.1290653 -0.0024965971 4290528000
1.5844792 -2.3501227 0.013812976 4291441920
-3.3974707 5.0275335 -0.059438705 4278190335
1.6951278 -2.5135679 0.050437752 4292094720
1.6228852 -2.4063959 0.065433614 4291703040
1.6016504 -2.3747573 0.08136972 4291572480
1.6070042 -2.3824842 0.098366179 4291572480
1.7108893 -2.5360582 0.12228834 4292225280
1.696939 -2.5151992 0.13872446 4292094720
1.6450992 -2.4382684 0.15128663 4291833600
1.6325547 -2.419502 0.16659212 4291703040
1.6822852 -2.4928892 0.1883554 4291964160
1.6584876 -2.4574718 0.20203315 4291833600
1.6432283 -2.4346936 0.21613486 4291833600
1.6532233 -2.4492795 0.23323275 4291833600
1.7018086 -2.5209479 0.25601575 4292094720
1.7061727 -2.5271969 0.27241668 4292225280
1.6956155 -2.5113771 0.28609693 4292094720
1.6935897 -2.5081773 0.30077299 4292094720
1.6688557 -2.4713986 0.31087944 4291964160
1.6583399 -2.4556506 0.32296395 4291964160
1.5393708 -2.2795553 0.31265113 4291180800
1.4529309 -2.1515803 0.30687305 4290658560
1.4174119 -2.098902 0.31045327 4290397440
-3.3751893 4.9855342 -0.75646186 4278190335
1.5148567 -2.2425992 0.35405448 4291050240
1.5247182 -2.2569981 0.36702871 4291180800
1.5813856 -2.3405666 0.39122713 4291441920
1.5989983 -2.3664117 0.40587327 4291572480
1.6249324 -2.4045491 0.4224278 4291703040
1.5804378 -2.3386252 0.4201971 4291441920
1.7138122 -2.53549 0.46497032 4292225280
1.6789656 -2.4838209 0.46437535 4292094720
1.6916375 -2.5023525 0.47619525 4292094720
1.7120864 -2.5323694 0.48979831 4292225280
1.6736944 -2.4754794 0.48601928 4292094720
1.6864694 -2.4941635 0.49634209 4292094720
1.7020468 -2.5169842 0.50701433 4292225280
1.712133 -2.5316949 0.51555741 4292355840
1.7145239 -2.5350425 0.52123344 4292355840
1.6688306 -2.4674001 0.51164716 4292094720
1.676307 -2.4782624 0.51758116 4292094720
1.6760989 -2.4777806 0.52056485 4292094720
1.6704208 -2.4692261 0.52124006 4292094720
1.6758504 -2.4770689 0.52475083 4292094720
1.6730493 -2.4727647 0.52508605 4292094720
1.6730689 -2.4726248 0.52568442 4292094720
1.7240255 -2.5476527 0.54158986 4292355840
1.7269284 -2.5517654 0.54183626 4292355840
1.7138644 -2.5323203 0.53647089 4292355840
1.7008559 -2.5129604 0.53051835 4292225280
1.692876 -2.5010235 0.52553171 4292225280
1.6749955 -2.4744844 0.51691693 4292094720
1.6593732 -2.4512811 0.50845867 4291964160
1.6954479 -2.5043349 0.51510805 4292225280
1.6743915 -2.4731205 0.50385648 4292094720
1.6644423 -2.458292 0.49543729 4291964160
1.706977 -2.5208662 0.50186163 4292225280
1.7054331 -2.518434 0.49466389 4292225280
1.7061467 -2.5193324 0.48754773 4292225280
1.677678 -2.4772041 0.47170144 4292094720
1.6321621 -2.4099481 0.45090047 4291833600
1.571366 -2.3201745 0.42592785 4291441920
1.5284504 -2.2567718 0.40584284 4291180800
1.4879655 -2.1969607 0.38641152 4290919680
1.7000831 -2.5087249 0.36511958 4292094720
1.711831 -2.5258954 0.35412589 4292225280
1.7099761 -2.5230227 0.33986366 4292225280
1.6866736 -2.4885523 0.32119843 4292094720
1.6931555 -2.4979658 0.30794525 4292094720
1.685648 -2.4867702 0.29183573 4291964160
1.6786681 -2.4763541 0.2756221 4291964160
1.687323 -2.4889696 0.26163375 4291964160
1.6937158 -2.4982526 0.24687164 4292094720
1.6754353 -2.4711952 0.22838812 4291964160
1.6711104 -2.4646947 0.21175259 4291964160
1.6557002 -2.4418702 0.19368705 4291833600
1.5697968 -2.3152401 0.16825308 4291311360
1.6460843 -2.4274542 0.1598842 4291703040
1.7049466 -2.5139992 0.14831759 4292094720
1.6247624 -2.395807 0.12488776 4291572480
1.6222373 -2.3919647 0.10803461 4291572480
1.4490227 -2.1368303 0.081728064 4290528000
1.4583291 -2.1504202 0.067065358 4290658560
1.4136794 -2.0845814 0.050292712 4290397440
1.4511787 -2.1396725 0.036347181 4290528000
1.4507079 -2.138869 0.021075008 4290528000
1.4435431 -2.1282134 0.0057724891 4290528000
1.445544 -2.1310484 -0.0094569214 4290528000
1.4519556 -2.1403744 -0.02479874 4290528000
1.4513731 -2.1394067 -0.040046319 4290528000
1.4312795 -2.1097276 -0.054470964 4290397440
1.4510992 -2.1387825 -0.070401885 4290528000
1.4592739 -2.1506999 -0.085968517 4290658560
1.4582125 -2.1490266 -0.1009604 4290658560
1.4023679 -2.0667546 -0.11140238 4290266880
1.4544253 -2.1432314 -0.13038245 4290658560
1.455165 -2.1442072 -0.14509659 4290658560
1.4595432 -2.1505353 -0.16007042 4290658560
1.3923762 -2.0516245 -0.16632697 4290266880
1.4610435 -2.1525149 -0.18879017 4290658560
1.4722813 -2.1689291 -0.20433618 4290658560
1.4686067 -2.1634095 -0.21764511 4290658560
1.4478676 -2.1327946 -0.22794166 4290528000
1.3302926 -1.9597821 -0.22138339 4289875200
1.4580646 -2.1475587 -0.25575468 4290658560
1.4708252 -2.1662049 -0.27079746 4290789120
1.4648753 -2.1573384 -0.28213632 4290658560
1.4331528 -2.1105809 -0.28785914 4290528000
1.3300053 -1.958824 -0.27775216 4289875200
1.4758438 -2.1731045 -0.31990105 4290789120
1.4807085 -2.1801336 -0.33217725 4290789120
1.4780302 -2.176074 -0.34239742 4290789120
1.4692984 -2.1631162 -0.35074183 4290789120
1.4126517 -2.0797379 -0.34676227 4290397440
1.4569964 -2.1447885 -0.3671768 4290658560
1.4644643 -2.1556382 -0.37818184 4290789120
1.4665991 -2.158649 -0.38743234 4290789120
1.4661924 -2.1579239 -0.39557615 4290789120
1.4623203 -2.1521068 -0.40230533 4290789120
1.4493984 -2.1329927 -0.40598932 4290658560
1.441727 -2.121594 -0.41058013 4290658560
1.4404123 -2.1195333 -0.41647065 4290658560
1.4130911 -2.0792701 -0.41422281 4290397440
1.3728814 -2.0200799 -0.40744859 4290266880
1.3858343 -2.0389781 -0.41592011 4290266880
1.3938291 -2.0505912 -0.42248222 4290397440
1.4040821 -2.0655181 -0.4292891 4290397440
1.4010673 -2.0609586 -0.43154761 4290397440
1.4141796 -2.0800793 -0.43830097 4290528000
1.4140309 -2.0797255 -0.4404459 4290528000
1.4061701 -2.0680478 -0.4396576 4290397440
1.4166536 -2.0833013 -0.44410449 4290528000
1.4061217 -2.0677016 -0.44143015 4290397440
1.4006293 -2.0595 -0.43981981 4290397440
1.4007308 -2.059509 -0.43945509 4290397440
1.3931198 -2.0481975 -0.43615481 4290397440
1.3850018 -2.0361421 -0.43219814 4290266880
1.3719379 -2.0168295 -0.42621469 4290266880
1.4120063 -2.0754836 -0.43623242 4290397440
1.4364263 -2.1111674 -0.44077238 4290658560
1.443195 -2.1209481 -0.43929985 4290658560
1.4550617 -2.1382051 -0.4388217 4290658560
1.4580625 -2.1424525 -0.43510959 4290658560
1.4646511 -2.1519611 -0.4319334 4290789120
1.4594574 -2.1441853 -0.42476952 4290658560
1.4656383 -2.1530921 -0.42042857 4290789120
1.4609526 -2.1460605 -0.41247177 4290658560
1.4555752 -2.1380141 -0.40389153 4290658560
1.4562914 -2.1389034 -0.39656591 4290658560
1.468459 -2.1565814 -0.39184397 4290789120
1.4736435 -2.1640179 -0.38470861 4290789120
1.4744407 -2.1650205 -0.37595114 4290789120
1.4576669 -2.1402655 -0.36237296 4290658560
1.4524012 -2.1323812 -0.35139716 4290658560
1.4646842 -2.1502173 -0.34423628 4290658560
1.4710742 -2.1594133 -0.33516669 4290789120
1.4707973 -2.1588376 -0.32415211 4290789120
1.4501458 -2.1284065 -0.30842623 4290658560
1.4537793 -2.1335609 -0.29767445 4290658560
1.4688982 -2.1555405 -0.28880268 4290658560
1.4724865 -2.1606243 -0.27717954 4290658560
1.473004 -2.1612084 -0.26463479 4290658560
1.4435616 -2.1179097 -0.24664001 4290528000
1.4554892 -2.1352069 -0.23563665 4290658560
1.4677689 -2.1530163 -0.22421393 4290658560
1.462575 -2.1452351 -0.20979536 4290658560
1.4388674 -2.1103466 -0.19274583 4290528000
1.4693336 -2.154779 -0.18273517 4290658560
1.4687879 -2.1538026 -0.16834949 4290658560
1.4618332 -2.1434445 -0.15311469 4290658560
1.3797967 -2.0231876 -0.13065322 4290136320
1.4609121 -2.141742 -0.12369866 4290658560
1.461376 -2.1422434 -0.10886856 4290658560
1.4411824 -2.1125147 -0.092561752 4290528000
1.4562514 -2.1343889 -0.078515843 4290528000
1.4720311 -2.1572993 -0.06410782 4290658560
1.4675592 -2.1505771 -0.04860945 4290658560
1.4226977 -2.0847707 -0.032188307 4290397440
1.4679601 -2.1508052 -0.017884942 4290658560
1.4365327 -2.1046588 -0.002388671 4290397440
1.5671083 -2.2954528 0.013664312 4291180800
1.5211803 -2.2280965 0.029263441 4290919680
1.6939692 -2.480576 0.050081145 4291964160
1.6205062 -2.3729551 0.064886287 4291572480
1.5911877 -2.3298934 0.080263503 4291311360
1.660149 -2.4305151 0.10079145 4291833600
1.7177314 -2.5144868 0.12183103 4292094720
1.7008406 -2.4895895 0.13796087 4291964160
1.6457357 -2.4088452 0.15015861 4291703040
1.6274469 -2.3819187 0.16476503 4291572480
1.6860639 -2.4673796 0.18727033 4291964160
1.7097896 -2.5018444 0.20654689 4292094720
1.6964504 -2.4821496 0.22126758 4291964160
1.6483111 -2.411618 0.23066606 4291703040
1.6973196 -2.4830143 0.25327337 4291964160
1.7073542 -2.4974699 0.27038309 4292094720
1.7017726 -2.489115 0.28478155 4292094720
1.6974825 -2.4826486 0.29898939 4292094720
1.6697291 -2.4419191 0.30848682 4291833600
1.6456459 -2.4065561 0.31787229 4291703040
1.5279115 -2.2344575 0.30778337 4291050240
1.508693 -2.2062206 0.31592804 4290919680
1.4537299 -2.1258061 0.31571308 4290658560
-3.4041598 4.9657907 -0.75660199 4278190335
1.5224001 -2.2257075 0.35285199 4291050240
1.5676863 -2.2916315 0.37416556 4291311360
1.5893866 -2.3231239 0.38991994 4291441920
1.6049132 -2.3456032 0.40396857 4291572480
1.6310724 -2.383595 0.42047393 4291703040
1.6410121 -2.3979166 0.43255839 4291703040
1.7179248 -2.5099497 0.46217763 4292225280
1.6771945 -2.45034 0.45999989 4291964160
1.698359 -2.4810309 0.47406504 4292094720
1.7189853 -2.5109334 0.48762971 4292225280
1.6746835 -2.4461315 0.48221481 4291964160
1.6925938 -2.4720736 0.49394062 4292094720
1.7083063 -2.494808 0.50457966 4292225280
1.7162496 -2.5062108 0.51242942 4292225280
1.7208931 -2.5128019 0.51874018 4292225280
1.7289319 -2.5243437 0.5254969 4292355840
1.674546 -2.444875 0.51266307 4291964160
1.6849272 -2.4598377 0.51885802 4292094720
1.6931329 -2.4716282 0.52380919 4292094720
1.6874628 -2.4631927 0.52388102 4292094720
1.6796219 -2.451596 0.52265644 4291964160
1.6874428 -2.4628277 0.5256651 4292094720
1.6797185 -2.4514053 0.52324188 4291964160
1.7256006 -2.5181022 0.53680229 4292355840
1.7230129 -2.5141649 0.53471363 4292225280
1.7154663 -2.5030041 0.53047723 4292225280
1.6940354 -2.4716177 0.52138734 4292094720
1.6810176 -2.4524932 0.51431906 4291964160
1.6652589 -2.4293797 0.5058735 4291964160
1.7016402 -2.4822206 0.51253664 4292094720
1.685982 -2.4592571 0.50296032 4292094720
1.7210045 -2.510113 0.50777113 4292225280
1.7138169 -2.4994898 0.49951375 4292225280
1.7144915 -2.5003188 0.49297953 4292225280
1.675128 -2.4428453 0.47458687 4291964160
1.6892889 -2.4633179 0.47083062 4292094720
1.6758782 -2.4436438 0.45888934 4291964160
1.6695622 -2.434303 0.4484508 4291964160
1.5645293 -2.2812462 0.41174448 4291311360
1.5545385 -2.2665684 0.40006495 4291180800
1.6927466 -2.4668474 0.36045846 4291964160
1.7208986 -2.5076761 0.35295883 4292225280
1.7167721 -2.5015335 0.33830214 4292094720
1.6955178 -2.4704719 0.32012528 4291964160
1.6964159 -2.4716442 0.30591238 4291964160
1.6894011 -2.4613049 0.28999734 4291964160
1.6846118 -2.454205 0.27424383 4291964160
1.6939002 -2.4675853 0.26041913 4291964160
1.6946967 -2.4686124 0.24492247 4291964160
1.686986 -2.4572659 0.22800362 4291964160
1.6797962 -2.4466791 0.21104544 4291833600
1.6670779 -2.4280531 0.1933604 4291833600
1.6111503 -2.3465908 0.1711783 4291441920
1.6681262 -2.4293234 0.16063854 4291833600
1.709417 -2.4892395 0.14745794 4292094720
1.6707767 -2.4329247 0.12729761 4291833600
1.6225606 -2.3626928 0.1071618 4291572480
1.4835435 -2.1604517 0.082941584 4290658560
1.4765124 -2.1501181 0.067326881 4290658560
1.4422381 -2.1001804 0.050861593 4290397440
1.4746168 -2.1471407 0.03661954 4290658560
1.4802027 -2.1551502 0.021314036 4290658560
1.4617522 -2.1282208 0.0058053229 4290528000
1.466452 -2.1349423 -0.0095040379 4290528000
1.4723848 -2.1434553 -0.024923196 4290658560
1.4776456 -2.1509905 -0.040419459 4290658560
1.4427199 -2.1001244 -0.054415185 4290397440
1.4773657 -2.1503623 -0.07105834 4290658560
1.4870771 -2.1643627 -0.08685302 4290658560
1.4894094 -2.1676397 -0.10223747 4290789120
1.4359144 -2.0898023 -0.11309509 4290397440
1.4788353 -2.1520519 -0.13142706 4290658560
1.4829174 -2.1578703 -0.14659268 4290658560
1.4748937 -2.1461012 -0.16034992 4290658560
1.4207195 -2.0672932 -0.16825703 4290397440
1.4826658 -2.1571651 -0.18993154 4290658560
1.4888514 -2.1660357 -0.20484908 4290789120
1.4919318 -2.1703947 -0.21919852 4290789120
1.4738348 -2.143996 -0.23003653 4290658560
1.3524243 -1.9675623 -0.22313274 4290005760
1.4920075 -2.1701555 -0.25946981 4290789120
1.4925056 -2.1707613 -0.27242666 4290789120
1.4802568 -2.1528575 -0.28264308 4290658560
1.4589608 -2.1218193 -0.29053092 4290658560
1.3549238 -1.9706554 -0.28053325 4290005760
1.5020028 -2.184072 -0.32278234 4290919680
1.5075139 -2.1919503 -0.33529562 4290919680
1.5070062 -2.1910901 -0.34612489 4290919680
1.4826076 -2.1555507 -0.35088056 4290789120
1.4382416 -2.091033 -0.35002664 4290528000
1.4829588 -2.1558137 -0.37052679 4290789120
1.4854305 -2.1592762 -0.38031644 4290789120
1.4900452 -2.1658473 -0.3902649 4290789120
1.4860991 -2.1599936 -0.39752239 4290789120
1.485498 -2.1589935 -0.40519637 4290789120
1.4696579 -2.1358817 -0.40815341 4290658560
1.4725633 -2.1399684 -0.41579679 4290789120
1.4306891 -2.0790889 -0.41011193 4290528000
1.4414285 -2.0945413 -0.41894108 4290528000
1.3952717 -2.0274577 -0.41057536 4290266880
1.4083315 -2.0462747 -0.41908354 4290397440
1.4191886 -2.0618935 -0.42652199 4290397440
1.4239316 -2.0686419 -0.43166542 4290397440
1.4292779 -2.0762634 -0.4365131 4290528000
1.4369068 -2.0871925 -0.44157657 4290528000
1.4395504 -2.0908904 -0.44460642 4290528000
1.439448 -2.0906053 -0.44626996 4290528000
1.4393964 -2.0903924 -0.44742694 4290528000
1.4366006 -2.0862002 -0.44720373 4290528000
1.4316199 -2.07884 -0.44577336 4290528000
1.4233351 -2.0666904 -0.44279155 4290397440
1.420692 -2.0627184 -0.44105509 4290397440
1.4074721 -2.0434163 -0.43552545 4290397440
1.4026881 -2.0363417 -0.43212369 4290266880
1.4425418 -2.0939536 -0.44194317 4290528000
1.4322637 -2.0789127 -0.43580055 4290528000
1.4712048 -2.1351888 -0.44409269 4290789120
1.4710155 -2.134762 -0.43993065 4290789120
1.4867669 -2.1574283 -0.43998861 4290789120
1.4895505 -2.1613042 -0.43562898 4290789120
1.4884048 -2.1594868 -0.42960724 4290789120
1.4860103 -2.1558599 -0.42274186 4290789120
1.4812869 -2.1488595 -0.41475552 4290789120
1.475866 -2.1408489 -0.40614322 4290789120
1.479399 -2.1458044 -0.39954415 4290789120
1.4972936 -2.1715539 -0.39626333 4290789120
1.5053406 -2.1830401 -0.38977247 4290919680
1.5005286 -2.1759071 -0.37948024 4290919680
1.4886835 -2.1585922 -0.36707598 4290789120
1.4704385 -2.1320155 -0.35286722 4290658560
1.4824786 -2.1492772 -0.34559247 4290789120
1.4903867 -2.1605551 -0.33682302 4290789120
1.4974999 -2.1706803 -0.32738665 4290789120
1.478888 -2.1435761 -0.31202573 4290658560
1.4718392 -2.1332071 -0.29896441 4290658560
1.4893408 -2.15836 -0.2904951 4290789120
1.5025674 -2.1773236 -0.28061512 4290789120
1.4958085 -2.1673715 -0.26662138 4290789120
1.4618138 -2.1180234 -0.24780558 4290528000
1.4899887 -2.1586049 -0.2393654 4290789120
1.4870784 -2.1542211 -0.22541435 4290658560
1.4824741 -2.1473875 -0.21102776 4290658560
1.4726886 -2.1330626 -0.19580294 4290658560
1.4871926 -2.1538603 -0.18357503 4290658560
1.4949344 -2.1648772 -0.17009418 4290789120
1.4799753 -2.1430736 -0.15389411 4290658560
1.4000825 -2.0274065 -0.13164021 4290136320
1.4870051 -2.1528821 -0.12505037 4290658560
1.4848586 -2.1496024 -0.10988966 4290658560
1.4648401 -2.1204937 -0.093493789 4290528000
1.4794708 -2.1414614 -0.07930547 4290658560
1.4886099 -2.15449 -0.064489558 4290658560
1.4908783 -2.1575892 -0.049183257 4290658560
1.4484817 -2.0961583 -0.032714028 4290397440
1.488439 -2.1537075 -0.018200627 4290658560
1.4732512 -2.1315901 -0.0026699542 4290658560
1.6229496 -2.3476346 0.013748278 4291441920
1.5871392 -2.2957206 0.029979134 4291311360
1.6918939 -2.4468105 0.049371567 4291833600
1.6889548 -2.4423637 0.066744119 4291833600
1.652915 -2.3901238 0.082371779 4291703040
1.6634797 -2.4051793 0.099911027 4291703040
1.7266741 -2.496212 0.1211856 4292094720
1.7016759 -2.4599204 0.13663109 4291964160
1.7100111 -2.4717491 0.15439244 4291964160
1.6276634 -2.3526931 0.16317637 4291572480
1.6924666 -2.4460235 0.18615912 4291964160
1.716396 -2.4803553 0.205357 4292094720
1.7001047 -2.4566453 0.21964251 4291964160
1.6572385 -2.3945966 0.2297287 4291703040
1.7038264 -2.4616156 0.25186849 4291964160
1.7196234 -2.4842052 0.26979068 4292094720
1.6975445 -2.4521563 0.28146732 4291964160
1.6847198 -2.4334614 0.29404455 4291833600
1.6754447 -2.4198897 0.30671772 4291833600
1.6409624 -2.3699684 0.31410289 4291572480
1.5329936 -2.214087 0.30601475 4291050240
1.483005 -2.1418331 0.30780041 4290658560
1.4551939 -2.1015666 0.31320134 4290528000
-3.4330738 4.9459229 -0.75618958 4278190335
1.6409093 -2.3689599 0.37674922 4291703040
1.6186895 -2.3367472 0.3828353 4291572480
1.6343341 -2.3591161 0.39733446 4291572480
1.6635244 -2.4010053 0.41494176 4291833600
1.6257672 -2.3464093 0.41543218 4291572480
1.638618 -2.3647494 0.4281463 4291703040
1.7240818 -2.4877167 0.45977074 4292225280
1.6863884 -2.4332216 0.45847562 4291964160
1.6992832 -2.451618 0.47019708 4292094720
1.7172722 -2.4773514 0.48292062 4292094720
1.680479 -2.4241695 0.47968799 4291964160
1.6934773 -2.4427152 0.48993132 4291964160
1.7121383 -2.4694152 0.50135088 4292094720
1.7173375 -2.4767251 0.50834751 4292094720
1.7304567 -2.495441 0.51713783 4292225280
1.7351893 -2.502079 0.52287978 4292225280
1.6859629 -2.4310238 0.511738 4291964160
1.6835028 -2.4273121 0.51401013 4291964160
1.7373471 -2.5046618 0.53285646 4292225280
1.6911163 -2.4379375 0.52056324 4291964160
1.6882651 -2.4336672 0.52089417 4291964160
1.7344105 -2.499923 0.53566962 4292225280
1.7344885 -2.4998677 0.53567505 4292225280
1.7318165 -2.4958558 0.53420824 4292225280
1.7213342 -2.4806066 0.52972651 4292225280
1.7137191 -2.4694862 0.52551812 4292094720
1.7033479 -2.4544032 0.51987684 4292094720
1.6874046 -2.4313061 0.51197916 4291964160
1.7212185 -2.4797995 0.51845866 4292225280
1.7025666 -2.4528098 0.50858265 4292094720
1.6895843 -2.4339805 0.49988258 4291964160
1.7220823 -2.4805756 0.50391966 4292225280
1.7148271 -2.4699872 0.49571967 4292094720
1.7183179 -2.4748569 0.49004701 4292094720
1.729746 -2.4911423 0.48599702 4292225280
1.7013495 -2.450156 0.47033578 4292094720
1.6629952 -2.3948562 0.45170921 4291833600
1.6417313 -2.3641388 0.43747512 4291703040
1.6210841 -2.3343129 0.42312521 4291572480
1.6055709 -2.311873 0.40982562 4291441920
1.6991422 -2.4455283 0.3587715 4291964160
1.7246903 -2.4821095 0.35075757 4292094720
1.7256316 -2.483326 0.33717555 4292094720
1.7019218 -2.4491196 0.3186211 4291964160
1.7028227 -2.4502811 0.30447254 4291964160
1.6929007 -2.4358928 0.28814352 4291964160
1.6965981 -2.4410744 0.27384824 4291964160
1.6917341 -2.4339559 0.25789157 4291833600
1.703348 -2.4505115 0.24407867 4291964160
1.6932901 -2.4359334 0.22690816 4291833600
1.7244365 -2.4805458 0.21475662 4292094720
1.6732056 -2.4068282 0.19241221 4291703040
1.7170154 -2.4696267 0.18072985 4291964160
1.7263941 -2.4829681 0.16475305 4292094720
1.7021936 -2.4480834 0.14558178 4291964160
1.7108594 -2.4604015 0.12917624 4291964160
1.6404952 -2.3592308 0.10738231 4291572480
1.525142 -2.193469 0.084464498 4290919680
1.4998622 -2.157058 0.067754164 4290658560
1.4220446 -2.0452178 0.049724486 4290266880
1.5036672 -2.1622994 0.036953248 4290789120
1.500728 -2.1579688 0.02136365 4290658560
1.4849793 -2.1352499 0.0057786456 4290658560
1.4925762 -2.1460459 -0.0096669905 4290658560
1.4985583 -2.1545224 -0.0252298 4290658560
1.5010043 -2.157923 -0.040788248 4290658560
1.4709257 -2.1146412 -0.055094689 4290528000
1.5035756 -2.1613915 -0.071792819 4290789120
1.5105094 -2.171231 -0.087560117 4290789120
1.5105822 -2.1712236 -0.10289819 4290789120
1.4537685 -2.0895851 -0.11361355 4290397440
1.4938487 -2.1469882 -0.13171963 4290658560
1.5017844 -2.158263 -0.14729016 4290789120
1.5039129 -2.1612043 -0.16222343 4290789120
1.4464228 -2.0786114 -0.16994961 4290397440
1.5088862 -2.1681125 -0.19175771 4290789120
1.5208192 -2.1851165 -0.20758805 4290919680
1.517706 -2.1805353 -0.22120458 4290789120
1.4999621 -2.154968 -0.23224059 4290789120
1.3854921 -1.9906687 -0.22676523 4290136320
1.5182747 -2.1810014 -0.26191431 4290919680
1.5187697 -2.1815937 -0.27498671 4290919680
1.5143712 -2.1751676 -0.28683043 4290789120
1.4877694 -2.1369021 -0.29387525 4290658560
1.3822781 -1.9855196 -0.28388348 4290136320
1.5295031 -2.1965055 -0.32602736 4290919680
1.5310304 -2.1985731 -0.33775789 4290919680
1.5243299 -2.1888437 -0.34724879 4290919680
1.5138398 -2.1736817 -0.35536003 4290919680
1.4724905 -2.1142838 -0.35544941 4290658560
1.509077 -2.1666067 -0.37397617 4290789120
1.5112197 -2.169553 -0.38375875 4290919680
1.5162096 -2.1765788 -0.3938708 4290919680
1.5093951 -2.1666851 -0.40044719 4290919680
1.5011462 -2.1547358 -0.40610167 4290789120
1.4984579 -2.1507554 -0.41274187 4290789120
1.4813391 -2.1260962 -0.41482779 4290658560
1.4540641 -2.0868876 -0.41338706 4290528000
1.4694072 -2.108743 -0.4235636 4290658560
1.4205981 -2.0386868 -0.41458866 4290397440
1.4422292 -2.0695484 -0.42564327 4290528000
1.4497868 -2.080245 -0.43213043 4290528000
1.4494885 -2.0796869 -0.43578756 4290528000
1.4599531 -2.0945432 -0.44220343 4290658560
1.4076632 -2.0195191 -0.42897016 4290266880
1.4075137 -2.0191746 -0.43106946 4290266880
1.3989558 -2.0067878 -0.43007216 4290266880
1.4073622 -2.0186934 -0.43379757 4290266880
1.4571801 -2.0898907 -0.44984248 4290528000
1.459487 -2.0930538 -0.45067826 4290658560
1.4488777 -2.0777242 -0.44699088 4290528000
1.441138 -2.0665035 -0.44367573 4290528000
1.4385237 -2.0626197 -0.44143099 4290528000
1.4252409 -2.0434654 -0.43540829 4290397440
1.4176441 -2.0324504 -0.43064958 4290397440
1.4528122 -2.0826387 -0.4383547 4290528000
1.4999863 -2.1500001 -0.44899431 4290789120
1.4969765 -2.1455405 -0.44394436 4290789120
1.5128648 -2.1681204 -0.44395667 4290919680
1.5105904 -2.16471 -0.438068 4290919680
1.5088726 -2.1620951 -0.43184814 4290919680
1.5123395 -2.1668963 -0.42660934 4290919680
1.5101876 -2.1636589 -0.41928431 4290919680
1.5024725 -2.1524634 -0.40997389 4290789120
1.5111302 -2.1646852 -0.40466672 4290919680
1.5180755 -2.1744552 -0.39835489 4290919680
1.5294213 -2.1905155 -0.39264479 4290919680
1.5251415 -2.1842294 -0.382424 4290919680
1.5120177 -2.1652985 -0.36965144 4290789120
1.4987354 -2.146143 -0.35659018 4290789120
1.5086123 -2.1600969 -0.34867656 4290789120
1.514938 -2.1689713 -0.33943477 4290789120
1.5209297 -2.1773665 -0.32964855 4290919680
1.5078582 -2.1585138 -0.31539944 4290789120
1.5030365 -2.1514533 -0.30266812 4290789120
1.5157914 -2.1695099 -0.29309171 4290789120
1.5237799 -2.1807523 -0.28209659 4290919680
1.5192496 -2.1741056 -0.26843292 4290789120
1.4878274 -2.1290405 -0.25000528 4290658560
1.4991711 -2.1450746 -0.23870318 4290658560
1.5133163 -2.1651073 -0.22736193 4290789120
1.5029625 -2.1501439 -0.21203482 4290789120
1.4908096 -2.1326129 -0.19642913 4290658560
1.513447 -2.164768 -0.18513066 4290789120
1.5189687 -2.1724765 -0.17125395 4290789120
1.5090408 -2.1581237 -0.15547785 4290789120
1.4227527 -2.0347512 -0.13252601 4290266880
1.5129265 -2.1633179 -0.12602927 4290789120
1.5134046 -2.1638231 -0.11092852 4290789120
1.4880604 -2.1274693 -0.094038375 4290658560
1.5028152 -2.1483536 -0.07973545 4290658560
1.5200633 -2.172792 -0.065158725 4290789120
1.5200576 -2.1726048 -0.04957854 4290789120
1.4686979 -2.0991402 -0.03273847 4290528000
1.514738 -2.1646566 -0.018212043 4290789120
1.5160586 -2.166362 -0.002588474 4290789120
1.6693093 -2.384804 0.014179101 4291703040
1.6310676 -2.3300581 0.030706326 4291441920
1.7310094 -2.472415 0.050267696 4291964160
1.7031446 -2.4324706 0.066946052 4291833600
1.7060344 -2.4363914 0.084466405 4291833600
1.6745827 -2.3913419 0.099943332 4291703040
1.7274044 -2.4664612 0.12044966 4291964160
1.7108018 -2.4425883 0.13643035 4291964160
1.7134708 -2.4461932 0.15363407 4291964160
1.6812588 -2.400075 0.16729391 4291703040
1.6957812 -2.4205794 0.18518506 4291833600
1.7170475 -2.4506924 0.20394386 4291964160
1.705778 -2.4344327 0.21875107 4291964160
1.6573998 -2.3652949 0.22804856 4291572480
1.7095336 -2.4393907 0.25081566 4291964160
1.7226034 -2.4578164 0.26821867 4291964160
1.7032025 -2.4299788 0.28025663 4291964160
1.6908442 -2.4121792 0.2928541 4291833600
1.6757783 -2.3905263 0.3044256 4291703040
1.6352992 -2.33268 0.31061471 4291572480
1.5991579 -2.2810218 0.31665003 4291311360
1.5062838 -2.1485775 0.31016535 4290789120
1.5331652 -2.1866889 0.32728058 4290919680
1.450844 -2.0693009 0.32048631 4290397440
1.6222209 -2.3131461 0.36955783 4291441920
1.6351496 -2.3313739 0.38365301 4291572480
1.6839498 -2.400666 0.40608257 4291833600
1.6609576 -2.367754 0.41101691 4291703040
1.6818558 -2.3973198 0.42625782 4291833600
1.6386987 -2.3357155 0.42474976 4291572480
1.730567 -2.4662824 0.45779639 4292094720
1.6868782 -2.4039276 0.45492768 4291833600
1.7049977 -2.4295323 0.46797389 4291964160
1.718029 -2.4478951 0.47923532 4292094720
1.6786615 -2.3917067 0.47529784 4291833600
1.6997176 -2.421488 0.48774177 4291964160
1.7156999 -2.4440486 0.49830681 4292094720
1.7203778 -2.4505274 0.5050959 4292094720
1.7364444 -2.4732051 0.51468241 4292225280
1.7361155 -2.472563 0.51887721 4292225280
1.7443439 -2.4840918 0.52502668 4292225280
1.7463919 -2.4868314 0.52873176 4292225280
1.7439635 -2.483207 0.53046924 4292225280
1.7461278 -2.4861147 0.53297395 4292225280
1.6944716 -2.4125049 0.51847279 4291964160
1.7410029 -2.478493 0.53323489 4292225280
1.7354141 -2.4703829 0.5315026 4292225280
1.7327188 -2.466388 0.53002983 4292225280
1.7278156 -2.4592571 0.52726823 4292094720
1.7173012 -2.4441533 0.52219993 4292094720
1.7011713 -2.4210722 0.5148558 4291964160
1.6907626 -2.4061258 0.50867397 4291964160
1.7271259 -2.4576447 0.51583749 4292094720
1.7088832 -2.4315689 0.50613922 4291964160
1.6901138 -2.4047494 0.4957945 4291964160
1.7257181 -2.4551842 0.50067973 4292094720
1.7235104 -2.4518971 0.49396351 4292094720
1.7219141 -2.4494801 0.4868623 4292094720
1.7362756 -2.469732 0.48363158 4292094720
1.7042257 -2.4240615 0.46706676 4291964160
1.7027351 -2.4218001 0.45844439 4291964160
1.6978594 -2.4147332 0.44842044 4291964160
1.6656696 -2.3688784 0.43090823 4291703040
1.5916679 -2.2636557 0.40274751 4291311360
1.6996473 -2.4160883 0.35589552 4291833600
1.731122 -2.4606316 0.3491326 4292094720
1.7320659 -2.4618366 0.33561453 4292094720
1.7024251 -2.4196343 0.31607071 4291833600
1.7113482 -2.4321671 0.30344865 4291964160
1.7013395 -2.4178329 0.28716978 4291833600
1.697033 -2.4115925 0.27165094 4291833600
1.7001559 -2.4158952 0.25702149 4291833600
1.7066957 -2.4250464 0.24253435 4291833600
1.7323812 -2.4613619 0.23018111 4291964160
1.7331216 -2.4622831 0.21404976 4291964160
1.6814594 -2.3888626 0.1917617 4291703040
1.7175803 -2.4399793 0.17930582 4291964160
1.7293332 -2.4565241 0.16367987 4291964160
1.7187388 -2.4413695 0.14577815 4291964160
1.680015 -2.3863182 0.12585489 4291703040
1.6753193 -2.3795354 0.10873365 4291703040
1.5296581 -2.1728315 0.084031515 4290789120
1.5319996 -2.1760409 0.068616681 4290789120
1.4420108 -2.0483172 0.050005082 4290266880
1.527197 -2.1690078 0.037220493 4290789120
1.5271153 -2.168781 0.021557562 4290789120
1.5009499 -2.1315711 0.0058054929 4290658560
1.5160139 -2.1528196 -0.009731465 4290789120
1.5272325 -2.1686146 -0.025497725 4290789120
1.5182292 -2.1557403 -0.040896956 4290789120
1.4999425 -2.1297071 -0.05571181 4290658560
1.5242193 -2.1640103 -0.072158448 4290789120
1.5369707 -2.1819737 -0.088343486 4290919680
1.5318569 -2.1746132 -0.10346303 4290789120
1.4849331 -2.1079967 -0.11507964 4290528000
1.5201609 -2.1578133 -0.13291261 4290789120
1.5252807 -2.1649568 -0.14833389 4290789120
1.5167732 -2.1527889 -0.1622213 4290789120
