# .PCD v0.7 - Point Cloud Data file format
VERSION 0.7
FIELDS x y z rgba
SIZE 4 4 4 4
TYPE F F F U
COUNT 1 1 1 1
WIDTH 1089
HEIGHT 1
VIEWPOINT 0 0 0 1 0 0 0
POINTS 1089
DATA ascii
3.1249712 -1.2749804 0.57286143 4293400320
3.1291096 -1.2765563 0.56810516 4293400320
3.1272233 -1.2756763 0.56159168 4293400320
3.1282744 -1.2759941 0.55494934 4293400320
3.1148911 -1.2704296 0.54513991 4293400320
3.1036801 -1.2657518 0.53513592 4293269760
3.1093273 -1.2679442 0.52741802 4293400320
3.1315343 -1.2768834 0.52180368 4293400320
3.1380322 -1.2794218 0.5128929 4293400320
3.1238341 -1.2735293 0.50005007 4293400320
3.0982292 -1.2629919 0.48495293 4293269760
2.5422816 -1.0360785 0.32953387 4291180800
2.5535126 -1.0405647 0.31878605 4291180800
2.5418663 -1.0357375 0.3048467 4291180800
2.4845142 -1.0123074 0.28546944 4290919680
2.4636436 -1.0037293 0.27032983 4290919680
2.4642532 -1.0038949 0.25733134 4290919680
2.452513 -0.99903494 0.2428275 4290919680
2.3963027 -0.97608078 0.22406323 4290658560
2.3798213 -0.96929502 0.20913333 4290528000
2.3910191 -0.97377157 0.19640847 4290658560
2.3751574 -0.96723944 0.1812955 4290528000
2.3561878 -0.95944434 0.16595209 4290528000
2.337702 -0.95184743 0.15068179 4290397440
2.3386712 -0.95216429 0.13658722 4290397440
2.3210008 -0.94490081 0.12137204 4290397440
2.2881238 -0.93145508 0.10555217 4290266880
2.2696807 -0.92388058 0.090586923 4290136320
2.2613914 -0.92043555 0.076084912 4290136320
2.2523096 -0.91666883 0.061582111 4290136320
2.1935995 -0.89272851 0.04612622 4289875200
2.2086012 -0.89875424 0.032380033 4289875200
2.1887038 -0.8905943 0.018147541 4289875200
2.1783543 -0.88631618 0.0041575222 4289875200
2.142549 -0.87169415 -0.0095703891 4289744640
2.1408019 -0.87091374 -0.02323184 4289744640
2.1528125 -0.87572342 -0.037096366 4289744640
2.1494982 -0.87430602 -0.050700575 4289744640
2.1653354 -0.880669 -0.064798787 4289744640
2.1939342 -0.89221489 -0.079501331 4289875200
2.2172477 -0.9016121 -0.09424945 4290005760
2.1826947 -0.88750535 -0.10632192 4289875200
2.2216473 -0.90325248 -0.12194639 4290005760
2.2431912 -0.91192764 -0.136842 4290005760
2.246058 -0.91301745 -0.15058525 4290136320
2.2126169 -0.89936543 -0.16152185 4290005760
2.2824216 -0.92763156 -0.18011224 4290266880
2.3018389 -0.9354381 -0.19501668 4290266880
2.3177946 -0.94183815 -0.20961691 4290397440
2.2959745 -0.93290454 -0.22051363 4290266880
2.1421559 -0.87040067 -0.21742739 4289744640
2.3419988 -0.95142841 -0.25050244 4290397440
2.3566458 -0.95729333 -0.26451826 4290528000
2.3638413 -0.96013367 -0.27751508 4290528000
2.3233986 -0.94364589 -0.28441375 4290397440
2.2114332 -0.8981452 -0.2814424 4290005760
2.4189665 -0.98225582 -0.31948626 4290789120
2.4356518 -0.98894149 -0.3329035 4290789120
2.4418275 -0.99136335 -0.34460893 4290789120
2.4342873 -0.98822218 -0.3539781 4290789120
2.3775098 -0.96511495 -0.35549137 4290658560
2.4226985 -0.98335636 -0.37185982 4290789120
2.414901 -0.9801116 -0.37978995 4290789120
2.4134724 -0.97944909 -0.38825971 4290789120
2.4211845 -0.98249191 -0.39778468 4290789120
2.4121561 -0.9787482 -0.40409186 4290789120
2.4807067 -1.006448 -0.42315984 4291050240
2.4391267 -0.98951018 -0.42298025 4290919680
2.5040615 -1.0157385 -0.44090351 4291180800
2.4802513 -1.0060025 -0.44275421 4291050240
2.5498238 -1.0341032 -0.46091616 4291311360
2.5201554 -1.0219934 -0.4606443 4291180800
2.5770319 -1.044944 -0.4757508 4291441920
2.548095 -1.033131 -0.47447169 4291311360
2.5253952 -1.0238459 -0.47372851 4291180800
2.5514374 -1.0343018 -0.4816044 4291311360
2.5775576 -1.0447872 -0.48898938 4291441920
2.5636015 -1.0390429 -0.48819387 4291311360
2.5588641 -1.0370318 -0.48857737 4291311360
2.5286646 -1.0247126 -0.48350418 4291180800
2.5067697 -1.0157568 -0.47944975 4291180800
2.5418129 -1.0298493 -0.4857516 4291311360
2.4981914 -1.0121006 -0.47642019 4291180800
2.5048716 -1.0147117 -0.47616786 4291180800
2.5249913 -1.0227604 -0.47790223 4291180800
2.4642639 -0.99809492 -0.46377915 4291050240
2.4913459 -1.0089598 -0.46572319 4291050240
2.4216137 -0.98065662 -0.44904089 4290789120
2.4591649 -0.99575537 -0.45183498 4290919680
2.3941059 -0.96934819 -0.43525216 4290658560
2.3900602 -0.96762139 -0.42942828 4290658560
2.4237182 -0.98114169 -0.42983577 4290789120
2.4178543 -0.97867829 -0.42265099 4290789120
2.404669 -0.97325492 -0.41374663 4290789120
2.4111032 -0.97576404 -0.40777233 4290789120
2.4108429 -0.97556615 -0.40017655 4290789120
2.4194481 -0.97895145 -0.39357296 4290789120
2.4212909 -0.97960275 -0.38538164 4290789120
2.4133341 -0.97629344 -0.37520939 4290789120
2.3790321 -0.96233875 -0.36066109 4290658560
2.3526053 -0.95156837 -0.34714314 4290528000
2.3379469 -0.94555438 -0.33514637 4290528000
2.3466606 -0.94898295 -0.32616255 4290528000
2.3460882 -0.94865966 -0.31548116 4290528000
2.3064294 -0.93254972 -0.29935297 4290397440
2.2837934 -0.92331725 -0.28540644 4290266880
2.2909222 -0.92610574 -0.2749573 4290266880
2.297616 -0.92871791 -0.26408222 4290266880
2.2924528 -0.92654234 -0.25153768 4290266880
2.2359264 -0.90363199 -0.23337226 4290005760
2.2383301 -0.90451336 -0.22143321 4290005760
2.2394297 -0.90486801 -0.20910308 4290005760
2.2303128 -0.90109938 -0.19562905 4290005760
2.1864405 -0.88330632 -0.17917144 4289875200
2.2006376 -0.88894737 -0.16749279 4289875200
2.1972163 -0.88747895 -0.15421613 4289875200
2.1930356 -0.88570434 -0.14076495 4289875200
2.1528282 -0.86939776 -0.12509052 4289744640
2.156553 -0.87081367 -0.11209173 4289744640
2.167145 -0.87499875 -0.099247865 4289744640
2.1585307 -0.87143785 -0.085391514 4289744640
2.1526172 -0.8689667 -0.071644805 4289744640
2.1883352 -0.88328058 -0.059055462 4289875200
2.2084625 -0.8913064 -0.045618311 4289875200
2.2210546 -0.89629328 -0.031764902 4290005760
2.2386601 -0.90329975 -0.017763404 4290005760
2.2745121 -0.91765839 -0.0035645762 4290136320
2.2938054 -0.92534143 0.011026856 4290266880
2.2842548 -0.9214009 0.025551355 4290136320
2.3201139 -0.93575621 0.0406827 4290266880
2.3514247 -0.94827646 0.056117918 4290397440
2.3724177 -0.9566381 0.07158307 4290528000
2.3395991 -0.94332427 0.085315637 4290397440
2.3855102 -0.96172011 0.10183802 4290528000
2.4181457 -0.97476637 0.11817997 4290658560
2.4270227 -0.97824371 0.13350604 4290658560
2.3629971 -0.95236897 0.1444006 4290528000
2.4734919 -0.99675637 0.16592452 4290919680
2.4881234 -1.0025471 0.18166399 4290919680
2.4941943 -1.0048912 0.19670662 4290919680
2.4401596 -0.98304534 0.20656522 4290789120
2.5434961 -1.024532 0.22965579 4291180800
2.5783746 -1.0384649 0.24714653 4291311360
2.5879707 -1.0422233 0.26220599 4291311360
2.5691831 -1.0345626 0.27407238 4291311360
2.6208611 -1.0552485 0.29326025 4291441920
2.9286225 -1.1789308 0.34240398 4292616960
3.0675294 -1.2346802 0.37380776 4293139200
3.1079755 -1.2508242 0.39374828 4293269760
3.1001251 -1.2475456 0.40731817 4293269760
3.0801017 -1.2393737 0.41870826 4293139200
3.1343873 -1.261077 0.43981838 4293400320
3.1481276 -1.2664782 0.45506385 4293400320
3.1542423 -1.2688136 0.46877623 4293400320
3.1416521 -1.2636312 0.47916159 4293400320
3.1305439 -1.2590458 0.48913217 4293400320
3.1133037 -1.2519975 0.49748448 4293269760
3.1325204 -1.2595989 0.51106614 4293400320
3.1366901 -1.2611538 0.52169132 4293400320
3.1418777 -1.2631178 0.53191006 4293400320
3.140012 -1.2622486 0.54033327 4293400320
3.1208289 -1.2544247 0.54510659 4293400320
3.1303637 -1.2581356 0.55421329 4293400320
3.1303875 -1.258027 0.56101948 4293400320
3.125288 -1.2558615 0.56624591 4293400320
3.1190987 -1.2532594 0.57059246 4293400320
3.131211 -1.2580051 0.57761264 4293400320
3.117821 -1.2525136 0.5792709 4293400320
3.126471 -1.2558697 0.58431929 4293400320
3.130651 -1.2574316 0.58786219 4293400320
3.1303651 -1.2572014 0.58988202 4293400320
3.1210446 -1.2533464 0.58950788 4293400320
3.1209757 -1.2532045 0.5901764 4293400320
3.1164448 -1.2512728 0.58930975 4293400320
3.12938 -1.2563485 0.59103626 4293400320
3.1268034 -1.2552016 0.58914733 4293400320
3.1313813 -1.2569247 0.58790618 4293400320
3.126287 -1.2547692 0.58416665 4293400320
3.1378527 -1.259295 0.58283305 4293400320
3.1355042 -1.2582413 0.57823151 4293400320
3.1323116 -1.2568496 0.57280505 4293400320
3.1364603 -1.2584018 0.56804246 4293400320
3.126328 -1.2542293 0.56005245 4293400320
3.1273792 -1.2545404 0.55342126 4293400320
3.1222088 -1.2523584 0.54505879 4293400320
3.1201389 -1.2514197 0.53661877 4293400320
3.1166322 -1.2499057 0.52732468 4293400320
3.1306338 -1.2554077 0.52033705 4293400320
3.1490762 -1.2626883 0.5133822 4293400320
3.1348464 -1.2568789 0.50052166 4293400320
3.1275587 -1.2538515 0.48826212 4293400320
2.5529516 -1.0229142 0.33011714 4291180800
2.5595191 -1.0254568 0.31876865 4291180800
2.5433104 -1.0188837 0.30429256 4291180800
2.4904354 -0.99763829 0.28546494 4290919680
2.4695144 -0.98918319 0.27032685 4290919680
2.4655039 -0.98749602 0.25685251 4290919680
2.4666779 -0.98788351 0.24364245 4290919680
2.406637 -0.96378171 0.22449239 4290658560
2.3901176 -0.95709366 0.20953831 4290658560
2.3920848 -0.95780128 0.1960382 4290658560
2.3900766 -0.95691878 0.18199953 4290528000
2.361799 -0.94553095 0.16596051 4290528000
2.3386345 -0.93618965 0.1503979 4290397440
2.3405311 -0.93687093 0.13638616 4290397440
2.3311644 -0.93304878 0.12162346 4290397440
2.2935715 -0.9179427 0.1055672 4290266880
2.2843637 -0.91418648 0.090964988 4290136320
2.2797687 -0.91227466 0.076528117 4290136320
2.2530293 -0.90151232 0.06147936 4290136320
2.2034631 -0.88162869 0.04624052 4289875200
2.2055016 -0.88237101 0.032287728 4289875200
2.2031989 -0.88137853 0.018240465 4289875200
2.1881819 -0.87530607 0.0041879071 4289875200
2.1522913 -0.86089498 -0.0095685124 4289744640
2.1610796 -0.86433536 -0.023381233 4289744640
2.1690748 -0.86745822 -0.037267722 4289744640
2.1629691 -0.86494827 -0.050873369 4289744640
2.1843317 -0.87340939 -0.065191142 4289875200
2.2214296 -0.88815337 -0.080290526 4290005760
2.2267003 -0.89018506 -0.094394304 4290005760
2.2064426 -0.88202292 -0.10720222 4289875200
2.2399178 -0.89531583 -0.12262966 4290005760
2.2578001 -0.90238118 -0.13737416 4290136320
2.2690127 -0.90678281 -0.15173633 4290136320
2.2308528 -0.89147574 -0.16243613 4290005760
2.2878513 -0.91415197 -0.18006998 4290266880
2.3165731 -0.92553908 -0.19576262 4290266880
2.33184 -0.93155479 -0.21034867 4290397440
2.3319492 -0.93152094 -0.22341476 4290397440
2.1555736 -0.86106902 -0.21823494 4289744640
2.3614326 -0.94312835 -0.25194582 4290528000
2.3714883 -0.94706106 -0.26551315 4290528000
2.3823895 -0.95133007 -0.27899185 4290528000
2.3418441 -0.93507785 -0.28595543 4290397440
2.2342179 -0.89207399 -0.28363743 4290005760
2.4376974 -0.97314644 -0.32115883 4290789120
2.4584885 -0.98135477 -0.33519289 4290919680
2.458004 -0.98107827 -0.34603068 4290919680
2.4455044 -0.97601122 -0.35472545 4290789120
2.4157958 -0.96408403 -0.36033815 4290789120
2.4376531 -0.97271448 -0.37323233 4290789120
2.4369249 -0.9723407 -0.38231507 4290789120
2.4517949 -0.97818357 -0.39347115 4290919680
2.5108497 -1.001634 -0.41155207 4291050240
2.5185769 -1.0046263 -0.42094567 4291180800
2.5918345 -1.0337291 -0.44109598 4291441920
2.591994 -1.0337024 -0.44848058 4291441920
2.6570268 -1.0595202 -0.46678346 4291703040
2.6319325 -1.0494307 -0.46877569 4291572480
2.6924601 -1.0734475 -0.48559874 4291833600
2.6604469 -1.0606021 -0.48519009 4291703040
2.7219994 -1.0850211 -0.5013814 4291964160
2.6749961 -1.0662072 -0.49697402 4291703040
2.713804 -1.0815642 -0.50795698 4291833600
2.7481112 -1.0951263 -0.51759809 4291964160
2.7349226 -1.0897772 -0.51769364 4291964160
2.6843054 -1.0695295 -0.51003247 4291833600
2.7298787 -1.0875722 -0.52009147 4291964160
2.7297885 -1.0874373 -0.52084327 4291964160
2.712415 -1.080424 -0.51767981 4291833600
2.668608 -1.062893 -0.50885969 4291703040
2.7279444 -1.0864044 -0.51915395 4291964160
2.6715136 -1.063853 -0.50676167 4291703040
2.6985097 -1.0744939 -0.50966126 4291833600
2.7313569 -1.0874598 -0.51301903 4291964160
2.6532047 -1.0562741 -0.49493736 4291703040
2.596164 -1.0334899 -0.48041388 4291441920
2.6011822 -1.0353885 -0.47692752 4291441920
2.5885813 -1.0302804 -0.4696638 4291441920
2.5106266 -0.99918884 -0.45015147 4291180800
2.4514544 -0.97556996 -0.4338007 4290919680
2.4364116 -0.9694975 -0.42496109 4290789120
2.4277875 -0.96597701 -0.41681758 4290789120
2.4213915 -0.96334249 -0.40862185 4290789120
2.4202132 -0.96278167 -0.40086433 4290789120
2.4297581 -0.96648175 -0.39440379 4290789120
2.4390326 -0.97007334 -0.3873859 4290789120
2.4273832 -0.96535122 -0.37660199 4290789120
2.3938522 -0.95193738 -0.36215469 4290658560
2.366446 -0.94095874 -0.34846804 4290528000
2.3563626 -0.93686211 -0.33710331 4290528000
2.3697116 -0.94207168 -0.32871184 4290528000
2.3645356 -0.93992388 -0.3173357 4290528000
2.3340166 -0.92771381 -0.30235258 4290397440
2.3026345 -0.91516334 -0.28721303 4290266880
2.3138769 -0.91953593 -0.27719602 4290397440
2.3243721 -0.92361087 -0.2666738 4290397440
2.3154285 -0.91996962 -0.25360715 4290397440
2.2537556 -0.89540303 -0.23482333 4290136320
2.2477758 -0.89294112 -0.2219857 4290136320
2.2586012 -0.89714742 -0.21055016 4290136320
2.2578065 -0.89674264 -0.1977381 4290136320
2.1958342 -0.8720687 -0.17966746 4289875200
2.2198505 -0.88150769 -0.16871995 4290005760
2.2212288 -0.88196599 -0.15570448 4290005760
2.2038901 -0.87500143 -0.14129047 4289875200
2.1709006 -0.86183196 -0.1260123 4289744640
2.1709242 -0.86175472 -0.11274168 4289744640
2.16734 -0.86024708 -0.099182636 4289744640
2.1766279 -0.86384231 -0.086082444 4289744640
2.1530495 -0.85440934 -0.071654148 4289744640
2.1851337 -0.86703944 -0.058995672 4289875200
2.2161307 -0.8792361 -0.045848031 4289875200
2.221647 -0.88133323 -0.031874202 4290005760
2.2359571 -0.88691431 -0.017876035 4290005760
2.2798791 -0.90422577 -0.0037523566 4290136320
2.2945697 -0.90995407 0.010817925 4290266880
2.2989426 -0.91159433 0.025455177 4290266880
2.3302381 -0.92389715 0.040564317 4290397440
2.3640809 -0.93720639 0.056081694 4290528000
2.3733709 -0.94079053 0.071246065 4290528000
2.3451226 -0.92951101 0.085116677 4290397440
2.3911424 -0.9476366 0.10163499 4290528000
2.4192109 -0.95865238 0.11775207 4290658560
2.4281106 -0.96207857 0.13304938 4290658560
2.3732193 -0.94025701 0.14447916 4290528000
2.4616997 -0.97517776 0.16455197 4290789120
2.5079165 -0.99336797 0.18245642 4291050240
2.5047224 -0.99200457 0.19685961 4291050240
2.441288 -0.96680921 0.20597665 4290789120
2.5578444 -1.0128201 0.23019157 4291180800
2.5724199 -1.0184842 0.24579713 4291311360
2.5940838 -1.0269508 0.26199949 4291311360
2.6231148 -1.0383294 0.2789205 4291441920
2.7066057 -1.0712404 0.30186659 4291703040
3.0548129 -1.20881 0.35599628 4293008640
3.1098917 -1.2304654 0.37782094 4293269760
3.1328652 -1.2394254 0.39572614 4293269760
3.116678 -1.2329049 0.40830028 4293269760
3.0956795 -1.2244843 0.4196142 4293139200
3.1530426 -1.2470334 0.44117367 4293400320
3.1601686 -1.249727 0.45551887 4293400320
3.148788 -1.2451082 0.46667382 4293400320
3.1490667 -1.2450969 0.47896969 4293400320
3.1379313 -1.240577 0.48894829 4293400320
3.1169686 -1.2321764 0.49672538 4293269760
3.1482673 -1.2444189 0.51225156 4293400320
3.1440878 -1.2426482 0.52153111 4293400320
3.149286 -1.2445813 0.53175819 4293400320
3.1391473 -1.2404586 0.53877753 4293400320
3.1410398 -1.2410872 0.54720384 4293400320
3.1423295 -1.2414778 0.55489653 4293400320
3.1340909 -1.2381078 0.56025189 4293400320
3.1372349 -1.2392313 0.56696749 4293400320
3.1356137 -1.2384744 0.57216561 4293400320
3.1431653 -1.2413378 0.57836938 4293400320
3.1563275 -1.2464149 0.58495212 4293530880
3.1429913 -1.2410364 0.58595955 4293400320
3.1380122 -1.2389563 0.58781135 4293400320
3.137723 -1.2387271 0.58984244 4293400320
3.1421239 -1.2403482 0.59205967 4293400320
3.1283066 -1.2347841 0.59015995 4293400320
3.1411598 -1.2397393 0.59257406 4293400320
3.1330597 -1.2364316 0.59035546 4293400320
3.1433051 -1.2403582 0.5908826 4293400320
3.1433091 -1.2402469 0.58879268 4293400320
3.1464517 -1.2413732 0.58659339 4293400320
3.1406231 -1.2389632 0.58204293 4293400320
3.1382656 -1.2379224 0.57745963 4293400320
3.1442351 -1.2401639 0.57371944 4293400320
3.1392164 -1.238075 0.56731021 4293400320
3.133646 -1.2357696 0.56015813 4293400320
3.1301062 -1.234265 0.55273217 4293400320
3.1284802 -1.2335149 0.54501015 4293400320
3.1274357 -1.2329944 0.53676158 4293400320
3.1239185 -1.2315004 0.52747971 4293400320
3.1451941 -1.2397721 0.52170128 4293400320
3.1564345 -1.2440904 0.51356363 4293400320
3.14217 -1.2383643 0.50071454 4293400320
3.1265752 -1.232116 0.4871811 4293269760
2.5634537 -1.0099155 0.33070067 4291180800
2.5570962 -1.0073272 0.31773278 4291180800
2.54917 -1.0041224 0.30428275 4291180800
2.4822917 -0.97772151 0.28387928 4290919680
2.4754059 -0.97492951 0.27033788 4290919680
2.4758146 -0.97500777 0.25731814 4290919680
2.4769931 -0.97538906 0.24408257 4290919680
2.4168155 -0.95163602 0.22490673 4290658560
2.3905189 -0.94121295 0.20908271 4290528000
2.3975935 -0.9439162 0.1960236 4290658560
2.390938 -0.94121987 0.18163548 4290528000
2.3672371 -0.93182129 0.16594438 4290528000
2.3486638 -0.92444062 0.15067503 4290397440
2.3496366 -0.92474586 0.13658132 4290397440
2.3318825 -0.91768914 0.12136705 4290397440
2.3081493 -0.90828335 0.10596696 4290266880
2.2896214 -0.90092522 0.090945125 4290136320
2.2812943 -0.89757746 0.076386057 4290136320
2.258214 -0.88843244 0.061458088 4290136320
2.2085333 -0.86883616 0.046218906 4289875200
2.2130415 -0.87053531 0.032299127 4289875200
2.1989603 -0.86493051 0.018148536 4289875200
2.1839077 -0.85894513 0.0041544694 4289744640
2.1547508 -0.8474201 -0.0095794257 4289744640
2.1736374 -0.85476816 -0.023494741 4289744640
2.1788316 -0.85673714 -0.037379354 4289744640
2.1772482 -0.85604399 -0.0511261 4289744640
2.211684 -0.86949551 -0.065902188 4289875200
2.231468 -0.8771916 -0.080500804 4290005760
2.2455659 -0.88265371 -0.095015995 4290005760
2.2375498 -0.87943292 -0.1085149 4290005760
2.2608654 -0.88851243 -0.1235356 4290136320
2.282501 -0.89693075 -0.13860504 4290136320
2.2814157 -0.89642978 -0.15225326 4290136320
2.2499084 -0.8839891 -0.16349053 4290005760
2.3181756 -0.91070515 -0.18209019 4290266880
2.3395255 -0.91900635 -0.19729564 4290397440
2.3462677 -0.92157435 -0.21120569 4290397440
2.3373179 -0.91798538 -0.22345014 4290397440
2.1966672 -0.86273038 -0.22194564 4289875200
2.3770401 -0.93341178 -0.25307205 4290528000
2.400007 -0.94234097 -0.26814172 4290658560
2.3971119 -0.94112533 -0.2801145 4290658560
2.3694179 -0.93018448 -0.2887097 4290528000
2.166899 -0.85069042 -0.27444139 4289744640
2.4562268 -0.96406323 -0.32290307 4290789120
2.4641285 -0.96707845 -0.33522815 4290919680
2.466171 -0.96779591 -0.34642231 4290919680
2.4732566 -0.97048992 -0.35797843 4290919680
2.4471567 -0.96017569 -0.36423066 4290789120
2.5150282 -0.98669338 -0.38427711 4291050240
2.5608857 -1.0045788 -0.40095082 4291311360
2.6351972 -1.0336111 -0.42207989 4291572480
2.7099185 -1.0627985 -0.44331476 4291833600
2.7689278 -1.0858246 -0.46190849 4292094720
2.840898 -1.1139239 -0.48255026 4292355840
2.8660727 -1.1236869 -0.49495447 4292355840
2.9182887 -1.1440398 -0.51168245 4292616960
2.8863094 -1.131413 -0.51307577 4292486400
2.9294474 -1.1482058 -0.52728671 4292616960
2.8704112 -1.124985 -0.52242315 4292486400
2.8870802 -1.1314106 -0.5306828 4292486400
2.9084172 -1.1396623 -0.53925157 4292616960
2.9298377 -1.1479448 -0.54727322 4292616960
2.9375889 -1.1508746 -0.55213708 4292616960
2.9417686 -1.1524056 -0.55569834 4292747520
2.8579471 -1.1194947 -0.54188937 4292355840
2.843998 -1.113933 -0.54066491 4292355840
2.9457498 -1.1536459 -0.56088591 4292747520
2.919168 -1.1431386 -0.55598176 4292616960
2.9064429 -1.1380541 -0.55307579 4292616960
2.8800652 -1.1276293 -0.54693246 4292486400
2.8583696 -1.1190375 -0.54106653 4292355840
2.9132283 -1.1403888 -0.54906791 4292616960
2.8917305 -1.1318741 -0.54197824 4292486400
2.9094982 -1.1387151 -0.5416373 4292616960
2.8615658 -1.1198653 -0.52845216 4292355840
2.8732319 -1.1243199 -0.52574158 4292486400
2.8011615 -1.096038 -0.50717503 4292225280
2.7345865 -1.0699092 -0.48929793 4291964160
2.666548 -1.0432131 -0.47089198 4291703040
2.5881586 -1.0124766 -0.45046562 4291441920
2.5230072 -0.98691869 -0.43220815 4291180800
2.475338 -0.96819657 -0.41677654 4290919680
2.4635074 -0.96348017 -0.40709957 4290919680
2.4666333 -0.96460754 -0.39946482 4290919680
2.4583654 -0.96128362 -0.38954136 4290919680
2.446696 -0.95663142 -0.37870577 4290789120
2.4168563 -0.94488341 -0.36477479 4290789120
2.3857052 -0.93262529 -0.35047251 4290658560
2.3802221 -0.93039227 -0.33971068 4290528000
2.3891065 -0.93376899 -0.33061159 4290658560
2.3893538 -0.9337728 -0.31990173 4290658560
2.3437786 -0.91588926 -0.30288008 4290397440
2.3116043 -0.90323967 -0.28762764 4290266880
2.3330574 -0.91152221 -0.2788142 4290397440
2.3389521 -0.91373134 -0.2676869 4290397440
2.3299921 -0.91014355 -0.25457081 4290397440
2.2765272 -0.88919204 -0.2366111 4290136320
2.2751801 -0.88857698 -0.22413735 4290136320
2.2822471 -0.89124417 -0.2122221 4290136320
2.259182 -0.8821578 -0.19734246 4290136320
2.2138588 -0.86439234 -0.18067661 4289875200
2.2342174 -0.872244 -0.1693669 4290005760
2.2313349 -0.87103176 -0.15599361 4290005760
2.2181532 -0.86580402 -0.14182012 4289875200
2.1716676 -0.84759361 -0.12569812 4289744640
2.1897612 -0.85456061 -0.11340201 4289875200
2.1844823 -0.85241616 -0.099678047 4289744640
2.1760511 -0.84904349 -0.085786648 4289744640
2.1708875 -0.84694475 -0.072020665 4289744640
2.1972466 -0.85712928 -0.059118044 4289875200
2.2233825 -0.86722481 -0.045817632 4290005760
2.2313745 -0.87024981 -0.031865962 4290005760
2.2490611 -0.87705052 -0.017866196 4290005760
2.2804198 -0.889175 -0.0036585233 4290136320
2.3016624 -0.89735729 0.010908986 4290266880
2.3088427 -0.90006179 0.025587523 4290266880
2.3333547 -0.90951425 0.040614214 4290397440
2.3694682 -0.9234817 0.056169659 4290528000
2.383436 -0.92882508 0.071470521 4290528000
2.3504643 -0.91589612 0.085204452 4290397440
2.4012439 -0.9355669 0.10191832 4290528000
2.4305859 -0.94689071 0.11812291 4290658560
2.4336381 -0.94798219 0.13314013 4290658560
2.3832734 -0.92828912 0.14484632 4290528000
2.4803243 -0.96595305 0.1655014 4290919680
2.4996741 -0.97338241 0.18154727 4290919680
2.5146697 -0.97911668 0.19728102 4291050240
2.4514863 -0.95444316 0.2064523 4290789120
2.5590165 -0.99616498 0.22986978 4291180800
2.5921946 -1.0089658 0.24720471 4291311360
2.6222527 -1.0205513 0.26431668 4291441920
2.6995726 -1.0505091 0.28643423 4291703040
2.841629 -1.1056268 0.31620002 4292225280
3.1130462 -1.2110164 0.36202624 4293269760
3.1354001 -1.2195832 0.38014451 4293269760
3.1362772 -1.2198021 0.39536029 4293269760
3.1191289 -1.2130169 0.40779391 4293269760
3.0745277 -1.1955665 0.41591409 4293139200
3.1526179 -1.2257864 0.44021067 4293400320
3.1627228 -1.2295904 0.45494509 4293400320
3.1559355 -1.2268324 0.46675763 4293400320
3.1562145 -1.2268196 0.47904998 4293400320
3.1496663 -1.2241559 0.48973858 4293400320
3.1240425 -1.2140856 0.49679741 4293269760
3.1470356 -1.2228944 0.51096636 4293400320
3.147537 -1.2229698 0.52098823 4293400320
3.142617 -1.2209407 0.52950078 4293400320
3.1462703 -1.2222402 0.5388332 4293400320
3.1481671 -1.2228581 0.54725492 4293400320
3.1448593 -1.2214564 0.55413574 4293400320
3.1494799 -1.2231319 0.5617637 4293400320
3.139756 -1.2192414 0.56617838 4293400320
3.1427283 -1.220278 0.57219696 4293400320
3.1457021 -1.2213154 0.5775553 4293400320
3.1368425 -1.2177626 0.58006531 4293400320
3.1501231 -1.2227983 0.58597499 4293400320
3.1405401 -1.2189662 0.58696616 4293400320
3.1448433 -1.2205204 0.58984667 4293400320
3.1446624 -1.2203356 0.59119827 4293400320
3.1399984 -1.2184132 0.59101355 4293400320
3.1354444 -1.2165341 0.59015286 4293400320
3.1401708 -1.2182534 0.59033632 4293400320
3.1366611 -1.2167802 0.58828342 4293400320
3.1458507 -1.2202296 0.58790636 4293400320
3.153594 -1.2231184 0.58655596 4293400320
3.1477525 -1.2207427 0.58199936 4293400320
3.1417131 -1.2182912 0.5767377 4293400320
3.1421793 -1.2183608 0.57199651 4293400320
3.1417451 -1.2180821 0.56642234 4293400320
3.1490402 -1.2207979 0.56156015 4293400320
3.1500969 -1.2210971 0.55491781 4293400320
3.1366181 -1.2157671 0.5451085 4293400320
3.1299319 -1.2130691 0.53588963 4293400320
3.1310117 -1.2133789 0.52738672 4293400320
3.1523356 -1.2215273 0.52160144 4293400320
3.1636016 -1.2257807 0.5134573 4293400320
3.1493044 -1.2201375 0.50060254 4293400320
3.1373663 -1.2154087 0.48763487 4293400320
2.5870924 -1.001838 0.33296785 4291311360
2.5712605 -0.99562681 0.31875107 4291180800
2.5642469 -0.99282807 0.30537048 4291180800
2.5018582 -0.96861231 0.28544644 4290919680
2.4808404 -0.96040064 0.27030775 4290919680
2.4768107 -0.9587599 0.25683266 4290919680
2.4730649 -0.9572295 0.2431419 4290919680
2.4223187 -0.93752718 0.22489879 4290658560
2.4010763 -0.92923474 0.20951669 4290658560
2.4077024 -0.93171698 0.19639103 4290658560
2.3963809 -0.92726153 0.18162763 4290528000
2.3726256 -0.91800112 0.1659366 4290528000
2.349354 -0.90892929 0.15037337 4290397440
2.3621092 -0.91378146 0.13698065 4290397440
2.3371892 -0.90407473 0.12135939 4290397440
2.3134017 -0.89480728 0.10595938 4290266880
2.294831 -0.88755703 0.090937607 4290136320
2.2864847 -0.88425773 0.076378569 4290136320
2.2680144 -0.87704837 0.061573241 4290136320
2.208894 -0.85413933 0.04611839 4289875200
2.2264705 -0.86085558 0.032406792 4290005760
2.2132902 -0.85569298 0.018210012 4289875200
2.1893969 -0.84639436 0.0041478402 4289744640
2.1662939 -0.83740252 -0.0096217683 4289744640
2.1797943 -0.84254414 -0.023516007 4289744640
2.2015083 -0.85085583 -0.037704937 4289875200
2.1999192 -0.85017055 -0.051563386 4289875200
2.2316294 -0.86233848 -0.066365242 4290005760
2.2555711 -0.87150598 -0.08120852 4290005760
2.2590597 -0.87277859 -0.095384248 4290005760
2.2261238 -0.85999513 -0.10771015 4290005760
2.2837062 -0.8821407 -0.12452194 4290136320
2.3007278 -0.88863325 -0.13941261 4290266880
2.3089471 -0.8917287 -0.15376575 4290266880
2.27736 -0.87946796 -0.16513465 4290136320
2.3383262 -0.90290922 -0.18327527 4290397440
2.3578613 -0.91036671 -0.19840837 4290397440
2.3822773 -0.91970527 -0.2139909 4290528000
2.3695762 -0.9147287 -0.22604764 4290528000
2.2193048 -0.8567068 -0.22374529 4290005760
2.4093626 -0.92991179 -0.2559585 4290658560
2.4184482 -0.93333447 -0.26960665 4290658560
2.4183104 -0.93320084 -0.28197002 4290658560
2.3924112 -0.92313707 -0.29087082 4290528000
2.1857171 -0.84339184 -0.27621505 4289875200
2.480252 -0.95683014 -0.32534301 4290919680
2.4965649 -0.96303314 -0.33889699 4290919680
2.5136416 -0.96952921 -0.35232565 4291050240
2.5232544 -0.97314811 -0.36442426 4291050240
2.5567436 -0.98596472 -0.37975356 4291180800
2.7030256 -1.0422293 -0.41218624 4291703040
2.8060546 -1.081823 -0.43849286 4292094720
2.9173198 -1.1245817 -0.46637771 4292486400
3.0018184 -1.157024 -0.49012345 4292878080
3.0487051 -1.1749765 -0.50758725 4293008640
3.0731094 -1.1842685 -0.52094054 4293139200
3.0888968 -1.1902407 -0.53235 4293139200
3.0694208 -1.1826358 -0.53704703 4293139200
3.0607696 -1.1791987 -0.54295295 4293139200
3.0373948 -1.1700947 -0.54554081 4293008640
3.0011809 -1.1560504 -0.54506135 4292878080
3.0132549 -1.1605917 -0.55269301 4292878080
2.9475272 -1.135193 -0.54529321 4292747520
2.95152 -1.1366251 -0.55009395 4292747520
2.9730742 -1.1448132 -0.55756748 4292747520
2.9726632 -1.1445493 -0.5602867 4292747520
2.9723549 -1.1443245 -0.56237227 4292747520
2.9675558 -1.1423723 -0.56294817 4292747520
2.9536729 -1.1369262 -0.56113398 4292747520
2.9500041 -1.1354088 -0.56060684 4292747520
2.9501162 -1.1353452 -0.56014615 4292747520
3.007036 -1.157123 -0.56982458 4292878080
3.0509112 -1.1738813 -0.57631236 4293008640
3.0618939 -1.1779917 -0.57586443 4293139200
3.077667 -1.1839422 -0.57562411 4293139200
3.0778501 -1.1838993 -0.57177466 4293139200
3.0753853 -1.1828386 -0.56677145 4293139200
3.0765574 -1.1831751 -0.56178457 4293139200
3.0525737 -1.1738455 -0.55158532 4293008640
3.0079763 -1.1565979 -0.53715336 4292878080
2.9280169 -1.1257685 -0.51604861 4292616960
2.8177435 -1.0833009 -0.48945442 4292225280
2.6971467 -1.0368761 -0.46110439 4291703040
2.5983052 -0.99881518 -0.43657255 4291441920
2.5241473 -0.97023994 -0.4162209 4291050240
2.5028734 -0.96197581 -0.40444613 4291050240
2.490705 -0.95720887 -0.39379993 4290919680
2.4697828 -0.94908208 -0.38143578 4290919680
2.4450235 -0.93948382 -0.36821598 4290789120
2.4021852 -0.92294818 -0.35211256 4290658560
2.4020181 -0.92279184 -0.34206679 4290658560
2.4083221 -0.92511851 -0.33253601 4290658560
2.4050584 -0.92377335 -0.32129294 4290658560
2.37132 -0.91073632 -0.30577099 4290528000
2.3483582 -0.90183586 -0.29157147 4290397440
2.355958 -0.90465987 -0.28093606 4290397440
2.3627222 -0.90716267 -0.26981834 4290528000
2.3482587 -0.90152389 -0.25600511 4290397440
2.2993257 -0.88266814 -0.23846231 4290266880
2.2979834 -0.88206369 -0.22589403 4290266880
2.3004231 -0.88290918 -0.21344732 4290266880
2.2782421 -0.87431598 -0.19857685 4290136320
2.2412016 -0.86002856 -0.18252043 4290005760
2.2615418 -0.86773634 -0.17107649 4290136320
2.2540751 -0.86478597 -0.15724947 4290005760
2.2459974 -0.86160195 -0.14330216 4290005760
2.1989465 -0.84348577 -0.12701564 4289875200
2.2077603 -0.84677583 -0.11409441 4289875200
2.2071376 -0.84645009 -0.10050668 4289875200
2.1942885 -0.84144133 -0.086329006 4289875200
2.1675 -0.83109486 -0.071746565 4289744640
2.2059369 -0.84572875 -0.059228547 4289875200
2.226198 -0.85339975 -0.045777816 4289875200
2.2364066 -0.85722041 -0.031873219 4290005760
2.2588019 -0.86570573 -0.017914413 4290005760
2.290231 -0.87764728 -0.0036772836 4290136320
2.3049867 -0.88320458 0.010894231 4290266880
2.3000388 -0.8812198 0.025436783 4290136320
2.3432829 -0.89767748 0.040683847 4290397440
2.3794768 -0.91143405 0.056268539 4290528000
2.3841386 -0.91312367 0.071326971 4290528000
2.3557606 -0.90217316 0.085196815 4290397440
2.4019873 -0.91976291 0.10171679 4290528000
2.4360609 -0.93270075 0.11811501 4290658560
2.4521797 -0.93876916 0.13383423 4290789120
2.3793151 -0.9108091 0.14428104 4290528000
2.4821806 -0.95004743 0.16524816 4290919680
2.5099623 -0.96057165 0.18187298 4290919680
2.5110147 -0.96087545 0.19655132 4290919680
2.3942571 -0.91614681 0.2012255 4290528000
2.5694311 -0.98300588 0.23027481 4291180800
2.6008232 -0.99490249 0.24745993 4291311360
2.6734502 -1.0225539 0.26882681 4291572480
2.8344121 -1.0839516 0.29995477 4292225280
2.9325821 -1.1213473 0.3255147 4292486400
3.1506984 -1.2045566 0.36555111 4293269760
3.1554484 -1.2062489 0.38169748 4293400320
3.16096 -1.2082319 0.39755517 4293400320
3.13078 -1.1965843 0.4083854 4293269760
3.0768061 -1.1758535 0.41528189 4293008640
3.1589675 -1.2071061 0.44009811 4293400320
3.1614985 -1.2079513 0.45374459 4293400320
3.1676574 -1.2101815 0.46742702 4293400320
3.1633081 -1.2084005 0.47903976 4293400320
3.1484225 -1.2025988 0.48844326 4293400320
3.1310627 -1.1958543 0.49678728 4293269760
3.1587257 -1.2062918 0.51170111 4293400320
3.1583023 -1.2060111 0.5215854 4293400320
3.1589077 -1.2061231 0.53103572 4293400320
3.1616421 -1.2070477 0.540236 4293400320
3.1552379 -1.2044866 0.54724473 4293400320
3.151922 -1.2031041 0.55412555 4293400320
3.1519432 -1.2029951 0.56093663 4293400320
3.1514134 -1.2026762 0.56699383 4293400320
3.1534696 -1.2033436 0.57285357 4293400320
3.1490934 -1.2015591 0.57687545 4293400320
3.1438837 -1.1994574 0.58005512 4293400320
3.1433818 -1.199151 0.58341157 4293400320
3.1429849 -1.198885 0.586101 4293400320
3.1519005 -1.2021686 0.58983654 4293400320
3.1342285 -1.19532 0.58792037 4293400320
3.1424408 -1.198336 0.59014249 4293400320
3.1341939 -1.1950808 0.58859307 4293400320
3.150897 -1.2013317 0.59101415 4293400320
3.1436965 -1.1984761 0.58827329 4293400320
3.1440618 -1.1985033 0.58625364 4293400320
3.1560619 -1.2029619 0.58569467 4293400320
3.1548109 -1.2023739 0.58198917 4293400320
3.1570487 -1.2031147 0.57824004 4293400320
3.1538312 -1.2017788 0.57281977 4293400320
3.148788 -1.1997482 0.56641221 4293400320
3.1478009 -1.1992625 0.56007963 4293400320
3.1488564 -1.1995547 0.5534547 4293400320
3.1518373 -1.20058 0.54651242 4293400320
3.1369462 -1.1948037 0.53587955 4293400320
3.1334107 -1.1933503 0.52660406 4293269760
3.1510844 -1.1999676 0.52022469 4293400320
3.1799312 -1.2108352 0.5149371 4293530880
3.1526608 -1.2003518 0.50000846 4293400320
3.1443939 -1.1970996 0.48762473 4293400320
2.6546781 -1.0102303 0.34084213 4291572480
2.5900986 -0.98559129 0.32034966 4291311360
2.5606964 -0.97432846 0.30426612 4291180800
2.5028107 -0.9522416 0.28491327 4290919680
2.4724426 -0.94061691 0.26879522 4290789120
2.4916592 -0.94783783 0.25777936 4290919680
2.4869781 -0.94597673 0.24394862 4290919680
2.4230826 -0.92161703 0.22446364 4290658560
2.4111083 -0.91698784 0.2099105 4290658560
2.4214792 -0.92084843 0.19705878 4290658560
2.4064052 -0.91504294 0.18196848 4290528000
2.3779333 -0.90414971 0.16592896 4290528000
2.3499432 -0.89344138 0.15007186 4290397440
2.3649194 -0.8990519 0.13683206 4290397440
2.3470857 -0.89220262 0.12158973 4290397440
2.3185754 -0.88130081 0.10595193 4290266880
2.299963 -0.87415874 0.090930216 4290136320
2.2822528 -0.86736047 0.07606782 4290136320
2.2730854 -0.86380619 0.061565932 4290136320
2.2185066 -0.84301591 0.046204526 4289875200
2.2277086 -0.84643626 0.032348555 4289875200
2.2207103 -0.84370792 0.018221043 4289875200
2.2036402 -0.83715814 0.0041503515 4289875200
2.1804121 -0.82827288 -0.0096779233 4289744640
2.203748 -0.83705568 -0.023744794 4289875200
2.2119641 -0.84010094 -0.03781129 4289875200
2.2124074 -0.84019715 -0.051753893 4289875200
2.2470121 -0.85325092 -0.066689417 4290005760
2.274627 -0.86365134 -0.081730559 4290136320
2.2911999 -0.86986238 -0.096554473 4290136320
2.2700617 -0.86177188 -0.10962961 4290136320
2.2972107 -0.87199205 -0.12499301 4290136320
2.3189352 -0.88015366 -0.14022014 4290266880
2.3292778 -0.88399887 -0.15479293 4290266880
2.2955055 -0.87112021 -0.16609678 4290136320
2.3705904 -0.89950556 -0.1854175 4290528000
2.3873582 -0.90578294 -0.20046802 4290528000
2.3969128 -0.90932542 -0.21484026 4290528000
2.3841789 -0.90442103 -0.22694834 4290528000
2.2466011 -0.85221225 -0.22601663 4290005760
2.433465 -0.92293715 -0.25796393 4290658560
2.4419823 -0.92608333 -0.27164412 4290789120
2.4367206 -0.92400908 -0.28350058 4290789120
2.4154022 -0.91585308 -0.29303193 4290658560
2.2212396 -0.84223378 -0.28010863 4290005760
2.5127017 -0.95254064 -0.32889119 4291050240
2.53282 -0.9600749 -0.3430807 4291050240
2.5680754 -0.97333926 -0.35919288 4291180800
2.6363478 -0.99910176 -0.379985 4291441920
2.7230558 -1.0318388 -0.40366131 4291833600
2.9142914 -1.1041383 -0.44353902 4292486400
3.0173557 -1.1430507 -0.47058406 4292878080
3.0686526 -1.1623628 -0.48956433 4293008640
3.0923018 -1.1712081 -0.50382626 4293139200
3.1060255 -1.1762955 -0.51601559 4293269760
3.1121464 -1.1785049 -0.52641058 4293269760
3.1246059 -1.1831118 -0.53733093 4293269760
3.1153965 -1.1795199 -0.54390836 4293269760
3.1156669 -1.1795143 -0.55149585 4293269760
3.1138372 -1.1787142 -0.55807114 4293269760
3.0878077 -1.168761 -0.5595966 4293139200
3.0880442 -1.1687425 -0.56519508 4293139200
3.0638373 -1.1594807 -0.565615 4293139200
3.072423 -1.1626192 -0.57142115 4293139200
3.0181096 -1.1419767 -0.56478423 4292878080
3.0176916 -1.1417118 -0.5675385 4292878080
3.0173779 -1.141486 -0.56965101 4292878080
3.0134859 -1.1399074 -0.57042032 4292878080
3.0170689 -1.1411536 -0.57194233 4292878080
3.0754464 -1.1631052 -0.58321542 4293139200
3.0617473 -1.1578182 -0.58011216 4293139200
3.081748 -1.1652641 -0.58272821 4293139200
3.0800982 -1.1645291 -0.58055466 4293139200
3.1102285 -1.1757984 -0.58368611 4293269760
3.1115956 -1.1762013 -0.58070093 4293269760
3.1145735 -1.177212 -0.57733685 4293269760
3.1150575 -1.1772803 -0.57283437 4293269760
3.1243598 -1.1806781 -0.56927699 4293269760
3.1095934 -1.1749874 -0.56067592 4293269760
3.0851419 -1.1656412 -0.54975533 4293139200
3.0670605 -1.1587011 -0.53943175 4293139200
3.0109956 -1.1374253 -0.52197075 4292878080
2.8996196 -1.0952785 -0.49473706 4292486400
2.753298 -1.0399525 -0.46168321 4291964160
2.6491818 -1.0005625 -0.43594918 4291572480
2.5653987 -0.96885157 -0.41367301 4291180800
2.5444393 -0.96084756 -0.40144119 4291180800
2.5067539 -0.94653541 -0.38631478 4291050240
2.4680583 -0.93184489 -0.37087998 4290919680
2.4251337 -0.91556215 -0.35470745 4290658560
2.4296122 -0.91715837 -0.34525171 4290658560
2.4313018 -0.91770256 -0.33498424 4290789120
2.4242535 -0.91495192 -0.32315639 4290658560
2.3947554 -0.9037382 -0.30812845 4290528000
2.3693609 -0.89407355 -0.29354569 4290528000
2.3793232 -0.89773709 -0.28311372 4290528000
2.3856449 -0.90002757 -0.27185234 4290528000
2.3766706 -0.89655334 -0.25855237 4290528000
2.3137426 -0.8727501 -0.23944011 4290266880
2.3217196 -0.87566566 -0.22774276 4290266880
2.3279021 -0.87790436 -0.21554236 4290266880
2.3056815 -0.8694436 -0.20054746 4290266880
2.2601702 -0.85221225 -0.18367554 4290005760
2.285228 -0.86156088 -0.172507 4290136320
2.2777514 -0.85865617 -0.15857102 4290136320
2.2640572 -0.85341078 -0.14415208 4290005760
2.2262506 -0.8390885 -0.12833318 4289875200
2.22387 -0.83810508 -0.1146887 4289875200
2.2217655 -0.83722574 -0.10096389 4289875200
2.2169232 -0.83531594 -0.087048166 4289875200
2.1816597 -0.82195824 -0.072070278 4289744640
2.2070842 -0.8314395 -0.059132218 4289875200
2.2311318 -0.8404007 -0.04578492 4289875200
2.246042 -0.84592235 -0.03195079 4290005760
2.2638071 -0.85251671 -0.017921619 4290005760
2.2906253 -0.86251485 -0.003673227 4290136320
2.305413 -0.86798638 0.01086868 4290136320
2.3144932 -0.87131041 0.025524909 4290266880
2.3531525 -0.88575584 0.040753573 4290397440
2.3800673 -0.89578271 0.056154385 4290528000
2.3894179 -0.89920443 0.071319364 4290528000
2.3609765 -0.88841957 0.085189305 4290397440
2.4119818 -0.90749764 0.10190286 4290528000
2.4414535 -0.91847908 0.11810724 4290658560
2.449193 -0.92129177 0.13337515 4290658560
2.3845811 -0.89691871 0.14427346 4290528000
2.4783297 -0.93204689 0.16462733 4290789120
2.5201862 -0.94767392 0.18219879 4291050240
2.5119016 -0.94446373 0.19618256 4290919680
2.4042203 -0.9039225 0.20160514 4290528000
2.5797791 -0.96975923 0.23067994 4291180800
2.6361153 -0.99081349 0.25023198 4291441920
2.7648566 -1.0390494 0.2773279 4291833600
2.9618027 -1.1128815 0.31264371 4292616960
3.0023923 -1.128004 0.33247247 4292747520
3.1623166 -1.1879159 0.36607668 4293269760
3.1708767 -1.1910068 0.38270199 4293400320
3.1539965 -1.18455 0.39580435 4293269760
3.1507103 -1.1831959 0.41005987 4293269760
3.1165557 -1.1702605 0.41968608 4293139200
3.1696606 -1.1900642 0.44060174 4293400320
3.1768348 -1.1926347 0.45492476 4293400320
3.174654 -1.1916958 0.46741694 4293400320
3.1702945 -1.1899403 0.47902969 4293400320
3.155375 -1.1842256 0.48843324 4293400320
3.1379764 -1.1775824 0.49677733 4293269760
3.1648545 -1.1875417 0.51155502 4293400320
3.1652749 -1.1875805 0.52157533 4293400320
3.175132 -1.191157 0.53257072 4293400320
3.1649215 -1.1872113 0.53959793 4293400320
3.1622016 -1.1860741 0.54723471 4293400320
3.1634982 -1.1864426 0.5549227 4293400320
3.1635175 -1.1863328 0.56174344 4293400320
3.1537488 -1.182556 0.56615818 4293400320
3.1521163 -1.1818285 0.57134342 4293400320
3.1560261 -1.1831775 0.57686293 4293400320
3.1554329 -1.18284 0.58089131 4293400320
3.1503146 -1.1808081 0.58340162 4293400320
3.1637566 -1.1857275 0.58865601 4293400320
3.1634638 -1.1855034 0.59068447 4293400320
3.149442 -1.1801392 0.58945823 4293400320
3.1493688 -1.1799986 0.59013253 4293400320
3.149406 -1.1798996 0.59013271 4293400320
3.1449261 -1.1781104 0.58859634 4293400320
3.1552386 -1.1818581 0.58912128 4293400320
3.1602185 -1.1836098 0.58795363 4293400320
3.1593249 -1.1831636 0.58500385 4293400320
3.1617622 -1.1839643 0.58197916 4293400320
3.1593878 -1.1829649 0.57738978 4293400320
3.1607792 -1.1833748 0.57280976 4293400320
3.1557243 -1.1813736 0.5664022 4293400320
3.1593544 -1.1826216 0.5608865 4293400320
3.1511698 -1.1794511 0.55263758 4293400320
3.1495314 -1.1787295 0.54490936 4293400320
3.1346033 -1.173039 0.53429961 4293269760
3.1356828 -1.173335 0.52582157 4293269760
3.1626511 -1.1833099 0.52097392 4293400320
3.1739643 -1.187431 0.51284111 4293400320
3.1596005 -1.181954 0.49999848 4293400320
3.1467597 -1.1770475 0.48691323 4293269760
2.7534223 -1.0294386 0.35265869 4291833600
2.6249156 -0.98134923 0.32391047 4291441920
2.5709848 -0.96112043 0.30480605 4291180800
2.512974 -0.93937176 0.28543043 4290919680
2.4825411 -0.92792475 0.2692889 4290919680
2.4794204 -0.9266777 0.2559576 4290919680
2.48405 -0.92832446 0.24312609 4290919680
2.4237435 -0.90572989 0.22402866 4290658560
2.4024019 -0.89768404 0.20869826 4290528000
2.4268029 -0.90671265 0.19705112 4290658560
2.4100158 -0.90036821 0.18183559 4290528000
2.3873119 -0.89181691 0.1662069 4290528000
2.3644612 -0.88321233 0.15065226 4290397440
2.3654392 -0.8835001 0.13655853 4290397440
2.3475642 -0.87675434 0.12134445 4290397440
2.3143094 -0.8642723 0.10552585 4290266880
2.3003349 -0.85898447 0.090742305 4290136320
2.2919497 -0.85578215 0.076212279 4290136320
2.281826 -0.85193211 0.061656773 4290136320
2.2186961 -0.82831591 0.046104278 4289875200
2.2326021 -0.83342922 0.032341514 4289875200
2.2255878 -0.83074158 0.018214025 4289875200
2.2110467 -0.82524812 0.0041459985 4289875200
2.2034733 -0.82235318 -0.009781532 4289875200
2.2272451 -0.83114266 -0.023968177 4289875200
2.2393064 -0.83556598 -0.038220655 4290005760
2.2491157 -0.83914912 -0.052530814 4290005760
2.2697415 -0.84676248 -0.067238003 4290005760
2.2889035 -0.85382897 -0.08207798 4290136320
2.3093371 -0.86136788 -0.097123183 4290266880
2.2678201 -0.84582525 -0.10928302 4290005760
2.321085 -0.86559397 -0.12603723 4290266880
2.346477 -0.87497681 -0.14159916 4290397440
2.3474822 -0.8752746 -0.15567829 4290397440
2.3183055 -0.86433172 -0.1673999 4290266880
2.3768413 -0.8860544 -0.18550773 4290528000
2.4150159 -0.90019143 -0.20237008 4290658560
2.420435 -0.90212995 -0.21649422 4290658560
2.3945351 -0.89240795 -0.22744645 4290528000
2.2692547 -0.84569174 -0.22781627 4290136320
2.4527161 -0.91390717 -0.25945291 4290789120
2.4697065 -0.92014998 -0.27414981 4290789120
2.4644217 -0.91810149 -0.28611884 4290789120
2.4310837 -0.90561354 -0.29430377 4290658560
2.3437135 -0.87302244 -0.29499826 4290397440
2.5702581 -0.95723403 -0.33572993 4291180800
2.6117079 -0.97256887 -0.35304645 4291311360
2.6902845 -1.001712 -0.37554249 4291703040
2.8083036 -1.0455209 -0.40399098 4292094720
2.9291728 -1.0903816 -0.43338883 4292486400
3.0635657 -1.1402634 -0.46532327 4293008640
3.0814636 -1.1468155 -0.47957069 4293139200
3.1115246 -1.1578887 -0.4953469 4293139200
3.1201046 -1.160973 -0.50726551 4293269760
3.1342077 -1.1661096 -0.51958019 4293269760
3.1273637 -1.1634583 -0.52784282 4293269760
3.130928 -1.164676 -0.53725165 4293269760
3.1324027 -1.1651163 -0.54569769 4293269760
3.1359918 -1.166342 -0.5538975 4293269760
3.1243355 -1.1619022 -0.55874139 4293269760
3.1155579 -1.1585323 -0.56341255 4293269760
3.0983541 -1.1520323 -0.56585538 4293139200
3.0940664 -1.1503311 -0.56996953 4293139200
3.0934308 -1.1499866 -0.57408887 4293139200
3.0869231 -1.1474607 -0.5764401 4293139200
3.0781865 -1.1441072 -0.5776878 4293139200
3.0778658 -1.1438792 -0.57983786 4293139200
3.0822682 -1.1454045 -0.58220637 4293139200
3.0683193 -1.1401159 -0.58041966 4293139200
3.0964494 -1.150449 -0.58593374 4293139200
3.0882585 -1.1472975 -0.58387786 4293139200
3.0911114 -1.1482452 -0.58323479 4293139200
3.10411 -1.1529579 -0.58382231 4293269760
3.1207054 -1.159004 -0.58438665 4293269760
3.1272662 -1.161325 -0.5823667 4293269760
3.1291759 -1.1619196 -0.57879239 4293269760
3.1261687 -1.1606895 -0.57363617 4293269760
3.1348398 -1.1637914 -0.56995291 4293269760
3.123862 -1.1596043 -0.56203425 4293269760
3.1186988 -1.1575742 -0.5545463 4293269760
3.1052125 -1.1524575 -0.54497647 4293139200
3.084204 -1.1445524 -0.53353906 4293139200
3.0476043 -1.1308677 -0.51893544 4293008640
2.9640086 -1.0997627 -0.49605313 4292616960
2.8319151 -1.0506862 -0.4651134 4292225280
2.7050164 -1.0035446 -0.43532342 4291703040
2.6219306 -0.97264999 -0.41281706 4291441920
2.5595119 -0.94942021 -0.39362291 4291180800
2.5050139 -0.92912984 -0.37564096 4291050240
2.4593058 -0.91210002 -0.35894832 4290789120
2.4572213 -0.91123438 -0.34843662 4290789120
2.4589262 -0.91177243 -0.33807471 4290789120
2.4565263 -0.91078973 -0.32677066 4290789120
2.4176681 -0.89630473 -0.3104187 4290658560
2.3838441 -0.88368678 -0.29471093 4290528000
2.4068801 -0.89212483 -0.28579196 4290658560
2.4150882 -0.89507127 -0.2746326 4290658560
2.3953822 -0.88768321 -0.26003769 4290528000
2.3346436 -0.86510801 -0.24109596 4290266880
2.3349817 -0.86514294 -0.2285585 4290266880
2.34232 -0.86776841 -0.21641956 4290397440
2.3331406 -0.86428088 -0.20251809 4290266880
2.2847221 -0.84627551 -0.18528882 4290136320
2.2902086 -0.84821659 -0.17251417 4290136320
2.3013511 -0.85224944 -0.15988687 4290136320
2.2877147 -0.84711599 -0.14536315 4290136320
2.2451489 -0.83128411 -0.12915927 4290005760
2.2381992 -0.82862657 -0.11519127 4290005760
2.2321463 -0.8263011 -0.10122655 4289875200
2.2269628 -0.82429749 -0.08726351 4289875200
2.1914957 -0.81109858 -0.072248936 4289744640
2.2131569 -0.81902015 -0.059174035 4289875200
2.232239 -0.82598662 -0.045711994 4289875200
2.2462425 -0.83107477 -0.031887371 4290005760
2.2687354 -0.83929878 -0.017928705 4290005760
2.2980964 -0.85005891 -0.0036864248 4290136320
2.3151207 -0.85625887 0.01087965 4290266880
2.31953 -0.85779727 0.025517667 4290266880
2.340452 -0.86543471 0.040452912 4290266880
2.3805563 -0.88015544 0.056040391 4290397440
2.3993046 -0.8869862 0.071447678 4290528000
2.3780351 -0.87903857 0.085601188 4290397440
2.4125407 -0.89168608 0.1017016 4290528000
2.446763 -0.9042263 0.11809961 4290658560
2.4582665 -0.90837747 0.13356805 4290789120
2.3944492 -0.88472652 0.14454475 4290528000
2.4930813 -0.92103529 0.16523248 4290919680
2.5116234 -0.92778099 0.18118954 4290919680
2.5220399 -0.93152708 0.19653545 4290919680
2.4047689 -0.88816214 0.20121039 4290528000
2.593416 -0.9576633 0.23138186 4291180800
2.7109103 -1.0009037 0.25671014 4291703040
2.9231329 -1.0790743 0.29244193 4292486400
3.0672126 -1.1320977 0.32298788 4293008640
2.9513307 -1.0892475 0.32614192 4292486400
3.1785123 -1.1729004 0.36713794 4293400320
3.1692889 -1.1693782 0.38167757 4293400320
3.1655037 -1.1678616 0.39637473 4293269760
3.1491668 -1.1617188 0.40896723 4293269760
3.1326308 -1.1555043 0.42092073 4293269760
3.1765399 -1.1715671 0.44059184 4293400320
3.1837292 -1.1740957 0.45491487 4293400320
3.1815426 -1.1731697 0.46740705 4293400320
3.1771731 -1.1714399 0.47901982 4293400320
3.1659358 -1.1671805 0.48899457 4293400320
3.1355004 -1.1558511 0.49530783 4293269760
3.1717193 -1.1690732 0.51154518 4293400320
3.1814148 -1.1725253 0.52308381 4293400320
3.1727464 -1.1692147 0.53101581 4293400320
3.1717842 -1.1687427 0.53958809 4293400320
3.1644256 -1.1659161 0.54642838 4293400320
3.1703565 -1.1679825 0.55491287 4293400320
3.165746 -1.1661686 0.56091678 4293400320
3.1605847 -1.1641527 0.5661484 4293400320
3.1635747 -1.1651375 0.57216698 4293400320
3.1711919 -1.1678249 0.5783655 4293400320
3.1576457 -1.1627254 0.58003533 4293400320
3.1571403 -1.162425 0.58339179 4293400320
3.1613638 -1.1638645 0.58693618 4293400320
3.1703167 -1.1670437 0.59067458 4293400320
3.1608865 -1.1634616 0.59030837 4293400320
3.1561899 -1.1616211 0.5901227 4293400320
3.1516037 -1.1598221 0.58926207 4293400320
3.1609821 -1.1631583 0.5903064 4293400320
3.1620705 -1.1634463 0.58911145 4293400320
3.1666956 -1.1650349 0.58787632 4293400320
3.1615398 -1.1630282 0.58414298 4293400320
3.1686063 -1.1655145 0.58196932 4293400320
3.1708524 -1.1662291 0.57822019 4293400320
3.1676197 -1.1649306 0.57279992 4293400320
3.1707702 -1.1659781 0.56785798 4293400320
3.1615605 -1.1624845 0.56005985 4293400320
3.1626194 -1.1627643 0.55343491 4293400320
3.1609786 -1.1620528 0.54569608 4293400320
3.1506543 -1.1581522 0.53585982 4293400320
3.1471024 -1.1567398 0.52658439 4293269760
3.1732025 -1.1662172 0.5215714 4293400320
3.1761868 -1.1672052 0.51208627 4293400320
