# .PCD v0.7 - Point Cloud Data file format
VERSION 0.7
FIELDS x y z rgba
SIZE 4 4 4 4
TYPE F F F U
COUNT 1 1 1 1
WIDTH 1104
HEIGHT 1
VIEWPOINT 0 0 0 1 0 0 0
POINTS 1104
DATA ascii
2.4817414 -2.5315402 0.34523311 4293922560
2.4979582 -2.5479221 0.32958868 4293922560
2.4779258 -2.5273302 0.30882916 4293922560
2.4853709 -2.5347643 0.29124647 4293922560
2.476717 -2.5257797 0.27146876 4293792000
2.4892814 -2.5384336 0.25368947 4293922560
2.4787831 -2.5275691 0.23326895 4293792000
2.4494069 -2.4974577 0.21113296 4293661440
2.4736099 -2.5219772 0.19342545 4293792000
2.4789398 -2.5272522 0.17379639 4293792000
2.4482961 -2.4958546 0.15166497 4293661440
2.4426467 -2.489939 0.13121544 4293661440
2.4676092 -2.5152266 0.11210929 4293792000
2.4681039 -2.515573 0.091560684 4293792000
2.3939109 -2.4397995 0.068760969 4293400320
2.4475062 -2.4942656 0.049729709 4293661440
2.4647779 -2.5117095 0.029312098 4293792000
2.4549079 -2.5014942 0.0084791919 4293661440
2.4479742 -2.4942722 -0.012209565 4293661440
2.4489892 -2.4951494 -0.032873515 4293661440
2.4550848 -2.5012028 -0.053628791 4293661440
2.4109912 -2.4561267 -0.072909668 4293530880
2.4411051 -2.4866481 -0.094236262 4293661440
2.4605837 -2.5063326 -0.11546315 4293792000
2.4581609 -2.5037074 -0.13567822 4293792000
2.37958 -2.4235182 -0.15087645 4293400320
2.450073 -2.4951558 -0.1752906 4293661440
2.4521108 -2.4970744 -0.19520587 4293661440
2.4521966 -2.4970047 -0.21476938 4293661440
2.3664329 -2.4095225 -0.22590378 4293269760
2.4575522 -2.5021436 -0.25370863 4293792000
2.4586344 -2.503088 -0.2726565 4293792000
2.4619734 -2.5063303 -0.2915881 4293792000
2.4296579 -2.4732769 -0.30576113 4293661440
2.4323213 -2.4758325 -0.32377824 4293661440
2.4455764 -2.4891684 -0.34296051 4293661440
2.466665 -2.5104749 -0.3631019 4293792000
2.4388158 -2.4819753 -0.37559295 4293661440
2.4311264 -2.4739943 -0.39052927 4293661440
2.4232063 -2.4657795 -0.4048897 4293661440
2.4565067 -2.4995079 -0.42584103 4293792000
2.4774601 -2.5206697 -0.44450891 4293922560
2.4742787 -2.5172746 -0.45845386 4293922560
2.4252479 -2.4672368 -0.46308914 4293661440
2.3874936 -2.4286764 -0.46887001 4293530880
2.4506152 -2.4927301 -0.4940525 4293792000
2.4460216 -2.487901 -0.50532687 4293792000
2.4518647 -2.4936876 -0.51818502 4293792000
2.4508061 -2.4924543 -0.52901405 4293792000
2.4383762 -2.4796572 -0.53672355 4293792000
2.4011295 -2.4416265 -0.53815067 4293530880
2.4099221 -2.4504135 -0.54915941 4293661440
2.3732893 -2.4130137 -0.54908758 4293400320
2.3891175 -2.4289539 -0.56044054 4293530880
2.4015391 -2.4414294 -0.57043189 4293530880
2.4174778 -2.4574783 -0.58067495 4293661440
2.3523378 -2.3911102 -0.57065403 4293400320
2.3684225 -2.4073088 -0.5795505 4293400320
2.3749003 -2.4137414 -0.58546561 4293530880
2.3876722 -2.4265697 -0.59227979 4293530880
2.3742659 -2.4127934 -0.59191078 4293530880
2.3871958 -2.4257805 -0.59741044 4293530880
2.3836272 -2.4220018 -0.59809178 4293530880
2.3704708 -2.4084823 -0.59565985 4293400320
2.3739777 -2.4118941 -0.59671277 4293530880
2.3637514 -2.4013536 -0.59361738 4293400320
2.3577523 -2.3951085 -0.59089375 4293400320
2.4122033 -2.450268 -0.60258722 4293661440
2.3994629 -2.4371736 -0.59676075 4293530880
2.3833427 -2.4206479 -0.5894326 4293530880
2.3638375 -2.4006865 -0.58063394 4293400320
2.4105833 -2.4480071 -0.58737212 4293661440
2.4447565 -2.4825549 -0.59019351 4293792000
2.4317038 -2.4691453 -0.58088332 4293792000
2.4508815 -2.4884617 -0.5785768 4293792000
2.4537783 -2.4912465 -0.57169318 4293792000
2.4547682 -2.4920948 -0.56369132 4293792000
2.4503787 -2.4874823 -0.55381578 4293792000
2.4549458 -2.4919622 -0.54532462 4293792000
2.4588721 -2.4957907 -0.53603011 4293792000
2.4759262 -2.512943 -0.52889162 4293922560
2.4806433 -2.5175724 -0.51841617 4293922560
2.4721973 -2.5088429 -0.50461757 4293922560
2.4638774 -2.5002425 -0.49035409 4293792000
2.4624186 -2.498605 -0.47694981 4293792000
2.4657381 -2.5018163 -0.46392077 4293792000
2.4740529 -2.5100951 -0.45124191 4293922560
2.4762189 -2.5121348 -0.43687311 4293922560
2.4643369 -2.4999235 -0.41959614 4293792000
2.4656861 -2.5011349 -0.40416735 4293792000
2.4690094 -2.5043485 -0.38858122 4293792000
2.4808033 -2.5161531 -0.37379539 4293922560
2.4818859 -2.5170932 -0.35689473 4293922560
2.4674139 -2.5022585 -0.33745718 4293792000
2.4608462 -2.4954412 -0.3188777 4293792000
2.465533 -2.5000367 -0.30141899 4293792000
2.4734571 -2.5079143 -0.28393221 4293792000
2.4755862 -2.5099151 -0.26539454 4293792000
2.4758232 -2.5099976 -0.2463467 4293792000
2.4831169 -2.5172338 -0.22767431 4293792000
2.4499042 -2.4834087 -0.20524672 4293661440
2.3967078 -2.4293323 -0.18161128 4293400320
2.4847891 -2.5184543 -0.16819879 4293792000
2.4844062 -2.5179081 -0.14790799 4293792000
2.4235926 -2.45612 -0.12436359 4293530880
2.4911084 -2.5243833 -0.10721221 4293792000
2.4845629 -2.5175922 -0.086254567 4293792000
2.4542673 -2.4867375 -0.064688295 4293661440
2.4067645 -2.4384532 -0.043251634 4293400320
2.5154903 -2.5484502 -0.024061674 4293922560
2.4969659 -2.5295241 -0.0028719215 4293922560
2.439023 -2.4706705 0.017721396 4293530880
2.434515 -2.4659491 0.038157005 4293530880
2.5386896 -2.5713072 0.061089728 4294053120
2.5187838 -2.5509851 0.081676945 4293922560
2.4819105 -2.5134826 0.10115089 4293792000
2.3955517 -2.4258728 0.117475 4293400320
2.5347123 -2.5666337 0.14515997 4294053120
2.5276277 -2.559299 0.16539857 4294053120
2.4904621 -2.5215092 0.18312939 4293792000
2.3718538 -2.4012713 0.19341983 4293269760
2.5390997 -2.57043 0.22718441 4294053120
2.5415516 -2.5727506 0.24730021 4294053120
2.4768219 -2.5070686 0.26012713 4293792000
2.3616316 -2.3903215 0.26599261 4293269760
2.5620325 -2.592994 0.30773389 4294183680
2.5509486 -2.581614 0.32515159 4294183680
2.4798193 -2.5094719 0.33396199 4293792000
2.3965681 -2.4250727 0.33966941 4293400320
2.3936224 -2.4219401 0.35577333 4293400320
2.5606534 -2.5907841 0.39785028 4294183680
2.5246148 -2.5541611 0.40882078 4294053120
2.5005701 -2.5296757 0.42088592 4293922560
2.3908887 -2.4185658 0.41723201 4293400320
2.4197156 -2.4475727 0.43677321 4293530880
2.5569317 -2.586206 0.4763543 4294314240
2.5456822 -2.574666 0.4884696 4294183680
2.5147359 -2.5432076 0.49602258 4294053120
2.4687581 -2.4965522 0.49964419 4293792000
2.4070418 -2.4339881 0.49897143 4293530880
2.4296227 -2.4566674 0.51500535 4293661440
2.5631177 -2.5914857 0.55465645 4294314240
2.5284474 -2.5562708 0.55772591 4294183680
2.5510771 -2.5789876 0.5727365 4294314240
2.5170143 -2.5443921 0.57432222 4294053120
2.5300257 -2.5573845 0.58590448 4294183680
2.5423975 -2.5697286 0.59674299 4294183680
2.487287 -2.5138679 0.5909307 4293922560
2.4866242 -2.5130401 0.59720761 4293922560
2.4992092 -2.5255997 0.60599822 4294053120
2.5021601 -2.5284231 0.6117813 4294053120
2.4982584 -2.5243218 0.61517406 4294053120
2.5110722 -2.5371099 0.62197578 4294053120
2.517731 -2.5436778 0.62655193 4294183680
2.5140815 -2.5398312 0.62783414 4294183680
2.51052 -2.5360737 0.62839794 4294053120
2.5139751 -2.5394046 0.6299811 4294183680
2.5036619 -2.5288279 0.62737703 4294053120
2.5038295 -2.5288386 0.62666458 4294053120
2.4909184 -2.5156403 0.62195247 4294053120
2.5594332 -2.5846727 0.63679039 4294314240
2.5397687 -2.5646529 0.62890673 4294183680
2.5298889 -2.5545158 0.62274855 4294183680
2.5110719 -2.5353565 0.61371082 4294053120
2.497875 -2.5218735 0.60539079 4294053120
2.531723 -2.5558863 0.6077159 4294183680
2.555728 -2.579958 0.60683048 4294314240
2.5874157 -2.6117821 0.60691106 4294444800
2.5814648 -2.6056113 0.59738731 4294444800
2.5755732 -2.5995014 0.58722514 4294444800
2.571234 -2.5949588 0.57677519 4294314240
2.5821402 -2.6058021 0.56905389 4294444800
2.5868433 -2.610384 0.55924904 4294444800
2.5671198 -2.5903184 0.54359031 4294314240
2.5807614 -2.6039195 0.53439885 4294314240
2.5571096 -2.5790093 0.43844 4294183680
2.5716019 -2.5934627 0.42477295 4294314240
2.5887501 -2.6105928 0.4108687 4294314240
2.5673809 -2.5888805 0.39042515 4294314240
2.5458181 -2.5669758 0.36980775 4294183680
2.5665598 -2.5877273 0.35492876 4294183680
2.5675056 -2.5885181 0.33676934 4294183680
2.5522654 -2.5729916 0.31622052 4294183680
2.541029 -2.5615029 0.29601482 4294053120
2.5511024 -2.5714962 0.27797511 4294183680
2.5518489 -2.5720868 0.25853425 4294183680
2.5372632 -2.557225 0.23736615 4294053120
2.5425537 -2.562396 0.21787144 4294053120
2.5551002 -2.5748785 0.19862115 4294183680
2.5591009 -2.5787482 0.17836003 4294183680
2.5386951 -2.5580251 0.15633903 4294053120
2.5323277 -2.5514486 0.13523212 4294053120
2.5343742 -2.5533504 0.11446477 4294053120
2.5447412 -2.5636337 0.093848035 4294053120
2.5194283 -2.5379734 0.071940288 4293922560
2.5324659 -2.5509467 0.051153108 4294053120
2.531652 -2.5499668 0.029930197 4294053120
2.5328753 -2.5510385 0.008697005 4294053120
2.5098953 -2.527735 -0.012444738 4293922560
2.5191963 -2.5369427 -0.033616945 4293922560
2.5219107 -2.5395167 -0.054764401 4293922560
2.5111034 -2.528475 -0.075490341 4293922560
2.5093107 -2.5265112 -0.096299373 4293922560
2.5450199 -2.562304 -0.11872277 4294053120
2.5280306 -2.5450394 -0.13871387 4294053120
2.5218518 -2.5386598 -0.15895662 4293922560
2.5205722 -2.5372121 -0.1792738 4293922560
2.5188491 -2.5353184 -0.19933943 4293922560
2.5191576 -2.5354695 -0.21933647 4293922560
2.4575782 -2.473336 -0.23322505 4293661440
2.5238049 -2.5398278 -0.25901628 4294053120
2.5358796 -2.5518188 -0.27956927 4294053120
2.5324264 -2.5481837 -0.29816887 4294053120
2.5260785 -2.5416365 -0.3160263 4294053120
2.4502144 -2.4651504 -0.32424268 4293661440
2.5221727 -2.5373878 -0.35162294 4294053120
2.5375087 -2.5526559 -0.37133476 4294053120
2.5207477 -2.5356355 -0.38592923 4294053120
2.5095203 -2.5241833 -0.40075302 4293922560
2.4480355 -2.4621844 -0.40663451 4293661440
2.5330162 -2.5474963 -0.43652371 4294053120
2.5447304 -2.5591166 -0.45389572 4294183680
2.5438385 -2.558059 -0.46857294 4294183680
2.524744 -2.5386982 -0.47925499 4294053120
2.4887152 -2.5023131 -0.48587707 4293922560
2.5136695 -2.527245 -0.5037874 4294053120
2.5160048 -2.529434 -0.51673144 4294053120
2.5148807 -2.5281448 -0.52838099 4294053120
2.5137939 -2.5268936 -0.53942311 4294053120
2.5164323 -2.5293868 -0.55065173 4294053120
2.509968 -2.5227308 -0.55924034 4294053120
2.5010362 -2.5135956 -0.56657517 4294053120
2.4567223 -2.468904 -0.56505311 4293792000
2.4164529 -2.4282825 -0.56352454 4293530880
2.4289432 -2.4406803 -0.57355368 4293661440
2.4414933 -2.4531372 -0.58300042 4293661440
2.454108 -2.465657 -0.59184742 4293792000
2.4674869 -2.4789429 -0.60024697 4293792000
2.480243 -2.4916017 -0.60784578 4293922560
2.4052448 -2.4161084 -0.59313685 4293530880
2.4084377 -2.4191639 -0.59690589 4293530880
2.4856269 -2.4965398 -0.61839277 4293922560
2.4081211 -2.4185419 -0.60069185 4293530880
2.475745 -2.4863021 -0.61846292 4293922560
2.4723248 -2.4827113 -0.61778653 4293922560
2.4557877 -2.4659495 -0.61311221 4293792000
2.4560144 -2.4660225 -0.61190873 4293792000
2.4500713 -2.4599006 -0.60845637 4293792000
2.4303067 -2.4399033 -0.60088611 4293661440
2.4799409 -2.4895773 -0.609725 4293922560
2.4610341 -2.4704416 -0.60096288 4293792000
2.491854 -2.5012221 -0.60361373 4293922560
2.5192451 -2.5285573 -0.60460913 4294053120
2.5191629 -2.5283158 -0.59824646 4294053120
2.5200455 -2.529043 -0.59141582 4294053120
2.5241365 -2.5329893 -0.58463728 4294053120
2.5251536 -2.5338509 -0.57645422 4294053120
2.519603 -2.5281224 -0.56612271 4294053120
2.517246 -2.5255985 -0.55588537 4294053120
2.5219147 -2.5301237 -0.54655039 4294053120
2.5395536 -2.5476601 -0.53930342 4294183680
2.5478148 -2.5557871 -0.52933306 4294183680
2.5386465 -2.5464299 -0.51514387 4294183680
2.5305407 -2.5381401 -0.50066972 4294053120
2.5249026 -2.5323257 -0.48618644 4294053120
2.5364296 -2.5437269 -0.47442472 4294053120
2.5371087 -2.5442479 -0.46003112 4294053120
2.5360572 -2.5430336 -0.44480863 4294053120
2.5241292 -2.5309138 -0.42725882 4294053120
2.5384936 -2.545157 -0.41366401 4294053120
2.549686 -2.5562181 -0.39892766 4294183680
2.5545609 -2.5609446 -0.38265413 4294183680
2.5438101 -2.5500066 -0.36365679 4294053120
2.5238252 -2.5298142 -0.34315062 4294053120
2.5416083 -2.5474794 -0.32741407 4294053120
2.5428352 -2.5485489 -0.30904889 4294053120
2.5248599 -2.5303743 -0.28813559 4293922560
2.5356429 -2.5410211 -0.27024117 4294053120
2.5567186 -2.5619807 -0.25290635 4294183680
2.5472336 -2.5523157 -0.23218568 4294053120
2.5439126 -2.5488281 -0.21187481 4294053120
2.4759777 -2.4806058 -0.18651967 4293661440
2.5469756 -2.5515761 -0.17139906 4294053120
2.5576706 -2.5621295 -0.15137845 4294053120
2.4983683 -2.5025666 -0.12745026 4293792000
2.5518248 -2.5559523 -0.10918256 4294053120
2.5663676 -2.5703573 -0.088573113 4294183680
2.5413721 -2.5451629 -0.066592179 4294053120
2.4833627 -2.4869106 -0.044367027 4293792000
2.570848 -2.5743592 -0.024447307 4294183680
2.5767107 -2.5800679 -0.0029463016 4294183680
2.5174682 -2.5205898 0.018184351 4293922560
2.438241 -2.4411108 0.037991844 4293530880
2.594887 -2.5977781 0.06207677 4294314240
2.5837917 -2.586508 0.083294891 4294183680
2.4965124 -2.4989798 0.10115089 4293792000
2.4746864 -2.4769764 0.12064591 4293661440
2.6033726 -2.605618 0.14822012 4294314240
2.5926504 -2.5947237 0.16866131 4294314240
2.4909925 -2.4928279 0.18209733 4293792000
2.4180136 -2.4196432 0.19603111 4293400320
2.6243796 -2.6259832 0.23344189 4294444800
2.6030684 -2.6044953 0.25180516 4294314240
2.5419345 -2.5431681 0.26540485 4294053120
2.4182553 -2.419277 0.27077803 4293400320
2.630434 -2.6313801 0.31410301 4294444800
2.6289985 -2.6297786 0.33314142 4294444800
2.5887706 -2.5893762 0.34659708 4294314240
2.4515195 -2.4519386 0.34542716 4293661440
2.4433057 -2.4435701 0.36103573 4293661440
2.6172249 -2.6173437 0.40426365 4294444800
2.5948503 -2.594805 0.41773903 4294314240
2.5019236 -2.5017226 0.41865328 4293922560
2.4520223 -2.4516714 0.42540044 4293661440
2.4746809 -2.4741714 0.44408518 4293792000
2.6214192 -2.6207149 0.48551542 4294444800
2.6088939 -2.6080289 0.49767461 4294444800
2.5657265 -2.5647147 0.50312436 4294183680
2.5283291 -2.5271733 0.50871193 4294053120
2.4723301 -2.4710445 0.50951236 4293792000
2.4068165 -2.4054139 0.5071919 4293530880
2.6275001 -2.6258039 0.56526846 4294575360
2.621372 -2.6195152 0.57484698 4294575360
2.586587 -2.5845923 0.57731813 4294314240
2.6023936 -2.6002233 0.59033692 4294444800
2.5774877 -2.5751765 0.59341115 4294314240
2.5301042 -2.5276766 0.59039086 4294053120
2.5398247 -2.5372286 0.59989041 4294183680
2.5391471 -2.5363922 0.60626251 4294183680
2.5552831 -2.5523503 0.61597854 4294183680
2.5582418 -2.555145 0.62184292 4294314240
2.5605838 -2.5573235 0.62684155 4294314240
2.5637059 -2.5602808 0.6313073 4294314240
2.5634286 -2.5598431 0.63420177 4294314240
2.570209 -2.5664525 0.63810569 4294314240
2.5631392 -2.5592325 0.63782579 4294314240
2.5631292 -2.5590615 0.63855153 4294314240
2.5597248 -2.5555019 0.63768369 4294314240
2.5466526 -2.5422916 0.63366443 4294183680
2.537153 -2.532649 0.62980163 4294183680
2.5374994 -2.532836 0.62765104 4294183680
2.5246849 -2.5198865 0.62152559 4294053120
2.5710196 -2.5659719 0.6291824 4294314240
2.5583761 -2.5531926 0.62162584 4294314240
2.5963109 -2.5908878 0.62557876 4294444800
2.6050959 -2.5994911 0.62168229 4294444800
2.6140277 -2.6082399 0.6170544 4294444800
2.6243863 -2.6184111 0.61199421 4294575360
2.6295171 -2.6233652 0.60495996 4294575360
2.6229751 -2.6166742 0.59454662 4294575360
2.6143303 -2.6078863 0.5830242 4294444800
2.6123643 -2.6057613 0.57235914 4294444800
2.6136012 -2.6068316 0.56174076 4294444800
2.6319652 -2.6249828 0.55407345 4294575360
2.6267149 -2.6195819 0.5407449 4294575360
2.6010661 -2.5929508 0.4433789 4294314240
2.6239507 -2.6155996 0.43089533 4294444800
2.6309462 -2.6224082 0.41513374 4294444800
2.6197433 -2.6110778 0.3960678 4294444800
2.5996318 -2.5908697 0.37542567 4294314240
2.6154294 -2.6064506 0.35958076 4294444800
2.6272721 -2.618088 0.3426021 4294444800
2.6116683 -2.6023753 0.3216964 4294314240
2.5885444 -2.5791714 0.29979444 4294314240
2.6140692 -2.6044402 0.28317791 4294314240
2.6151352 -2.6053388 0.26340359 4294314240
2.6094558 -2.5995171 0.24269889 4294314240
2.5861251 -2.5761135 0.22031519 4294183680
2.6110873 -2.6008155 0.20179196 4294314240
2.6139958 -2.603549 0.18112569 4294314240
2.6052799 -2.5947049 0.1595058 4294314240
2.579411 -2.5687797 0.13694492 4294183680
2.5906315 -2.5797918 0.11632478 4294183680
2.5975244 -2.5864935 0.095237263 4294314240
2.5783224 -2.5672116 0.073193625 4294183680
2.5773942 -2.5661261 0.051757734 4294183680
2.5871544 -2.5756817 0.030408436 4294183680
2.5877306 -2.5760937 0.0088336729 4294183680
2.5548539 -2.543205 -0.012593972 4294053120
2.5714135 -2.5595284 -0.034114171 4294183680
2.5781138 -2.5660365 -0.055659276 4294183680
2.5644567 -2.5522828 -0.076645933 4294053120
2.5602827 -2.5479686 -0.097684138 4294053120
2.5772653 -2.5647082 -0.11952789 4294183680
2.5841751 -2.5714228 -0.14097008 4294183680
2.5771897 -2.5643108 -0.16150019 4294183680
2.5646882 -2.5517116 -0.18135104 4294053120
2.5721464 -2.5589712 -0.20237397 4294183680
2.5709591 -2.5576293 -0.22254547 4294183680
2.5643978 -2.5509415 -0.2419477 4294053120
2.5721428 -2.5584853 -0.26244286 4294183680
2.5912802 -2.577359 -0.28401661 4294183680
2.5945692 -2.5804682 -0.30371025 4294314240
2.593508 -2.5792508 -0.32257661 4294314240
2.5215082 -2.5074892 -0.33173823 4293922560
2.5813694 -2.5668561 -0.35778469 4294183680
2.5971217 -2.5823576 -0.37785026 4294314240
2.5856121 -2.5707519 -0.3935602 4294314240
2.5645754 -2.5496759 -0.40716574 4294183680
2.5121362 -2.4973848 -0.41485807 4293922560
2.5886464 -2.5732839 -0.44351938 4294314240
2.6007552 -2.5851583 -0.46119434 4294314240
2.5997679 -2.5840144 -0.47609383 4294314240
2.5978901 -2.581986 -0.49027595 4294314240
2.5748179 -2.5588942 -0.49976787 4294183680
2.5715392 -2.5554752 -0.51239282 4294183680
2.5780084 -2.561743 -0.52639133 4294314240
2.5765789 -2.5601616 -0.5382008 4294314240
2.5722342 -2.5556839 -0.54875898 4294314240
2.5803499 -2.5635865 -0.56136042 4294314240
2.573029 -2.5561526 -0.56996286 4294314240
2.5759099 -2.5588539 -0.58014959 4294314240
2.5598993 -2.5427895 -0.58536667 4294183680
2.5377259 -2.5206058 -0.58837098 4294053120
2.5030992 -2.4860566 -0.58763415 4293922560
2.5157053 -2.4984198 -0.59723532 4294053120
2.462136 -2.445065 -0.59033799 4293792000
2.4713974 -2.4541078 -0.59770989 4293792000
2.4842288 -2.4666946 -0.60529023 4293922560
2.4810572 -2.4633906 -0.60828263 4293792000
2.4807656 -2.4629462 -0.61126471 4293792000
2.4903443 -2.4723008 -0.61597234 4293922560
2.4832332 -2.4650865 -0.61583507 4293922560
2.4804034 -2.4621227 -0.61603266 4293792000
2.4769621 -2.4585521 -0.61535549 4293792000
2.470113 -2.4515998 -0.61311221 4293792000
2.4605534 -2.4419584 -0.60948455 4293792000
2.5137897 -2.4946356 -0.62066025 4294053120
2.5445282 -2.5249813 -0.6254791 4294183680
2.5565443 -2.5367458 -0.62491447 4294183680
2.5528228 -2.5328939 -0.61976272 4294183680
2.5693839 -2.5491655 -0.61878598 4294314240
2.5823765 -2.5618949 -0.61616766 4294314240
2.5810354 -2.5604036 -0.60938692 4294314240
2.578861 -2.5580857 -0.60171086 4294314240
2.5728269 -2.55194 -0.59246099 4294314240
2.5773675 -2.556283 -0.58496392 4294314240
2.5780418 -2.5567911 -0.57589626 4294314240
2.5687447 -2.5474107 -0.56397074 4294183680
2.5871472 -2.5654991 -0.55743879 4294314240
2.5974729 -2.5755765 -0.5484072 4294314240
2.5987768 -2.5767076 -0.53679276 4294314240
2.5910401 -2.5688751 -0.52272969 4294314240
2.5681379 -2.5460088 -0.50516486 4294183680
2.5842221 -2.5617933 -0.49472636 4294314240
2.590919 -2.5682709 -0.48180959 4294314240
2.59586 -2.5730071 -0.46795785 4294314240
2.5980535 -2.5750194 -0.45304328 4294314240
2.568094 -2.5451655 -0.4321833 4294183680
2.5910232 -2.5677285 -0.419779 4294314240
2.5994341 -2.5759022 -0.40435627 4294314240
2.6092908 -2.5855072 -0.3885892 4294314240
2.5948269 -2.5710135 -0.36880231 4294314240
2.5798113 -2.555975 -0.34873202 4294183680
2.5878403 -2.5637689 -0.33143988 4294183680
2.5926278 -2.5683503 -0.31327653 4294183680
2.5857477 -2.5613737 -0.29337603 4294183680
2.5776029 -2.5531452 -0.27312312 4294183680
2.6031637 -2.5783017 -0.25601032 4294314240
2.6006536 -2.5756538 -0.23568317 4294314240
2.5910375 -2.5659688 -0.2145509 4294183680
2.4868405 -2.462625 -0.18625395 4293661440
2.610744 -2.5851595 -0.1746738 4294314240
2.6105311 -2.5847864 -0.15361312 4294314240
2.574249 -2.548702 -0.13056146 4294053120
2.6088872 -2.5828342 -0.11097828 4294314240
2.6196351 -2.5933118 -0.089888528 4294314240
2.6116312 -2.5852258 -0.068037361 4294314240
2.501363 -2.4759171 -0.04443014 4293792000
2.6205993 -2.5937772 -0.024776284 4294314240
2.6239884 -2.5969684 -0.002983009 4294314240
2.6016588 -2.574707 0.018683808 4294183680
2.5116725 -2.4854968 0.038909726 4293792000
2.6421168 -2.6144173 0.06284117 4294444800
2.6435864 -2.6157072 0.084729776 4294444800
2.6098535 -2.5821679 0.10513178 4294314240
2.4755769 -2.4491615 0.11999162 4293661440
2.6406858 -2.6123445 0.14947543 4294444800
2.6349883 -2.6065445 0.1704247 4294444800
2.5971189 -2.5689223 0.18875806 4294183680
2.4043872 -2.3781338 0.19379981 4293269760
2.6485856 -2.6195014 0.2342335 4294444800
2.6390474 -2.6099036 0.25381029 4294444800
2.5910141 -2.5622399 0.26896605 4294183680
2.4763148 -2.4486606 0.27567694 4293661440
2.6537652 -2.6239643 0.31505808 4294575360
2.655246 -2.6252637 0.33452356 4294575360
2.6273997 -2.5975683 0.34973672 4294444800
2.5282929 -2.4994299 0.35418689 4293922560
2.4235494 -2.3957317 0.35604784 4293400320
2.6504505 -2.6198635 0.40703109 4294575360
2.6251614 -2.5947032 0.42017788 4294444800
2.6005616 -2.5702274 0.4326455 4294314240
2.5152326 -2.4857373 0.4338468 4293922560
2.4650626 -2.4360027 0.43980476 4293661440
2.647141 -2.6157703 0.48744839 4294575360
2.6321955 -2.6008384 0.49922052 4294444800
2.608372 -2.577137 0.50853384 4294314240
2.5766022 -2.5455875 0.51543188 4294183680
2.5348091 -2.5041401 0.51937282 4294053120
2.4651761 -2.4351966 0.51649141 4293661440
2.6433756 -2.6110649 0.56540143 4294575360
2.6318252 -2.5994923 0.57380825 4294444800
2.6250153 -2.5926032 0.58251387 4294444800
2.6185317 -2.5860372 0.59056985 4294444800
2.6165907 -2.5839579 0.59893751 4294444800
2.578274 -2.545959 0.59815961 4294314240
2.5873382 -2.5547493 0.6075868 4294314240
2.5901551 -2.5573699 0.61487347 4294314240
2.5965545 -2.5635271 0.62231642 4294314240
2.5359139 -2.5035007 0.61285967 4294053120
2.5522995 -2.5195184 0.62120938 4294183680
2.5519366 -2.519002 0.62478447 4294183680
2.5551651 -2.5220301 0.62851125 4294183680
2.5514703 -2.5182252 0.6298002 4294183680
2.5380514 -2.5048237 0.62794054 4294053120
2.5513587 -2.5177987 0.63195384 4294183680
2.5409231 -2.5073426 0.62934977 4294053120
2.5983636 -2.563863 0.64280355 4294444800
2.6014316 -2.5667288 0.64203453 4294444800
2.5849574 -2.5503139 0.63570356 4294314240
2.5825927 -2.547821 0.63211614 4294314240
2.6163542 -2.5809658 0.63658589 4294444800
2.6106596 -2.5751865 0.63067329 4294444800
2.6088846 -2.5732737 0.62498534 4294444800
2.6248038 -2.5888131 0.62277538 4294444800
2.6351428 -2.5988469 0.61845398 4294575360
2.6469767 -2.6103537 0.61370516 4294575360
2.6402013 -2.6035085 0.60391796 4294575360
2.6322029 -2.5954583 0.59320056 4294444800
2.6322827 -2.5953739 0.5836457 4294444800
2.6201177 -2.5832171 0.57075065 4294444800
2.6347232 -2.5974536 0.56301826 4294444800
2.6356049 -2.5981596 0.55164355 4294444800
2.64188 -2.604182 0.54073411 4294575360
2.613657 -2.5753167 0.44295996 4294314240
2.6256485 -2.5869699 0.42869172 4294444800
2.6424294 -2.6033399 0.4145453 4294444800
2.6320252 -2.5929267 0.39563394 4294444800
2.6192923 -2.5802207 0.37608755 4294314240
2.6241362 -2.58483 0.3587012 4294314240
2.6269655 -2.5874543 0.34059048 4294314240
2.6171 -2.5775754 0.32051018 4294314240
2.6006043 -2.5611677 0.29945785 4294183680
2.6092539 -2.5695248 0.28102976 4294314240
2.6218333 -2.5817504 0.26255873 4294314240
2.623503 -2.5832322 0.24260145 4294314240
2.6071301 -2.5669494 0.22082677 4294183680
2.6342742 -2.5935121 0.20241269 4294314240
2.6285095 -2.5876739 0.18108362 4294314240
2.627821 -2.5868335 0.15996039 4294314240
2.6045821 -2.5637958 0.13748589 4294183680
2.6206157 -2.5794165 0.11699434 4294314240
2.6247008 -2.5832748 0.095680214 4294314240
2.609072 -2.5677314 0.0736406 4294183680
2.6125534 -2.5709963 0.052162092 4294183680
2.6121967 -2.5704834 0.030526228 4294183680
2.6129718 -2.5710847 0.0088685509 4294183680
2.6005571 -2.5587084 -0.01274556 4294183680
2.6112013 -2.5690198 -0.034442864 4294183680
2.6155543 -2.5731409 -0.056142971 4294314240
2.610209 -2.5677207 -0.077564918 4294183680
2.6096399 -2.5669997 -0.098994985 4294183680
2.62498 -2.5819268 -0.12104107 4294314240
2.6277661 -2.5845048 -0.14252418 4294314240
2.624999 -2.5816212 -0.16355084 4294314240
2.5983322 -2.5552342 -0.18267421 4294183680
2.6156833 -2.5721359 -0.20461684 4294314240
2.6187115 -2.5749519 -0.22537652 4294314240
2.6113811 -2.5675826 -0.24496494 4294314240
2.6050918 -2.5612378 -0.26427764 4294183680
2.632659 -2.5881784 -0.28689426 4294314240
2.6316295 -2.5870037 -0.30627885 4294314240
2.6354833 -2.5906293 -0.32591456 4294444800
2.6020052 -2.5575604 -0.34036249 4294183680
2.6251075 -2.5801058 -0.36175722 4294314240
2.6270602 -2.5818629 -0.38001096 4294314240
2.6352637 -2.5897622 -0.39881429 4294444800
2.6333303 -2.5876999 -0.41568092 4294444800
2.5995059 -2.554301 -0.42682153 4294314240
2.6288133 -2.5829363 -0.4478153 4294444800
2.6377518 -2.5915561 -0.4650695 4294444800
2.6333268 -2.5870459 -0.479471 4294444800
2.6322641 -2.5858395 -0.49391139 4294444800
2.6314178 -2.5848458 -0.5078221 4294444800
2.5958619 -2.5497589 -0.51427048 4294314240
2.6105127 -2.5639882 -0.52996898 4294314240
2.6156962 -2.568918 -0.54323608 4294444800
2.6145639 -2.5676444 -0.55458868 4294444800
2.6166997 -2.5695806 -0.56600177 4294444800
2.6205854 -2.5732346 -0.5771665 4294444800
2.617825 -2.5703623 -0.58620697 4294444800
2.5993721 -2.5520837 -0.59098268 4294314240
2.5988638 -2.5514243 -0.59908909 4294314240
2.5828984 -2.5355911 -0.6028896 4294314240
2.571301 -2.5240474 -0.6069324 4294183680
2.5770001 -2.5294828 -0.61433452 4294183680
2.5360849 -2.4891658 -0.60983682 4294053120
2.5419478 -2.4947631 -0.61580163 4294053120
2.5450788 -2.4976792 -0.62040049 4294053120
2.5553248 -2.5075767 -0.62602568 4294183680
2.4843187 -2.4377441 -0.61095852 4293792000
2.5444403 -2.4965818 -0.62739629 4294053120
2.5444045 -2.4963899 -0.62830496 4294053120
2.5381315 -2.4900787 -0.62693703 4294053120
2.5312445 -2.4831662 -0.62468415 4294053120
2.5823653 -2.5331566 -0.63599098 4294314240
2.5802102 -2.5308836 -0.63340813 4294314240
2.5833304 -2.5337849 -0.63137764 4294314240
2.5962963 -2.5463421 -0.6309942 4294314240
2.609899 -2.5595222 -0.62998831 4294444800
2.6076918 -2.5571969 -0.62441289 4294444800
2.6144478 -2.5636611 -0.62024558 4294444800
2.6134853 -2.5625563 -0.61351293 4294444800
2.6152875 -2.564162 -0.60671401 4294444800
2.6134541 -2.5622034 -0.5983687 4294444800
2.6030414 -2.5518346 -0.58740658 4294314240
2.6038482 -2.5524652 -0.57832921 4294314240
2.6014864 -2.5499897 -0.56788772 4294314240
2.6180151 -2.5660298 -0.56085885 4294444800
2.6225779 -2.5703406 -0.55053651 4294444800
2.6302533 -2.5777013 -0.54018313 4294444800
2.6180208 -2.5655518 -0.52514833 4294314240
2.6115272 -2.5590274 -0.51075828 4294314240
2.6058493 -2.5533032 -0.49601033 4294314240
2.6186855 -2.5657194 -0.48418498 4294314240
2.6238165 -2.570585 -0.47028968 4294314240
2.6210606 -2.5677238 -0.45443878 4294314240
2.6030357 -2.5499053 -0.43555599 4294314240
2.6132872 -2.5597866 -0.42096263 4294314240
2.6295569 -2.5755615 -0.40670088 4294314240
2.6345134 -2.5802541 -0.3901 4294444800
2.6307242 -2.5763807 -0.3717646 4294314240
2.6014373 -2.547539 -0.34964305 4294183680
2.6115203 -2.5572522 -0.33255881 4294314240
2.6127789 -2.5583241 -0.31390506 4294314240
2.6080976 -2.5535798 -0.29421881 4294183680
2.6063507 -2.5517089 -0.27458927 4294183680
2.6226668 -2.5675216 -0.25645283 4294314240
2.6235526 -2.5682273 -0.23639831 4294314240
2.6148548 -2.5595522 -0.21528459 4294183680
2.5523117 -2.4981747 -0.19006413 4293922560
2.6191232 -2.5634081 -0.17423221 4294314240
2.6176291 -2.5617847 -0.1531499 4294183680
2.5865335 -2.5311935 -0.13043432 4294053120
2.613481 -2.5574036 -0.11053798 4294183680
2.6287699 -2.5722029 -0.089686222 4294314240
2.6272807 -2.5705841 -0.068053722 4294314240
2.552696 -2.497452 -0.045082711 4293922560
2.6225865 -2.5656688 -0.024653327 4294314240
2.6293726 -2.5721459 -0.0029720429 4294314240
2.6050675 -2.5482097 0.01860135 4294183680
2.5089545 -2.4540403 0.038645465 4293661440
2.6397488 -2.5818093 0.062426012 4294314240
2.6472828 -2.5890152 0.084363349 4294314240
2.6187575 -2.560957 0.10488762 4294183680
2.4655094 -2.4109397 0.11882078 4293530880
2.649188 -2.5903902 0.14909987 4294444800
2.6454999 -2.5866215 0.17012697 4294314240
2.6102352 -2.5519812 0.18862751 4294183680
2.4739428 -2.4185784 0.19826698 4293530880
2.6427066 -2.5834031 0.23237848 4294314240
2.6368043 -2.5774713 0.25214601 4294314240
2.6069469 -2.5481255 0.26907429 4294183680
2.4670129 -2.4111974 0.27307281 4293530880
2.66278 -2.6023717 0.31432292 4294444800
2.6625984 -2.6020308 0.33353421 4294444800
2.6415753 -2.5813236 0.34961581 4294444800
2.5150554 -2.457535 0.35032064 4293792000
2.4097221 -2.3544629 0.35199517 4293269760
2.6471198 -2.5862539 0.40419871 4294444800
2.6398835 -2.5790222 0.42012212 4294444800
2.6200883 -2.5595224 0.43340579 4294314240
2.580579 -2.5207679 0.44257748 4294183680
2.4522457 -2.3952584 0.43502077 4293530880
2.6485789 -2.5868664 0.48492959 4294444800
2.6469541 -2.5851171 0.49915457 4294444800
2.6279278 -2.5663741 0.50942266 4294444800
2.5743899 -2.513932 0.51205057 4294183680
2.5394437 -2.4796507 0.51735353 4293922560
2.5418549 -2.4818492 0.52951819 4294053120
2.6486399 -2.5859509 0.56329525 4294575360
2.6398547 -2.5772116 0.5722754 4294444800
2.6301804 -2.5676053 0.58033049 4294444800
2.6229558 -2.5603917 0.58819324 4294444800
2.6146498 -2.5521233 0.59507948 4294314240
2.623692 -2.5607884 0.60522485 4294444800
2.5887673 -2.5265424 0.60445529 4294314240
2.5951314 -2.5325944 0.61254156 4294314240
2.6008635 -2.5380285 0.61979455 4294314240
2.6038511 -2.5407846 0.62568998 4294314240
2.6069207 -2.5436199 0.63088596 4294314240
2.5496461 -2.4875796 0.62066478 4294053120
2.5528939 -2.4905918 0.62437266 4294053120
2.5527036 -2.4902496 0.62651259 4294053120
2.549077 -2.4865556 0.62707341 4294053120
2.6130049 -2.5487552 0.64353406 4294444800
2.598985 -2.5349207 0.64006186 4294314240
2.5991564 -2.5349283 0.63933504 4294314240
2.5965984 -2.5322747 0.63718963 4294314240
2.5898991 -2.5255823 0.6332894 4294314240
2.6308107 -2.5653169 0.64024889 4294444800
2.6144154 -2.5491695 0.6324898 4294444800
2.6301847 -2.564384 0.63176996 4294444800
2.6300762 -2.5641172 0.62647253 4294444800
2.6394942 -2.573137 0.62269324 4294444800
2.6508744 -2.5840688 0.61860216 4294575360
2.6451833 -2.5783591 0.60979611 4294444800
2.648257 -2.581193 0.60231042 4294575360
2.6373806 -2.5704305 0.59098232 4294444800
2.6345546 -2.5675149 0.58082271 4294444800
2.6386514 -2.5713458 0.57151479 4294444800
2.6440756 -2.5764697 0.56179953 4294444800
2.6492898 -2.5813882 0.55135059 4294444800
2.6435413 -2.5756252 0.53799355 4294444800
2.6151037 -2.5468845 0.44068277 4294314240
2.6406763 -2.5716283 0.42869172 4294444800
2.6504319 -2.5809669 0.41343468 4294444800
2.6374192 -2.5681338 0.39418891 4294314240
2.6207383 -2.5517306 0.37415412 4294314240
2.6291676 -2.559777 0.35734427 4294314240
2.634861 -2.5651591 0.33967072 4294314240
2.6185102 -2.5490806 0.31885862 4294314240
2.6083403 -2.5390208 0.29864019 4294183680
2.6209137 -2.5510995 0.28067994 4294314240
2.6298394 -2.5596266 0.26186258 4294314240
2.6302433 -2.5598588 0.24184145 4294314240
2.619823 -2.5495572 0.22063994 4294183680
2.639508 -2.5685527 0.20166153 4294314240
2.6444139 -2.5731649 0.1811434 4294314240
2.6292429 -2.5582421 0.15913695 4294314240
2.6230562 -2.5520618 0.13767385 4294183680
2.6255698 -2.5543468 0.11654913 4294183680
2.6229107 -2.5515997 0.095071413 4294183680
2.6268437 -2.5552649 0.073720746 4294183680
2.6217632 -2.5501628 0.052048437 4294183680
2.6237016 -2.5518875 0.030486409 4294183680
2.6260726 -2.5540333 0.0088623604 4294183680
2.6051013 -2.533478 -0.012695272 4294183680
2.6134079 -2.5413964 -0.034276076 4294183680
2.6164804 -2.5442243 -0.055843711 4294183680
2.6219747 -2.5494068 -0.077471845 4294183680
2.6130214 -2.5405414 -0.098560087 4294183680
2.6365523 -2.5632586 -0.120884 4294314240
2.6395125 -2.5659752 -0.14234799 4294314240
2.6406395 -2.5669096 -0.16359073 4294314240
2.613482 -2.5403504 -0.18269564 4294183680
2.6309814 -2.5571997 -0.20464461 4294314240
2.6296897 -2.5557835 -0.22503598 4294314240
2.6276548 -2.5536451 -0.24509168 4294314240
2.6202762 -2.5463142 -0.26430854 4294183680
2.6474917 -2.5725999 -0.28687242 4294314240
2.6536031 -2.5783763 -0.30708262 4294444800
2.6583378 -2.5828145 -0.32687435 4294444800
2.6231792 -2.5484943 -0.34118414 4294314240
2.636997 -2.5617578 -0.36133268 4294314240
2.6489916 -2.5732486 -0.38100824 4294444800
2.6479547 -2.5720797 -0.39846027 4294444800
2.6401775 -2.564364 -0.41439629 4294314240
2.6206462 -2.5452335 -0.42785048 4294314240
2.6510513 -2.5746019 -0.44904062 4294444800
2.6618257 -2.584903 -0.46665075 4294444800
2.6577716 -2.5808039 -0.4811759 4294444800
2.6672969 -2.5898905 -0.49764505 4294575360
2.6538992 -2.5767195 -0.50925475 4294444800
2.6204073 -2.5440419 -0.51618797 4294314240
2.6331613 -2.5562634 -0.53153431 4294444800
2.6351748 -2.5580573 -0.54417694 4294444800
2.6308415 -2.5536904 -0.55487603 4294444800
2.635973 -2.5585105 -0.56693667 4294444800
2.6424108 -2.5645978 -0.57867259 4294444800
2.6366751 -2.5588703 -0.58707958 4294444800
2.6315446 -2.5537305 -0.59490436 4294444800
2.6296122 -2.5516949 -0.60273987 4294444800
2.6128922 -2.535311 -0.60643238 4294314240
2.6031721 -2.5257208 -0.61097139 4294314240
2.5962718 -2.5188675 -0.61541975 4294314240
2.6063223 -2.5284593 -0.62317336 4294314240
2.5906565 -2.5131035 -0.62404388 4294183680
2.5838988 -2.5063906 -0.62629318 4294183680
2.5934923 -2.5155382 -0.63177496 4294314240
2.5897388 -2.5117397 -0.63327444 4294183680
2.5896108 -2.5114577 -0.63491541 4294183680
2.5931084 -2.5146916 -0.6367029 4294314240
2.5896273 -2.511158 -0.63603216 4294183680
2.6049528 -2.5258603 -0.63923186 4294314240
2.607203 -2.5278831 -0.63846993 4294314240
2.607532 -2.5280433 -0.63648874 4294314240
2.6165969 -2.5366724 -0.63588518 4294314240
2.6269994 -2.546597 -0.63483936 4294444800
2.6251237 -2.5446188 -0.63007396 4294444800
2.6299996 -2.549185 -0.62618756 4294444800
2.6284206 -2.5474942 -0.62002873 4294444800
2.6361051 -2.5547814 -0.61531818 4294444800
2.6302946 -2.54899 -0.60673982 4294444800
2.6348283 -2.5532231 -0.59984636 4294444800
2.621907 -2.5405424 -0.58831358 4294314240
2.6198733 -2.5384121 -0.57859379 4294314240
2.6130548 -2.5316465 -0.56718355 4294314240
2.632679 -2.550499 -0.56080735 4294444800
2.6499937 -2.5671117 -0.55314249 4294444800
2.65763 -2.5743475 -0.54271591 4294444800
2.6327231 -2.5500607 -0.52510834 4294314240
2.6266968 -2.5440638 -0.51081747 4294314240
2.6245449 -2.5418196 -0.49674159 4294314240
2.6373065 -2.5540185 -0.48486835 4294314240
2.6355412 -2.5521483 -0.46971801 4294314240
2.6400409 -2.5563452 -0.45513952 4294314240
2.6149943 -2.5319333 -0.43508127 4294183680
2.6297703 -2.5460799 -0.42122108 4294314240
2.637733 -2.5536287 -0.40565738 4294314240
2.6394987 -2.5551775 -0.3886272 4294314240
2.6385412 -2.55409 -0.37076005 4294314240
2.6097984 -2.5261085 -0.34878278 4294183680
2.626375 -2.5419936 -0.33255881 4294314240
2.6305037 -2.5458295 -0.31424716 4294314240
2.6300938 -2.5452728 -0.29502228 4294314240
2.612565 -2.5281503 -0.27368748 4294183680
2.6203756 -2.5355494 -0.25477993 4294183680
2.6312993 -2.5459592 -0.23575574 4294314240
2.6196787 -2.5345562 -0.21446231 4294183680
2.54601 -2.4631267 -0.18852299 4293792000
2.6241202 -2.5385342 -0.17357779 4294183680
2.620311 -2.5346899 -0.15244022 4294183680
2.6004078 -2.5152788 -0.13039275 4294053120
2.6110933 -2.525456 -0.1098128 4294183680
2.6264651 -2.5401638 -0.089101143 4294183680
2.6220887 -2.5357718 -0.0675354 4294183680
2.5571401 -2.4728057 -0.04490599 4293922560
2.6274259 -2.5406139 -0.024559254 4294183680
2.6335304 -2.5463564 -0.0029599229 4294183680
2.6126804 -2.5260379 0.018550307 4294183680
2.5023615 -2.4192252 0.038326155 4293661440
2.6484339 -2.5602837 0.062277582 4294314240
2.655134 -2.5665994 0.084135577 4294314240
2.6235716 -2.5359302 0.10448688 4294183680
2.4622674 -2.3798649 0.1179943 4293400320
2.6432419 -2.5546222 0.147925 4294314240
2.6447849 -2.5559528 0.16912046 4294314240
2.5995867 -2.5121145 0.18679713 4294053120
2.4082425 -2.3270624 0.19191179 4293139200
2.654526 -2.564883 0.23209983 4294314240
2.6589513 -2.5689971 0.25282824 4294444800
2.6181624 -2.529429 0.26870623 4294183680
2.481019 -2.3967831 0.27307281 4293530880
2.6678631 -2.5771213 0.31314522 4294444800
2.6684628 -2.5775385 0.33238199 4294444800
2.6403029 -2.5501778 0.34747499 4294314240
2.5257521 -2.4393837 0.34982497 4293792000
2.41696 -2.3341651 0.35105994 4293269760
2.6585674 -2.5673347 0.40365583 4294444800
2.6512909 -2.5601468 0.41955659 4294444800
2.6103306 -2.5204363 0.42935532 4294183680
2.5809407 -2.4919016 0.44014207 4294053120
2.4661593 -2.3809304 0.43502077 4293530880
2.6567533 -2.5647764 0.48368213 4294444800
2.6452098 -2.553472 0.49601173 4294444800
2.6357088 -2.5441403 0.50804895 4294314240
2.5854311 -2.4954526 0.51134616 4294183680
2.5438795 -2.4551928 0.51533419 4293922560
2.5626767 -2.4731791 0.53084499 4294053120
2.6529903 -2.5601778 0.56103867 4294444800
2.6512699 -2.5583565 0.57150894 4294444800
2.6280353 -2.5357769 0.57658762 4294314240
2.6349864 -2.5423241 0.58755946 4294444800
2.6294744 -2.5368466 0.59507948 4294314240
2.6421175 -2.5488839 0.60603923 4294444800
2.5998943 -2.507993 0.60363126 4294183680
2.6062944 -2.5140088 0.6117087 4294314240
2.6156063 -2.5228324 0.61979455 4294314240
2.6122258 -2.5194132 0.62416458 4294314240
2.5573702 -2.4663515 0.61540651 4294053120
2.564096 -2.4726827 0.62066478 4294053120
2.5567253 -2.4654198 0.62178606 4294053120
2.5636239 -2.4719164 0.62564743 4294053120
2.5599761 -2.4682441 0.62620628 4294053120
2.6136308 -2.5198176 0.64006162 4294314240
2.6108739 -2.5170014 0.6393674 4294314240
2.6039546 -2.5101731 0.63690704 4294314240
2.6113079 -2.5171032 0.63718963 4294314240
2.5974774 -2.5036144 0.63156497 4294183680
2.6357815 -2.5403745 0.6378457 4294444800
2.6263852 -2.5311592 0.63180709 4294314240
2.6379843 -2.5421777 0.63007498 4294444800
2.6378725 -2.5419102 0.62479126 4294444800
2.6476905 -2.5512109 0.62110972 4294444800
2.6481996 -2.5515409 0.61449844 4294444800
2.6466603 -2.5498974 0.60670143 4294444800
2.6426373 -2.5458615 0.59764862 4294444800
2.6487563 -2.5515959 0.59019011 4294444800
2.6494689 -2.5521219 0.58082271 4294444800
2.6329587 -2.5360587 0.5670718 4294314240
2.6512811 -2.5535464 0.56015986 4294444800
2.6486025 -2.550806 0.5481053 4294444800
2.6520877 -2.554002 0.53669536 4294444800
2.6363351 -2.537802 0.44176143 4294314240
2.6455953 -2.5465558 0.42707437 4294314240
2.6582639 -2.5585892 0.41232404 4294444800
2.637702 -2.5386386 0.39201388 4294314240
2.6219418 -2.5233116 0.37222072 4294183680
2.6339965 -2.5347538 0.35598731 4294314240
2.6433039 -2.5435503 0.3388429 4294314240
2.6333175 -2.5337815 0.31885862 4294314240
2.6166251 -2.5175617 0.29790428 4294183680
2.6318321 -2.5320339 0.28026459 4294183680
2.6373618 -2.5371943 0.26113522 4294314240
2.6340182 -2.5338182 0.24082707 4294183680
2.6167207 -2.5170207 0.21913987 4294183680
2.6434457 -2.5425675 0.20082718 4294314240
2.6484048 -2.5471773 0.18039712 4294314240
2.6477036 -2.5463426 0.15935364 4294314240
2.6205938 -2.520112 0.13677165 4294183680
2.6264017 -2.5255384 0.11593091 4294183680
2.6341295 -2.5328102 0.094941556 4294183680
2.6279931 -2.526751 0.073338605 4294183680
2.6142225 -2.5133529 0.051607147 4294053120
2.62467 -2.5232387 0.030326327 4294183680
2.6254513 -2.5238309 0.0088104894 4294183680
2.6056833 -2.5046709 -0.012626779 4294053120
2.6171682 -2.515552 -0.034132592 4294183680
2.628058 -2.5258603 -0.055775773 4294183680
2.6154425 -2.5135775 -0.076844826 4294183680
2.608381 -2.5066333 -0.097832538 4294053120
2.6339879 -2.5310822 -0.12008824 4294183680
2.6404102 -2.5370939 -0.14159681 4294183680
2.6404948 -2.5370157 -0.16266327 4294183680
2.6156771 -2.5130126 -0.18182249 4294183680
2.6320415 -2.5285757 -0.20357768 4294183680
2.6404319 -2.5364769 -0.22468677 4294314240
2.6310477 -2.5273032 -0.24403057 4294183680
2.6196439 -2.5161908 -0.26276156 4294183680
2.6489761 -2.5442047 -0.28542221 4294314240
2.6580014 -2.5527122 -0.30586529 4294314240
2.6590247 -2.5535345 -0.32512391 4294314240
2.6343918 -2.5297198 -0.3407197 4294314240
2.6377647 -2.5327995 -0.35940975 4294314240
2.6535358 -2.5477829 -0.37952036 4294314240
2.6525388 -2.5466652 -0.39691058 4294314240
2.6594369 -2.5531275 -0.41507736 4294444800
2.6282656 -2.5230436 -0.42668727 4294314240
2.659204 -2.552583 -0.44789487 4294444800
2.6647048 -2.5577023 -0.46453515 4294444800
2.6702037 -2.5628192 -0.48071522 4294444800
2.6720145 -2.5643959 -0.49572921 4294444800
2.6660075 -2.55847 -0.50870919 4294444800
2.630712 -2.5244393 -0.51531178 4294314240
2.6344419 -2.5278597 -0.5288108 4294314240
2.6396852 -2.5327315 -0.54205185 4294314240
2.6456752 -2.5383193 -0.55487603 4294444800
2.6479821 -2.5403726 -0.56632656 4294444800
2.6501789 -2.5423203 -0.57712018 4294444800
2.6444128 -2.5366294 -0.58550179 4294444800
2.6463785 -2.5383554 -0.59490436 4294444800
2.6415856 -2.5335989 -0.6020906 4294444800
2.6336751 -2.5258529 -0.60783011 4294314240
2.6340113 -2.5260165 -0.61474484 4294314240
2.6171973 -2.5097339 -0.61690331 4294314240
2.6138954 -2.5064101 -0.62148196 4294314240
2.6205254 -2.5126092 -0.62770176 4294314240
2.594902 -2.4878848 -0.62543613 4294183680
2.6009936 -2.4935684 -0.63005251 4294183680
2.6007738 -2.4932008 -0.63240999 4294183680
2.6041992 -2.4963274 -0.63491541 4294183680
2.5942073 -2.486593 -0.63340473 4294183680
2.6223226 -2.5133841 -0.64045489 4294314240
2.6160698 -2.5072331 -0.63836437 4294314240
2.6183312 -2.5092428 -0.63760412 4294314240
2.6284158 -2.5187488 -0.6379934 4294314240
2.6313317 -2.5213845 -0.63588518 4294314240
2.6353889 -2.5251133 -0.63330072 4294314240
2.6470206 -2.5360987 -0.63177228 4294444800
2.6412482 -2.5304093 -0.62534493 4294444800
2.6403704 -2.5294092 -0.61936069 4294444800
2.6372569 -2.5262675 -0.61214101 4294314240
2.6418958 -2.5305521 -0.60600466 4294444800
2.6428895 -2.5313447 -0.59831381 4294444800
2.6366642 -2.5252235 -0.58831358 4294314240
2.633719 -2.522244 -0.57839626 4294314240
2.6348968 -2.5232131 -0.56872386 4294314240
2.6437678 -2.531549 -0.56001806 4294314240
2.6591349 -2.5461037 -0.55194479 4294444800
2.6572521 -2.5441411 -0.53960258 4294444800
2.6513126 -2.5382946 -0.52585745 4294444800
2.6325743 -2.5201964 -0.50909632 4294314240
2.631845 -2.5193398 -0.49533674 4294314240
2.641643 -2.5285602 -0.48294893 4294314240
2.6398194 -2.5266557 -0.4678489 4294314240
2.6469107 -2.5332835 -0.45377159 4294314240
2.6204386 -2.5077901 -0.43354872 4294183680
2.6254036 -2.5123837 -0.41816995 4294183680
2.6556413 -2.5411599 -0.40612769 4294314240
2.6474001 -2.5331149 -0.387611 4294314240
2.6464717 -2.5320671 -0.36979517 4294314240
2.6137366 -2.5005898 -0.34735608 4294183680
2.629684 -2.5156887 -0.33111623 4294183680
2.62375 -2.5098538 -0.31168813 4294183680
2.6278753 -2.5136423 -0.29312566 4294183680
2.6114595 -2.4977829 -0.27204254 4294053120
2.62814 -2.5135791 -0.25410664 4294183680
2.6318791 -2.5169969 -0.2344898 4294183680
2.6243112 -2.5096016 -0.21364091 4294183680
2.5639262 -2.4517019 -0.18878871 4293922560
2.6282821 -2.5130827 -0.17288163 4294183680
2.6299701 -2.5145385 -0.15214723 4294183680
2.5985157 -2.4843085 -0.12956989 4294053120
2.6192603 -2.503984 -0.10954086 4294053120
2.6238766 -2.5082393 -0.088516071 4294183680
2.6289408 -2.5129223 -0.067333639 4294183680
2.5606611 -2.4475019 -0.044716649 4293792000
2.6317444 -2.5152857 -0.024462221 4294183680
2.6447065 -2.5275152 -0.0029558828 4294183680
2.6208467 -2.5045552 0.018504366 4294053120
2.5200286 -2.4080591 0.038381208 4293661440
2.6523037 -2.5342975 0.062020313 4294314240
2.6635368 -2.5448706 0.083930574 4294314240
2.623507 -2.5064669 0.10390095 4294183680
2.4797046 -2.3689306 0.11816648 4293400320
2.6512599 -2.5326629 0.14754541 4294314240
2.6596315 -2.5405002 0.16912046 4294314240
2.6141787 -2.4969261 0.18679713 4294053120
2.4253693 -2.3164399 0.19219784 4293269760
2.6589162 -2.5393376 0.23118615 4294314240
2.6529496 -2.5334802 0.25084978 4294314240
2.6292486 -2.5106885 0.26833817 4294183680
2.4877312 -2.3754032 0.27228367 4293530880
2.6727428 -2.5519004 0.31196752 4294444800
2.6661451 -2.5454407 0.3302404 4294314240
2.6450346 -2.5251272 0.34615567 4294314240
2.5370424 -2.4218783 0.34942845 4293792000
2.4369934 -2.3262246 0.35199517 4293269760
2.6670082 -2.5456243 0.40267867 4294444800
2.6560993 -2.5350525 0.4179731 4294314240
2.6141949 -2.4949007 0.42759269 4294183680
2.5338795 -2.4180984 0.42970657 4293792000
2.4728122 -2.359673 0.43376181 4293530880
2.6616082 -2.5396712 0.48186392 4294444800
2.653589 -2.5318601 0.49480844 4294314240
2.6286497 -2.5079072 0.50386322 4294314240
2.5963447 -2.4769301 0.51064169 4294053120
2.5509808 -2.4334996 0.51389182 4293922560
2.490185 -2.3753543 0.51295322 4293661440
2.6714385 -2.5480893 0.56179082 4294444800
2.6528964 -2.5302441 0.56867218 4294444800
2.6427648 -2.5204225 0.57658762 4294314240
2.6497538 -2.5269289 0.58755946 4294444800
2.6470673 -2.5242081 0.5957225 4294444800
2.6123812 -2.4909754 0.59587932 4294183680
2.6116068 -2.4900804 0.60297197 4294183680
2.6173291 -2.4953794 0.6108759 4294314240
2.5662627 -2.4465384 0.6047141 4294053120
2.5585957 -2.4390757 0.60794431 4293922560
2.5752623 -2.4548092 0.61625987 4294053120
2.5748932 -2.4543033 0.61980647 4294053120
2.5710461 -2.4504819 0.62178606 4294053120
2.5744174 -2.4535408 0.62478226 4294053120
2.5707483 -2.4498899 0.62533915 4294053120
2.5742993 -2.4531195 0.62691879 4294053120
2.5743763 -2.4530387 0.62691903 4294053120
2.5645621 -2.4435332 0.62377912 4294053120
2.618798 -2.4950526 0.6354593 4294314240
2.6091673 -2.4857206 0.63087523 4294183680
2.6096094 -2.4859855 0.62799644 4294183680
2.6475086 -2.5219307 0.63334316 4294444800
2.6274385 -2.5026553 0.6240629 4294314240
2.6327608 -2.5075669 0.62010962 4294314240
2.6525133 -2.5262213 0.61877781 4294444800
2.6558778 -2.5292666 0.61285025 4294444800
2.6614718 -2.5344343 0.60670143 4294444800
2.664573 -2.5372279 0.5992561 4294444800
2.6564267 -2.5293119 0.58860564 4294444800
2.6578546 -2.5305121 0.57941914 4294444800
2.6412482 -2.5145433 0.56569219 4294314240
2.6525087 -2.5251048 0.5573014 4294314240
2.6569715 -2.5291941 0.54677844 4294444800
2.6497207 -2.5221331 0.53323358 4294314240
2.6309373 -2.5032375 0.43840557 4294183680
2.6531906 -2.5242519 0.42591912 4294314240
2.6630454 -2.5334682 0.41076916 4294314240
2.6527565 -2.5235212 0.39205948 4294314240
2.6329947 -2.5045648 0.37171194 4294183680
2.6451139 -2.5159347 0.35550269 4294314240
2.6580782 -2.5281067 0.3388429 4294314240
2.6444256 -2.5149634 0.31842402 4294183680
2.6240263 -2.4954059 0.2970866 4294183680
2.6364241 -2.5070381 0.27919337 4294183680
2.6419795 -2.5121629 0.26013878 4294183680
2.6451204 -2.5149913 0.24049832 4294183680
2.6241069 -2.4948545 0.21853742 4294053120
2.6444647 -2.5140514 0.19978839 4294183680
2.6530657 -2.5220697 0.17971064 4294183680
2.648736 -2.5177953 0.15853021 4294183680
2.6200948 -2.4904132 0.135986 4294053120
2.637449 -2.5067508 0.1157719 4294183680
2.6379721 -2.5070903 0.094551973 4294183680
2.6260118 -2.4955664 0.072876319 4294053120
2.6186738 -2.4884362 0.051407937 4294053120
2.6257124 -2.4949677 0.030169899 4294053120
2.6277962 -2.4967909 0.008769392 4294053120
2.6028328 -2.4729164 -0.012542933 4294053120
2.6107562 -2.480288 -0.033859923 4294053120
2.6249256 -2.4935927 -0.055400014 4294053120
2.6268573 -2.4952707 -0.076751754 4294053120
2.6164179 -2.4851978 -0.097589232 4294053120
2.6317029 -2.4995589 -0.11931808 4294183680
