# .PCD v0.7 - Point Cloud Data file format
VERSION 0.7
FIELDS x y z rgba
SIZE 4 4 4 4
TYPE F F F U
COUNT 1 1 1 1
WIDTH 1102
HEIGHT 1
VIEWPOINT 0 0 0 1 0 0 0
POINTS 1102
DATA ascii
1.5080429 -1.3299956 -0.28613135 4288700160
1.517313 -1.3380717 -0.29496515 4288700160
1.5240501 -1.3439167 -0.30304635 4288830720
1.5231189 -1.3430103 -0.3092888 4288830720
1.5311476 -1.3499913 -0.31701985 4288830720
1.5223367 -1.342149 -0.32091174 4288830720
1.5324692 -1.3509811 -0.32841873 4288830720
1.5240073 -1.343447 -0.3315838 4288830720
1.5244825 -1.343779 -0.33627924 4288830720
1.5197924 -1.3395658 -0.33943933 4288830720
1.5080024 -1.3291055 -0.3405838 4288700160
1.5108773 -1.33155 -0.34461278 4288700160
1.4921341 -1.3149742 -0.34329596 4288700160
1.4892595 -1.3123612 -0.34517834 4288700160
1.495685 -1.3179303 -0.34881273 4288700160
1.478703 -1.3029079 -0.34658849 4288569600
1.4785738 -1.3027115 -0.34787875 4288569600
1.4821932 -1.3058122 -0.34964514 4288569600
1.49231 -1.3146272 -0.35253772 4288700160
1.4886397 -1.311316 -0.3517755 4288700160
1.4913125 -1.3135834 -0.35209677 4288700160
1.5135453 -1.3330503 -0.35660046 4288830720
1.5200329 -1.3386705 -0.3569746 4288830720
1.5183805 -1.3371333 -0.35502398 4288830720
1.5162319 -1.33516 -0.35254908 4288830720
1.5304841 -1.3476052 -0.35344681 4288830720
1.5238875 -1.3417218 -0.34912363 4288830720
1.5276946 -1.3449839 -0.34677598 4288830720
1.5239556 -1.3416133 -0.34232002 4288830720
1.5275016 -1.3446457 -0.33909935 4288830720
1.525373 -1.3426908 -0.3342284 4288830720
1.5148609 -1.3333691 -0.32718047 4288700160
1.5085113 -1.3277065 -0.32070723 4288700160
1.502287 -1.3221544 -0.31393695 4288700160
1.4963051 -1.3168163 -0.30690381 4288700160
1.5136442 -1.3319677 -0.30424029 4288700160
1.5295311 -1.3458415 -0.30079997 4288830720
1.5286359 -1.3449714 -0.29366425 4288830720
1.5159773 -1.3337687 -0.28400844 4288700160
1.4981711 -1.3180461 -0.27322015 4288700160
1.5091851 -1.3276378 -0.26739347 4288700160
1.5261568 -1.3424606 -0.26217046 4288830720
1.5253077 -1.3416318 -0.25351757 4288830720
1.5103545 -1.3284183 -0.24233745 4288700160
1.4961439 -1.3158584 -0.23117726 4288569600
1.5187702 -1.3356433 -0.22537687 4288700160
1.5323539 -1.3474867 -0.21776801 4288830720
1.523367 -1.339514 -0.20669769 4288700160
1.5030434 -1.3215904 -0.19406036 4288700160
1.5126979 -1.3299837 -0.18513316 4288700160
1.5154234 -1.3322941 -0.17507674 4288700160
1.5158592 -1.3325946 -0.16454531 4288700160
1.4918661 -1.3114556 -0.15136434 4288569600
1.5066197 -1.3243225 -0.14199445 4288700160
1.5217881 -1.3375517 -0.13229394 4288700160
1.5233535 -1.3388431 -0.12115385 4288700160
1.5046237 -1.3223271 -0.10840899 4288569600
1.5087724 -1.3258859 -0.097294711 4288700160
1.5061994 -1.3235472 -0.085635543 4288569600
1.5059121 -1.3232141 -0.074036889 4288569600
1.4125023 -1.2411935 -0.058550101 4288177920
1.487482 -1.3068858 -0.050040375 4288569600
1.5086199 -1.3253458 -0.03894395 4288700160
1.5073256 -1.3241293 -0.027083762 4288569600
1.5083253 -1.3249249 -0.015239497 4288569600
1.5216873 -1.3365612 -0.0033882968 4288700160
1.5219243 -1.3366872 0.0085948892 4288700160
1.5146804 -1.3302536 0.02046602 4288700160
1.535087 -1.3480641 0.032799624 4288700160
1.6005992 -1.4054172 0.046747304 4289091840
1.7705534 -1.554324 0.065562017 4289744640
1.6760439 -1.4713806 0.075022571 4289352960
1.8087533 -1.5876178 0.094928153 4290005760
1.8189337 -1.5964435 0.10936205 4290005760
1.7880217 -1.5692527 0.12103677 4289875200
1.6336721 -1.4338851 0.12279928 4289222400
1.828631 -1.6046478 0.15106626 4290136320
1.8407741 -1.61519 0.16555227 4290136320
1.7991464 -1.5786152 0.17479481 4290005760
1.7156932 -1.505398 0.17887673 4289614080
1.8581921 -1.6301525 0.20677198 4290266880
1.8574171 -1.6293733 0.21945597 4290266880
1.8517962 -1.6243489 0.23127848 4290136320
1.8094023 -1.5871133 0.23792537 4290005760
1.6675768 -1.4627888 0.23001824 4289352960
1.8593794 -1.6306903 0.26822978 4290266880
1.8531585 -1.6251413 0.27870938 4290266880
1.8407422 -1.6141675 0.28782994 4290136320
1.8136539 -1.5903465 0.29409796 4290005760
1.7680944 -1.5503542 0.29662278 4289875200
1.8511323 -1.6229651 0.32059833 4290266880
1.8523757 -1.6239532 0.33048785 4290266880
1.836274 -1.6097558 0.33682916 4290136320
1.8055605 -1.5827684 0.3398748 4290005760
1.7571875 -1.5403259 0.33883494 4289875200
1.7631019 -1.5454071 0.34768426 4289875200
1.7269125 -1.5136356 0.34770116 4289744640
1.6686537 -1.4625529 0.34249309 4289483520
1.665022 -1.4592835 0.34786612 4289352960
1.6074069 -1.4087735 0.34134036 4289222400
1.6105586 -1.4114434 0.34714121 4289222400
1.6174612 -1.4173946 0.35337695 4289222400
1.6273719 -1.425977 0.3599048 4289222400
1.623221 -1.4222561 0.36291751 4289222400
1.6228302 -1.4218248 0.36633572 4289222400
1.61878 -1.4181925 0.36848986 4289222400
1.6118159 -1.4120117 0.36952928 4289222400
1.6078734 -1.4084744 0.37081113 4289222400
1.5317897 -1.3418425 0.35492554 4288830720
1.5383439 -1.3474898 0.35770038 4288830720
1.5353123 -1.3447535 0.35782829 4288830720
1.5353004 -1.344658 0.35823748 4288830720
1.5383084 -1.3472029 0.35892993 4288830720
1.6180135 -1.4168056 0.37707976 4289222400
1.6181718 -1.4168539 0.37621841 4289222400
1.6154196 -1.4143579 0.37423986 4289222400
1.6186564 -1.4170972 0.37320811 4289222400
1.6123034 -1.4114537 0.36953127 4289222400
1.6193585 -1.4175302 0.36849222 4289222400
1.6655862 -1.4578422 0.37583908 4289483520
1.666079 -1.4581796 0.37233272 4289483520
1.7166677 -1.5022945 0.37946716 4289614080
1.7247047 -1.5092213 0.37660441 4289744640
1.7357665 -1.51879 0.37390962 4289744640
1.7769743 -1.5546961 0.37711287 4289875200
1.8116306 -1.5848737 0.37823692 4290136320
1.8451898 -1.6140889 0.37845129 4290266880
1.8547031 -1.6222951 0.37313351 4290266880
1.8590763 -1.6260104 0.36629564 4290266880
1.8461006 -1.6145722 0.3556551 4290266880
1.8325727 -1.6020865 0.29200241 4290136320
1.8450567 -1.6128812 0.28315288 4290136320
1.8524678 -1.6192459 0.27308762 4290266880
1.8208423 -1.5915349 0.25710654 4290005760
1.8068789 -1.5792435 0.24362008 4290005760
1.834371 -1.6031352 0.23536858 4290136320
1.8352835 -1.6038271 0.22325453 4290136320
1.8064945 -1.5785993 0.20746322 4290005760
1.7991475 -1.5720854 0.19415529 4290005760
1.816047 -1.5867283 0.18318629 4290005760
1.8130558 -1.5840149 0.16990681 4290005760
1.8021883 -1.5744302 0.1558004 4290005760
1.7667555 -1.5434164 0.13973224 4289744640
1.585348 -1.3850695 0.11353795 4288961280
1.5369178 -1.3427348 0.098493241 4288700160
1.5246906 -1.3319824 0.086128116 4288700160
1.5290254 -1.3356758 0.07466881 4288700160
1.5321342 -1.3382995 0.063010029 4288700160
1.5271039 -1.3338253 0.050959401 4288700160
1.5125115 -1.3210137 0.038682513 4288700160
1.5201013 -1.3275449 0.02699223 4288700160
1.4859892 -1.2977167 0.014723381 4288569600
1.3885427 -1.2126769 0.0028163167 4288047360
1.5045626 -1.3137382 -0.0087164473 4288569600
1.5072145 -1.3159637 -0.020561269 4288569600
1.5121835 -1.3202088 -0.032475524 4288569600
1.514957 -1.3225396 -0.044370335 4288700160
1.5106105 -1.3186649 -0.056000981 4288569600
1.5287355 -1.334374 -0.068501845 4288700160
1.530664 -1.3359669 -0.080366477 4288700160
1.5291711 -1.3345789 -0.091970809 4288700160
1.523724 -1.3297454 -0.10318822 4288700160
1.5308349 -1.3358537 -0.11515141 4288700160
1.5346144 -1.339059 -0.12682307 4288700160
1.5270857 -1.332413 -0.13740194 4288700160
1.5363672 -1.3404107 -0.14934808 4288700160
1.5416069 -1.344887 -0.16084585 4288830720
1.5498888 -1.3520124 -0.17257987 4288830720
1.5488524 -1.3510216 -0.18314396 4288830720
1.5217279 -1.3273124 -0.19024666 4288700160
1.5389923 -1.3422594 -0.2025965 4288830720
1.5437281 -1.3462956 -0.21322621 4288830720
1.5394589 -1.3424908 -0.2223857 4288830720
1.5322131 -1.3360952 -0.23079929 4288700160
1.5144143 -1.3205134 -0.23722199 4288700160
1.5474817 -1.3492128 -0.25140369 4288830720
1.5504597 -1.3517174 -0.26064378 4288830720
1.5568571 -1.3571978 -0.27021655 4288830720
1.5522513 -1.3531013 -0.27759358 4288830720
1.5417488 -1.3438735 -0.28352979 4288830720
1.5224866 -1.3270242 -0.28739387 4288700160
1.5400124 -1.3421887 -0.29784113 4288830720
1.5355837 -1.3382486 -0.30377996 4288830720
1.5413584 -1.3431865 -0.31138951 4288830720
1.5389855 -1.3410355 -0.31701779 4288830720
1.5413079 -1.3429694 -0.32324675 4288830720
1.5339141 -1.3364512 -0.32705662 4288830720
1.5400914 -1.3417385 -0.33336934 4288830720
1.539729 -1.341337 -0.33790591 4288830720
1.5346935 -1.3368715 -0.34101531 4288830720
1.5261354 -1.3293432 -0.34291506 4288830720
1.5260465 -1.3291808 -0.34629351 4288830720
1.5213352 -1.3249991 -0.34821522 4288830720
1.5072885 -1.3127009 -0.34756929 4288700160
1.510771 -1.315645 -0.35053033 4288700160
1.4899843 -1.2974895 -0.34745052 4288569600
1.4935699 -1.300524 -0.34961122 4288700160
1.4934908 -1.3003726 -0.35051259 4288700160
1.5029155 -1.3084821 -0.35323229 4288700160
1.5029421 -1.3084221 -0.35334128 4288700160
1.510088 -1.3145497 -0.3547056 4288700160
1.5250015 -1.327427 -0.357467 4288830720
1.5286136 -1.330482 -0.35716087 4288830720
1.5335792 -1.3347127 -0.35674638 4288830720
1.5306768 -1.3321067 -0.35409069 4288830720
1.5411913 -1.341158 -0.35410517 4288830720
1.5346537 -1.3353939 -0.34979784 4288830720
1.5392247 -1.3392808 -0.34761176 4288830720
1.5330544 -1.3338368 -0.3426097 4288830720
1.5390322 -1.3389455 -0.33991718 4288830720
1.5331686 -1.3337686 -0.33422631 4288830720
1.5297906 -1.3307514 -0.32871819 4288830720
1.5274044 -1.3285959 -0.32306337 4288830720
1.5069795 -1.310776 -0.31331652 4288700160
1.5143988 -1.3171366 -0.3090269 4288700160
1.5251108 -1.3263557 -0.30498233 4288700160
1.5393906 -1.3386712 -0.30119681 4288830720
1.5401816 -1.3392748 -0.29437408 4288830720
1.520677 -1.3222589 -0.28344098 4288700160
1.5125574 -1.3151286 -0.27443564 4288700160
1.5236307 -1.3246588 -0.26857486 4288700160
1.537696 -1.3367847 -0.26280618 4288830720
1.536844 -1.3359624 -0.25413287 4288830720
1.5118872 -1.3142209 -0.24135263 4288700160
1.5075347 -1.3103625 -0.23174964 4288700160
1.5332806 -1.3326224 -0.22636829 4288700160
1.5364217 -1.3352655 -0.21723711 4288830720
1.534901 -1.3338637 -0.20720071 4288700160
1.5069568 -1.3095374 -0.19357754 4288569600
1.5271893 -1.3270091 -0.18595168 4288700160
1.5306839 -1.3299588 -0.17593561 4288700160
1.5280603 -1.3276011 -0.16502303 4288700160
1.5032461 -1.3059963 -0.15174048 4288569600
1.5256116 -1.325314 -0.14304642 4288700160
1.5333226 -1.3319199 -0.13261598 4288700160
1.531126 -1.3299332 -0.12115178 4288700160
1.5236166 -1.3233396 -0.10921256 4288700160
1.5202429 -1.320333 -0.097532928 4288700160
1.5282255 -1.3271732 -0.086438023 4288700160
1.5170457 -1.3173989 -0.074202091 4288700160
1.5019654 -1.3042443 -0.061900921 4288569600
1.5052599 -1.3070202 -0.050374892 4288569600
1.5190257 -1.3188727 -0.039010372 4288700160
1.5225682 -1.3218625 -0.027213601 4288700160
1.5222441 -1.3215004 -0.015297486 4288700160
1.5438042 -1.3401051 -0.0034123387 4288700160
1.537241 -1.334335 0.0086423419 4288700160
1.5326586 -1.3302821 0.020609831 4288700160
1.5477114 -1.3432441 0.032905471 4288830720
1.6299704 -1.4144363 0.04737306 4289091840
1.7691164 -1.5349076 0.065175951 4289744640
1.6996928 -1.4746675 0.075702265 4289483520
1.8258455 -1.583864 0.095344022 4290005760
1.8282014 -1.5858076 0.10936453 4290005760
1.8076997 -1.5679516 0.12175373 4289875200
1.6419959 -1.4243312 0.12280151 4289222400
1.8454907 -1.6004894 0.15169065 4290136320
1.8501505 -1.6044266 0.16555478 4290136320
1.8150957 -1.5739708 0.17545468 4290005760
1.7319685 -1.5018913 0.17966256 4289614080
1.8714219 -1.6225488 0.20719232 4290266880
1.8781711 -1.6282926 0.22078852 4290266880
1.8687525 -1.6200378 0.23221774 4290266880
1.8329103 -1.5889086 0.23980068 4290136320
1.6865962 -1.4621511 0.23146744 4289483520
1.8756105 -1.6256741 0.26920441 4290266880
1.8701053 -1.6208086 0.27983734 4290266880
1.8568708 -1.6092538 0.28888494 4290136320
1.8333936 -1.5888358 0.29579735 4290136320
1.7845958 -1.5465078 0.2978785 4289875200
1.8748002 -1.6244699 0.32305774 4290266880
1.8670393 -1.6176536 0.33142063 4290266880
1.8422422 -1.5960978 0.33621508 4290136320
1.8289745 -1.5845195 0.34254345 4290136320
1.7623864 -1.5268135 0.33811894 4289744640
1.7795534 -1.5415691 0.34915531 4289875200
1.7356986 -1.5035375 0.34770355 4289744640
1.6808804 -1.4560277 0.34325901 4289483520
1.6764811 -1.4521317 0.34848997 4289483520
1.6653988 -1.4424562 0.35187298 4289352960
1.6224844 -1.4052533 0.34794435 4289222400
1.628674 -1.4105177 0.35402843 4289222400
1.6281874 -1.4100084 0.35826448 4289222400
1.624763 -1.4069589 0.36142567 4289222400
1.6310831 -1.4123348 0.36633793 4289222400
1.5469609 -1.3395194 0.35035461 4288830720
1.5437028 -1.3366183 0.35211825 4288830720
1.5434778 -1.3363394 0.35415503 4288830720
1.5321252 -1.3264421 0.35320881 4288830720
1.5394582 -1.3326962 0.35615021 4288830720
1.5431178 -1.3357747 0.35783038 4288830720
1.5393792 -1.3324592 0.35737425 4288830720
1.546128 -1.3382065 0.35893202 4288830720
1.61953 -1.4015479 0.37552616 4289222400
1.6263958 -1.4073912 0.37622061 4289222400
1.6303381 -1.4107076 0.37578902 4289222400
1.6268818 -1.4076316 0.37321031 4289222400
1.6242245 -1.4052463 0.37038404 4289222400
1.6208736 -1.4022617 0.366974 4289222400
1.681509 -1.4545468 0.37751704 4289483520
1.674543 -1.448437 0.37233502 4289483520
1.6825527 -1.4552617 0.37004468 4289483520
1.7439203 -1.5081654 0.37887925 4289744640
1.7595242 -1.521543 0.37711588 4289744640
1.7972095 -1.5539861 0.37948358 4290005760
1.8150604 -1.569299 0.37704024 4290005760
1.8578464 -1.6061382 0.379125 4290266880
1.8753459 -1.6211423 0.3753843 4290266880
1.8685149 -1.6151406 0.3662982 4290266880
1.8592184 -1.6070112 0.35637605 4290266880
1.845631 -1.5946144 0.29260138 4290136320
1.8649489 -1.6111779 0.28476486 4290266880
1.8656299 -1.6116605 0.27364266 4290266880
1.8443865 -1.5932292 0.25912133 4290136320
1.8265927 -1.5777758 0.24503928 4290005760
1.8466918 -1.5950098 0.23575653 4290136320
1.8408233 -1.5898439 0.22279997 4290136320
1.805096 -1.5589268 0.20625666 4289875200
1.8195952 -1.571329 0.19537582 4290005760
1.8358295 -1.5852258 0.1842521 4290005760
1.8366044 -1.5857902 0.17125088 4290005760
1.8181295 -1.5697567 0.15638953 4290005760
1.7900795 -1.54547 0.1408686 4289875200
1.5989174 -1.3805648 0.11393571 4288961280
1.5553035 -1.3428766 0.099173926 4288830720
1.5437737 -1.3328497 0.086771816 4288700160
1.548133 -1.3365198 0.075226307 4288700160
1.5505024 -1.3384743 0.063449427 4288830720
1.5424193 -1.3314202 0.051215559 4288700160
1.5345701 -1.3245685 0.039055977 4288700160
1.5346907 -1.3245856 0.027118474 4288700160
1.5326405 -1.322732 0.015126301 4288700160
1.5523083 -1.3395911 0.003201626 4288830720
1.5122482 -1.3049893 -0.0087147001 4288569600
1.5261643 -1.3168924 -0.020708023 4288700160
1.527423 -1.3178902 -0.032632105 4288700160
1.5226345 -1.3136789 -0.044368256 4288700160
1.5295733 -1.3195692 -0.056410961 4288700160
1.5402683 -1.3286939 -0.068666853 4288700160
1.5459909 -1.3335352 -0.080756426 4288700160
1.5475165 -1.3347615 -0.092597917 4288700160
1.5314435 -1.3208334 -0.10318612 4288700160
1.5385898 -1.3269002 -0.1151493 4288700160
1.5423881 -1.3300835 -0.12682097 4288700160
1.542382 -1.329991 -0.13807289 4288700160
1.5411253 -1.3288221 -0.14905511 4288700160
1.5531924 -1.3391227 -0.16123393 4288830720
1.5652905 -1.3494486 -0.17341049 4288830720
1.5537696 -1.3394443 -0.18279915 4288830720
1.5294335 -1.3184119 -0.19024457 4288700160
1.5467848 -1.3332582 -0.20259438 4288830720
1.5620992 -1.3463497 -0.21466871 4288830720
1.5615709 -1.3458071 -0.22443329 4288830720
1.547502 -1.3336143 -0.23192164 4288830720
1.5119119 -1.3029068 -0.23564118 4288700160
1.559077 -1.3433986 -0.25200748 4288830720
1.5695889 -1.352354 -0.26252186 4288961280
1.5684952 -1.3513253 -0.27086124 4288961280
1.5638639 -1.3472539 -0.27825761 4288830720
1.5533059 -1.3380857 -0.28421241 4288830720
1.5376973 -1.3245751 -0.28879684 4288830720
1.5440532 -1.3299551 -0.2971195 4288830720
1.5538527 -1.3382958 -0.30583769 4288830720
1.5529047 -1.3373941 -0.31213835 4288830720
1.5542644 -1.3384767 -0.31854653 4288830720
1.5576103 -1.341267 -0.32501382 4288830720
1.5529041 -1.3371346 -0.3294296 4288830720
1.5508751 -1.3353041 -0.33401003 4288830720
1.5549986 -1.3387628 -0.33953252 4288830720
1.5491869 -1.3336813 -0.34249696 4288830720
1.5450699 -1.3300573 -0.34541294 4288830720
1.5293535 -1.3164649 -0.34529874 4288830720
1.5327649 -1.3193122 -0.34906164 4288830720
1.5261189 -1.3135167 -0.35013115 4288700160
1.5089078 -1.2986441 -0.34834144 4288700160
1.5087233 -1.2984025 -0.35004053 4288700160
1.5048554 -1.2949967 -0.35047641 4288700160
1.5010405 -1.2916368 -0.35051054 4288700160
1.5284392 -1.3150911 -0.35740975 4288830720
1.5217431 -1.3092556 -0.35595223 4288700160
1.524443 -1.3114916 -0.35627005 4288700160
1.5320368 -1.3179305 -0.35730875 4288830720
1.5363381 -1.3215411 -0.35715875 4288830720
1.5450647 -1.3289516 -0.3576065 4288830720
1.545885 -1.329572 -0.35580376 4288830720
1.5528085 -1.3354329 -0.35497615 4288830720
1.5536234 -1.3360485 -0.35233188 4288830720
1.5537323 -1.3360578 -0.34911776 4288830720
1.5550148 -1.3370748 -0.34575909 4288830720
1.5505483 -1.3331566 -0.34073496 4288830720
1.5513949 -1.3337996 -0.33649093 4288830720
1.5442582 -1.3275903 -0.33015293 4288830720
1.5418624 -1.3254509 -0.32447615 4288830720
1.5175883 -1.3045353 -0.31393281 4288700160
1.5182952 -1.3050605 -0.30826586 4288700160
1.5403156 -1.3238751 -0.30646849 4288830720
1.5556178 -1.3369228 -0.30283538 4288830720
1.5564167 -1.337525 -0.29597539 4288830720
1.5396274 -1.3230371 -0.28552252 4288830720
1.5201925 -1.3062816 -0.27443355 4288700160
1.5313212 -1.3157471 -0.26857278 4288700160
1.5492208 -1.3310198 -0.26344186 4288830720
1.5568486 -1.3374799 -0.25613865 4288830720
1.533836 -1.3176593 -0.24361625 4288700160
1.5219284 -1.3073652 -0.23278151 4288700160
1.5447893 -1.3268895 -0.22691812 4288830720
1.5592705 -1.3392255 -0.21935023 4288830720
1.5539734 -1.3346006 -0.20871381 4288830720
1.5193206 -1.304806 -0.19418134 4288700160
1.534893 -1.3180768 -0.18594958 4288700160
1.5384048 -1.3210062 -0.1759335 4288700160
1.5463614 -1.3277458 -0.16615365 4288700160
1.5221835 -1.3069383 -0.15287291 4288700160
1.5476955 -1.3287257 -0.14437942 4288700160
1.5554506 -1.3352908 -0.13384548 4288830720
1.5438465 -1.3252633 -0.12154084 4288700160
1.5381227 -1.3202765 -0.10969383 4288700160
1.5354922 -1.3179411 -0.09801136 4288700160
1.5321366 -1.3149847 -0.086224198 4288700160
1.532607 -1.3153069 -0.074581496 4288700160
1.5303354 -1.3132797 -0.062742315 4288700160
1.5375651 -1.3193932 -0.051184952 4288700160
1.5387558 -1.3203321 -0.039311633 4288700160
1.5369819 -1.3187314 -0.027328558 4288700160
1.5413071 -1.3223554 -0.015404657 4288700160
1.5515834 -1.3310761 -0.0034102064 4288700160
1.5525817 -1.3318493 0.0086898552 4288700160
1.5479755 -1.3278228 0.020716403 4288700160
1.5631032 -1.3406961 0.033070996 4288830720
1.645775 -1.411407 0.047597431 4289222400
1.7856194 -1.5310643 0.065458983 4289744640
1.7044574 -1.4614782 0.075535253 4289483520
1.8456662 -1.5822858 0.095901549 4290005760
1.8556197 -1.5907097 0.11045589 4290136320
1.8053044 -1.5475392 0.12098277 4289875200
1.6702586 -1.4318447 0.12429715 4289352960
1.8509902 -1.5864536 0.15138224 4290136320
1.8640782 -1.5975579 0.16596921 4290136320
1.8393867 -1.5763273 0.17691813 4290005760
1.7512906 -1.5008384 0.18076183 4289614080
1.8884118 -1.6180857 0.20803048 4290266880
1.8944343 -1.6231394 0.22158915 4290266880
1.8925296 -1.6214094 0.23400018 4290266880
1.8055525 -1.5468935 0.23503447 4289875200
1.6988623 -1.4555216 0.23198654 4289483520
1.8926015 -1.6211703 0.27028713 4290266880
1.8976353 -1.6253761 0.28254101 4290397440
1.8775326 -1.6080801 0.2906417 4290266880
1.8569487 -1.5903747 0.29810289 4290136320
1.8041283 -1.5451008 0.29963565 4289875200
1.8879976 -1.6167307 0.3237069 4290266880
1.8780015 -1.6080819 0.33170113 4290266880
1.8590357 -1.5917642 0.33758575 4290136320
1.8227676 -1.5606542 0.33967349 4290005760
1.789301 -1.5319431 0.34156969 4289875200
1.7952679 -1.5369489 0.35047957 4289875200
1.7013049 -1.456525 0.33910593 4289483520
1.6855757 -1.442988 0.34249771 4289483520
1.6886643 -1.4455379 0.34926927 4289483520
1.6274595 -1.3931339 0.34213424 4289222400
1.6231372 -1.3893523 0.34634468 4289222400
1.6263592 -1.3920188 0.35175824 4289222400
1.640121 -1.4036915 0.359088 4289222400
1.6396766 -1.4032235 0.36292198 4289222400
1.6250398 -1.3906286 0.36315638 4289222400
1.5479915 -1.3247104 0.3488363 4288830720
1.5514607 -1.3275906 0.3521204 4288830720
1.5542305 -1.329873 0.35484156 4288830720
1.5473143 -1.3238807 0.35492977 4288830720
1.5397036 -1.3172958 0.35442761 4288830720
1.623789 -1.3890326 0.3746635 4289222400
1.5471129 -1.3234568 0.3573764 4288830720
1.5434098 -1.32021 0.35651124 4288830720
1.5472506 -1.323406 0.3569687 4288830720
1.6345645 -1.3978806 0.37622288 4289222400
1.6317836 -1.3954167 0.37424433 4289222400
1.6320548 -1.3955592 0.37252817 4289222400
1.632381 -1.3957484 0.3703863 4289222400
1.6215165 -1.3863839 0.36528686 4289222400
1.6181962 -1.3834608 0.3614834 4289091840
1.6829501 -1.4386452 0.37233734 4289483520
1.6909994 -1.4454231 0.370047 4289483520
1.7526742 -1.4979683 0.37888166 4289744640
1.7683557 -1.5112549 0.37711832 4289744640
1.7901025 -1.5297155 0.37609622 4289875200
1.8346896 -1.5676636 0.37921831 4290136320
1.8770183 -1.6036798 0.38112846 4290266880
1.8868161 -1.6119355 0.37579745 4290266880
1.8891774 -1.6138457 0.36850381 4290266880
1.8790866 -1.6051327 0.35839018 4290266880
1.8760405 -1.6018615 0.29594406 4290266880
1.8856394 -1.6099418 0.2864919 4290266880
1.8863294 -1.610425 0.27530277 4290266880
1.8612015 -1.5888965 0.26018301 4290136320
1.8539213 -1.5825861 0.24747053 4290136320
1.8620006 -1.5893699 0.23652877 4290136320
1.8500518 -1.5790807 0.22280253 4290136320
1.7011712 -1.4520794 0.19339138 4289483520
1.7885123 -1.5264243 0.19107449 4289875200
1.8472985 -1.5764238 0.18448155 4290005760
1.8534018 -1.5815214 0.17195953 4290136320
1.8348368 -1.565598 0.1570439 4290005760
1.7914525 -1.5285289 0.14027427 4289875200
1.6198426 -1.382215 0.11485709 4289091840
1.5686871 -1.3385421 0.099532373 4288830720
1.5515105 -1.3238213 0.086773962 4288700160
1.5520874 -1.3242258 0.075043321 4288700160
1.5582718 -1.3294065 0.063451581 4288830720
1.5633925 -1.3336805 0.051659875 4288830720
1.5460647 -1.3188351 0.039155848 4288700160
1.5511341 -1.3230656 0.027277749 4288700160
1.5512754 -1.3230988 0.015240173 4288700160
1.540405 -1.3137556 0.0031558545 4288700160
1.5277596 -1.3029021 -0.0087548997 4288700160
1.5300018 -1.3047254 -0.020656064 4288700160
1.5388799 -1.3121978 -0.032709304 4288700160
1.5409181 -1.3138466 -0.044670556 4288700160
1.5448452 -1.3171029 -0.056684818 4288700160
1.5517867 -1.3229246 -0.068831816 4288700160
1.5537322 -1.3244935 -0.08075428 4288700160
1.5628725 -1.3321854 -0.09304519 4288830720
1.5467168 -1.3183492 -0.10369027 4288700160
1.5493342 -1.3204899 -0.11537218 4288700160
1.5569507 -1.3268839 -0.12737516 4288830720
1.5610759 -1.3303068 -0.13904265 4288830720
1.555676 -1.3256252 -0.14970739 4288830720
1.5753937 -1.3423126 -0.16271454 4288830720
1.5731243 -1.340294 -0.17340831 4288830720
1.5721675 -1.3393923 -0.18403475 4288830720
1.5439128 -1.3152722 -0.19108348 4288700160
1.5621053 -1.3306588 -0.20357597 4288830720
1.5734344 -1.3402065 -0.21514578 4288830720
1.5731704 -1.3398944 -0.2249705 4288830720
1.559029 -1.3277819 -0.23248172 4288830720
1.5410444 -1.3124032 -0.23897101 4288700160
1.5727279 -1.3392557 -0.25294307 4288830720
1.5804633 -1.3457446 -0.26302105 4288961280
1.5801176 -1.3453631 -0.27150586 4288961280
1.5822569 -1.3470941 -0.28012067 4288961280
1.5686216 -1.3354164 -0.28557971 4288830720
1.549159 -1.3187875 -0.2894972 4288830720
1.5661011 -1.3331007 -0.29985145 4288830720
1.5653907 -1.3324105 -0.30657119 4288830720
1.5682027 -1.3347137 -0.31363812 4288830720
1.5688125 -1.3351454 -0.31992212 4288830720
1.565397 -1.332157 -0.32501164 4288830720
1.5674392 -1.3338059 -0.33085251 4288830720
1.5661492 -1.332624 -0.33561486 4288830720
1.5627708 -1.329668 -0.33953035 4288830720
1.5569297 -1.3246206 -0.34249479 4288830720
1.5527916 -1.3210205 -0.34541079 4288830720
1.543758 -1.3132631 -0.34681112 4288830720
1.54418 -1.3135371 -0.34990796 4288830720
1.5337446 -1.3045907 -0.35012901 4288700160
1.5194507 -1.2923691 -0.34902719 4288700160
1.5192643 -1.2921282 -0.35072961 4288700160
1.5228838 -1.2951188 -0.35290256 4288700160
1.5228022 -1.2949669 -0.35381246 4288700160
1.5227743 -1.2948606 -0.35432231 4288700160
1.5330974 -1.3035414 -0.35682109 4288700160
1.5500745 -1.3178695 -0.36044526 4288830720
1.5464453 -1.3147054 -0.35887003 4288830720
1.5552738 -1.3221151 -0.35975426 4288830720
1.5554625 -1.3221914 -0.35822028 4288830720
1.5611154 -1.326905 -0.35751674 4288830720
1.5643179 -1.3295388 -0.35582593 4288830720
1.5692036 -1.3336004 -0.35408992 4288961280
1.5632595 -1.3284729 -0.34951028 4288830720
1.5702969 -1.3343599 -0.34741563 4288961280
1.5725803 -1.336213 -0.34384844 4288961280
1.5666634 -1.3311096 -0.33810782 4288830720
1.5635253 -1.3283641 -0.33260226 4288830720
1.5495572 -1.3164328 -0.32447398 4288830720
1.5402309 -1.3084402 -0.3170225 4288700160
1.5409479 -1.3089664 -0.31129959 4288700160
1.5517721 -1.3180641 -0.30721048 4288830720
1.567152 -1.3310238 -0.30356163 4288830720
1.5717311 -1.3348236 -0.29739699 4288830720
1.5609573 -1.3256054 -0.28803048 4288830720
1.5428907 -1.3102052 -0.27713698 4288700160
1.5533262 -1.3189708 -0.27106899 4288830720
1.5637568 -1.3277311 -0.2645877 4288830720
1.568398 -1.3315829 -0.25675383 4288830720
1.5452722 -1.3118982 -0.24421035 4288700160
1.540885 -1.3080983 -0.23450264 4288700160
1.5600743 -1.3242806 -0.22801982 4288830720
1.5700794 -1.3326777 -0.2197711 4288830720
1.5647571 -1.3280849 -0.2091157 4288830720
1.5441325 -1.3105263 -0.19636169 4288700160
1.5539412 -1.3187563 -0.18731503 4288700160
1.560516 -1.3242453 -0.17756706 4288830720
1.5578716 -1.3219233 -0.16655603 4288830720
1.5442261 -1.3102819 -0.15430778 4288700160
1.5554088 -1.319674 -0.14437725 4288700160
1.5632019 -1.3261938 -0.1338433 4288830720
1.5647962 -1.3274624 -0.12257066 4288830720
1.5419769 -1.308054 -0.10942314 4288700160
1.5431428 -1.3089608 -0.098009214 4288700160
1.5473944 -1.3124807 -0.086645477 4288700160
1.5429661 -1.3086501 -0.074710019 4288700160
1.539494 -1.3056297 -0.062802121 4288700160
1.5545794 -1.3183219 -0.051488649 4288700160
1.55553 -1.3190455 -0.039537214 4288700160
1.5515052 -1.3155572 -0.027445093 4288700160
1.5551425 -1.3185554 -0.015461283 4288700160
1.5631262 -1.3252324 -0.0034148968 4288830720
1.5671821 -1.328584 0.0087328888 4288830720
1.5628793 -1.3248605 0.02081706 4288830720
1.5795522 -1.3388896 0.033258732 4288830720
1.664953 -1.4110793 0.047919486 4289222400
1.7868763 -1.5141662 0.065180883 4289744640
1.7274368 -1.4637773 0.076181218 4289483520
1.8659664 -1.580899 0.09648183 4290136320
1.8648534 -1.5798601 0.11045849 4290136320
1.7804989 -1.5083982 0.11872343 4289744640
1.6084443 -1.3627545 0.11908775 4288961280
1.8472353 -1.564665 0.15032679 4290005760
1.8916335 -1.6021228 0.16759565 4290266880
1.8630048 -1.5778098 0.17830864 4290136320
1.7676141 -1.497036 0.18154779 4289744640
1.9046521 -1.6128361 0.20878516 4290266880
1.9152646 -1.6217108 0.22292186 4290397440
1.9125845 -1.6193444 0.23531429 4290397440
1.8221304 -1.5427617 0.23602273 4290005760
1.7149062 -1.4520096 0.23302245 4289483520
1.913065 -1.6194499 0.27186239 4290397440
1.9017484 -1.6097827 0.2817544 4290266880
1.897485 -1.6060789 0.29228157 4290266880
1.8661798 -1.5795177 0.29810551 4290136320
1.8206737 -1.5409566 0.30089155 4290005760
1.9046216 -1.6118113 0.32494572 4290397440
1.890662 -1.5999134 0.33228886 4290266880
1.8616796 -1.5753217 0.33639577 4290136320
1.846195 -1.5621387 0.34234226 4290136320
1.8087755 -1.5304233 0.3435837 4289875200
1.8155223 -1.5360281 0.35268506 4290005760
1.7097588 -1.4465771 0.33910832 4289483520
1.6909312 -1.430581 0.34188914 4289352960
1.6970544 -1.4356638 0.34927163 4289483520
1.6393172 -1.3868033 0.34292594 4289222400
1.6425123 -1.389415 0.34874988 4289222400
1.6382078 -1.385692 0.35257211 4289222400
1.6444999 -1.3909187 0.35826901 4289222400
1.6440537 -1.3904544 0.36209425 4289222400
1.5560085 -1.3160185 0.34600586 4288830720
1.55568 -1.315658 0.34883848 4288830720
1.5516365 -1.3121607 0.35042143 4288830720
1.5438809 -1.30553 0.35073739 4288830720
1.5474705 -1.3084775 0.3532131 4288830720
1.547349 -1.3082918 0.35442975 4288830720
1.5472811 -1.3081515 0.35524166 4288830720
1.5472677 -1.3080568 0.35564789 4288830720
1.5585988 -1.3175368 0.35824409 4288830720
1.5511678 -1.3111817 0.35610652 4288830720
1.6426778 -1.3883226 0.37622517 4289222400
1.642894 -1.3884163 0.37493417 4289222400
1.6431665 -1.3885573 0.37321487 4289222400
1.6434944 -1.388745 0.37106904 4289222400
1.6333295 -1.38008 0.36613384 4289222400
1.6299934 -1.3771768 0.36232352 4289222400
1.688285 -1.4262612 0.37167564 4289352960
1.7069286 -1.4418956 0.371692 4289483520
1.7143188 -1.4480358 0.3687588 4289483520
1.7801454 -1.503461 0.3777616 4289875200
1.7989812 -1.5192491 0.37609875 4289875200
1.8446603 -1.5576719 0.37940025 4290136320
1.8901155 -1.5959008 0.38189706 4290266880
1.9034072 -1.6070046 0.37723479 4290397440
1.9014038 -1.6052113 0.36906174 4290397440
1.8942589 -1.5990832 0.35950482 4290266880
1.8891344 -1.594092 0.29654315 4290266880
1.9018209 -1.6046783 0.28752923 4290266880
1.9101176 -1.6115643 0.27740499 4290397440
1.8742263 -1.5812182 0.26071519 4290136320
1.8669114 -1.5749518 0.24797912 4290136320
1.871226 -1.5784832 0.23653139 4290136320
1.8462607 -1.5573491 0.22124989 4290005760
1.6437727 -1.3866837 0.1859329 4289091840
1.7832758 -1.5040935 0.18957537 4289744640
1.8671261 -1.5746155 0.1855475 4290136320
1.8663967 -1.5738977 0.1723152 4290136320
1.8660595 -1.5735103 0.15893689 4290136320
1.7934529 -1.5122675 0.13973965 4289744640
1.639323 -1.3823898 0.11567102 4289091840
1.5782562 -1.3308837 0.099648751 4288830720
1.5737159 -1.3269736 0.087588884 4288830720
1.5674187 -1.3215848 0.07541579 4288830720
1.5757288 -1.3284929 0.063851684 4288830720
1.5680746 -1.3219626 0.051560443 4288830720
1.5590841 -1.3143084 0.039295118 4288700160
1.5663021 -1.3202964 0.027413692 4288830720
1.5510619 -1.3073839 0.015162244 4288700160
1.5082788 -1.2712954 0.003061628 4288569600
1.5460345 -1.302981 -0.0088095516 4288700160
1.552878 -1.3086532 -0.020853231 4288700160
1.5572082 -1.31221 -0.032929227 4288700160
1.5561949 -1.311271 -0.044885814 4288700160
1.5524906 -1.3080683 -0.056682639 4288700160
1.5625252 -1.3164228 -0.068963312 4288700160
1.5709052 -1.3233846 -0.081238337 4288830720
1.5736637 -1.3256174 -0.093222752 4288830720
1.5612487 -1.315089 -0.10414374 4288700160
1.5725536 -1.3245093 -0.11651506 4288830720
1.5722921 -1.3242021 -0.12799111 4288830720
1.5756711 -1.326956 -0.13964617 4288830720
1.5710049 -1.3229455 -0.15043233 4288830720
1.5793703 -1.3298914 -0.16232212 4288830720
1.5877697 -1.3368653 -0.17415556 4288830720
1.5905228 -1.3390915 -0.18525934 4288961280
1.5553585 -1.309446 -0.19154853 4288700160
1.580495 -1.3304873 -0.20495097 4288830720
1.581485 -1.3312321 -0.21518025 4288830720
1.5809486 -1.330694 -0.22496828 4288830720
1.577387 -1.3276138 -0.23405373 4288830720
1.5486629 -1.3033904 -0.23896883 4288700160
1.5928609 -1.3404418 -0.25491148 4288961280
1.6034676 -1.3492656 -0.26552573 4288961280
1.602353 -1.348241 -0.27396151 4288961280
1.5938714 -1.3410279 -0.28078458 4288961280
1.5794079 -1.328791 -0.28612527 4288830720
1.5674286 -1.3186423 -0.29146206 4288830720
1.5776289 -1.3271236 -0.30056873 4288830720
1.5806999 -1.3296165 -0.30804029 4288961280
1.5827649 -1.3312644 -0.31498766 4288961280
1.5879149 -1.3355026 -0.32221618 4288961280
1.5806953 -1.3293538 -0.32656744 4288961280
1.5827441 -1.3309879 -0.33243367 4288961280
1.577665 -1.3266375 -0.33641613 4288961280
1.5848475 -1.3325816 -0.3426227 4288961280
1.5827497 -1.3307346 -0.34644926 4288961280
1.5710335 -1.320814 -0.34774187 4288830720
1.5589322 -1.3105716 -0.34849167 4288830720
1.5555798 -1.3076736 -0.35075429 4288830720
1.5518841 -1.3044878 -0.35251981 4288830720
1.5344992 -1.2898148 -0.35074463 4288700160
1.5380831 -1.2927395 -0.35331947 4288700160
1.5447366 -1.2982396 -0.35619587 4288830720
1.5340919 -1.2892253 -0.35467976 4288700160
1.5512004 -1.3034967 -0.35914689 4288830720
1.5436825 -1.2971064 -0.35751572 4288830720
1.5577252 -1.3088038 -0.36044306 4288830720
1.55785 -1.3088253 -0.35973641 4288830720
1.5659673 -1.3155507 -0.36044478 4288830720
1.5669117 -1.3162591 -0.35908028 4288830720
1.5756122 -1.3234724 -0.35905817 4288961280
1.5795866 -1.3267215 -0.35752764 4288961280
1.5807217 -1.3275895 -0.35493305 4288961280
1.5805237 -1.3273396 -0.35162687 4288961280
1.5818217 -1.328344 -0.34824273 4288961280
1.5803374 -1.3270159 -0.34384623 4288961280
1.5781718 -1.3251169 -0.33891514 4288961280
1.5712368 -1.3192198 -0.33260006 4288830720
1.5609835 -1.3105423 -0.32525784 4288830720
1.5508554 -1.3019707 -0.31763867 4288830720
1.5553645 -1.3056684 -0.31266356 4288830720
1.5624553 -1.3115293 -0.30780357 4288830720
1.5854946 -1.3307549 -0.30559897 4288961280
1.5832733 -1.3288102 -0.29810664 4288961280
1.565563 -1.3138874 -0.28746286 4288830720
1.5535344 -1.3037269 -0.2776759 4288830720
1.5579436 -1.3073398 -0.27054083 4288830720
1.5752659 -1.3217704 -0.26522326 4288830720
1.576128 -1.3224103 -0.2567516 4288830720
1.5660105 -1.3138531 -0.2462641 4288830720
1.5553322 -1.3048273 -0.23553438 4288700160
1.5708096 -1.3177094 -0.22845915 4288830720
1.5778157 -1.3234954 -0.21976888 4288830720
1.580094 -1.3253213 -0.21012361 4288830720
1.5517399 -1.3014956 -0.1963595 4288700160
1.565414 -1.312865 -0.1877687 4288830720
1.5720224 -1.3183171 -0.17799531 4288830720
1.5724232 -1.3185711 -0.16728199 4288830720
1.5403634 -1.2916493 -0.15317114 4288700160
1.5737777 -1.3195421 -0.14535877 4288830720
1.5747261 -1.3202546 -0.13416518 4288830720
1.5656126 -1.3125446 -0.12203477 4288700160
1.5658498 -1.3126622 -0.11056276 4288700160
1.5652944 -1.3121165 -0.098919995 4288700160
1.5619086 -1.3092021 -0.087024346 4288700160
1.5585543 -1.3063145 -0.075089306 4288700160
1.5287356 -1.2812822 -0.06206366 4288569600
1.5543218 -1.3026119 -0.051229127 4288700160
1.5686013 -1.3144791 -0.039669707 4288830720
1.563838 -1.3104131 -0.027523646 4288700160
1.5686929 -1.314394 -0.015515071 4288700160
1.5746536 -1.3192993 -0.0034195373 4288830720
1.5805357 -1.3241383 0.0087685129 4288830720
1.5859096 -1.3285517 0.021028226 4288830720
1.5911585 -1.3328599 0.033342674 4288830720
1.6750746 -1.4029585 0.047977783 4289222400
1.7925981 -1.5011532 0.065071173 4289744640
1.7436001 -1.4600878 0.076522402 4289483520
1.8858745 -1.5789627 0.097039513 4290136320
1.8847531 -1.5779277 0.11109632 4290136320
1.8076428 -1.5133616 0.11995094 4289875200
1.6316737 -1.3661561 0.12022304 4289091840
1.8524886 -1.5506639 0.15001844 4290005760
1.9009329 -1.5910631 0.16759834 4290266880
1.882876 -1.5758721 0.17933397 4290136320
1.7831877 -1.4924548 0.18225546 4289744640
1.925483 -1.611286 0.21004128 4290397440
1.9315563 -1.6162618 0.22372262 4290397440
1.9189395 -1.6056186 0.23494372 4290266880
1.8417758 -1.5410414 0.23740534 4290005760
1.7340196 -1.4509108 0.23447184 4289483520
1.9176883 -1.6042746 0.27118886 4290397440
1.9233594 -1.6089131 0.2835677 4290397440
1.9003233 -1.5895689 0.29128942 4290266880
1.8673713 -1.5619441 0.29683903 4290136320
1.775025 -1.4847114 0.29190788 4289744640
1.9164966 -1.6027808 0.3253766 4290397440
1.9137173 -1.6003597 0.33470154 4290397440
1.8717004 -1.5651703 0.33655635 4290136320
1.8146958 -1.5174692 0.33485436 4289875200
1.8320909 -1.5318997 0.34631622 4290005760
1.7737956 -1.4831289 0.34289199 4289744640
1.724985 -1.442283 0.3404597 4289483520
1.7174413 -1.4358946 0.34555703 4289483520
1.6479827 -1.3778193 0.33751094 4289222400
1.6541883 -1.3829129 0.34434927 4289222400
1.6611851 -1.3886663 0.35099494 4289222400
1.6530678 -1.3818035 0.35403532 4289222400
1.6601455 -1.3876235 0.35991395 4289222400
1.5859809 -1.3256416 0.34759358 4288961280
1.5704584 -1.3126043 0.34751621 4288830720
1.5701264 -1.3122442 0.35036117 4288830720
1.5516855 -1.296774 0.34872246 4288830720
1.5514578 -1.2965018 0.3507396 4288830720
1.5512822 -1.296273 0.35235587 4288830720
1.5549418 -1.2992435 0.35443196 4288830720
1.5548731 -1.2991035 0.35524386 4288830720
1.5480521 -1.293331 0.35409248 4288830720
1.5548998 -1.29896 0.35565025 4288830720
1.5549954 -1.2989566 0.35524437 4288830720
1.5695186 -1.3109853 0.35770991 4288830720
1.6509519 -1.3788098 0.37493649 4289222400
1.6512253 -1.3789494 0.3732172 4289222400
1.6515542 -1.379135 0.3710714 4289222400
1.6519374 -1.3793658 0.36850134 4289222400
1.6493444 -1.3771152 0.36483943 4289222400
1.6498303 -1.3774315 0.36143562 4289222400
1.7221162 -1.4375997 0.37317276 4289483520
1.7303023 -1.4443302 0.37038445 4289614080
1.7491556 -1.4599507 0.36937326 4289614080
1.7786868 -1.4844683 0.37004179 4289744640
1.8419609 -1.5371033 0.37699884 4290005760
1.8794687 -1.5682596 0.37789461 4290266880
1.9158292 -1.5984558 0.37784824 4290397440
1.9101876 -1.5936512 0.36896145 4290397440
1.9108175 -1.5940721 0.36088282 4290397440
1.9025023 -1.5864749 0.29718938 4290266880
1.9222579 -1.6028224 0.28920719 4290397440
1.9209893 -1.601661 0.27762732 4290397440
1.8857738 -1.5722337 0.26104629 4290136320
1.8760643 -1.5640464 0.24798331 4290136320
1.8850443 -1.5714198 0.23712067 4290136320
1.8492441 -1.5415134 0.22052918 4290005760
1.6644073 -1.3875489 0.18735485 4289222400
1.8249459 -1.5210853 0.19306982 4289875200
1.8800975 -1.5668886 0.18592992 4290136320
1.8939331 -1.5783 0.17401257 4290136320
1.8751928 -1.5626001 0.15893956 4290136320
1.8052996 -1.5043354 0.13998094 4289744640
1.6657681 -1.3881323 0.11697201 4289222400
1.6044083 -1.3369867 0.10081435 4288961280
1.585258 -1.3209656 0.08780501 4288830720
1.5773535 -1.3143023 0.075527161 4288830720
1.588251 -1.3232808 0.064049542 4288830720
1.5812039 -1.3173314 0.051743079 4288830720
1.5759269 -1.312855 0.039531693 4288830720
1.5778092 -1.3143338 0.02748426 4288830720
1.5701828 -1.3079042 0.015280954 4288700160
1.5826141 -1.3181556 0.0032254511 4288830720
1.570861 -1.3082952 -0.0088984203 4288700160
1.5527852 -1.2931787 -0.020751365 4288700160
1.5609806 -1.2999072 -0.032847691 4288700160
1.5667858 -1.3046476 -0.044967867 4288700160
1.5746882 -1.3111308 -0.057204753 4288830720
1.577852 -1.3136741 -0.069295265 4288830720
1.5901133 -1.323779 -0.081824131 4288830720
1.5851996 -1.3196074 -0.093445212 4288830720
1.5804033 -1.3155339 -0.1049009 4288830720
1.5761296 -1.3118954 -0.11621156 4288830720
1.5876548 -1.3213862 -0.12860699 4288830720
1.5872105 -1.3209298 -0.13998044 4288830720
1.5855881 -1.3194946 -0.15108451 4288830720
1.5947582 -1.3270262 -0.16310024 4288830720
1.6070276 -1.337132 -0.17540239 4288961280
1.5982958 -1.3297901 -0.18525706 4288961280
1.5789653 -1.3136452 -0.19349921 4288830720
1.5920457 -1.3244237 -0.20544058 4288830720
1.5968642 -1.3283385 -0.21620981 4288961280
1.6021713 -1.3326588 -0.22686997 4288961280
1.5885324 -1.3212448 -0.2345573 4288830720
1.5631053 -1.3000436 -0.24001855 4288830720
1.6065516 -1.3360336 -0.25584695 4288961280
1.6074834 -1.3367195 -0.26489669 4288961280
1.6101794 -1.3388703 -0.27395922 4288961280
1.6054688 -1.334872 -0.28144845 4288961280
1.5985543 -1.3290449 -0.28817716 4288961280
1.5750833 -1.3094755 -0.29145983 4288830720
1.592186 -1.3235856 -0.30186155 4288961280
1.5952684 -1.3260576 -0.30936217 4288961280
1.5981008 -1.3283218 -0.31648731 4288961280
1.5842606 -1.31675 -0.31991765 4288830720
1.5990545 -1.3289404 -0.32874638 4288961280
1.5942699 -1.3248842 -0.3332231 4288961280
1.5891641 -1.3205621 -0.33721733 4288961280
1.5887864 -1.3201631 -0.34180608 4288961280
1.5866791 -1.3183296 -0.34562269 4288961280
1.5749065 -1.3084785 -0.3469063 4288830720
1.5823963 -1.3146067 -0.3520062 4288961280
1.566205 -1.3010925 -0.35143083 4288830720
1.5594567 -1.2954118 -0.35251758 4288830720
1.5667949 -1.3014141 -0.35636842 4288830720
1.5455874 -1.2837441 -0.35331729 4288700160
1.54545 -1.2835476 -0.35463268 4288700160
1.552189 -1.289053 -0.35711205 4288830720
1.5587673 -1.2944247 -0.35914466 4288830720
1.5587929 -1.294363 -0.35925549 4288830720
1.5653229 -1.2996937 -0.36044082 4288830720
1.5760622 -1.3085132 -0.36216617 4288830720
1.5811869 -1.3126776 -0.3621743 4288961280
1.592754 -1.3221812 -0.36321667 4288961280
1.5870878 -1.3174012 -0.35991347 4288961280
1.5941167 -1.3231426 -0.35905889 4288961280
1.5911524 -1.3206023 -0.35553765 4288961280
1.5950611 -1.3237575 -0.35313267 4288961280
1.5895327 -1.3190931 -0.34824046 4288961280
1.5880408 -1.3177737 -0.34384397 4288961280
1.6003023 -1.3278489 -0.34198907 4288961280
1.5826958 -1.3131797 -0.33339602 4288830720
1.5761964 -1.3077132 -0.32682768 4288830720
1.5660218 -1.2992032 -0.31918231 4288830720
1.574362 -1.3060293 -0.31493819 4288830720
1.5814923 -1.3118528 -0.31003365 4288830720
1.595306 -1.3232105 -0.30599561 4288961280
1.5999355 -1.3269614 -0.29977563 4288961280
1.5801084 -1.3104603 -0.28872055 4288830720
1.5649182 -1.2978009 -0.27835006 4288830720
1.5762224 -1.3070793 -0.27237946 4288830720
1.5905784 -1.3188831 -0.26649654 4288830720
1.5914483 -1.3195211 -0.25798404 4288830720
1.5812852 -1.311026 -0.2474543 4288830720
1.5667325 -1.2988985 -0.23610656 4288830720
1.586115 -1.3148603 -0.22956073 4288830720
1.5931587 -1.3206084 -0.22082421 4288830720
1.5954516 -1.3224239 -0.21113147 4288830720
1.5631289 -1.2955936 -0.19683802 4288700160
1.5691986 -1.3005359 -0.18731059 4288700160
1.5796747 -1.3091238 -0.17799306 4288830720
1.5870425 -1.3151386 -0.16801359 4288830720
1.5660682 -1.2977045 -0.15496124 4288700160
1.5814371 -1.3103386 -0.14535652 4288830720
1.5969988 -1.3231307 -0.13539445 4288830720
1.5839999 -1.3122965 -0.12286266 4288830720
1.5803943 -1.3092332 -0.11104386 4288830720
1.5729104 -1.3029627 -0.098917745 4288700160
1.5772069 -1.3064355 -0.087445505 4288830720
1.573355 -1.3031694 -0.075429939 4288700160
1.5557395 -1.2885224 -0.0628433 4288700160
1.5706295 -1.300755 -0.051510055 4288700160
1.5731487 -1.3027577 -0.03959116 4288700160
1.5822328 -1.3101879 -0.027705994 4288830720
1.5754319 -1.3044846 -0.01550441 4288700160
1.5969969 -1.3222314 -0.0034433845 4288830720
1.595158 -1.3206297 0.008811662 4288830720
1.5936208 -1.3192776 0.021030502 4288830720
1.6012824 -1.3255287 0.033395588 4288830720
1.692066 -1.4004766 0.048235264 4289222400
1.8198041 -1.5059549 0.065747231 4289875200
1.7667127 -1.4619892 0.077168524 4289614080
1.8896376 -1.5634735 0.096764192 4290136320
1.8966038 -1.5691328 0.11125763 4290136320
1.8503027 -1.5307815 0.12219937 4290005760
1.6970512 -1.4040766 0.12445372 4289352960
1.8657848 -1.5433822 0.15036833 4290005760
1.8913304 -1.5643889 0.16594407 4290136320
1.8664049 -1.5437036 0.17690292 4290005760
1.8102974 -1.4972657 0.18413848 4289744640
1.9145283 -1.5832577 0.20783553 4290266880
1.9214069 -1.5888404 0.22147048 4290266880
1.9073595 -1.5771415 0.2323962 4290266880
1.8003082 -1.4886459 0.23093188 4289744640
1.7754207 -1.4680039 0.23891862 4289614080
1.914765 -1.5829622 0.2694678 4290266880
1.9062701 -1.5758504 0.27968878 4290266880
1.8930348 -1.5648259 0.28877044 4290136320
1.8432305 -1.5236152 0.29158366 4290005760
1.8096561 -1.4958067 0.29617187 4289875200
1.9215693 -1.5880855 0.32466415 4290397440
1.8884492 -1.5606509 0.32868513 4290136320
1.8834813 -1.5564533 0.33704197 4290136320
1.8456486 -1.5251353 0.33892652 4290005760
1.8053375 -1.4917756 0.3396093 4289875200
1.8113956 -1.4966809 0.34847555 4289875200
1.6824902 -1.3902295 0.33046526 4289352960
1.6787422 -1.3870498 0.33613652 4289352960
1.6811254 -1.3889287 0.34264144 4289352960
1.6804955 -1.3883215 0.34814093 4289352960
1.6799047 -1.3877468 0.35324007 4289352960
1.6014369 -1.3229373 0.34131783 4288961280
1.6047614 -1.3255955 0.34622324 4288961280
1.5936742 -1.3163679 0.34759587 4288961280
1.5818789 -1.3065574 0.34835634 4288830720
1.5777419 -1.303063 0.3503634 4288830720
1.5630125 -1.2908351 0.34957528 4288830720
1.5627826 -1.2905635 0.35159731 4288830720
1.5557646 -1.2846951 0.35167053 4288830720
1.5586815 -1.2870181 0.3535718 4288830720
1.5624123 -1.2900114 0.3552461 4288830720
1.5661976 -1.2930492 0.35651767 4288830720
1.5768784 -1.3017701 0.35894084 4288830720
1.5769749 -1.3017662 0.35853118 4288830720
1.5885286 -1.3112047 0.36029935 4288961280
1.5955789 -1.3169304 0.36060992 4288961280
1.5996444 -1.3201958 0.35981172 4288961280
1.6075677 -1.3266394 0.35944405 4288961280
1.6820023 -1.3878826 0.37340304 4289352960
1.6786412 -1.385024 0.36953384 4289352960
1.6791353 -1.3853414 0.36608633 4289352960
1.6766336 -1.383191 0.3615624 4289352960
1.6916945 -1.3955072 0.36037207 4289352960
1.772105 -1.4616476 0.37241954 4289744640
1.7949243 -1.4803468 0.37162325 4289744640
1.8178039 -1.4990932 0.37026048 4289875200
1.8700202 -1.5419958 0.37418351 4290136320
1.8991591 -1.5658896 0.37275541 4290266880
1.9115307 -1.5759741 0.36744359 4290266880
1.9124862 -1.576658 0.35945946 4290266880
1.8853455 -1.5536547 0.29308954 4290136320
1.8967259 -1.5629181 0.2839888 4290136320
1.8873782 -1.5551232 0.27145189 4290136320
1.8670961 -1.538332 0.25721401 4290005760
1.8719097 -1.5421913 0.246243 4290136320
1.8611162 -1.5332096 0.23298004 4290005760
1.836879 -1.5131694 0.21799837 4289875200
1.7821217 -1.4680254 0.19966672 4289614080
1.8364203 -1.5125922 0.1933516 4289875200
1.8422867 -1.5173173 0.18130627 4289875200
1.8430619 -1.5178547 0.16851296 4289875200
1.8368325 -1.5126312 0.15493059 4289875200
1.7861023 -1.4708136 0.13782151 4289614080
1.667255 -1.37299 0.11651349 4289091840
1.6096967 -1.325573 0.1006614 4288961280
1.5960118 -1.3142337 0.087978415 4288830720
1.6053263 -1.3218043 0.076505408 4288830720
1.5903901 -1.3094381 0.063827634 4288830720
1.5925722 -1.3111451 0.05186785 4288830720
1.5607837 -1.2849294 0.038957775 4288700160
1.589492 -1.3084395 0.027558275 4288830720
1.5819098 -1.3021213 0.015324806 4288830720
1.5946822 -1.3125312 0.003238359 4288830720
1.5622325 -1.2857789 -0.0088110054 4288700160
1.5742519 -1.2955698 -0.020929171 4288700160
1.5826178 -1.3023574 -0.033134766 4288830720
1.5820831 -1.3018318 -0.04518301 4288830720
1.5854422 -1.304505 -0.057314798 4288830720
1.5914531 -1.3093562 -0.06955158 4288830720
1.6016576 -1.3176516 -0.082017839 4288830720
1.6046078 -1.3199874 -0.094126858 4288830720
1.5921723 -1.3096867 -0.10516973 4288830720
1.5986784 -1.314943 -0.11729805 4288830720
1.6043103 -1.3194808 -0.12932478 4288830720
1.5948777 -1.311648 -0.13997814 4288830720
1.5953578 -1.3119553 -0.15128131 4288830720
1.6063133 -1.3208635 -0.16348812 4288961280
1.614789 -1.3277345 -0.17540006 4288961280
1.6137135 -1.3267637 -0.18613885 4288961280
1.5865903 -1.3044116 -0.19349693 4288830720
1.6035794 -1.3182704 -0.20593013 4288961280
1.6191828 -1.3309901 -0.21816798 4288961280
1.6168232 -1.3289658 -0.22783852 4288961280
1.6038829 -1.3182588 -0.23567942 4288961280
1.5744903 -1.2940525 -0.24060068 4288830720
1.6181437 -1.329787 -0.25645053 4288961280
1.6280806 -1.3378527 -0.26699239 4288961280
1.6256171 -1.3357438 -0.27525049 4288961280
1.6277757 -1.3374269 -0.28397745 4289091840
1.6140954 -1.326117 -0.2895743 4288961280
1.6003445 -1.3147506 -0.29469892 4288961280
1.599869 -1.3142745 -0.30185926 4288961280
1.6067897 -1.3198647 -0.31009552 4288961280
1.6058114 -1.3189762 -0.31648499 4288961280
1.6127199 -1.3245555 -0.3240855 4288961280
1.6126077 -1.3243773 -0.32993507 4288961280
1.6047012 -1.317808 -0.33378911 4288961280
1.6075153 -1.3200297 -0.33946475 4288961280
1.6002647 -1.3139995 -0.34261814 4288961280
1.6022861 -1.3155714 -0.34733957 4288961280
1.5901273 -1.3055192 -0.34857064 4288961280
1.6007003 -1.3141012 -0.35435972 4288961280
1.5851904 -1.3013039 -0.35397398 4288830720
1.591748 -1.3065943 -0.35807151 4288961280
1.5773971 -1.294749 -0.35705397 4288830720
1.5598959 -1.2803237 -0.35487023 4288830720
1.5808703 -1.2974284 -0.36099869 4288830720
1.5769756 -1.2941537 -0.36106005 4288830720
1.5769451 -1.2940458 -0.3615804 4288830720
1.5842121 -1.2999164 -0.36334801 4288830720
1.5949467 -1.3086272 -0.36548346 4288961280
1.5957701 -1.309218 -0.36492571 4288961280
