# .PCD v0.7 - Point Cloud Data file format
VERSION 0.7
FIELDS x y z rgba
SIZE 4 4 4 4
TYPE F F F U
COUNT 1 1 1 1
WIDTH 1102
HEIGHT 1
VIEWPOINT 0 0 0 1 0 0 0
POINTS 1102
DATA ascii
2.0024281 -1.1880049 -0.40475959 4289875200
2.0022023 -1.1877846 -0.40150079 4289875200
2.0017459 -1.1874274 -0.39773253 4289875200
2.0147157 -1.195031 -0.39614606 4289875200
2.0178645 -1.1968107 -0.39213833 4289875200
2.0146139 -1.1947958 -0.38643694 4289875200
2.0098069 -1.1918586 -0.38001466 4289875200
1.9978615 -1.1846902 -0.37185583 4289875200
1.9863802 -1.1777977 -0.36342981 4289744640
1.9850202 -1.1769048 -0.35648164 4289744640
1.994118 -1.1822094 -0.35097769 4289744640
2.014421 -1.1941531 -0.34693819 4289875200
2.0197036 -1.1971948 -0.33982214 4289875200
1.9994135 -1.185084 -0.32808417 4289875200
1.9857942 -1.176927 -0.31721529 4289744640
1.9784074 -1.1724632 -0.30707884 4289744640
2.004894 -1.1880655 -0.30176529 4289875200
2.0088909 -1.1903441 -0.29258704 4289875200
1.9940133 -1.1814435 -0.28039044 4289744640
1.9853016 -1.1761955 -0.2688705 4289744640
1.9977016 -1.1834505 -0.25989217 4289744640
2.0089417 -1.1900171 -0.25034964 4289875200
2.0133657 -1.1925472 -0.23959719 4289875200
1.9809014 -1.1732366 -0.22435446 4289744640
1.9963444 -1.1822907 -0.2143902 4289744640
2.0034916 -1.1864324 -0.20316921 4289744640
2.0021458 -1.1855462 -0.19083282 4289744640
1.9726032 -1.1679709 -0.17579386 4289614080
1.9914255 -1.1790222 -0.16494283 4289744640
2.0014725 -1.1848786 -0.15300612 4289744640
1.9992065 -1.183448 -0.13991547 4289744640
1.9911419 -1.1785865 -0.12633784 4289744640
1.9876221 -1.1764146 -0.11299156 4289744640
1.9909399 -1.1782881 -0.099917062 4289744640
1.9926627 -1.1792177 -0.086624645 4289744640
1.9699144 -1.1656722 -0.072319239 4289614080
1.984512 -1.1742176 -0.05936807 4289614080
1.9968655 -1.1814346 -0.046106197 4289744640
1.9962149 -1.1809601 -0.032417536 4289744640
2.0002954 -1.1832833 -0.018751763 4289744640
2.0203111 -1.1950284 -0.0050553498 4289875200
2.023591 -1.1968768 0.0088458546 4289875200
1.9290117 -1.1408701 0.021689266 4289483520
2.1724935 -1.2847198 0.039285962 4290397440
2.1645553 -1.2799298 0.053929102 4290397440
2.3163469 -1.3695518 0.073448867 4290919680
2.386801 -1.4110879 0.091822259 4291180800
2.5172007 -1.4880443 0.1137432 4291703040
2.516988 -1.4878056 0.1305225 4291703040
2.4974837 -1.4761678 0.14602651 4291703040
2.4258306 -1.43372 0.15772612 4291441920
2.5183263 -1.4882576 0.18003112 4291833600
2.5253077 -1.4922693 0.19667512 4291833600
2.5063262 -1.4809437 0.2110054 4291703040
2.4302227 -1.4358799 0.21970606 4291441920
2.5480933 -1.5053883 0.24591725 4291964160
2.5590322 -1.511735 0.26233315 4291964160
2.5370038 -1.4986124 0.27501583 4291833600
2.466949 -1.4571329 0.28165704 4291572480
2.4540715 -1.4494197 0.29402429 4291572480
2.4606769 -1.4532106 0.30835503 4291572480
2.3975513 -1.4158348 0.31330851 4291311360
2.4126308 -1.4246303 0.32785422 4291441920
2.3552783 -1.3906701 0.33198604 4291180800
2.3951316 -1.4140884 0.3493298 4291311360
2.1673663 -1.2795607 0.3264088 4290397440
2.1210637 -1.2521404 0.32911888 4290266880
2.0756714 -1.2252617 0.33118331 4290136320
1.9811331 -1.1693884 0.32444111 4289744640
1.9674275 -1.1612152 0.330093 4289744640
1.9082916 -1.1262413 0.32747206 4289483520
2.0445023 -1.2065105 0.35821444 4290005760
1.9850328 -1.171342 0.35459191 4289744640
2.0165765 -1.1898609 0.36669195 4289875200
1.9675823 -1.1608772 0.36369416 4289744640
1.9915427 -1.1749223 0.37365952 4289744640
2.0155356 -1.1889846 0.38332281 4289875200
1.9474773 -1.1487666 0.37495598 4289614080
1.971576 -1.1628915 0.38376144 4289744640
1.9914726 -1.1745369 0.39138833 4289744640
2.0318012 -1.1982261 0.40267015 4290005760
2.0441594 -1.2054241 0.40802649 4290005760
2.0718603 -1.2216645 0.41601166 4290136320
1.9815711 -1.1683599 0.39979145 4289744640
1.9898884 -1.1731772 0.40288877 4289744640
2.0670848 -1.2185854 0.41948158 4290136320
2.0594127 -1.2139767 0.41841272 4290136320
2.0305955 -1.1969095 0.41255763 4290005760
2.0188217 -1.1898869 0.40967712 4289875200
1.9858966 -1.1704041 0.40204522 4289744640
1.9623709 -1.1564616 0.39587253 4289744640
1.9338111 -1.1395557 0.3882634 4289614080
1.9964786 -1.176387 0.3984417 4289875200
1.9731401 -1.1625577 0.39096719 4289744640
1.9532512 -1.1507622 0.38378218 4289614080
1.9977428 -1.1768816 0.38872856 4289875200
2.0309966 -1.19638 0.39088061 4290005760
2.0414453 -1.2024481 0.38809675 4290005760
2.0260334 -1.1932896 0.37996435 4289875200
2.031085 -1.1961799 0.37524697 4290005760
1.9971508 -1.1761197 0.36298716 4289744640
2.063611 -1.2151589 0.3684167 4290005760
2.0648105 -1.2157801 0.36156556 4290005760
2.1925635 -1.290886 0.37596107 4290528000
2.2712564 -1.3371089 0.38075751 4290919680
2.5080996 -1.4758378 0.34747589 4291833600
2.5382011 -1.4934427 0.33861989 4291833600
2.5441518 -1.4968404 0.3259773 4291964160
2.4996998 -1.4705938 0.30672652 4291703040
2.512552 -1.4780515 0.2943227 4291833600
2.5231371 -1.4841751 0.28119144 4291833600
2.5243537 -1.4847891 0.26663503 4291833600
2.4882638 -1.4634678 0.24805236 4291703040
2.4979722 -1.469076 0.23390719 4291703040
2.5196702 -1.4817322 0.22043011 4291833600
2.5124347 -1.4773779 0.20409189 4291703040
2.4605544 -1.4467813 0.18427983 4291572480
2.3202939 -1.3642412 0.1588846 4290919680
2.1890187 -1.2869933 0.13568033 4290528000
2.2103491 -1.2994418 0.12247606 4290528000
2.0044789 -1.1783724 0.09780021 4289744640
2.026083 -1.1909876 0.085302442 4289875200
2.0226715 -1.1889023 0.071537882 4289875200
2.0229428 -1.1889812 0.057843752 4289875200
1.9962176 -1.1731997 0.04349529 4289744640
2.0071642 -1.1795509 0.030020174 4289744640
1.9990847 -1.1747249 0.016207704 4289744640
1.993947 -1.1716278 0.0024886893 4289744640
1.9831486 -1.1652061 -0.011133334 4289614080
1.9886876 -1.1683803 -0.024803681 4289614080
2.0002074 -1.1750662 -0.038642302 4289744640
2.0061386 -1.1784695 -0.052453179 4289744640
2.0001693 -1.1748847 -0.065898351 4289744640
2.0250847 -1.1894338 -0.080423281 4289875200
2.017036 -1.1846278 -0.093667336 4289744640
2.0081935 -1.1793565 -0.1066632 4289744640
2.0127981 -1.1819793 -0.12023311 4289744640
2.025131 -1.1891382 -0.13424902 4289875200
2.0287046 -1.1911548 -0.14764503 4289875200
2.0181508 -1.1848798 -0.15981017 4289744640
2.0167263 -1.1839631 -0.1724508 4289744640
2.0322731 -1.1930057 -0.18644567 4289875200
2.0384951 -1.1965753 -0.19951859 4289875200
2.0359902 -1.195024 -0.21154425 4289875200
1.9702611 -1.1563789 -0.21636608 4289614080
2.0316265 -1.1923004 -0.23487838 4289875200
2.0360644 -1.1948222 -0.24693222 4289875200
2.02439 -1.1878923 -0.25672159 4289875200
2.0058546 -1.176939 -0.26519391 4289744640
1.8902346 -1.1090468 -0.25983146 4289352960
2.0437393 -1.1989949 -0.29134953 4290005760
2.0474918 -1.2011127 -0.30199724 4290005760
2.0403008 -1.1968131 -0.3106786 4290005760
2.0441036 -1.1989599 -0.32066974 4290005760
2.011764 -1.1799163 -0.32450649 4289875200
2.0206513 -1.1850445 -0.33452207 4289875200
2.0304821 -1.1907252 -0.34439412 4289875200
2.0372155 -1.1945891 -0.35341722 4290005760
2.0317824 -1.1913213 -0.35993525 4289875200
2.0304825 -1.1904762 -0.36675155 4289875200
2.0287509 -1.1893779 -0.37306154 4289875200
2.0286698 -1.189247 -0.37924269 4289875200
2.0162523 -1.1818871 -0.38264814 4289875200
2.0075402 -1.1766993 -0.38625929 4289875200
1.9911656 -1.1670225 -0.38788998 4289744640
1.9840223 -1.162755 -0.3908166 4289744640
1.9585729 -1.1477642 -0.38962185 4289614080
1.9623723 -1.1499083 -0.39375058 4289744640
1.916608 -1.1230214 -0.38741952 4289483520
1.9162904 -1.1227553 -0.38975495 4289483520
1.9202867 -1.1250154 -0.39251891 4289483520
1.8591771 -1.0891494 -0.3814792 4289222400
1.9242283 -1.1271621 -0.39586276 4289483520
1.9156799 -1.1220759 -0.39468163 4289483520
1.9072001 -1.1170304 -0.39305258 4289483520
1.9611366 -1.1485256 -0.40381598 4289744640
1.9570445 -1.1460471 -0.40215671 4289614080
1.9704173 -1.1537917 -0.40361091 4289744640
1.9890404 -1.164608 -0.40564612 4289744640
2.0008767 -1.1714504 -0.40579671 4289875200
2.013571 -1.178794 -0.40562013 4289875200
2.0214758 -1.1833334 -0.40397921 4289875200
2.0298367 -1.188139 -0.40193424 4290005760
2.0313585 -1.1889422 -0.39805281 4290005760
2.0324688 -1.1895044 -0.39362621 4290005760
2.0312111 -1.1886809 -0.38828874 4289875200
2.0223408 -1.1834044 -0.38107777 4289875200
2.0166662 -1.1799978 -0.37407306 4289875200
2.0020895 -1.1713848 -0.36505237 4289875200
1.9961125 -1.1678023 -0.35724914 4289744640
2.0067768 -1.1739519 -0.35199934 4289875200
2.0269809 -1.1856786 -0.34790921 4289875200
2.0351918 -1.1903911 -0.34125882 4289875200
2.018255 -1.1804 -0.33004519 4289875200
1.9943286 -1.1663241 -0.31749135 4289744640
1.9936912 -1.1658641 -0.30839512 4289744640
2.0257845 -1.1845359 -0.30386931 4289875200
2.0277884 -1.185618 -0.29433203 4289875200
2.0137231 -1.1773086 -0.28219634 4289875200
1.9921242 -1.1645976 -0.26887473 4289744640
2.0174367 -1.1793011 -0.26156518 4289875200
2.0292337 -1.186105 -0.25201696 4289875200
2.0280135 -1.1853024 -0.24051839 4289875200
1.9963003 -1.1666855 -0.22532885 4289744640
2.0075011 -1.1731402 -0.21485466 4289744640
2.0189753 -1.1797535 -0.20404306 4289875200
2.0219314 -1.1813905 -0.19206372 4289875200
1.9957364 -1.166002 -0.17725153 4289744640
2.0103228 -1.1744317 -0.16594295 4289744640
2.0247169 -1.1827477 -0.15425844 4289875200
2.0224488 -1.1813332 -0.14106287 4289744640
2.0143614 -1.1765214 -0.127379 4289744640
2.0041935 -1.1704955 -0.11354867 4289744640
2.0107162 -1.1742139 -0.10056946 4289744640
2.0081325 -1.1726161 -0.087003402 4289744640
1.9809915 -1.156685 -0.072481692 4289614080
2.0077264 -1.1722002 -0.059862711 4289744640
2.0201244 -1.179346 -0.046489399 4289744640
2.0106475 -1.1737256 -0.032545216 4289744640
2.0122654 -1.17458 -0.018804239 4289744640
2.0315607 -1.1857482 -0.005070867 4289875200
2.0358222 -1.1881437 0.0088640191 4289875200
1.9649953 -1.1467347 0.022010799 4289614080
2.179683 -1.2718796 0.039276641 4290397440
2.1958976 -1.2812401 0.054515678 4290528000
2.2949305 -1.3389015 0.072519414 4290919680
2.415705 -1.4092338 0.092609279 4291311360
2.5382555 -1.4805911 0.11429601 4291833600
2.5540955 -1.4897144 0.13198568 4291833600
2.5090895 -1.4633598 0.14619829 4291703040
2.466922 -1.4386641 0.15984067 4291572480
2.5476515 -1.4856172 0.18149754 4291833600
2.5546494 -1.4895833 0.19827278 4291833600
2.5321479 -1.4763542 0.21244371 4291833600
2.4514699 -1.42922 0.22086315 4291441920
2.5731823 -1.5000442 0.247483 4291964160
2.5764053 -1.5018085 0.26320577 4291964160
2.5510993 -1.4869488 0.27559358 4291833600
2.4917369 -1.4522481 0.28350824 4291703040
2.478807 -1.444605 0.29596636 4291572480
2.4811311 -1.4458498 0.30984989 4291572480
2.4220762 -1.4113396 0.31542537 4291441920
2.4380572 -1.4205418 0.33017078 4291441920
2.3839304 -1.3889092 0.33486941 4291311360
2.4033315 -1.4001038 0.3493247 4291311360
2.1747863 -1.2669051 0.32640418 4290397440
2.1206157 -1.2352661 0.32792386 4290266880
2.0699344 -1.2056637 0.32913962 4290005760
1.9750782 -1.1503463 0.3223449 4289744640
1.9904132 -1.159188 0.33280239 4289744640
1.9387618 -1.1290336 0.3315562 4289483520
2.0046251 -1.1672878 0.35003632 4289744640
2.0328288 -1.1836168 0.36187738 4289875200
1.9836018 -1.1548786 0.35947117 4289744640
2.0067499 -1.1682644 0.36965704 4289875200
2.0265138 -1.1796789 0.3789134 4289875200
2.046314 -1.1911129 0.38783947 4290005760
2.0704188 -1.2050501 0.39723352 4290136320
2.0903046 -1.2165307 0.40545192 4290136320
2.1145024 -1.2305183 0.41411743 4290266880
2.1430137 -1.2470132 0.42323279 4290397440
2.1545424 -1.2536278 0.42856383 4290397440
2.1789143 -1.2677114 0.4359872 4290528000
2.0991359 -1.2212218 0.42203468 4290266880
2.0912907 -1.2165707 0.42194811 4290136320
2.0911829 -1.2164197 0.42291749 4290136320
2.1655431 -1.2595683 0.4384473 4290528000
2.1536605 -1.2525686 0.43603653 4290397440
2.1290779 -1.2381867 0.43054894 4290266880
2.1011589 -1.2218677 0.42389897 4290266880
2.0843801 -1.2120266 0.41901928 4290136320
2.0565925 -1.1957883 0.41147393 4290005760
2.0484619 -1.1909773 0.40740824 4290005760
2.0242012 -1.1767929 0.39970335 4289875200
2.000845 -1.1631364 0.39178032 4289875200
2.0412357 -1.1865236 0.39582589 4290005760
2.0256689 -1.1773945 0.38852689 4289875200
2.0514302 -1.192278 0.38866237 4290005760
2.0534401 -1.1933614 0.38378417 4290005760
2.0499768 -1.1912652 0.37744108 4290005760
2.0615335 -1.1978941 0.37339553 4290005760
2.0663841 -1.2006272 0.36765298 4290005760
2.1374428 -1.2418128 0.37299109 4290266880
2.1957717 -1.2755998 0.37522641 4290528000
2.2790098 -1.3238475 0.38075271 4290919680
2.5450838 -1.4776939 0.35139069 4291833600
2.5554533 -1.48361 0.33975554 4291964160
2.5605686 -1.4864762 0.32695866 4291964160
2.5331709 -1.470474 0.3097676 4291833600
2.5258501 -1.4661244 0.29486856 4291833600
2.552407 -1.4814329 0.28347805 4291833600
2.565697 -1.4890418 0.27007061 4291964160
2.5217423 -1.4634386 0.25052649 4291703040
2.5142508 -1.458992 0.23462498 4291703040
2.5449915 -1.476724 0.22188106 4291833600
2.546026 -1.4772228 0.20610918 4291833600
2.4767132 -1.4369198 0.18485351 4291572480
2.3040259 -1.3366687 0.1572329 4290919680
2.2258525 -1.2912425 0.13748594 4290528000
2.2507205 -1.3055747 0.12428032 4290658560
2.0614438 -1.1957341 0.10022658 4289875200
2.042855 -1.1848745 0.085710786 4289875200
2.0416725 -1.1841079 0.07195878 4289875200
2.038487 -1.1821804 0.058084883 4289875200
2.0194566 -1.171068 0.043845993 4289744640
2.0195031 -1.171015 0.030097274 4289744640
2.0180099 -1.1700695 0.016300036 4289744640
2.01372 -1.1675034 0.0024992784 4289744640
2.0036745 -1.1616019 -0.011215913 4289744640
2.0075762 -1.1637838 -0.024959566 4289744640
2.0148084 -1.167895 -0.038797107 4289744640
2.0294092 -1.176275 -0.052887041 4289744640
2.0277414 -1.1752285 -0.066585764 4289744640
2.0296919 -1.1762782 -0.080336682 4289875200
2.0411985 -1.1828634 -0.094473027 4289875200
2.039578 -1.1818439 -0.10796819 4289875200
2.0282953 -1.1752278 -0.1207523 4289875200
2.0418382 -1.182991 -0.13490193 4289875200
2.0477045 -1.1863073 -0.14852683 4289875200
2.0371101 -1.1800908 -0.16076881 4289875200
2.0399909 -1.1816781 -0.17385307 4289875200
2.0598974 -1.193123 -0.18834369 4290005760
2.0540588 -1.1896605 -0.20036428 4289875200
2.0549891 -1.1901174 -0.21279842 4289875200
1.9942 -1.1548448 -0.21825647 4289744640
2.0528347 -1.1887062 -0.23652968 4289875200
2.0507414 -1.1874125 -0.24787293 4289875200
2.0441854 -1.1835359 -0.25835696 4289875200
2.0333195 -1.1771655 -0.26791751 4289875200
1.912998 -1.1074544 -0.26207256 4289352960
2.0627208 -1.1940154 -0.29306248 4290005760
2.0684977 -1.197275 -0.30406511 4290005760
2.064759 -1.1950287 -0.31334087 4290005760
2.0587778 -1.1914849 -0.32188085 4290005760
2.02984 -1.1746614 -0.32631612 4289875200
2.0403788 -1.1806754 -0.33664677 4289875200
2.0450974 -1.1833221 -0.34570122 4290005760
2.0461569 -1.1838517 -0.35376933 4290005760
2.0487874 -1.1852897 -0.36172146 4290005760
2.0458667 -1.1835175 -0.36828187 4290005760
2.0441997 -1.18247 -0.37463239 4290005760
2.0421824 -1.1812199 -0.38047901 4290005760
2.0368519 -1.1780543 -0.38525137 4289875200
2.034863 -1.1768209 -0.39019302 4289875200
2.0141568 -1.1647673 -0.3910428 4289875200
1.991752 -1.1517334 -0.39101413 4289744640
1.9729103 -1.1407605 -0.39114815 4289744640
1.9277703 -1.1145898 -0.38550353 4289483520
1.9350634 -1.1187247 -0.38982847 4289483520
1.9347422 -1.1184589 -0.39217842 4289483520
1.8818781 -1.0878315 -0.38337162 4289352960
1.8740209 -1.0832132 -0.3832261 4289352960
1.9427022 -1.1228158 -0.39831328 4289614080
1.9469119 -1.1251667 -0.39976069 4289614080
1.9341403 -1.1177073 -0.39725789 4289483520
1.9222896 -1.1107806 -0.39448357 4289483520
1.9841554 -1.1464326 -0.40635052 4289744640
1.9941646 -1.1521297 -0.40709573 4289744640
2.0162644 -1.1648082 -0.40980947 4289875200
2.0238791 -1.16912 -0.40907595 4289875200
2.0256023 -1.1700293 -0.40666679 4289875200
2.0368738 -1.1764511 -0.40568274 4290005760
2.0409968 -1.1787446 -0.40278059 4290005760
2.04672 -1.1819615 -0.39970982 4290005760
2.0494456 -1.1834474 -0.39557502 4290005760
2.0466511 -1.1817467 -0.38992062 4290005760
2.0377536 -1.1765237 -0.38268706 4289875200
2.032063 -1.173152 -0.37565792 4289875200
2.0174398 -1.1646259 -0.36661103 4289875200
2.0080192 -1.1591029 -0.35816869 4289744640
2.0341396 -1.1740875 -0.35559595 4289875200
2.0458536 -1.1807579 -0.34996507 4290005760
2.0511804 -1.1837423 -0.34278092 4290005760
2.0399876 -1.1771966 -0.33247516 4289875200
2.0173986 -1.1640785 -0.32008216 4289875200
2.0210605 -1.1661026 -0.31157577 4289875200
2.0455413 -1.1801336 -0.30579978 4289875200
2.0446332 -1.1795207 -0.29577813 4289875200
2.0341372 -1.1733791 -0.28409791 4289875200
2.0152283 -1.1623873 -0.27107808 4289744640
2.0331457 -1.1726295 -0.2627154 4289875200
2.0447273 -1.1792173 -0.25308743 4289875200
2.0435066 -1.178424 -0.2415414 4289875200
2.0073786 -1.1575092 -0.22581807 4289744640
2.0306969 -1.1708612 -0.21660759 4289875200
2.0422173 -1.1774116 -0.20569944 4289875200
2.0451901 -1.1790349 -0.19362167 4289875200
2.0076151 -1.1572922 -0.17770869 4289744640
2.0335553 -1.1721507 -0.16729869 4289875200
2.0480039 -1.1803858 -0.15551072 4289875200
2.0338852 -1.1721615 -0.14138602 4289875200
2.0298371 -1.1697396 -0.12792893 4289744640
2.0144441 -1.1607831 -0.11374851 4289744640
2.0339751 -1.1719437 -0.10139464 4289875200
2.019263 -1.1633805 -0.08719483 4289744640
1.9998258 -1.1520973 -0.072928898 4289744640
2.0195467 -1.1633652 -0.060016505 4289744640
2.0312963 -1.1700414 -0.046593316 4289744640
2.0339189 -1.1714615 -0.032816473 4289875200
2.0277436 -1.1678163 -0.018889949 4289744640
2.0427706 -1.1763773 -0.0050862883 4289875200
2.0599782 -1.1861922 0.0089329118 4289875200
1.940999 -1.1176183 0.021668095 4289483520
2.2078571 -1.2711203 0.039643399 4290528000
2.1868639 -1.2589412 0.054105617 4290397440
2.2611067 -1.3015678 0.071209557 4290658560
2.3900919 -1.3756871 0.091317177 4291180800
2.5555022 -1.4707528 0.11467851 4291833600
2.5740783 -1.4813273 0.1325634 4291964160
2.529695 -1.4556811 0.14689548 4291703040
2.4839191 -1.4292376 0.16039339 4291572480
2.5856831 -1.4876616 0.18357727 4291964160
2.5797203 -1.4841183 0.19953655 4291964160
2.5692408 -1.477978 0.21482043 4291964160
2.4848213 -1.429319 0.22310507 4291572480
2.6069343 -1.4994264 0.24987577 4292094720
2.6136112 -1.5031509 0.26609796 4292094720
2.5804379 -1.4839642 0.27781576 4291964160
2.520865 -1.4496037 0.28584805 4291703040
2.5001194 -1.4375681 0.29749855 4291703040
2.5067546 -1.4412726 0.3119877 4291703040
2.4431834 -1.4046257 0.31709558 4291441920
2.4583502 -1.4132355 0.33179089 4291572480
2.3997304 -1.3794419 0.33594763 4291311360
2.4320972 -1.397936 0.35230705 4291441920
2.1700943 -1.2472897 0.32460141 4290397440
2.1148865 -1.2154769 0.32593533 4290136320
2.0691941 -1.1891354 0.32791179 4290005760
2.0553317 -1.1810827 0.33429265 4290005760
2.0220239 -1.1618619 0.33694002 4289875200
1.9993536 -1.1487538 0.34075052 4289744640
2.0039361 -1.1512995 0.34873611 4289744640
2.0442371 -1.1743572 0.3626785 4289875200
2.0554135 -1.1806873 0.3712118 4290005760
2.0837533 -1.1968716 0.38252902 4290136320
2.0915723 -1.2012718 0.38974398 4290136320
2.1148429 -1.2145422 0.39946035 4290266880
2.1313093 -1.2239047 0.40752339 4290266880
2.1546681 -1.2372226 0.41651267 4290397440
2.1874843 -1.2559668 0.42694983 4290528000
2.211802 -1.2698309 0.43533018 4290658560
2.2524209 -1.2930483 0.44650069 4290789120
2.2725873 -1.3045256 0.45317695 4290919680
2.2757323 -1.3062346 0.45595565 4290919680
2.2721179 -1.3040652 0.45684448 4290919680
2.2796903 -1.3083144 0.45944217 4290919680
2.2514551 -1.2920209 0.45428619 4290789120
2.2344065 -1.2821472 0.45084214 4290658560
2.2590468 -1.2961876 0.45526233 4290789120
2.1655004 -1.2424395 0.43539307 4290397440
2.1452529 -1.2307374 0.42978975 4290397440
2.1207986 -1.2166246 0.42287579 4290266880
2.1126511 -1.2118648 0.41874433 4290266880
2.0849001 -1.1958655 0.41028833 4290136320
2.0649002 -1.1843127 0.40294591 4290005760
2.0449524 -1.1727915 0.3952111 4290005760
2.0250521 -1.1612993 0.38710159 4289875200
2.0580194 -1.1801143 0.38859707 4290005760
2.0219469 -1.1593539 0.37663394 4289875200
2.0599089 -1.181029 0.37799117 4290005760
2.0684795 -1.1858569 0.3733913 4290005760
2.0656278 -1.1841388 0.36628193 4290005760
2.1403537 -1.2268746 0.37224159 4290266880
2.2031679 -1.2627794 0.37522191 4290528000
2.2780981 -1.3056209 0.37931982 4290789120
2.5657151 -1.469743 0.35304347 4291964160
2.5933678 -1.4854755 0.34362969 4292094720
2.6028278 -1.4907889 0.33122927 4292094720
2.5667245 -1.4700137 0.31280875 4291964160
2.5637085 -1.4681847 0.29827461 4291964160
2.5903687 -1.4833453 0.28671971 4291964160
2.5829737 -1.4790092 0.27097085 4291964160
2.5466573 -1.4581189 0.25214571 4291833600
2.5477982 -1.4586709 0.23694962 4291833600
2.5699978 -1.4712753 0.22330247 4291964160
2.5572765 -1.4638934 0.20632026 4291833600
2.4685886 -1.4130409 0.18362643 4291441920
2.2869236 -1.3089935 0.15554118 4290789120
2.2538769 -1.289995 0.13874286 4290658560
2.2545581 -1.2902957 0.12407077 4290658560
2.1678474 -1.2406006 0.10502876 4290266880
2.0583253 -1.1778631 0.086065046 4289875200
2.0549209 -1.1758347 0.072177969 4289875200
2.0531526 -1.1747423 0.058301557 4289875200
2.0266759 -1.1595185 0.043851081 4289744640
2.0436542 -1.1691484 0.030349033 4289875200
2.0378163 -1.1657295 0.016399326 4289875200
2.0369844 -1.1651736 0.0025138622 4289744640
2.0182238 -1.1543666 -0.011264361 4289744640
2.0351593 -1.1639698 -0.025223764 4289744640
2.0424139 -1.1680371 -0.039202858 4289875200
2.0318911 -1.1619412 -0.052778102 4289744640
2.0361164 -1.1642764 -0.066641055 4289744640
2.0529997 -1.1738461 -0.080992348 4289875200
2.055866 -1.1754035 -0.094837859 4289875200
2.046432 -1.1699309 -0.10797234 4289875200
2.0559208 -1.1752727 -0.12199237 4289875200
2.0617013 -1.1784946 -0.13576294 4289875200
2.0667162 -1.1812785 -0.14940859 4289875200
2.0482852 -1.1706666 -0.16111381 4289875200
2.0532093 -1.1733986 -0.17439809 4289875200
2.0645237 -1.1797808 -0.18813883 4289875200
2.0817242 -1.1895243 -0.20238788 4290005760
2.0601509 -1.1771195 -0.2126229 4289875200
2.0086782 -1.1476395 -0.21910936 4289744640
2.0631852 -1.1786888 -0.2369308 4290005760
2.0705831 -1.1828315 -0.24943788 4290005760
2.0717676 -1.1834253 -0.26097095 4290005760
2.048775 -1.1702144 -0.26905477 4289875200
1.9358065 -1.1056341 -0.26431364 4289483520
2.0830894 -1.1896409 -0.29497021 4290005760
2.0883644 -1.1925689 -0.30596244 4290005760
2.083745 -1.1898484 -0.31516823 4290005760
2.0785978 -1.1868269 -0.32389644 4290005760
2.0538571 -1.1726228 -0.32907641 4290005760
2.052691 -1.1718745 -0.33754936 4290005760
2.0648513 -1.1787313 -0.34787679 4290005760
2.0693438 -1.1812115 -0.35658535 4290005760
2.0633893 -1.1777302 -0.36308512 4290005760
2.0656044 -1.1789106 -0.37059519 4290005760
2.0673573 -1.1798267 -0.3776131 4290005760
2.0618963 -1.1766274 -0.38287112 4290005760
2.0556855 -1.1730008 -0.3875173 4290005760
2.0417016 -1.1649407 -0.39019963 4289875200
2.014302 -1.1492302 -0.38976803 4289875200
2.0104218 -1.1469349 -0.39336348 4289875200
1.9966502 -1.1389992 -0.39453486 4289744640
1.9462187 -1.1101604 -0.38789523 4289614080
1.9620913 -1.1191305 -0.39395523 4289614080
1.9660436 -1.1213028 -0.39719412 4289614080
1.8881879 -1.0768367 -0.38337544 4289352960
1.9613136 -1.1184438 -0.39973605 4289614080
1.8878844 -1.0765072 -0.38578796 4289352960
1.9654135 -1.1206177 -0.40221468 4289614080
1.9577311 -1.1161575 -0.40076295 4289614080
1.9492626 -1.1112498 -0.39868537 4289614080
1.9985044 -1.1392283 -0.4079257 4289744640
2.0042694 -1.1424295 -0.40779591 4289744640
2.0315776 -1.1579045 -0.41154659 4289875200
2.0554805 -1.1714369 -0.41407889 4290005760
2.0529342 -1.1698998 -0.41078091 4290005760
2.0503244 -1.1683265 -0.40700203 4290005760
2.0641072 -1.1760905 -0.40598482 4290005760
2.0621431 -1.1748844 -0.40138125 4290005760
2.0725939 -1.1807487 -0.39871114 4290005760
2.0655088 -1.176626 -0.39220348 4290005760
2.0663214 -1.1770006 -0.38676018 4290005760
2.0571918 -1.1717145 -0.37903768 4290005760
2.0362132 -1.1596828 -0.36879143 4289875200
2.0310602 -1.1566621 -0.3610732 4289875200
2.0412083 -1.1623518 -0.35564515 4289875200
2.0633197 -1.1748501 -0.3517791 4290005760
2.0709479 -1.1791033 -0.34493366 4290005760
2.0631661 -1.1745853 -0.33513489 4290005760
2.0405097 -1.1616032 -0.32267293 4289875200
2.037297 -1.159687 -0.31303534 4289875200
2.0558336 -1.1701462 -0.3063176 4289875200
2.0635481 -1.1744463 -0.29752296 4290005760
2.0452569 -1.163951 -0.28470257 4289875200
2.0349202 -1.1579822 -0.27281839 4289875200
2.0520401 -1.167632 -0.26427704 4289875200
2.072309 -1.1790712 -0.25565061 4290005760
2.0644841 -1.1745309 -0.24321184 4290005760
2.03053 -1.1551316 -0.22766544 4289875200
2.0435436 -1.1624433 -0.21725565 4289875200
2.0533757 -1.1679447 -0.20613836 4289875200
2.0520279 -1.1670887 -0.19362578 4289875200
2.0351295 -1.1573921 -0.17954876 4289875200
2.0533605 -1.1676669 -0.16836983 4289875200
2.0525513 -1.1671171 -0.15534081 4289875200
2.0537002 -1.1676804 -0.14229263 4289875200
2.0531149 -1.1672577 -0.12896997 4289875200
2.0385432 -1.1588868 -0.11473101 4289875200
2.0485892 -1.164506 -0.10178764 4289875200
2.03915 -1.1590528 -0.087765336 4289875200
2.0156331 -1.145602 -0.073265307 4289744640
2.0393312 -1.1589768 -0.060407773 4289744640
2.0467749 -1.163116 -0.046796873 4289875200
2.0494065 -1.164521 -0.032961152 4289875200
2.0553839 -1.1678261 -0.019089758 4289875200
2.0681622 -1.1749933 -0.0051383204 4289875200
2.0833786 -1.1835439 0.0089984676 4290005760
2.0651829 -1.17312 0.022960214 4289875200
2.244525 -1.2748619 0.040160146 4290658560
2.2879763 -1.2994337 0.056404021 4290789120
2.2876945 -1.2991734 0.071800515 4290789120
2.3230572 -1.3191477 0.08846432 4290919680
2.5128598 -1.4267849 0.11239027 4291703040
2.6035192 -1.4781324 0.13362619 4291964160
2.5633249 -1.4552063 0.14834531 4291833600
2.5173886 -1.4290251 0.16200598 4291703040
2.606462 -1.4794607 0.18443058 4291964160
2.6213019 -1.4877672 0.20206939 4292094720
2.5942926 -1.4723284 0.21618667 4291964160
2.505249 -1.4216981 0.22418483 4291572480
2.6269841 -1.4906477 0.25095388 4292094720
2.6431212 -1.499687 0.26819995 4292225280
2.6054974 -1.4782317 0.27957395 4292094720
2.5543745 -1.4491236 0.28867647 4291833600
2.5248947 -1.4322944 0.29944077 4291703040
2.4775946 -1.4053625 0.3073349 4291572480
2.4591076 -1.3947724 0.3180958 4291441920
2.4708643 -1.4013319 0.33236638 4291572480
2.4241369 -1.3747334 0.33822939 4291311360
2.4358866 -1.3812896 0.35167983 4291441920
2.1686988 -1.2297282 0.32331261 4290397440
2.1098616 -1.1962854 0.32407925 4290136320
2.0554032 -1.1653295 0.32464489 4289875200
2.0664876 -1.1715229 0.33498585 4290005760
2.0373716 -1.1549349 0.33836415 4289875200
2.0180643 -1.1439074 0.34279057 4289744640
2.0886416 -1.18381 0.36224785 4290136320
2.1161439 -1.1993024 0.37417018 4290136320
2.1281905 -1.2060368 0.38306001 4290266880
2.1523025 -1.2196051 0.39378303 4290397440
2.167856 -1.2283236 0.40259752 4290397440
2.1877456 -1.2394968 0.41183951 4290528000
2.2325749 -1.264793 0.42544335 4290658560
2.276582 -1.2896199 0.43858823 4290789120
2.3257802 -1.3173829 0.45240152 4291050240
2.3707371 -1.3427404 0.46502486 4291180800
2.3865907 -1.3516167 0.47149479 4291311360
2.4273844 -1.3746114 0.48240185 4291441920
2.4356661 -1.3791981 0.48634186 4291441920
2.378273 -1.3466091 0.47657585 4291180800
2.4310422 -1.3763778 0.4882834 4291441920
2.3975663 -1.3573306 0.48212731 4291311360
2.3856068 -1.3504629 0.47971657 4291311360
2.3360066 -1.3222963 0.46919075 4291050240
2.2916255 -1.2970871 0.45919153 4290919680
2.2421689 -1.2690101 0.44769141 4290658560
2.2056396 -1.248251 0.43831176 4290528000
2.1648822 -1.2251031 0.42765948 4290397440
2.1447706 -1.2136377 0.42065424 4290266880
2.124717 -1.2022069 0.41322738 4290266880
2.1047175 -1.1908084 0.40539628 4290136320
2.0967896 -1.1862389 0.39946637 4290136320
2.0691571 -1.170527 0.38940027 4290005760
2.1071947 -1.1919522 0.39118963 4290136320
2.0830905 -1.1782374 0.38097054 4290005760
2.0839555 -1.1786422 0.37493256 4290005760
2.0595872 -1.1647813 0.36399981 4290005760
2.1181996 -1.1978325 0.36717057 4290136320
2.2018774 -1.2450477 0.37375748 4290528000
2.2856679 -1.2923203 0.37931532 4290789120
2.5993078 -1.4689282 0.3564727 4291964160
2.6227398 -1.4820625 0.34636286 4292094720
2.6192601 -1.4799926 0.33221081 4292094720
2.6038218 -1.4711683 0.31627008 4291964160
2.5843494 -1.4600669 0.29967412 4291964160
2.6154373 -1.4775224 0.28852895 4292094720
2.6115816 -1.4752414 0.27305746 4292094720
2.580271 -1.4574573 0.25461993 4291964160
2.5814264 -1.4580079 0.23927431 4291964160
2.5993683 -1.4680365 0.22509937 4291964160
2.3902907 -1.3498937 0.19222756 4291180800
2.2885735 -1.2923764 0.16969244 4290789120
2.2830102 -1.2891459 0.15475842 4290789120
2.2866333 -1.2911012 0.14028583 4290789120
2.2652729 -1.2789552 0.12424323 4290658560
2.175041 -1.227941 0.10502447 4290266880
2.0816915 -1.1751747 0.086747937 4290005760
2.0782788 -1.1731673 0.072750829 4290005760
2.069474 -1.1681175 0.058565468 4289875200
2.0377536 -1.150139 0.043940455 4289744640
2.0539174 -1.1591785 0.030396162 4289875200
2.0567694 -1.160707 0.016491786 4289875200
2.0559349 -1.1601557 0.0025235841 4289875200
2.0414665 -1.151914 -0.011362035 4289744640
2.0462639 -1.1545398 -0.025281982 4289875200
2.0543373 -1.1590129 -0.039305862 4289875200
2.0551746 -1.1594046 -0.053211827 4289875200
2.0594113 -1.1617131 -0.067186013 4289875200
2.0763474 -1.1711822 -0.08164797 4289875200
2.0845497 -1.1757256 -0.095848791 4290005760
2.0697501 -1.1672997 -0.10884684 4289875200
2.0647855 -1.1644198 -0.12211774 4289875200
2.0850599 -1.1757677 -0.1368524 4290005760
2.074368 -1.169659 -0.14947046 4290005760
2.0577695 -1.1602218 -0.16132927 4289875200
2.0721774 -1.1682612 -0.17543234 4289875200
2.0887349 -1.1775106 -0.18972109 4290005760
2.080734 -1.1729198 -0.20162737 4290005760
2.0834641 -1.174376 -0.21432331 4290005760
2.0097218 -1.1327444 -0.21850307 4289744640
2.083025 -1.1739639 -0.2384235 4290005760
2.0939069 -1.180012 -0.25141898 4290005760
2.0828936 -1.173725 -0.26151028 4290005760
2.0625744 -1.1621971 -0.26997674 4289875200
1.9629844 -1.106022 -0.26714343 4289483520
2.1029606 -1.1847787 -0.29680508 4290136320
2.1073816 -1.1871848 -0.30773354 4290136320
2.1000736 -1.1829855 -0.31659353 4290136320
2.0894179 -1.1769018 -0.32451198 4290005760
2.0684254 -1.1649985 -0.33032075 4290005760
2.0801907 -1.1715397 -0.34094623 4290005760
2.0857852 -1.1746058 -0.35024783 4290005760
2.0891216 -1.1764002 -0.35880935 4290005760
2.090894 -1.1773139 -0.36671454 4290136320
2.0844965 -1.1736289 -0.37275454 4290005760
2.0746315 -1.1679928 -0.37769574 4290005760
2.0764637 -1.1689401 -0.38430801 4290005760
2.0788295 -1.1701872 -0.39059097 4290005760
2.0613539 -1.1602699 -0.39265963 4290005760
2.0372972 -1.1466508 -0.39292073 4289875200
2.0299618 -1.1424412 -0.39588028 4289875200
2.019577 -1.1365163 -0.39775237 4289875200
1.9689746 -1.107969 -0.39113963 4289614080
1.9814615 -1.1149122 -0.39653587 4289744640
1.9768394 -1.1122313 -0.39806208 4289614080
1.9073091 -1.0730466 -0.38598406 4289352960
1.9148464 -1.0772069 -0.38898569 4289483520
1.9147257 -1.07706 -0.38998574 4289483520
1.980495 -1.1139611 -0.40396857 4289744640
1.9805107 -1.113888 -0.40409291 4289744640
1.9720145 -1.1090295 -0.40201259 4289614080
2.0136948 -1.1323781 -0.40967536 4289744640
2.0314972 -1.1423011 -0.41197672 4289875200
2.050313 -1.152792 -0.41397682 4290005760
2.0665679 -1.1618421 -0.4149448 4290005760
2.0640137 -1.1603203 -0.41164118 4290005760
2.0734231 -1.1655214 -0.41023484 4290005760
2.0872557 -1.1732068 -0.40918899 4290136320
2.0809917 -1.1695995 -0.40371948 4290005760
2.0914805 -1.1754047 -0.401023 4290136320
2.080935 -1.1693922 -0.39383522 4290005760
2.0731475 -1.1649299 -0.38676423 4290005760
2.0682919 -1.1621149 -0.37983206 4290005760
2.0566447 -1.1554855 -0.37126914 4290005760
2.0463853 -1.1496365 -0.36260372 4289875200
2.0651913 -1.1601102 -0.35864288 4290005760
2.0778959 -1.167156 -0.35310209 4290005760
2.0812378 -1.1689439 -0.34551066 4290005760
2.0820658 -1.1693197 -0.33709577 4290005760
2.0525367 -1.1526535 -0.32351065 4289875200
2.0569875 -1.155064 -0.31502467 4289875200
2.0755918 -1.1654184 -0.30824795 4290005760
2.0833383 -1.169677 -0.29939207 4290005760
2.065254 -1.1594384 -0.28654447 4290005760
2.0458992 -1.148488 -0.27339205 4289875200
2.0674782 -1.1605086 -0.26539358 4290005760
2.0878181 -1.1718318 -0.25672096 4290005760
2.0799713 -1.1673393 -0.2442347 4290005760
2.0458412 -1.1481025 -0.22863202 4289875200
2.0502849 -1.1505067 -0.21725963 4289875200
2.0700152 -1.161485 -0.20712985 4289875200
2.0812204 -1.16768 -0.19573943 4290005760
2.0461898 -1.1479436 -0.17993525 4289875200
2.0636117 -1.157625 -0.16865839 4289875200
2.0723746 -1.1624491 -0.15633018 4289875200
2.0726609 -1.1625197 -0.14313902 4289875200
2.0659695 -1.1586779 -0.12935533 4289875200
2.0543337 -1.1520652 -0.11524432 4289875200
2.0612652 -1.1558614 -0.10208536 4289875200
2.0624335 -1.1564265 -0.088480957 4289875200
2.0388424 -1.1431144 -0.073870644 4289744640
2.0582607 -1.1539084 -0.060773164 4289875200
2.0672975 -1.158883 -0.047115993 4289875200
2.073221 -1.1621122 -0.033240162 4289875200
2.0656452 -1.1577773 -0.019126387 4289875200
2.0784652 -1.1648699 -0.0051513277 4289875200
2.1024554 -1.1782192 0.0090457443 4290005760
2.1301723 -1.1936541 0.023594674 4290136320
2.2828729 -1.2790939 0.040704608 4290658560
2.3044381 -1.291073 0.056617972 4290789120
2.3078015 -1.2928563 0.072188012 4290789120
2.2752545 -1.2745297 0.086361431 4290658560
2.4129198 -1.3515176 0.10757323 4291180800
2.6251643 -1.4702518 0.13428858 4292094720
2.5926771 -1.4519491 0.14954433 4291964160
2.4565327 -1.3756191 0.1575745 4291441920
2.6264501 -1.4706297 0.18522887 4292094720
2.6464701 -1.4817219 0.20333329 4292094720
2.5971975 -1.4540296 0.21571463 4291964160
2.5430722 -1.4236256 0.22681426 4291703040
2.6521502 -1.4845569 0.25251988 4292225280
2.655381 -1.4862503 0.2685549 4292225280
2.6314459 -1.4727434 0.28142503 4292094720
2.5836205 -1.4458723 0.29101637 4291964160
2.5496929 -1.4267806 0.30138308 4291833600
2.502229 -1.4001197 0.30936581 4291572480
2.4845397 -1.3901175 0.32032457 4291572480
2.404701 -1.3453562 0.32241398 4291180800
2.4407713 -1.3654261 0.33942813 4291441920
2.3630424 -1.3218535 0.34005454 4291050240
2.1507268 -1.2030293 0.31958348 4290266880
2.0960338 -1.1723565 0.32090059 4290005760
2.1204245 -1.1859038 0.33380082 4290136320
2.0940237 -1.171054 0.33832896 4290005760
2.0725775 -1.1589762 0.3430731 4290005760
2.0497391 -1.1461222 0.34702072 4289875200
2.1657474 -1.2108754 0.37437075 4290397440
2.1196458 -1.1850183 0.37355864 4290136320
2.1429448 -1.1979491 0.38444668 4290266880
2.1464415 -1.1998125 0.39142355 4290266880
2.2451105 -1.2548542 0.41555944 4290658560
2.2814107 -1.2750412 0.42804199 4290789120
2.3306665 -1.3024633 0.44265738 4291050240
2.3426082 -1.3090367 0.44981378 4291050240
2.3997002 -1.3408296 0.46523353 4291311360
2.4275773 -1.3563001 0.4746007 4291441920
2.4933798 -1.3929502 0.49095437 4291703040
2.4278708 -1.3562618 0.48091656 4291441920
2.439621 -1.3627225 0.4855338 4291441920
2.4351084 -1.3601017 0.48635328 4291441920
2.4478829 -1.3671334 0.49005085 4291441920
2.4478402 -1.3670084 0.49061292 4291441920
2.4553638 -1.3711077 0.49211085 4291572480
2.4142051 -1.3480313 0.483291 4291311360
2.3645227 -1.3202006 0.47222987 4291180800
2.3694379 -1.322847 0.47152415 4291180800
2.2992489 -1.2835779 0.45539564 4290919680
2.254931 -1.2587523 0.44396782 4290789120
2.1638582 -1.2078406 0.4230032 4290397440
2.1394365 -1.1941258 0.41472366 4290266880
2.1193728 -1.1828449 0.40687856 4290136320
2.1780865 -1.2155148 0.41357628 4290397440
2.1667635 -1.20911 0.40641046 4290397440
2.1382458 -1.1931151 0.3956469 4290266880
2.1106217 -1.1776209 0.38473511 4290136320
2.1291604 -1.1878757 0.38180071 4290266880
2.1245039 -1.1851932 0.3742283 4290136320
2.1251442 -1.1854651 0.36716649 4290136320
2.2056396 -1.2302649 0.37316921 4290528000
2.2897024 -1.2770476 0.37873963 4290789120
2.6286404 -1.4653546 0.35930985 4292094720
2.6478205 -1.4759392 0.34852564 4292225280
2.6452057 -1.4743775 0.33439845 4292225280
2.621038 -1.460807 0.31731552 4292094720
2.6180198 -1.4590222 0.30257863 4292094720
2.6405253 -1.4714574 0.29033828 4292094720
2.6366644 -1.4692025 0.27477282 4292094720
2.6139627 -1.4564532 0.2570942 4291964160
2.6020706 -1.4497267 0.24039403 4291964160
2.6200757 -1.4596529 0.22614552 4292094720
2.3946309 -1.3339956 0.19194402 4291180800
2.2917073 -1.2765856 0.16936648 4290789120
2.2886276 -1.274781 0.15462881 4290789120
2.2863128 -1.2734027 0.13980512 4290789120
2.2877603 -1.2741191 0.1250609 4290789120
2.2378979 -1.2462701 0.10769566 4290528000
2.1033461 -1.1712798 0.087358452 4290005760
2.0981815 -1.1683228 0.07320229 4290005760
2.0972111 -1.1677008 0.059150312 4290005760
2.0653896 -1.1499082 0.044384729 4289875200
2.0816081 -1.1588537 0.030699203 4289875200
2.0725965 -1.1537576 0.01655958 4289875200
2.0788906 -1.1571791 0.0025378559 4289875200
2.0629981 -1.1482553 -0.011449777 4289875200
2.066762 -1.1502689 -0.025457155 4289875200
2.0776589 -1.1562507 -0.039627824 4289875200
2.0723703 -1.1532277 -0.053486884 4289875200
2.0783772 -1.1564882 -0.06758856 4289875200
2.0851958 -1.1601998 -0.08173272 4290005760
2.0957334 -1.1659791 -0.096053168 4290005760
2.0852492 -1.1600666 -0.10930896 4290005760
2.0793929 -1.1567285 -0.12258519 4289875200
2.089083 -1.1620356 -0.13667339 4290005760
2.1020851 -1.1691833 -0.15097894 4290005760
2.0819368 -1.1578989 -0.16269673 4290005760
2.0963848 -1.1658497 -0.17690803 4290005760
2.1034048 -1.16967 -0.19043529 4290005760
2.112793 -1.1748061 -0.20407158 4290136320
2.1033328 -1.1694649 -0.21566655 4290005760
2.0293434 -1.1282599 -0.21992168 4289744640
2.104054 -1.1697004 -0.24005017 4290005760
2.1144829 -1.175413 -0.25306672 4290136320
2.1070786 -1.1712154 -0.26368919 4290136320
2.0909388 -1.1621646 -0.27280205 4290005760
1.9824194 -1.1017896 -0.26891342 4289614080
2.1176398 -1.176833 -0.29790753 4290136320
2.1119728 -1.1736013 -0.30740377 4290136320
2.1190684 -1.1774589 -0.31842074 4290136320
2.1127028 -1.1738392 -0.3270638 4290136320
2.1002917 -1.1668622 -0.33432126 4290136320
2.0913117 -1.1617916 -0.34165704 4290005760
2.1012473 -1.1672256 -0.35169947 4290136320
2.105762 -1.1696486 -0.3604939 4290136320
2.1074886 -1.170523 -0.36842567 4290136320
2.1051216 -1.1691245 -0.37522116 4290136320
2.0978117 -1.164982 -0.38067633 4290136320
2.0961902 -1.1639975 -0.3867 4290136320
2.0942442 -1.1628331 -0.39221051 4290136320
2.0758457 -1.1525369 -0.39413717 4290005760
2.0603302 -1.1438421 -0.39607337 4290005760
2.0443456 -1.1348881 -0.39739186 4289875200
2.0339243 -1.1290224 -0.39927843 4289875200
1.9883242 -1.1036377 -0.39370176 4289744640
2.0042944 -1.1124176 -0.39980364 4289744640
1.9301509 -1.0712019 -0.3874031 4289483520
1.9342003 -1.0733695 -0.39015561 4289483520
1.93401 -1.073185 -0.39160395 4289483520
1.9295825 -1.0706499 -0.39173695 4289483520
1.9990094 -1.1090767 -0.40642244 4289744640
1.9947197 -1.1066155 -0.40567219 4289744640
1.9870569 -1.102284 -0.4037655 4289744640
2.0366232 -1.1296867 -0.41299614 4289875200
2.0467341 -1.1352086 -0.413721 4289875200
2.0537968 -1.1390396 -0.41333658 4289875200
2.0819337 -1.1545531 -0.41667509 4290005760
2.0871148 -1.1573386 -0.41489893 4290005760
2.0965586 -1.1624863 -0.41346759 4290136320
2.0944917 -1.1612535 -0.40927741 4290136320
2.1041603 -1.1665244 -0.40689132 4290136320
2.1026106 -1.1655775 -0.40185118 4290136320
2.0975165 -1.1626667 -0.39568749 4290136320
2.1006238 -1.1643004 -0.39062044 4290136320
2.0914421 -1.1591251 -0.38283935 4290005760
2.075443 -1.1501735 -0.37344939 4290005760
2.0661268 -1.1449252 -0.36491641 4290005760
2.0883522 -1.1571491 -0.36149091 4290005760
2.1019711 -1.1646039 -0.35603702 4290136320
2.1174531 -1.1730894 -0.35038489 4290136320
2.1018403 -1.1643533 -0.33919629 4290136320
2.0713546 -1.1473829 -0.32542056 4290005760
2.0758259 -1.1497705 -0.31688163 4290005760
2.0965405 -1.1611509 -0.31035233 4290005760
2.1086552 -1.1677687 -0.30205077 4290136320
2.0841374 -1.1541063 -0.28822997 4290005760
2.0734158 -1.1480824 -0.27617398 4290005760
2.0829029 -1.1532449 -0.26651004 4290005760
2.1001379 -1.1626946 -0.25740209 4290005760
2.1076303 -1.1667508 -0.24668387 4290005760
2.0655615 -1.1433811 -0.23009118 4289875200
2.077867 -1.1501013 -0.21947259 4289875200
2.0941839 -1.15904 -0.20887302 4290005760
2.1002007 -1.1622787 -0.19688828 4290005760
2.0737855 -1.1475757 -0.18177521 4289875200
2.07985 -1.1508409 -0.16943863 4289875200
2.1079299 -1.1662828 -0.15850198 4290005760
2.0850017 -1.153511 -0.14352866 4290005760
2.0901639 -1.1562761 -0.13045083 4290005760
2.073251 -1.1468334 -0.11593316 4289875200
2.0845795 -1.153008 -0.10291035 4289875200
2.082257 -1.151634 -0.089046702 4289875200
2.0577168 -1.137977 -0.074317656 4289875200
2.0859487 -1.153495 -0.061396662 4289875200
2.0950174 -1.1584177 -0.047598708 4290005760
2.0843349 -1.1524228 -0.033314381 4289875200
2.0872338 -1.1539348 -0.019268954 4289875200
2.106225 -1.16434 -0.0052091861 4290005760
2.1174114 -1.1704304 0.0090758028 4290005760
2.1172278 -1.1702377 0.023373427 4290005760
2.2898526 -1.265522 0.040692601 4290658560
2.3015277 -1.2718732 0.056360155 4290789120
2.3083737 -1.2755557 0.07196857 4290789120
2.2919078 -1.2663608 0.086706556 4290789120
2.5800517 -1.4254125 0.1146293 4291833600
2.6503038 -1.4641008 0.13512903 4292094720
2.6133347 -1.4435707 0.15024178 4291964160
2.4985955 -1.3800989 0.15974513 4291572480
2.6559465 -1.4668741 0.18669556 4292094720
2.6681623 -1.4735045 0.20433012 4292225280
2.6230905 -1.448507 0.21715327 4291964160
2.5801291 -1.4246783 0.22936624 4291833600
2.6773336 -1.4782232 0.25408596 4292225280
2.6987936 -1.4899532 0.27205297 4292355840
2.6841953 -1.4817808 0.28612685 4292225280
2.6042013 -1.4375205 0.29237935 4291964160
2.5832214 -1.4258322 0.30435029 4291833600
2.5181804 -1.3898339 0.31032541 4291703040
2.5004294 -1.3799328 0.32132497 4291572480
2.429024 -1.3404328 0.32461494 4291311360
2.4695489 -1.3626847 0.34231177 4291441920
2.4639833 -1.3595096 0.35341308 4291441920
2.1542277 -1.1885561 0.31906566 4290266880
2.1448209 -1.1832769 0.32729578 4290266880
2.1394453 -1.1802214 0.33570009 4290266880
2.1216238 -1.1703036 0.34167209 4290136320
2.1295667 -1.1745936 0.35135239 4290136320
2.2490234 -1.2403661 0.37948176 4290658560
2.3030677 -1.2700664 0.39678934 4290919680
2.2843809 -1.2596682 0.40125096 4290789120
2.2294919 -1.2293164 0.3986595 4290528000
2.2869215 -1.2608769 0.41566011 4290789120
2.3103137 -1.2736737 0.42623031 4290919680
2.3596764 -1.3007808 0.44127703 4291050240
2.4332631 -1.3412327 0.46062633 4291441920
2.4365783 -1.3429581 0.46632391 4291441920
2.4817424 -1.3677411 0.47956577 4291572480
2.5312781 -1.3949289 0.49325258 4291833600
2.4982629 -1.3766364 0.49032396 4291703040
2.5099611 -1.382977 0.49555221 4291703040
2.5096574 -1.3827062 0.49784285 4291703040
2.5137537 -1.384859 0.50042105 4291703040
2.5093074 -1.3823068 0.50071079 4291703040
2.501497 -1.3779029 0.49973524 4291703040
2.5461495 -1.402388 0.50863796 4291833600
2.5169427 -1.3862026 0.5022074 4291703040
2.4593401 -1.3543861 0.48955843 4291441920
2.4556501 -1.3522545 0.48708278 4291441920
2.3981943 -1.3205265 0.47343633 4291311360
2.3364818 -1.28646 0.45851937 4291050240
2.2998643 -1.2662112 0.4481062 4290919680
2.2336051 -1.2296519 0.43155709 4290658560
2.2881379 -1.2595721 0.43781942 4290789120
2.2888539 -1.2598739 0.43317962 4290789120
2.3038745 -1.2680467 0.43070075 4290919680
2.2632024 -1.2455766 0.41738686 4290658560
2.1754229 -1.1971933 0.39525169 4290397440
2.1512215 -1.1837926 0.38450566 4290266880
2.1664228 -1.1920686 0.38037029 4290266880
2.1198869 -1.1663857 0.36507627 4290136320
2.2503734 -1.2380685 0.37949845 4290658560
2.284097 -1.2565256 0.37659314 4290789120
2.6658502 -1.4657936 0.36321288 4292225280
2.6772714 -1.4719664 0.35125896 4292225280
2.6746583 -1.4704251 0.33702469 4292225280
2.6504228 -1.4570006 0.31983161 4292094720
2.6474049 -1.4552382 0.30498156 4292094720
2.660485 -1.462322 0.29158443 4292225280
2.6661289 -1.4653192 0.27694097 4292225280
2.6389971 -1.4503078 0.25871363 4292094720
2.6358094 -1.4484535 0.24271883 4292094720
2.658253 -1.4606801 0.22869337 4292094720
2.6047809 -1.4312036 0.20808437 4291964160
2.3726218 -1.3035833 0.17476742 4291050240
2.2841432 -1.2548954 0.15382643 4290658560
2.3071451 -1.2674391 0.14061891 4290789120
2.3101368 -1.2689923 0.12587152 4290789120
2.2312434 -1.2255808 0.10702746 4290528000
2.1190057 -1.1638666 0.087720565 4290005760
2.1172216 -1.1628048 0.073623456 4290005760
2.1162498 -1.1621891 0.059489876 4290005760
2.0808213 -1.1426581 0.044567626 4289875200
2.0986676 -1.1523736 0.030846216 4290005760
2.1003246 -1.1532016 0.016721072 4290005760
2.0899832 -1.1474442 0.0025388999 4289875200
2.0819287 -1.1429429 -0.011522673 4289875200
2.0857041 -1.1449338 -0.025612779 4289875200
2.0931287 -1.148927 -0.039799072 4290005760
2.0965865 -1.150743 -0.053943112 4290005760
2.0949867 -1.1497838 -0.067914195 4290005760
2.112952 -1.1595585 -0.082559682 4290005760
2.1147587 -1.1604675 -0.096618153 4290005760
2.1129956 -1.1594182 -0.11041243 4290005760
2.1114926 -1.1585118 -0.12408261 4290005760
2.121206 -1.1637571 -0.13833399 4290005760
2.1132398 -1.1593056 -0.15129626 4290005760
2.0965238 -1.1500566 -0.16331418 4290005760
2.1130748 -1.1590505 -0.17774753 4290005760
2.1267951 -1.166491 -0.19193853 4290136320
2.1283426 -1.1672565 -0.20491697 4290136320
2.1223412 -1.1638832 -0.21692042 4290136320
2.0481074 -1.1231064 -0.2212459 4289744640
2.1230526 -1.1641072 -0.24144349 4290136320
2.1212986 -1.1630627 -0.25307062 4290136320
2.1260741 -1.165597 -0.26521555 4290136320
2.1142325 -1.1590239 -0.27495891 4290136320
1.9966462 -1.0945048 -0.26997685 4289614080
2.1352139 -1.1703545 -0.29941887 4290136320
2.1440074 -1.1750885 -0.31106788 4290266880
2.1467648 -1.1765146 -0.32155022 4290266880
2.1325462 -1.1686404 -0.32907918 4290136320
2.0992534 -1.1503186 -0.33308688 4290005760
2.1204467 -1.1618443 -0.34530783 4290136320
2.1201653 -1.1616061 -0.35373005 4290136320
2.1212189 -1.1620989 -0.36197776 4290136320
2.1186113 -1.1605866 -0.36918485 4290136320
2.1249011 -1.1639464 -0.3775343 4290136320
2.1175616 -1.159843 -0.38303018 4290136320
2.1193931 -1.1607611 -0.38972875 4290136320
2.1004632 -1.1503128 -0.39211655 4290136320
2.0989704 -1.1494113 -0.39725199 4290136320
2.0756137 -1.1365418 -0.3977344 4290005760
2.0496552 -1.12225 -0.39714932 4289875200
2.0534401 -1.1242388 -0.40181929 4289875200
2.0154691 -1.1033756 -0.3977989 4289744640
2.0228441 -1.10733 -0.40221238 4289744640
1.9571002 -1.0712734 -0.39155445 4289483520
1.9568397 -1.0710516 -0.39345878 4289483520
1.9523275 -1.0685034 -0.39404783 4289483520
1.9522034 -1.068356 -0.39506087 4289483520
1.9443746 -1.0639938 -0.39405349 4289483520
2.0184126 -1.1044124 -0.40917709 4289744640
2.0098615 -1.0996529 -0.4070926 4289744640
2.0639076 -1.1291287 -0.41718975 4290005760
2.065413 -1.1298672 -0.4161613 4290005760
2.0733638 -1.13413 -0.41593996 4290005760
2.1007288 -1.1490073 -0.41909221 4290136320
2.1145732 -1.15649 -0.4190129 4290136320
2.1162698 -1.1573302 -0.41602051 4290136320
2.1263084 -1.1627302 -0.41416577 4290136320
2.1239026 -1.161327 -0.40939617 4290136320
2.1269398 -1.1628988 -0.40520161 4290136320
2.1250377 -1.1617708 -0.39959785 4290136320
2.1224074 -1.1602448 -0.39341009 4290136320
2.1075189 -1.1520205 -0.38454989 4290136320
2.0985832 -1.1470498 -0.37640682 4290005760
2.0892444 -1.1418594 -0.36782074 4290005760
2.1127725 -1.1546259 -0.36454999 4290136320
2.1252184 -1.1613363 -0.35882533 4290136320
2.1306398 -1.1642084 -0.35144171 4290136320
2.1179743 -1.1572008 -0.3407093 4290136320
2.0945277 -1.1443061 -0.32801113 4290005760
2.095542 -1.1447716 -0.31887084 4290005760
2.115459 -1.1555592 -0.31215411 4290136320
2.1232646 -1.1597317 -0.30317372 4290136320
2.1082566 -1.1514477 -0.29063612 4290005760
2.0887911 -1.1407312 -0.27733529 4290005760
2.110883 -1.1527027 -0.26922971 4290005760
2.119971 -1.1575739 -0.25900543 4290136320
