# .PCD v0.7 - Point Cloud Data file format
VERSION 0.7
FIELDS x y z rgba
SIZE 4 4 4 4
TYPE F F F U
COUNT 1 1 1 1
WIDTH 1129
HEIGHT 1
VIEWPOINT 0 0 0 1 0 0 0
POINTS 1129
DATA ascii
2.6899757 2.0227833 -0.46332735 4293269760
2.4096565 1.8121099 -0.42609665 4292094720
2.3900018 1.7974467 -0.43310276 4292094720
2.3808963 1.7907159 -0.44140276 4291964160
2.3722305 1.7843149 -0.44920748 4291964160
2.3563769 1.7725061 -0.45504269 4291964160
2.3476536 1.7660599 -0.46164206 4291833600
2.3431566 1.7627921 -0.46849549 4291833600
2.3254714 1.7496017 -0.47210237 4291833600
2.3014643 1.7316529 -0.47375757 4291703040
2.2028456 1.6575593 -0.4591808 4291311360
2.2170901 1.6683868 -0.46737462 4291311360
2.2353284 1.6822214 -0.47593915 4291441920
2.2575617 1.6990644 -0.48488006 4291572480
2.1835191 1.6434466 -0.47249949 4291180800
2.1830695 1.6432155 -0.47537234 4291180800
2.1984329 1.6548879 -0.48114949 4291311360
2.1941941 1.6518052 -0.48208722 4291311360
2.1979005 1.6547036 -0.48420507 4291311360
2.1788676 1.6404817 -0.48074219 4291180800
2.174861 1.6375723 -0.48002508 4291180800
2.2443826 1.6900293 -0.49496153 4291441920
2.2287304 1.678353 -0.49052897 4291441920
2.2139413 1.667325 -0.48572925 4291311360
2.1992259 1.656351 -0.48040158 4291311360
2.2520258 1.6962283 -0.4892104 4291572480
2.3127861 1.7421068 -0.49902391 4291833600
2.3378322 1.7610879 -0.50041705 4291833600
2.3418636 1.7642401 -0.49667761 4291833600
2.3650963 1.7818589 -0.49637279 4291964160
2.3653533 1.7821691 -0.4906168 4291964160
2.3777158 1.7916007 -0.48676822 4292094720
2.389581 1.8006587 -0.48218563 4292094720
2.3982313 1.8072952 -0.47633448 4292094720
2.4370496 1.8366686 -0.47576633 4292225280
2.5218577 1.9007078 -0.48318946 4292616960
2.7448244 2.0688918 -0.515365 4293530880
2.9799206 2.2462406 -0.54741681 4294575360
2.9899859 2.2539749 -0.53650743 4294575360
2.9707475 2.2396188 -0.51977116 4294575360
2.9603095 2.2318954 -0.50411808 4294444800
2.9722326 2.2410312 -0.4916918 4294575360
2.9870651 2.252362 -0.47905758 4294575360
2.9870539 2.2525008 -0.46342731 4294575360
2.9590113 2.2314999 -0.44307822 4294444800
2.9713011 2.2409146 -0.42835429 4294444800
2.9850125 2.2514026 -0.41320872 4294575360
2.9864438 2.2526295 -0.39581484 4294575360
2.9909322 2.2561624 -0.37834993 4294575360
2.9470062 2.2231729 -0.35458472 4294314240
2.9643064 2.2363698 -0.33795568 4294444800
2.9695506 2.2404728 -0.31943572 4294444800
2.9810178 2.2492714 -0.30112395 4294444800
2.9626284 2.2355421 -0.27951235 4294444800
2.9761972 2.2459276 -0.2606397 4294444800
2.9748256 2.2450392 -0.24009049 4294444800
2.9870832 2.2544372 -0.22030273 4294444800
2.950778 2.2271819 -0.19686285 4294314240
2.9742234 2.2450247 -0.17728323 4294444800
2.980134 2.2496333 -0.15625606 4294444800
2.982424 2.251509 -0.13480985 4294444800
2.9656792 2.2390141 -0.11246175 4294444800
2.9732628 2.2448862 -0.090980045 4294444800
2.9597938 2.2348628 -0.068798438 4294314240
2.6689622 2.0153952 -0.042340014 4293139200
2.0641708 1.558805 -0.017475078 4290658560
2.1647971 1.634902 -0.0022914133 4291050240
2.8318186 2.1387908 0.017983243 4293792000
2.7842515 2.1030021 0.038291361 4293661440
2.967829 2.2418084 0.062742226 4294444800
2.9554508 2.2326043 0.084248878 4294314240
2.8607366 2.1611965 0.10253264 4293922560
2.6958113 2.0367336 0.11629203 4293269760
2.9643745 2.2397842 0.14937022 4294444800
2.9515746 2.2302585 0.16996536 4294314240
2.806546 2.120811 0.18163615 4293792000
2.7102482 2.0481758 0.19454956 4293400320
2.9805651 2.2526054 0.23477726 4294444800
2.8927341 2.1863687 0.24782149 4294053120
2.8366122 2.1440911 0.26232448 4293922560
2.6499946 2.0031648 0.26283967 4293139200
2.9890432 2.2596033 0.31619129 4294575360
3.0198662 2.2830534 0.33902815 4294705920
2.9315104 2.2164001 0.34775066 4294314240
2.7537224 2.0821176 0.34381178 4293530880
2.7311721 2.0652018 0.35763028 4293530880
3.0208163 2.2843685 0.41351712 4294705920
3.001054 2.2695723 0.42819744 4294575360
2.9278293 2.21434 0.43424529 4294314240
2.8153698 2.129425 0.43296105 4293792000
2.7599785 2.0876658 0.43905929 4293661440
3.0138588 2.2798512 0.4948687 4294705920
3.0119319 2.2785423 0.50940669 4294705920
2.9810801 2.2553501 0.5183208 4294575360
2.892617 2.1885657 0.51608193 4294183680
2.8253553 2.137815 0.5163449 4293922560
2.8389328 2.1482286 0.53055686 4294053120
3.0149066 2.2815375 0.57525748 4294705920
2.9989312 2.2695963 0.58330435 4294705920
2.9915144 2.2641311 0.59226072 4294705920
2.9911516 2.264004 0.60190445 4294705920
2.9848576 2.2593877 0.60963976 4294705920
2.9456747 2.2298737 0.60982466 4294444800
2.955652 2.2375729 0.61939657 4294575360
2.8951912 2.1919439 0.61337447 4294314240
2.9053464 2.1997762 0.62148172 4294314240
2.9124424 2.2052929 0.62824428 4294314240
2.9117725 2.2049294 0.63261068 4294314240
2.9221933 2.212965 0.63866049 4294444800
2.9185743 2.2103686 0.64090514 4294444800
2.9181969 2.210227 0.64310789 4294444800
2.9179211 2.2101624 0.64457989 4294444800
2.9098976 2.2042289 0.64358342 4294314240
2.9098275 2.2043197 0.64359009 4294314240
2.9059348 2.2015145 0.64199853 4294314240
2.8950787 2.1934333 0.63812315 4294314240
2.9586694 2.2417586 0.64986682 4294575360
2.9401662 2.2278841 0.64278835 4294444800
2.9366779 2.2253861 0.63826436 4294444800
2.9673567 2.248781 0.64037806 4294575360
2.9770026 2.2562382 0.63714105 4294575360
2.9768238 2.2562499 0.63104177 4294575360
2.9990385 2.2732358 0.62890476 4294705920
2.9991472 2.2734666 0.62135011 4294705920
2.993762 2.2695324 0.61195099 4294705920
2.994822 2.2704842 0.6031723 4294705920
2.9952443 2.2709525 0.59356344 4294705920
2.9854264 2.2636566 0.58127332 4294705920
3.0008423 2.2754939 0.57320446 4294705920
3.0151563 2.2864971 0.56415415 4294705920
3.0093606 2.2822509 0.55066293 4294705920
2.9808121 2.2607131 0.45163655 4294575360
2.980778 2.2608347 0.43511057 4294575360
2.9755099 2.2569861 0.41736332 4294575360
2.9476061 2.2359667 0.39616838 4294444800
2.9422388 2.2320406 0.37775674 4294314240
2.9456277 2.2347574 0.36006087 4294444800
2.9734344 2.2560008 0.3447547 4294444800
2.9675765 2.251703 0.32502657 4294444800
2.9303863 2.2236292 0.3017889 4294314240
2.9462416 2.2358065 0.28381959 4294314240
2.9596472 2.2461262 0.26510629 4294444800
2.9678349 2.2524867 0.24548805 4294444800
2.9453504 2.2355678 0.22316402 4294314240
2.9759736 2.2589586 0.20456079 4294444800
3.0068941 2.2825782 0.18531963 4294575360
3.0078399 2.2834451 0.16380244 4294575360
2.8852892 2.1905518 0.13626085 4294053120
2.1786036 1.6541343 0.087018177 4291050240
1.9787709 1.5025065 0.064537145 4290266880
2.4998071 1.8982599 0.063124567 4292486400
2.9592788 2.2473121 0.052856214 4294444800
2.9825408 2.2651253 0.031170446 4294444800
2.9829183 2.2655597 0.0090356683 4294444800
2.9527395 2.242785 -0.012981175 4294314240
2.9626467 2.2504568 -0.035010733 4294444800
2.9758983 2.2606702 -0.057214804 4294444800
2.9823096 2.2656884 -0.07937225 4294444800
2.9585598 2.247792 -0.10051493 4294444800
2.9856367 2.2685118 -0.12330037 4294444800
2.9928343 2.2741289 -0.14538327 4294575360
2.9911611 2.273006 -0.16691922 4294575360
2.9677491 2.255362 -0.18688226 4294444800
2.9783533 2.2635684 -0.20869298 4294444800
2.9907477 2.2731364 -0.23056555 4294575360
2.9901195 2.2728069 -0.25126672 4294575360
2.9745634 2.2611301 -0.27032933 4294444800
3.0007169 2.2811596 -0.29295784 4294575360
3.0032768 2.2832546 -0.31315628 4294575360
3.0089245 2.2876976 -0.33338746 4294705920
2.9824185 2.2676928 -0.34955689 4294575360
2.989428 2.2731707 -0.36914372 4294575360
3.0045996 2.2848561 -0.38946784 4294705920
3.0022669 2.283231 -0.40717077 4294705920
2.992033 2.2755964 -0.42327601 4294575360
2.9646254 2.2548988 -0.43626449 4294444800
3.0044549 2.285342 -0.45872399 4294705920
3.0051973 2.2860558 -0.47492564 4294705920
2.9713061 2.260422 -0.48494881 4294575360
2.8646071 2.1793928 -0.48183435 4294053120
2.7470131 2.0900636 -0.47524536 4293661440
2.4076986 1.8320159 -0.42763162 4292225280
2.3833516 1.8136084 -0.43380314 4292094720
2.3790057 1.8104194 -0.44299525 4292094720
2.3580031 1.7945535 -0.44847757 4291964160
2.3484774 1.7874204 -0.45550925 4291964160
2.3376365 1.7792856 -0.46168843 4291833600
2.3221581 1.7676193 -0.46633035 4291833600
2.3045523 1.7543323 -0.46990138 4291703040
2.2877176 1.7416303 -0.47298399 4291703040
2.2457912 1.7098234 -0.4701736 4291572480
2.1848757 1.6635542 -0.46258849 4291311360
2.1999056 1.6751069 -0.47043258 4291311360
2.2063682 1.6801374 -0.47594076 4291311360
2.2207365 1.6911891 -0.48263463 4291441920
2.2241979 1.6939354 -0.48642257 4291441920
2.2387033 1.7050936 -0.4920781 4291441920
2.2352591 1.7025815 -0.49322581 4291441920
2.2420783 1.7078869 -0.49606198 4291572480
2.2270396 1.6965419 -0.49348024 4291441920
2.2230484 1.6936117 -0.49276301 4291441920
2.2081685 1.6823852 -0.48905736 4291441920
2.1933656 1.671216 -0.48480526 4291311360
2.1896062 1.6684602 -0.48243558 4291311360
2.2303462 1.6996145 -0.48926926 4291441920
2.2724891 1.731842 -0.49574795 4291703040
2.2958605 1.7497672 -0.49746644 4291703040
2.3168786 1.7659009 -0.49802348 4291833600
2.3295844 1.7757008 -0.4961516 4291833600
2.3461695 1.7884592 -0.49446604 4291964160
2.3517737 1.7928481 -0.48984051 4291964160
2.3599405 1.7991912 -0.48514396 4291964160
2.3835287 1.817293 -0.48296374 4292094720
2.3987856 1.8290446 -0.47841856 4292225280
2.4572899 1.8737755 -0.48169822 4292355840
2.5448925 1.9407021 -0.48960856 4292747520
2.7920885 2.1293492 -0.52638704 4293792000
2.9821482 2.2744441 -0.55006117 4294575360
2.9890289 2.2798402 -0.5385142 4294705920
2.9765244 2.2704506 -0.52288711 4294575360
2.9665802 2.2630126 -0.50721776 4294575360
2.978363 2.2721493 -0.4946768 4294575360
2.9885759 2.2800889 -0.48120573 4294575360
2.9962945 2.2861266 -0.4666976 4294705920
2.9613755 2.2596312 -0.44517204 4294444800
2.9704602 2.2667108 -0.4299005 4294575360
2.9880688 2.2802961 -0.41522893 4294575360
2.9958935 2.2864165 -0.39858636 4294575360
2.9935336 2.2847643 -0.38011292 4294575360
2.9569228 2.2569685 -0.35710967 4294444800
2.9666846 2.2645671 -0.33947656 4294444800
2.9719117 2.2687049 -0.32085353 4294575360
2.9722426 2.2691054 -0.30131206 4294444800
2.953932 2.2552733 -0.27966964 4294444800
2.979336 2.274817 -0.26180869 4294575360
2.9740083 2.2708969 -0.2408241 4294444800
2.9822488 2.2773376 -0.22065382 4294575360
2.9492738 2.2523036 -0.19736838 4294444800
2.9686511 2.2672493 -0.17746566 4294444800
2.9745364 2.2718921 -0.15638208 4294444800
2.9768159 2.2737813 -0.13487956 4294444800
2.9601421 2.2611923 -0.11247665 4294444800
2.9717264 2.2701893 -0.091061629 4294444800
2.9693632 2.2685316 -0.069052093 4294444800
2.5829332 1.9734359 -0.040917754 4292878080
2.0068808 1.5334147 -0.016879629 4290397440
2.0670435 1.5794868 -0.0020065764 4290658560
2.83479 2.1662848 0.018343324 4293922560
2.7874234 2.1302271 0.038761087 4293661440
2.9982965 2.2915313 0.063941613 4294575360
2.9963181 2.2901685 0.086065069 4294575360
2.9165368 2.2293346 0.1052595 4294183680
2.7586098 2.1087561 0.11977583 4293530880
2.9877315 2.2840514 0.15147987 4294575360
2.9560337 2.2599664 0.17123654 4294444800
2.8535082 2.181725 0.18574201 4294053120
2.7224331 2.0816436 0.19652392 4293400320
2.9784069 2.2775161 0.23589888 4294575360
2.9450684 2.2521696 0.25366822 4294444800
2.779289 2.1255322 0.25838962 4293661440
2.6975307 2.0631399 0.2689566 4293400320
2.9960461 2.2916012 0.31857187 4294575360
2.980799 2.2800875 0.33635399 4294575360
2.8511648 2.1810691 0.33993188 4294053120
2.8217864 2.1587358 0.35407659 4293922560
2.7115467 2.0745347 0.35682562 4293400320
2.9821723 2.2817321 0.41024038 4294575360
2.9482687 2.2559383 0.42272499 4294444800
2.839783 2.1730692 0.42323381 4294053120
2.7993362 2.1422582 0.43257403 4293792000
2.7481232 2.1032031 0.43927112 4293661440
2.9734454 2.2757955 0.49056181 4294575360
2.9442503 2.253597 0.50032157 4294444800
2.9074121 2.2255449 0.50789672 4294314240
2.8683972 2.1958232 0.51416224 4294183680
2.8014302 2.1446979 0.51436275 4293922560
2.743427 2.1004291 0.51509011 4293661440
2.9536846 2.261554 0.56618166 4294575360
2.9493923 2.2584145 0.57630867 4294575360
2.9568231 2.2642517 0.58807385 4294575360
2.9465747 2.2565508 0.59563798 4294575360
2.9074821 2.2267578 0.59653193 4294314240
2.9181359 2.2350626 0.6068536 4294444800
2.868804 2.1974213 0.60390133 4294183680
2.8749249 2.2022531 0.61180931 4294183680
2.8897347 2.2137415 0.62089914 4294314240
2.8960192 2.2187004 0.62747562 4294314240
2.9031751 2.2243276 0.63353139 4294314240
2.8986933 2.2210383 0.63631296 4294314240
2.9130754 2.2322032 0.64250082 4294444800
2.9166086 2.2350559 0.64556181 4294444800
2.9014816 2.2236087 0.64373177 4294314240
2.897402 2.2206266 0.64358979 4294314240
2.893425 2.2177229 0.64271557 4294314240
2.8825152 2.2095046 0.63955134 4294314240
2.8709247 2.2007635 0.63549566 4294183680
2.8711584 2.2010858 0.63331902 4294183680
2.856636 2.1900952 0.6271612 4294183680
2.9092164 2.230552 0.63494909 4294444800
2.8909764 2.2167113 0.62649858 4294314240
2.9255285 2.2433507 0.6287232 4294444800
2.9461741 2.2593291 0.62712181 4294575360
2.935122 2.2510002 0.6180262 4294444800
2.9494946 2.2621698 0.61355442 4294575360
2.9535863 2.2654555 0.60618418 4294575360
2.9467983 2.260396 0.59588796 4294575360
2.9338152 2.2505836 0.58371288 4294444800
2.9392924 2.2549317 0.57456034 4294444800
2.9511161 2.2641499 0.56592417 4294575360
2.9719281 2.2802656 0.558236 4294575360
2.9658928 2.2757828 0.54480863 4294575360
2.9249547 2.245729 0.44517851 4294444800
2.9334736 2.2524164 0.43014389 4294444800
2.9550087 2.269099 0.41636515 4294444800
2.9527988 2.2675498 0.39866513 4294444800
2.9306154 2.2506607 0.37797114 4294444800
2.9397681 2.2578366 0.36097595 4294444800
2.9415023 2.2593155 0.3426021 4294444800
2.9530327 2.2683194 0.32490498 4294444800
2.9317954 2.2521527 0.3033092 4294314240
2.9336617 2.2537329 0.28389674 4294314240
2.9544966 2.2698867 0.265854 4294444800
2.9535968 2.2693427 0.24542865 4294444800
2.9399884 2.2590339 0.22377977 4294444800
2.9681687 2.2808356 0.20496298 4294444800
2.9732072 2.2848556 0.18408939 4294575360
2.9660304 2.2794886 0.16227446 4294444800
2.6021008 1.9999274 0.12345995 4292878080
2.023474 1.5553063 0.081201658 4290528000
1.9737709 1.5172017 0.064679809 4290266880
2.3096936 1.7755346 0.058605611 4291703040
2.9365323 2.2575524 0.052711103 4294314240
2.9549842 2.2718854 0.031047301 4294444800
2.9489703 2.2674093 0.0089994026 4294444800
2.9262133 2.2500579 -0.012895783 4294314240
2.9494395 2.268065 -0.034984171 4294444800
2.9494929 2.2682533 -0.056934573 4294444800
2.9591277 2.2758107 -0.079081476 4294444800
2.9538147 2.2718725 -0.10077685 4294444800
2.9715614 2.2856705 -0.12324245 4294444800
2.9787948 2.2913833 -0.14532328 4294575360
2.9759059 2.28931 -0.16678596 4294575360
2.9496701 2.2692745 -0.18655056 4294444800
2.9680424 2.2835574 -0.20887709 4294444800
2.9634438 2.2801676 -0.22945954 4294444800
2.9608409 2.2783129 -0.249897 4294444800
2.957454 2.2758546 -0.26995516 4294444800
2.9824581 2.2952452 -0.29245681 4294575360
2.9929123 2.3034403 -0.31345144 4294575360
2.9971654 2.3068638 -0.33355093 4294705920
2.9589207 2.2775755 -0.34833628 4294444800
2.9799724 2.2939286 -0.36960527 4294575360
2.9893861 2.3013248 -0.38921344 4294705920
2.9929833 2.3042438 -0.407713 4294705920
2.9817305 2.2957296 -0.42369241 4294575360
2.9482114 2.2700696 -0.43577826 4294444800
2.9949167 2.3061819 -0.45930302 4294705920
3.0011528 2.3111341 -0.47639951 4294705920
2.9849315 2.2987916 -0.48934501 4294705920
2.9519761 2.2735593 -0.49874607 4294575360
2.9073479 2.2393332 -0.50523072 4294314240
2.4496126 1.8868932 -0.43702102 4292355840
2.4084344 1.8552949 -0.44032997 4292225280
2.3730536 1.8281587 -0.44386569 4292094720
2.3453565 1.8069388 -0.44807139 4291964160
2.3364227 1.8001729 -0.4552038 4291964160
2.3138413 1.7828902 -0.45904028 4291833600
2.2772048 1.7547747 -0.45935753 4291703040
2.2673061 1.7472603 -0.4643856 4291703040
2.2247164 1.7145507 -0.46202847 4291441920
2.2317328 1.72007 -0.46933481 4291441920
2.1679692 1.6710337 -0.46107814 4291180800
2.1743436 1.6760559 -0.4670642 4291311360
2.181561 1.6817286 -0.47271463 4291311360
2.1888435 1.6874522 -0.47785339 4291311360
2.1954138 1.6926274 -0.48229966 4291311360
2.2067354 1.7014668 -0.48724777 4291441920
2.1947291 1.6923195 -0.48647755 4291311360
2.1945004 1.6922531 -0.48773816 4291311360
2.1943488 1.6922461 -0.48844457 4291311360
2.1903753 1.6892916 -0.48772782 4291311360
2.1833601 1.6839905 -0.48576346 4291311360
2.1608243 1.6667172 -0.47978836 4291180800
2.1609788 1.6669447 -0.47829956 4291180800
2.2202513 1.7127779 -0.48927858 4291441920
2.2205617 1.7131287 -0.48663428 4291441920
2.266495 1.748679 -0.49335119 4291703040
2.2868369 1.764488 -0.49381849 4291703040
2.301307 1.7757684 -0.49237809 4291833600
2.3196566 1.7900437 -0.4911246 4291833600
2.3386993 1.8048561 -0.4893586 4291964160
2.3761599 1.8338847 -0.49072912 4292094720
2.4156747 1.8645028 -0.49173623 4292225280
2.4681034 1.9050928 -0.49451876 4292486400
2.5535541 1.971179 -0.50288641 4292878080
2.6830337 2.0712633 -0.51857954 4293400320
2.9360304 2.2667205 -0.55609626 4294444800
2.9859583 2.3054163 -0.5533281 4294705920
2.9766951 2.2984135 -0.53879404 4294705920
2.9543097 2.2812769 -0.52141106 4294575360
2.9478877 2.2764659 -0.50638366 4294575360
2.9582298 2.284601 -0.49364087 4294575360
2.9703438 2.2941053 -0.48052263 4294575360
2.9727576 2.2961187 -0.46521837 4294575360
2.9371817 2.2687876 -0.44362667 4294444800
2.9484057 2.2776053 -0.42873654 4294444800
2.9655082 2.2909656 -0.41405916 4294575360
2.9708631 2.2952516 -0.3971484 4294575360
2.9665301 2.2920527 -0.37849492 4294575360
2.9323726 2.2658083 -0.35585505 4294444800
2.9448164 2.2755713 -0.3386099 4294444800
2.9457264 2.2764225 -0.31957906 4294444800
2.941236 2.2730999 -0.29963368 4294444800
2.9349661 2.2684016 -0.27924916 4294444800
2.9491541 2.2795153 -0.26044968 4294444800
2.9409344 2.2733097 -0.23934582 4294444800
2.9229727 2.259572 -0.21737014 4294314240
2.8674023 2.2167578 -0.19288069 4294053120
2.9284711 2.2641165 -0.17598313 4294314240
2.9323688 2.267277 -0.15499179 4294314240
2.9048438 2.246141 -0.13234329 4294314240
2.9246814 2.2616272 -0.11176352 4294314240
2.9306226 2.2663684 -0.090341277 4294314240
2.897198 2.2406652 -0.067811079 4294183680
2.6091118 2.017993 -0.041639414 4293008640
1.8973057 1.4675486 -0.016117878 4290005760
2.0228608 1.5647658 -0.0020664157 4290528000
2.684015 2.0763307 0.017321404 4293269760
2.7439294 2.1228178 0.038201045 4293530880
2.9456017 2.2789876 0.062964752 4294444800
2.9480097 2.2809989 0.08492329 4294444800
2.8015587 2.1678243 0.10143713 4293792000
2.7081516 2.0956824 0.11799154 4293400320
2.9401932 2.275394 0.14960855 4294444800
2.9264283 2.2648883 0.17015444 4294314240
2.8026495 2.1692314 0.18312939 4293792000
2.6721816 2.0683844 0.19364868 4293269760
2.9396441 2.2755597 0.23375097 4294444800
2.9263551 2.2654197 0.25306776 4294314240
2.7985027 2.166584 0.2612313 4293792000
2.6758418 2.0717552 0.26788652 4293269760
2.9520473 2.2857542 0.31518924 4294444800
2.92553 2.2653689 0.33149001 4294444800
2.8043754 2.1716945 0.33575252 4293922560
2.7027044 2.0930967 0.34056163 4293400320
2.6260939 2.0338981 0.34704262 4293139200
2.9231412 2.2641068 0.40382934 4294444800
2.8810995 2.2316885 0.41485822 4294183680
2.727685 2.1129913 0.40827009 4293530880
2.7599471 2.1381216 0.42832297 4293661440
2.6473076 2.0509934 0.42498422 4293269760
2.9195709 2.2620754 0.48376125 4294444800
2.9159944 2.2594509 0.49767461 4294444800
2.864454 2.2196591 0.50257486 4294183680
2.7455273 2.127641 0.4942905 4293661440
2.7738433 2.149724 0.51153171 4293792000
2.7200189 2.1081467 0.51294142 4293530880
2.9105721 2.2559812 0.56037813 4294444800
2.8994033 2.2474701 0.56904578 4294314240
2.8860304 2.2372494 0.57653838 4294314240
2.8548541 2.2132251 0.57966131 4294183680
2.8724263 2.2269924 0.59196436 4294314240
2.815438 2.182951 0.58811063 4294053120
2.8253629 2.1907883 0.59741819 4294053120
2.8400357 2.2023084 0.6070953 4294183680
2.8501091 2.2102633 0.61513793 4294183680
2.8602643 2.2182827 0.62252092 4294183680
2.8712842 2.2269735 0.62940162 4294314240
2.870717 2.2266781 0.6330238 4294314240
2.8702466 2.2264576 0.63592619 4294314240
2.8659837 2.223295 0.63724053 4294314240
2.8734932 2.2292652 0.64042723 4294314240
2.8694313 2.2262585 0.64028776 4294314240
2.8693614 2.2263486 0.64028805 4294314240
2.8546093 2.2150459 0.63626581 4294183680
2.8430688 2.2062342 0.63222402 4294183680
2.8246224 2.1920619 0.62592661 4294053120
2.8140519 2.1840003 0.62066728 4294053120
2.8663867 2.2247617 0.62849975 4294314240
2.8552294 2.2162459 0.62162584 4294183680
2.8896174 2.2430835 0.62389749 4294314240
2.8914685 2.2446661 0.61835098 4294314240
2.8874657 2.241704 0.61083812 4294314240
2.9056575 2.2559736 0.60727328 4294444800
2.8918004 2.2453604 0.59629798 4294314240
2.8889239 2.2432723 0.58694369 4294314240
2.8833761 2.2391098 0.57639503 4294314240
2.8915489 2.2456019 0.56791383 4294314240
2.8966608 2.2497177 0.55813009 4294314240
2.9084599 2.2590282 0.54892838 4294444800
2.9143798 2.2637732 0.53791702 4294444800
2.8779104 2.2367973 0.44002488 4294183680
2.9059002 2.2586982 0.42805365 4294314240
2.9289091 2.2767301 0.41458026 4294444800
2.9154024 2.2663779 0.39542243 4294444800
2.9054554 2.2587917 0.37644705 4294314240
2.8964996 2.2519751 0.35729769 4294314240
2.9134843 2.2653272 0.34089991 4294314240
2.9104722 2.2631321 0.32169703 4294314240
2.8877351 2.2455976 0.30012852 4294183680
2.8979273 2.2536695 0.28173357 4294314240
2.9110949 2.2640567 0.26316011 4294314240
2.9062495 2.2604346 0.2426134 4294314240
2.880873 2.2408423 0.22029857 4294183680
2.9151466 2.2676487 0.2022391 4294314240
2.9296794 2.2791011 0.18224198 4294444800
2.9177961 2.270004 0.16038467 4294314240
2.4198644 1.8827422 0.1153553 4292225280
1.9795277 1.5402441 0.079815783 4290397440
1.8963897 1.4756511 0.062442709 4290005760
2.4700701 1.9221779 0.062981278 4292486400
2.8852475 2.2454093 0.052051328 4294183680
2.8983343 2.2557399 0.030616347 4294183680
2.9010932 2.2580335 0.0089196935 4294314240
2.8774195 2.2397525 -0.012712193 4294183680
2.8996625 2.2572126 -0.034523468 4294314240
2.9033253 2.2602105 -0.056271318 4294314240
2.8994706 2.2573559 -0.077812478 4294314240
2.8996875 2.2576711 -0.099352874 4294314240
2.9223986 2.2755013 -0.12172719 4294314240
2.9240775 2.2769561 -0.14327508 4294314240
2.9131341 2.2685814 -0.16398302 4294314240
2.9007673 2.2590973 -0.18426493 4294314240
2.9191546 2.2735646 -0.20634376 4294314240
2.9275703 2.2802668 -0.22768579 4294444800
2.9092212 2.2661216 -0.24663045 4294314240
2.9159172 2.2714846 -0.26734799 4294314240
2.9416969 2.2917154 -0.28974575 4294444800
2.9549839 2.3022158 -0.31086111 4294575360
2.9446268 2.2942951 -0.32916948 4294444800
2.861599 2.229749 -0.33838782 4294183680
2.946785 2.2962742 -0.36712787 4294575360
2.9534597 2.3016248 -0.38626215 4294575360
2.9508557 2.2997444 -0.40378076 4294575360
2.9304812 2.2840135 -0.4182834 4294444800
2.8058341 2.1870055 -0.41660097 4293922560
2.9523036 2.3013203 -0.45480871 4294575360
2.9436586 2.2947299 -0.46938109 4294575360
2.9507341 2.3003948 -0.48592314 4294575360
2.9221849 2.2782855 -0.49594411 4294444800
2.8932285 2.2558558 -0.50505137 4294314240
2.5817697 2.0131412 -0.46268359 4293008640
2.4949763 1.9455898 -0.45821905 4292616960
2.393317 1.8664365 -0.44968578 4292225280
2.3469281 1.8303785 -0.45040649 4291964160
2.2785561 1.7771701 -0.44594601 4291703040
2.2627251 1.7649368 -0.45093989 4291703040
2.253962 1.7582155 -0.4567374 4291572480
2.2491486 1.7545745 -0.46276405 4291572480
2.1927524 1.7106901 -0.45746529 4291311360
2.206743 1.7217166 -0.46619591 4291441920
2.1463852 1.6747334 -0.45857129 4291180800
2.1535103 1.6804017 -0.46470228 4291180800
2.1715748 1.6946074 -0.47270223 4291311360
2.1935825 1.7118924 -0.48107955 4291441920
2.1853623 1.7055876 -0.48229054 4291311360
2.1888661 1.7084328 -0.48551798 4291441920
2.1052034 1.6432395 -0.46877486 4291050240
2.1127465 1.6492343 -0.47172478 4291050240
2.1842988 1.7051992 -0.48844299 4291311360
2.1842239 1.7052512 -0.4885965 4291311360
2.1733584 1.6968783 -0.48576602 4291311360
2.1548064 1.6825025 -0.48065883 4291180800
2.1363273 1.6681819 -0.47502652 4291180800
2.1953259 1.7143627 -0.48602197 4291441920
2.188643 1.7092547 -0.48185897 4291311360
2.2374675 1.7474982 -0.48928934 4291572480
2.2449169 1.7534298 -0.48701522 4291572480
2.2571013 1.7630608 -0.48516321 4291703040
2.2724681 1.7751789 -0.48337159 4291703040
2.341917 1.8295487 -0.49231434 4291964160
2.4047647 1.8787682 -0.49895322 4292355840
2.4989538 1.9524816 -0.51106495 4292747520
2.6031663 2.0340366 -0.52402091 4293139200
2.6863308 2.0991547 -0.53151423 4293530880
2.791796 2.1817088 -0.54213452 4293922560
2.8833072 2.2533679 -0.54867876 4294314240
2.9072008 2.2721887 -0.54127222 4294444800
2.9085379 2.2733808 -0.52894312 4294444800
2.9201314 2.2825902 -0.51781762 4294444800
2.9106052 2.2752912 -0.50235057 4294444800
2.922503 2.28474 -0.48999757 4294444800
2.9262943 2.287852 -0.47565296 4294444800
2.9253845 2.2872887 -0.4599928 4294444800
2.8936501 2.2626228 -0.43914679 4294314240
2.9072044 2.2733684 -0.42477828 4294444800
2.9203031 2.2837591 -0.40971503 4294444800
2.9217007 2.2850001 -0.39246821 4294444800
2.9180319 2.2822788 -0.37411794 4294444800
2.870754 2.2454464 -0.35007954 4294183680
2.8958948 2.2652578 -0.33461979 4294314240
2.8932068 2.2633016 -0.31543127 4294314240
2.8744364 2.2487636 -0.29428378 4294183680
2.8723192 2.2472527 -0.27465647 4294183680
2.8965716 2.2663739 -0.25709689 4294314240
2.8959806 2.2660582 -0.23688807 4294314240
2.8867488 2.2589808 -0.21578239 4294183680
2.767966 2.1661694 -0.18716422 4293792000
2.8890619 2.2610836 -0.17453645 4294183680
2.8814437 2.2552674 -0.15312526 4294183680
2.8615963 2.2398779 -0.13109817 4294183680
2.8774023 2.2523956 -0.11059044 4294183680
2.8872473 2.2602484 -0.089543395 4294183680
2.8500366 2.2312629 -0.067143604 4294053120
2.6427901 2.0691457 -0.042492151 4293139200
1.8815033 1.4731994 -0.016144194 4289875200
1.926897 1.5088398 -0.0020672022 4290136320
2.6389024 2.066503 0.01698496 4293139200
2.7014074 2.1155872 0.037654899 4293400320
2.9024932 2.2732134 0.062191587 4294314240
2.9092 2.2786133 0.084053099 4294314240
2.8254342 2.2131474 0.10263833 4293922560
2.6579444 2.0820885 0.1162109 4293269760
2.896008 2.2687213 0.14790118 4294314240
2.879169 2.2556756 0.16804095 4294183680
2.7669744 2.1679175 0.18150014 4293792000
2.6261113 2.0576847 0.19106291 4293139200
2.8884289 2.2633696 0.23060119 4294314240
2.8646085 2.2448492 0.24873593 4294183680
2.7589545 2.1621933 0.25859883 4293661440
2.6337299 2.0641885 0.26476511 4293139200
2.9086795 2.2798278 0.31185845 4294314240
2.8783779 2.2562234 0.32752177 4294183680
2.7617137 2.164916 0.33204722 4293792000
2.6526933 2.0795891 0.33568561 4293269760
2.5764537 2.0199516 0.34194246 4293008640
2.8791838 2.2574394 0.39947018 4294314240
2.8342352 2.2223411 0.40987587 4294053120
2.6776361 2.0996864 0.40252006 4293400320
2.7136745 2.1280839 0.42297834 4293530880
2.5898614 2.0311203 0.41758159 4293008640
2.8792365 2.2582111 0.4791728 4294314240
2.8464432 2.2326353 0.48794416 4294183680
2.7540987 2.1603439 0.48534769 4293792000
2.6994069 2.1175799 0.48814061 4293530880
2.6411271 2.0719957 0.48922133 4293269760
2.662375 2.0888002 0.50430781 4293400320
2.8629615 2.2463183 0.55367374 4294314240
2.862623 2.2461977 0.56434309 4294314240
2.8354533 2.2250228 0.56897748 4294183680
2.8528874 2.2388482 0.58186865 4294183680
2.8180578 2.2116582 0.58337945 4294053120
2.7691073 2.1733818 0.58104789 4293922560
2.7720141 2.1758039 0.58879381 4293922560
2.7897334 2.1898537 0.599051 4294053120
2.7920158 2.1917872 0.60534281 4294053120
2.8098865 2.2059588 0.61434656 4294053120
2.8131127 2.2086344 0.6194697 4294053120
2.8164296 2.2113817 0.62389892 4294053120
2.8268125 2.2196774 0.62917954 4294183680
2.819473 2.2140574 0.62978476 4294183680
2.8153312 2.210948 0.63035917 4294053120
2.8190341 2.2139993 0.63195068 4294183680
2.8150911 2.2110455 0.63108909 4294053120
2.7965324 2.1966109 0.62621647 4294053120
2.7927866 2.1938107 0.62393421 4294053120
2.7782936 2.1825671 0.61853361 4293922560
2.7638929 2.1713946 0.61245608 4293922560
2.8121049 2.2094145 0.61948931 4294053120
2.8009901 2.200824 0.61268419 4294053120
2.8321087 2.2254188 0.61436301 4294183680
2.8447928 2.2355304 0.61124426 4294183680
2.8514352 2.2408948 0.60607427 4294314240
2.8511364 2.2408051 0.59871 4294314240
2.8559401 2.2447255 0.59170979 4294314240
2.8569486 2.2456634 0.58322144 4294314240
2.8471642 2.2381172 0.57188463 4294183680
2.8378036 2.2309034 0.56003839 4294183680
2.8564799 2.2457306 0.5530436 4294314240
2.8661838 2.2535055 0.54356843 4294314240
2.8671665 2.2544239 0.53177398 4294314240
2.8238745 2.220485 0.43367273 4294053120
2.8517199 2.2425256 0.42192912 4294183680
2.8691483 2.2563765 0.40791425 4294183680
2.8759885 2.2619023 0.3917968 4294314240
2.8473058 2.2394886 0.37053752 4294183680
2.8461907 2.2387562 0.35263562 4294183680
2.8588347 2.2488472 0.33597377 4294183680
2.8639822 2.253042 0.31794512 4294183680
2.837414 2.2322857 0.29618728 4294053120
2.840019 2.2344797 0.27730706 4294053120
2.8606408 2.25085 0.25972241 4294183680
2.8667812 2.2558272 0.24035414 4294183680
2.8344471 2.2305284 0.21768193 4294053120
2.8646357 2.2544303 0.19958591 4294183680
2.875169 2.2628663 0.17961155 4294183680
2.8751032 2.2629607 0.1587037 4294183680
2.3288829 1.8331555 0.11148021 4291833600
1.8764955 1.477159 0.075971022 4289875200
1.8958838 1.4925178 0.062675104 4290005760
2.4861264 1.9573076 0.063633315 4292486400
2.8348157 2.2319722 0.051322151 4294053120
2.854913 2.247941 0.030242641 4294053120
2.8505878 2.2446804 0.0087523358 4294053120
2.8270185 2.2262647 -0.01259762 4294053120
2.8570204 2.2500365 -0.034222052 4294183680
2.8567414 2.2499623 -0.055671517 4294183680
2.8489799 2.2439945 -0.07685595 4294053120
2.8406425 2.237572 -0.097822621 4294053120
2.8718183 2.2622755 -0.12021462 4294183680
2.8805618 2.2693098 -0.14183462 4294183680
2.8557706 2.2499244 -0.16153382 4294183680
2.8542311 2.248857 -0.1821814 4294183680
2.8686256 2.2603445 -0.2037417 4294183680
2.8786528 2.2683921 -0.22494623 4294183680
2.8480115 2.2443917 -0.24258468 4294053120
2.8610504 2.2548127 -0.26355484 4294183680
2.8978341 2.2839496 -0.28676724 4294314240
2.9067042 2.2910891 -0.30721536 4294444800
2.8835163 2.2729588 -0.32384494 4294314240
2.7631838 2.1782465 -0.32827374 4293792000
2.8919315 2.279887 -0.36197022 4294314240
2.9021685 2.288105 -0.38131639 4294444800
2.8777051 2.2689645 -0.39559594 4294314240
2.8543017 2.2506571 -0.4092944 4294183680
2.7825172 2.1941957 -0.4150466 4293922560
2.827467 2.2297857 -0.43758526 4294053120
2.7854321 2.1967783 -0.4461953 4293922560
2.729243 2.1526029 -0.45151365 4293661440
2.7088487 2.1366556 -0.4618468 4293661440
2.7366648 2.1587355 -0.47990987 4293661440
2.5528345 2.0138566 -0.45959109 4292878080
2.4769278 1.9541022 -0.45698249 4292616960
2.3374476 1.8441825 -0.44119191 4291964160
2.2773135 1.7968544 -0.43903747 4291703040
2.2576191 1.7814301 -0.44385824 4291703040
2.1888351 1.727266 -0.43819582 4291441920
2.1847889 1.7241845 -0.44472852 4291311360
2.1800208 1.7205327 -0.45057255 4291311360
2.1861529 1.7254839 -0.45815131 4291441920
2.1306305 1.6817698 -0.45214918 4291180800
2.1407621 1.6898761 -0.45943233 4291180800
2.1478543 1.6955841 -0.46556857 4291180800
2.1511397 1.6982875 -0.47035897 4291311360
2.165319 1.709592 -0.47701228 4291311360
2.1687369 1.7124014 -0.48076609 4291311360
2.1000488 1.6582732 -0.46790093 4291050240
2.0997562 1.6581494 -0.46964985 4291050240
2.0918074 1.651979 -0.46913159 4291050240
2.167681 1.7120098 -0.48688382 4291311360
2.1598785 1.7059577 -0.48529637 4291311360
2.1560163 1.7030172 -0.4840259 4291311360
2.1491387 1.6976943 -0.48151529 4291311360
2.1376979 1.6887658 -0.47742963 4291180800
2.1232369 1.6774499 -0.4721328 4291180800
2.182054 1.7240294 -0.48251969 4291441920
2.1793375 1.7219943 -0.47866711 4291311360
2.1828771 1.7249025 -0.47562757 4291441920
2.1833916 1.7254206 -0.471367 4291441920
2.1955783 1.7351631 -0.46904877 4291441920
2.2777874 1.8002491 -0.48091096 4291833600
2.3234258 1.8364379 -0.48416245 4291964160
2.4396346 1.9284141 -0.5010857 4292486400
2.518019 1.9905016 -0.50906014 4292878080
2.5228825 1.9944751 -0.50131369 4292878080
2.543673 2.0110412 -0.49606106 4292878080
2.5997272 2.0554903 -0.49681929 4293139200
2.7073874 2.1407509 -0.50620592 4293661440
2.7901495 2.2063339 -0.50955367 4293922560
2.8334248 2.2406991 -0.50455213 4294183680
2.8417807 2.247452 -0.49252144 4294183680
2.8579273 2.2603676 -0.48116237 4294314240
2.8593323 2.2616251 -0.46668959 4294314240
2.8607559 2.262897 -0.45167825 4294314240
2.8368533 2.2441344 -0.43228382 4294183680
2.8557689 2.259244 -0.41895306 4294183680
2.8683939 2.2693782 -0.40404922 4294314240
2.8775644 2.2767806 -0.38807887 4294314240
2.8567529 2.2604601 -0.36770573 4294183680
2.8276026 2.2375391 -0.3461622 4294053120
2.8440175 2.2506735 -0.32989115 4294183680
2.8483548 2.2542515 -0.31172052 4294183680
2.8320079 2.2414589 -0.29102311 4294053120
2.8252749 2.2362745 -0.2711482 4294053120
2.8461981 2.2529809 -0.2535311 4294183680
2.8495076 2.2557464 -0.23389962 4294183680
2.8285642 2.2393115 -0.21214652 4294053120
2.7181222 2.1520159 -0.18438862 4293530880
2.8292627 2.2401538 -0.17144765 4294053120
2.8389082 2.247936 -0.15129429 4294053120
2.8113065 2.2262237 -0.12912376 4293922560
2.82867 2.2401183 -0.10895228 4294053120
2.8438818 2.2523103 -0.088337012 4294053120
2.8036959 2.2206271 -0.066092081 4293922560
2.5895262 2.0511293 -0.04158381 4293008640
1.9162831 1.5179604 -0.016338296 4290136320
1.8689659 1.4805743 -0.0018391348 4289875200
2.4046481 1.9050587 0.015773032 4292225280
2.6596355 2.1072061 0.037490569 4293269760
2.8598301 2.2659647 0.061823923 4294183680
2.8508379 2.2589855 0.08300785 4294183680
2.779201 2.2023633 0.10167681 4293792000
2.6124604 2.070364 0.1149839 4293139200
2.8458927 2.2555037 0.14626509 4294053120
2.8288012 2.2421026 0.16611111 4294053120
2.7022445 2.1419322 0.17830572 4293530880
2.5698466 2.0371184 0.18805087 4292878080
2.8462069 2.256335 0.22851707 4294183680
2.8436596 2.2544611 0.2482899 4294183680
2.7013638 2.1417868 0.25458661 4293530880
2.5728083 2.0399928 0.26003674 4293008640
2.8531461 2.2624199 0.30753517 4294183680
2.849571 2.2597311 0.32595348 4294183680
2.7632334 2.191406 0.33396408 4293792000
2.5886567 2.0530889 0.32927638 4293008640
2.5813684 2.0474405 0.3443518 4293008640
2.8472264 2.2584546 0.3970466 4294183680
2.8140843 2.2323098 0.40901774 4294053120
2.7010105 2.1427507 0.40807128 4293530880
2.6533873 2.1051064 0.41564345 4293400320
2.6029234 2.0652034 0.42176753 4293139200
2.8598089 2.2691672 0.47828472 4294314240
2.8357606 2.2502306 0.48849502 4294183680
2.8125019 2.2319186 0.49805593 4294053120
2.7148113 2.1545331 0.49330714 4293661440
2.6674089 2.1170502 0.49647406 4293530880
2.6846695 2.1308868 0.51097333 4293530880
2.8435476 2.2571378 0.55254823 4294183680
2.8446319 2.2581444 0.56346518 4294314240
2.8230724 2.2411742 0.56917697 4294183680
2.8188961 2.238003 0.57764781 4294183680
2.8166244 2.2363439 0.58582121 4294183680
2.771225 2.2004397 0.58421159 4293922560
2.7810659 2.208396 0.59346718 4294053120
2.7325275 2.1699924 0.58948773 4293792000
2.7502522 2.1842093 0.59904116 4293922560
2.7533886 2.1868412 0.60476184 4293922560
2.7674129 2.1981215 0.61219633 4293922560
2.7630084 2.1947646 0.61485535 4293922560
2.7702675 2.2006729 0.61939293 4293922560
2.7660518 2.1974657 0.62064463 4293922560
2.7696443 2.2004616 0.62292033 4293922560
2.7548282 2.1888316 0.62032413 4293922560
2.7578444 2.1913693 0.62101275 4293922560
2.7470791 2.182956 0.61787337 4293922560
2.7433493 2.1801329 0.61559743 4293922560
2.7289186 2.1688046 0.61021274 4293792000
2.7768149 2.2070124 0.61801195 4294053120
2.8145437 2.2371438 0.62272596 4294183680
2.800396 2.226042 0.6152072 4294053120
2.8228433 2.24403 0.61499101 4294183680
2.8194544 2.2414806 0.60839522 4294183680
2.82987 2.2499061 0.6040526 4294183680
2.8280241 2.2485836 0.59637111 4294183680
2.8350656 2.2543275 0.58985656 4294183680
2.8291121 2.2497387 0.57995337 4294183680
2.8235919 2.2454939 0.56950504 4294183680
2.8131926 2.2373681 0.5574705 4294183680
2.8297632 2.2506919 0.55011302 4294183680
2.8430154 2.261378 0.5413636 4294183680
2.8347607 2.2549577 0.52788049 4294183680
2.7999899 2.2290549 0.43205345 4294053120
2.8199584 2.2450964 0.41921955 4294053120
2.8348203 2.2570741 0.40495783 4294183680
2.8321221 2.2550714 0.387665 4294183680
2.8015075 2.2308383 0.36632246 4294053120
2.7941639 2.2251339 0.34784913 4293922560
2.8175027 2.2438645 0.33270639 4294053120
2.8107531 2.2386334 0.31353724 4294053120
2.7911303 2.2231481 0.29276094 4293922560
2.7988713 2.2294574 0.27461067 4293922560
2.8101647 2.2385976 0.25637701 4294053120
2.8105958 2.2390854 0.23679045 4294053120
2.7905359 2.2232478 0.21535717 4293922560
2.8151262 2.2429838 0.19710018 4294053120
2.825356 2.2512796 0.17737244 4294053120
2.8314567 2.2562861 0.15707344 4294053120
2.2318633 1.7786064 0.10737403 4291441920
1.8488278 1.4734545 0.075233124 4289875200
1.880643 1.4989067 0.062495135 4290005760
2.4930863 1.9871633 0.064154245 4292616960
2.7877345 2.2221615 0.050755881 4293922560
2.8116438 2.2413647 0.029974481 4293922560
2.8151574 2.2443104 0.0087352963 4294053120
2.7838812 2.2195191 -0.012412376 4293922560
2.7958276 2.2291873 -0.033594225 4293922560
2.8095577 2.2402792 -0.054956213 4293922560
2.801837 2.2342668 -0.075885907 4293922560
2.7935441 2.2277973 -0.096599028 4293922560
2.8245778 2.2526915 -0.11873806 4294053120
2.8332872 2.259783 -0.14010735 4294053120
2.8224587 2.2512915 -0.16034476 4294053120
2.7953877 2.2298422 -0.17920944 4293922560
2.8253384 2.2538788 -0.20155519 4294053120
2.8197229 2.2495441 -0.221322 4294053120
2.7948239 2.2298236 -0.23911907 4293922560
2.8171303 2.2477655 -0.26067463 4294053120
2.8467171 2.2715189 -0.28297874 4294183680
2.8449733 2.2702737 -0.30205086 4294183680
2.815654 2.2470219 -0.31765774 4294053120
2.7391586 2.186116 -0.32689947 4293792000
2.8413243 2.2678001 -0.35725725 4294183680
2.8421338 2.2685924 -0.37513468 4294183680
2.8495691 2.2746739 -0.39352173 4294183680
2.8123667 2.2451217 -0.40513128 4294053120
2.720392 2.171838 -0.40764505 4293661440
2.6387033 2.1067572 -0.41025224 4293269760
2.5267885 2.0175335 -0.40663052 4292878080
2.4478991 1.9546697 -0.4068405 4292486400
2.4393148 1.9479406 -0.41781723 4292486400
2.4939818 1.9917237 -0.43937948 4292747520
2.3147211 1.848683 -0.41865781 4291964160
2.3016934 1.8383968 -0.42662704 4291964160
2.2039218 1.7604187 -0.41792619 4291441920
2.2178149 1.7716299 -0.42956099 4291572480
2.2217638 1.774899 -0.43884933 4291572480
2.216898 1.7711258 -0.4458901 4291572480
2.2227638 1.7759266 -0.4545784 4291572480
2.2042358 1.7612365 -0.45771509 4291572480
2.1837528 1.7449826 -0.45979905 4291441920
2.1533952 1.7208354 -0.45913106 4291311360
2.1557634 1.7228389 -0.46483284 4291311360
2.1075993 1.6844556 -0.45899999 4291050240
2.1185751 1.693337 -0.46542937 4291180800
2.1288426 1.7016531 -0.47119829 4291180800
2.1360962 1.7075614 -0.47577727 4291180800
2.1464965 1.7159855 -0.48052293 4291311360
2.1423497 1.7127808 -0.48145834 4291311360
2.1390474 1.710251 -0.48201448 4291311360
2.1312058 1.704091 -0.48097867 4291180800
2.12344 1.6979909 -0.47939342 4291180800
2.112673 1.6894898 -0.47657049 4291180800
2.098134 1.6779712 -0.47234711 4291050240
2.1495869 1.7192311 -0.48239711 4291311360
2.1901073 1.7517521 -0.48935294 4291441920
2.2030838 1.7622447 -0.48952645 4291572480
2.2025743 1.7619506 -0.48611602 4291572480
2.2137995 1.7710443 -0.48470911 4291572480
2.2143202 1.7715749 -0.48037249 4291572480
2.2256882 1.7807847 -0.47780296 4291572480
2.2310824 1.7852156 -0.47335616 4291572480
2.1903045 1.7526997 -0.45866269 4291441920
2.2904992 1.8329943 -0.47277004 4291833600
2.292351 1.8345944 -0.46572548 4291833600
2.3516428 1.8821676 -0.46960127 4292094720
2.3899465 1.9129475 -0.46839714 4292355840
2.4214468 1.9382858 -0.46505588 4292486400
2.490932 1.9940346 -0.46806464 4292747520
2.6029608 2.0838499 -0.47775513 4293269760
2.7526259 2.203809 -0.49263513 4293922560
2.8057711 2.2465026 -0.48874217 4294053120
2.8252585 2.2622514 -0.47808093 4294183680
2.8282046 2.2647562 -0.46396747 4294183680
2.8296578 2.2660658 -0.4490625 4294183680
2.789598 2.2341287 -0.4272778 4294053120
2.7979443 2.2409575 -0.41260183 4294053120
2.8186066 2.2576518 -0.39911127 4294053120
2.8238347 2.2619851 -0.38283697 4294183680
2.8023353 2.2449079 -0.36261407 4294053120
2.7775948 2.2252319 -0.34185821 4293922560
2.7939706 2.2384953 -0.32583466 4293922560
2.8028784 2.2457767 -0.30841565 4294053120
2.7881303 2.2341037 -0.28809375 4293922560
2.7712345 2.2207084 -0.26744705 4293922560
2.7994606 2.2434714 -0.25078094 4293922560
2.8043101 2.2475026 -0.23151624 4294053120
2.7881815 2.2347202 -0.21034695 4293922560
2.7119124 2.1737306 -0.18507431 4293661440
2.7929108 2.2387989 -0.1702923 4293922560
2.7883399 2.2352786 -0.14955167 4293922560
2.7764816 2.2259159 -0.12837847 4293922560
2.7779989 2.2272756 -0.10776023 4293922560
2.798589 2.2439282 -0.087598853 4293922560
2.7927251 2.2393708 -0.066403717 4293922560
2.6393442 2.1165171 -0.042830415 4293269760
1.8579819 1.4900306 -0.01609027 4289875200
1.8530166 1.4861443 -0.0020063862 4289875200
2.2858779 1.8334229 0.014849274 4291703040
2.6628137 2.1358874 0.037461352 4293400320
2.8082438 2.2526844 0.06073048 4294053120
2.8171165 2.2599473 0.082147948 4294053120
2.779063 2.2295635 0.10189077 4293922560
2.6078398 2.0923307 0.1150785 4293139200
2.8138866 2.257792 0.14504108 4294053120
2.8124971 2.2568223 0.16567342 4294053120
2.7594976 2.2144365 0.18269005 4293792000
2.5627446 2.056679 0.18818367 4293008640
2.8182123 2.2618451 0.22708432 4294053120
2.8109522 2.2561634 0.24634321 4294053120
2.7670729 2.2210872 0.2617681 4293922560
2.570349 2.0633128 0.26079303 4293008640
2.8360217 2.2767243 0.30689216 4294183680
2.8339663 2.2752209 0.32546324 4294183680
2.7887347 2.2390511 0.33841026 4293922560
2.629118 2.1110322 0.33579266 4293269760
2.5287137 2.030544 0.33872405 4292878080
2.8256459 2.269125 0.39568415 4294183680
2.799268 2.2480869 0.40858001 4294053120
2.7134261 2.1792877 0.41169012 4293661440
2.6144025 2.0998919 0.41129127 4293269760
2.5610995 2.0572114 0.41678128 4293008640
2.8074296 2.2552218 0.47156426 4294053120
2.7994268 2.2489378 0.4843443 4294053120
2.750417 2.2097077 0.48920372 4293922560
2.7270746 2.1910954 0.49772748 4293792000
2.6888828 2.1605487 0.50269693 4293661440
2.6379156 2.1197321 0.50431961 4293400320
2.4820437 1.9946077 0.48446971 4292747520
2.4809413 1.9938501 0.49364486 4292747520
2.5117781 2.0187626 0.50871336 4292878080
2.5184143 2.0242262 0.5184263 4292878080
2.5526133 2.0518463 0.53334236 4293008640
2.5932913 2.0846784 0.54921645 4293269760
2.6458278 2.127048 0.56721759 4293530880
2.6818578 2.1561522 0.58124262 4293661440
2.6446707 2.1263914 0.57872993 4293530880
2.6547267 2.134614 0.58582187 4293530880
2.683291 2.1577206 0.59637856 4293661440
2.6942732 2.1666913 0.60239118 4293661440
2.6754065 2.1516576 0.60102046 4293661440
2.6896389 2.1632428 0.60637367 4293661440
2.6893806 2.1631742 0.60776162 4293661440
2.6669633 2.1452811 0.60342401 4293530880
2.641573 2.1249938 0.59770066 4293530880
2.6672115 2.1457567 0.6028167 4293530880
2.593662 2.0867207 0.58484101 4293269760
2.5359035 2.0403826 0.56982511 4293008640
2.4877193 2.0017426 0.55638975 4292747520
2.4318309 1.9568977 0.54070437 4292486400
2.4134643 1.942243 0.53283215 4292486400
2.3777938 1.9136603 0.52061188 4292355840
2.3395951 1.8830389 0.5073759 4292094720
2.3282783 1.874051 0.49948508 4292094720
2.3261049 1.8724221 0.49300727 4292094720
2.3381376 1.8822289 0.48893991 4292094720
2.3826318 1.9181707 0.49092373 4292355840
2.4345367 1.9600835 0.49355844 4292486400
2.4813461 1.9978988 0.49425304 4292747520
2.6209922 2.1104732 0.51217782 4293400320
2.701236 2.1752269 0.51705861 4293661440
2.7653844 2.2270269 0.5176748 4293922560
2.7654531 2.2275929 0.42868865 4293922560
2.7901177 2.2476051 0.41669211 4294053120
2.8090222 2.262979 0.40311825 4294053120
2.8073697 2.2617934 0.38604346 4294053120
2.774997 2.2358556 0.36452308 4293922560
2.7806914 2.2405877 0.34776124 4293922560
2.7979627 2.2546494 0.33191469 4294053120
2.7852023 2.2445111 0.31211099 4293922560
2.7717621 2.2338235 0.29206038 4293922560
2.7816615 2.241946 0.27416998 4293922560
2.7869992 2.2463925 0.25542435 4293922560
2.7903256 2.2492182 0.23615398 4293922560
2.7679706 2.2313418 0.21458705 4293922560
2.7881658 2.2477663 0.19609782 4293922560
2.8052151 2.2616565 0.17690399 4294053120
2.79406 2.2528076 0.15569644 4293922560
2.1656168 1.7462158 0.10465318 4291311360
1.8668004 1.5053661 0.076301761 4290005760
1.8424456 1.4858222 0.061494544 4289875200
2.6007192 2.0974593 0.067212299 4293139200
2.7738223 2.2372096 0.05071272 4293922560
2.7783539 2.2410085 0.029732248 4293922560
2.7780168 2.2408807 0.0086347573 4293922560
2.7507586 2.2190354 -0.012347151 4293792000
2.7664754 2.2318578 -0.03342196 4293792000
2.780272 2.2431324 -0.0546625 4293922560
2.783407 2.245806 -0.075763807 4293922560
2.7681623 2.2336493 -0.09619303 4293922560
2.7827737 2.2455838 -0.1175516 4293922560
2.7980089 2.258023 -0.13903342 4294053120
2.7950318 2.2557657 -0.15955232 4293922560
2.7604835 2.2280259 -0.17782176 4293792000
2.7859476 2.248723 -0.19969666 4293922560
2.7772596 2.2418544 -0.21902996 4293922560
2.7508125 2.2206488 -0.23647495 4293792000
2.7851121 2.2484822 -0.25893754 4293922560
2.8018777 2.2621629 -0.27984387 4294053120
2.8031824 2.2633617 -0.29902491 4294053120
2.8035345 2.2637916 -0.31778803 4294053120
2.7255635 2.200973 -0.32681534 4293661440
2.800096 2.2613058 -0.35373667 4294053120
2.8137054 2.2724423 -0.37313518 4294183680
2.8221877 2.2794394 -0.39157814 4294183680
2.7936909 2.2565682 -0.40433696 4294053120
2.6638482 2.1518273 -0.4010511 4293530880
2.5651867 2.072263 -0.40069816 4293008640
2.477746 2.0017536 -0.40061235 4292747520
2.4084671 1.9459087 -0.40216693 4292355840
2.387239 1.9288814 -0.41081655 4292355840
2.3977549 1.9375027 -0.4244079 4292355840
2.2224429 1.7959576 -0.40385172 4291572480
2.1512499 1.7385381 -0.40060946 4291311360
2.2389424 1.8095232 -0.42655435 4291703040
2.2357123 1.8070289 -0.43505305 4291703040
2.2346447 1.806282 -0.44345689 4291703040
2.2420046 1.8123477 -0.45304641 4291703040
2.2376602 1.8089519 -0.45976123 4291703040
2.2329049 1.8052237 -0.46583146 4291703040
2.2201476 1.7950253 -0.46964151 4291572480
2.2051663 1.7830273 -0.47235984 4291572480
2.2024708 1.7809621 -0.47711506 4291572480
2.1822808 1.7647494 -0.47747549 4291441920
2.1377158 1.7288221 -0.4718177 4291311360
2.0899322 1.690287 -0.46473488 4291050240
2.0963924 1.6956207 -0.46910143 4291050240
2.1036859 1.7016293 -0.47312364 4291180800
2.1033912 1.7015003 -0.47489393 4291180800
2.1031697 1.7014303 -0.4761245 4291180800
2.0953655 1.6952258 -0.4750782 4291050240
2.0952921 1.6952753 -0.47522554 4291050240
2.1394656 1.7311268 -0.48484343 4291311360
2.1834719 1.7668476 -0.49382734 4291441920
2.1962366 1.7772907 -0.49513811 4291572480
2.2014921 1.7816582 -0.49416211 4291572480
2.2311995 1.8058163 -0.49805468 4291703040
2.2282164 1.8035178 -0.49403542 4291703040
2.2355661 1.8095829 -0.49172187 4291703040
2.2287307 1.8041657 -0.48571563 4291703040
2.2446518 1.8171707 -0.48408076 4291703040
2.2292976 1.8048567 -0.47514072 4291703040
2.2184539 1.7961928 -0.46667922 4291572480
2.1482131 1.7394335 -0.44542393 4291311360
2.2042718 1.7849394 -0.44987047 4291572480
2.2816885 1.8477474 -0.45770389 4291833600
2.3274724 1.8849452 -0.45822394 4292094720
2.3686774 1.9184389 -0.45698273 4292225280
2.4651523 1.996704 -0.46531573 4292616960
2.5274494 2.0472944 -0.46598977 4293008640
2.7041662 2.1905799 -0.48614258 4293661440
2.7739198 2.2472301 -0.48536584 4294053120
2.7827425 2.2545226 -0.47299799 4294053120
2.8019564 2.2702351 -0.46171725 4294183680
2.795845 2.2654288 -0.44567525 4294053120
2.7647123 2.2403464 -0.425349 4293922560
2.7679515 2.2431152 -0.40998772 4293922560
2.7889225 2.2602551 -0.39665174 4294053120
2.7941177 2.2646108 -0.38047406 4294053120
2.7862682 2.258394 -0.36211365 4294053120
