# .PCD v0.7 - Point Cloud Data file format
VERSION 0.7
FIELDS x y z rgba
SIZE 4 4 4 4
TYPE F F F U
COUNT 1 1 1 1
WIDTH 1130
HEIGHT 1
VIEWPOINT 0 0 0 1 0 0 0
POINTS 1130
DATA ascii
3.0460072 2.2434778 0.63651592 4294836480
3.0455966 2.2433312 0.6295414 4294705920
3.0435374 2.2419722 0.62149876 4294705920
3.0435271 2.2421219 0.61315399 4294705920
3.0347002 2.2357819 0.60235286 4294705920
3.0295384 2.2321405 0.59161997 4294705920
3.0426128 2.2419262 0.58372033 4294705920
3.0531788 2.2498667 0.57458299 4294836480
3.0550194 2.251384 0.56310177 4294836480
3.0402675 2.2406833 0.54797977 4294705920
3.0103817 2.2197273 0.44901982 4294575360
3.0357137 2.2385583 0.4361214 4294705920
3.0495763 2.2489414 0.4208748 4294705920
3.0179193 2.2257805 0.39901105 4294575360
3.0073669 2.2181709 0.37972072 4294444800
3.0305824 2.23545 0.36416557 4294575360
3.023495 2.2303948 0.34448659 4294575360
3.0040457 2.2162271 0.3231914 4294444800
2.9855824 2.2027838 0.30188465 4294444800
3.0158026 2.2252331 0.28505063 4294575360
3.0096726 2.2208836 0.26433194 4294444800
2.9961553 2.211086 0.24280907 4294444800
2.9858499 2.203656 0.22143771 4294314240
3.0067065 2.2192078 0.20203622 4294444800
2.9878795 2.2054925 0.17975867 4294314240
2.8702848 2.1189215 0.15237398 4293922560
2.8394918 2.0963695 0.13042217 4293792000
2.8552485 2.108156 0.1105373 4293792000
2.8789604 2.125814 0.090545833 4293922560
2.7847655 2.0564761 0.067339182 4293530880
2.8867443 2.131887 0.048602782 4293922560
2.9000885 2.1419001 0.027533131 4294053120
2.8143537 2.0787914 0.0060862778 4293661440
2.7675824 2.0444314 -0.014339685 4293400320
2.8925631 2.1368437 -0.036334909 4293922560
2.8850245 2.1314442 -0.057407822 4293922560
2.7972548 2.0668128 -0.076078057 4293530880
2.9121604 2.1518095 -0.10051004 4294053120
2.9192142 2.1571841 -0.12193641 4294053120
2.9301395 2.1654186 -0.1435291 4294183680
2.8791769 2.1279507 -0.16161576 4293922560
2.8978906 2.1419356 -0.18325323 4294053120
2.9180157 2.156965 -0.20506021 4294053120
2.9180763 2.1571758 -0.22536834 4294053120
2.863961 2.1173656 -0.24084795 4293922560
2.9223843 2.1606891 -0.26562357 4294183680
2.9319375 2.1679125 -0.28610274 4294183680
2.9334714 2.1692114 -0.30555931 4294183680
2.9269922 2.1645887 -0.32381323 4294183680
2.7258108 2.0160809 -0.31874844 4293269760
2.9326489 2.1690974 -0.36129907 4294183680
2.9399586 2.174664 -0.38009316 4294183680
2.9281178 2.1660752 -0.39595732 4294183680
2.8950024 2.1417582 -0.40823439 4294053120
2.7377803 2.0256884 -0.40141493 4293400320
2.9615014 2.1912427 -0.45055678 4294314240
2.9463086 2.180172 -0.46386883 4294314240
2.9345882 2.1716666 -0.47707048 4294314240
2.8931031 2.1411488 -0.48461828 4294053120
2.8153183 2.0837803 -0.48494703 4293792000
2.4522772 1.8154269 -0.43341666 4292225280
2.4239507 1.7946072 -0.43897492 4292094720
2.4152117 1.7882727 -0.4474341 4292094720
2.3959777 1.7741731 -0.45332128 4291964160
2.3833842 1.7649834 -0.45982853 4291964160
2.3463993 1.7377454 -0.46091235 4291833600
2.3260782 1.7228327 -0.46455431 4291703040
2.2867382 1.693844 -0.46366528 4291572480
2.2519915 1.6682495 -0.46295783 4291441920
2.2702031 1.681844 -0.47258475 4291572480
2.2263665 1.6495162 -0.46865445 4291311360
2.2518337 1.6684805 -0.47876355 4291441920
2.2630997 1.6769344 -0.48536301 4291441920
2.2165658 1.6426009 -0.47891295 4291311360
2.2200637 1.6453018 -0.48267639 4291311360
2.2268012 1.6504011 -0.48659587 4291311360
2.2344048 1.6561419 -0.49015141 4291441920
2.2302155 1.6531501 -0.49054459 4291311360
2.2110717 1.639083 -0.48705766 4291311360
2.2030861 1.6332771 -0.48545972 4291311360
2.2719936 1.6844186 -0.50027293 4291572480
2.2340996 1.6564609 -0.49092484 4291441920
2.2152722 1.642622 -0.48523459 4291311360
2.2704072 1.6835697 -0.49518523 4291572480
2.2398617 1.6610485 -0.48580363 4291441920
2.285934 1.6952869 -0.4924902 4291572480
2.3128419 1.7153299 -0.49434996 4291703040
2.336617 1.7330534 -0.49487108 4291833600
2.3691044 1.7572345 -0.49654996 4291964160
2.3891644 1.7722083 -0.49492073 4291964160
2.4008079 1.780946 -0.49089012 4292094720
2.4051769 1.7842926 -0.48475689 4292094720
2.4322631 1.8044769 -0.48255882 4292225280
2.4606624 1.8256358 -0.47988561 4292355840
2.5223861 1.8714993 -0.48286185 4292616960
2.7258162 2.0224168 -0.51149315 4293400320
2.9201233 2.1665878 -0.53626204 4294183680
2.9556773 2.1930754 -0.53025246 4294444800
2.9428148 2.1836669 -0.51483727 4294314240
2.9208431 2.1675022 -0.49740049 4294183680
2.9143314 2.1627991 -0.48217648 4294183680
2.9320583 2.1760695 -0.470375 4294314240
2.9328005 2.1767447 -0.45521924 4294314240
2.9232767 2.1698053 -0.43800274 4294183680
2.9062791 2.1573215 -0.41931936 4294183680
2.9230013 2.1698468 -0.40505153 4294183680
2.9314561 2.1762407 -0.38903958 4294183680
2.9300051 2.1752863 -0.37123674 4294183680
2.8943877 2.1489842 -0.34890479 4294053120
2.9076385 2.1589346 -0.33224291 4294053120
2.9026158 2.1553273 -0.31306767 4294053120
2.9144793 2.1642489 -0.29533595 4294183680
2.8717191 2.1326385 -0.27192235 4293922560
2.9027762 2.1558022 -0.25532019 4294053120
2.9187899 2.167804 -0.23679097 4294183680
2.9059463 2.1583903 -0.21562739 4294053120
2.8420348 2.111073 -0.19094783 4293792000
2.8923779 2.1485541 -0.17390031 4294053120
2.8851528 2.1433074 -0.15286602 4293922560
2.7833679 2.0678668 -0.1273836 4293530880
2.8975217 2.1527216 -0.11169198 4294053120
2.9176059 2.167748 -0.091224812 4294053120
2.9179416 2.1681142 -0.069882959 4294053120
2.8214588 2.0965948 -0.046793707 4293661440
2.7869997 2.0711212 -0.025686748 4293530880
2.7951212 2.0772634 -0.0051687732 4293530880
2.8692043 2.1323891 0.015791567 4293922560
2.8294058 2.102948 0.036434337 4293792000
2.9266191 2.1752591 0.059127919 4294183680
2.9495182 2.192384 0.081184834 4294183680
2.8992243 2.1551461 0.1009868 4294053120
2.8309069 2.1045165 0.11919989 4293792000
2.9601986 2.2006729 0.14589971 4294314240
2.9502323 2.1933882 0.16653053 4294314240
2.8811722 2.1422014 0.18312263 4293922560
2.8125777 2.0913551 0.19857186 4293661440
3.0111282 2.2389917 0.23336498 4294575360
3.0148237 2.2418597 0.25433818 4294575360
2.9264317 2.1763003 0.26675394 4294183680
2.7778511 2.0660067 0.27184457 4293530880
3.0418186 2.262291 0.31743234 4294705920
3.0500572 2.268539 0.33794555 4294705920
3.0549517 2.2723026 0.3577998 4294705920
2.995918 2.2285502 0.36948004 4294444800
2.8367877 2.110389 0.36714897 4293792000
3.0589941 2.2756886 0.41381598 4294705920
3.0338695 2.257139 0.42790797 4294705920
3.0307949 2.254981 0.44445175 4294705920
2.9881213 2.2233818 0.45446867 4294444800
2.891715 2.1518271 0.45510221 4294053120
3.0478683 2.2680633 0.49505767 4294705920
3.0485382 2.2686923 0.51011002 4294705920
3.0450108 2.266201 0.52386969 4294705920
3.0186453 2.2467248 0.5329845 4294705920
3.0017819 2.2343144 0.54296887 4294575360
2.965873 2.2077374 0.5486806 4294444800
3.0451932 2.26687 0.57514971 4294836480
3.0466247 2.2680702 0.58661926 4294836480
3.0453405 2.2672513 0.59689158 4294836480
3.0317771 2.2572973 0.60402787 4294705920
3.0305855 2.2565479 0.61287165 4294705920
3.0187633 2.2478895 0.61882579 4294705920
3.0187342 2.2480061 0.62643516 4294705920
3.0076096 2.239867 0.63099509 4294705920
3.0138588 2.2446573 0.63843662 4294705920
3.0008457 2.2351131 0.64105594 4294575360
3.0033262 2.2371004 0.64620262 4294705920
3.0066936 2.239749 0.65079004 4294705920
3.0101597 2.2424724 0.65464312 4294705920
3.0018737 2.2364483 0.65517819 4294705920
3.0094957 2.2422674 0.65840024 4294705920
3.0014193 2.2364004 0.6574285 4294705920
3.0052993 2.2394361 0.65829098 4294705920
3.0183465 2.2492993 0.66037697 4294705920
3.0066345 2.2407267 0.65629202 4294705920
3.0209782 2.2515588 0.65709746 4294705920
3.0181634 2.2496138 0.65340441 4294705920
3.0282712 2.2572944 0.65172166 4294705920
3.0359204 2.2631457 0.64872283 4294836480
3.0301583 2.2590082 0.64210731 4294705920
3.0328841 2.2611945 0.63653696 4294836480
3.0321357 2.2607932 0.6294924 4294705920
3.0294256 2.2589314 0.62131602 4294705920
3.030412 2.2598245 0.61317503 4294705920
3.0295408 2.2593343 0.60394633 4294705920
3.0283642 2.2586172 0.59396219 4294705920
3.0318663 2.2613878 0.58419567 4294705920
3.0550816 2.2788532 0.57743967 4294836480
3.0378842 2.2661977 0.56239176 4294705920
3.0311284 2.2613249 0.54871601 4294705920
3.0125206 2.2485173 0.4512949 4294575360
3.0413978 2.2702231 0.43883812 4294705920
3.014302 2.2501814 0.41784602 4294575360
2.9606743 2.2103446 0.39319158 4294314240
2.9580607 2.2085609 0.37516072 4294314240
2.9624674 2.2120152 0.35758358 4294314240
2.9637673 2.2131522 0.33919904 4294314240
2.9547629 2.2066009 0.31931373 4294314240
2.9236305 2.1835356 0.29695737 4294183680
2.9441879 2.199044 0.27954981 4294314240
2.9340649 2.1916564 0.25887296 4294183680
2.9268115 2.1864097 0.23827755 4294183680
2.9359832 2.193424 0.21872972 4294183680
2.9658 2.215852 0.20019142 4294314240
2.9585643 2.2106202 0.17879866 4294314240
2.9107888 2.175118 0.15517724 4294053120
2.8341937 2.1180904 0.13075823 4293792000
2.649555 1.9803696 0.10317253 4293008640
2.6611633 1.989192 0.084218487 4293008640
2.7554004 2.0597308 0.066949539 4293400320
2.9162705 2.1800525 0.049304988 4294183680
2.9203687 2.1832824 0.027844539 4294183680
2.8915565 2.1619267 0.0062399879 4294053120
2.8954952 2.1650367 -0.015142813 4294053120
2.9108374 2.1766675 -0.036722772 4294053120
2.9113946 2.1772523 -0.058188654 4294053120
2.8937156 2.1642091 -0.079094224 4294053120
2.9264216 2.1888194 -0.10143706 4294183680
2.9427235 2.2011726 -0.12345379 4294183680
2.967519 2.2198763 -0.14600094 4294314240
2.9405932 2.1999197 -0.16580473 4294183680
2.9524875 2.2089808 -0.18753642 4294314240
2.9551013 2.2111046 -0.20857705 4294314240
2.9720845 2.2239728 -0.23055477 4294444800
2.9397194 2.1999419 -0.24832445 4294314240
2.9741008 2.2258208 -0.27151471 4294444800
2.9870784 2.2356963 -0.29276738 4294444800
2.9867764 2.2356403 -0.3124795 4294444800
2.9793401 2.230248 -0.33105198 4294444800
2.8458447 2.1305566 -0.33428934 4293922560
2.9813144 2.2320623 -0.36890334 4294444800
2.9885597 2.2376511 -0.38806787 4294444800
2.9815226 2.2325537 -0.40494591 4294444800
2.9499719 2.2091124 -0.41780964 4294314240
2.772047 2.0761316 -0.40821257 4293661440
3.0114596 2.2554574 -0.46016034 4294575360
2.995542 2.2437112 -0.47368145 4294575360
2.9554617 2.213877 -0.48254928 4294444800
2.8413048 2.1285877 -0.47797072 4293922560
2.6906571 2.0159686 -0.46541083 4293269760
2.4077544 1.804319 -0.42736119 4292094720
2.3985775 1.7975792 -0.43624341 4292094720
2.3860998 1.7883661 -0.44393581 4291964160
2.3682017 1.7750922 -0.44998813 4291964160
2.3552682 1.7655334 -0.45635375 4291833600
2.3498511 1.7616022 -0.46359056 4291833600
2.3171628 1.7372439 -0.46477187 4291703040
2.272881 1.704198 -0.46284267 4291572480
2.2382855 1.6784025 -0.46212462 4291441920
2.2643123 1.6980168 -0.47339648 4291572480
2.1977813 1.6482904 -0.46462366 4291311360
2.2160444 1.6620872 -0.47317365 4291311360
2.245405 1.6842006 -0.48364389 4291441920
2.1762109 1.6324654 -0.47220641 4291180800
2.1836402 1.6381433 -0.47679248 4291180800
2.1872003 1.6409215 -0.47998956 4291180800
2.1939867 1.6461176 -0.48334649 4291311360
2.1906059 1.6436927 -0.48389676 4291180800
2.1865153 1.6407351 -0.48372135 4291180800
2.171474 1.6295671 -0.48054889 4291180800
2.2392945 1.6805176 -0.49519092 4291441920
2.21732 1.6641513 -0.48934007 4291311360
2.2017248 1.6525652 -0.48435009 4291311360
2.2566197 1.693833 -0.494304 4291572480
2.2301459 1.6740885 -0.48578805 4291441920
2.2760179 1.7085948 -0.49247429 4291572480
2.2988665 1.7258378 -0.49348527 4291703040
2.3282335 1.7479712 -0.49522883 4291833600
2.3489695 1.7636328 -0.49445286 4291833600
2.3614495 1.7731028 -0.49128452 4291964160
2.3749523 1.7833405 -0.48769403 4291964160
2.3838592 1.7901306 -0.48253122 4292094720
2.4037147 1.8051354 -0.47894594 4292094720
2.4260721 1.8220184 -0.47517106 4292225280
2.4739368 1.8580419 -0.47561264 4292355840
2.641227 1.9836843 -0.49772322 4293139200
2.9463189 2.2127509 -0.54342991 4294444800
2.9998446 2.2530503 -0.54052931 4294575360
2.9799366 2.2382405 -0.52360851 4294575360
2.9652152 2.2273209 -0.5071665 4294444800
2.9637225 2.2263288 -0.4924973 4294444800
2.9725335 2.2330704 -0.47895402 4294444800
2.9842477 2.2419915 -0.4652369 4294575360
2.9687176 2.2304599 -0.44676074 4294444800
2.9535868 2.2192261 -0.42801464 4294444800
2.971679 2.2329347 -0.41360494 4294444800
2.9886024 2.2457669 -0.39837015 4294575360
2.9852967 2.2434099 -0.37990811 4294444800
2.9430416 2.2118034 -0.35633066 4294314240
2.9572208 2.222574 -0.33939651 4294314240
2.9725931 2.2342415 -0.32203975 4294444800
2.9643145 2.2281466 -0.30171117 4294444800
2.9520679 2.21907 -0.2807835 4294314240
2.9630313 2.2274263 -0.26177883 4294314240
2.9741139 2.2358725 -0.24235088 4294444800
2.9685173 2.2317896 -0.22125521 4294444800
2.9593446 2.2250192 -0.19975579 4294314240
2.943423 2.2131774 -0.17775963 4294314240
2.9513273 2.2192357 -0.15708235 4294314240
2.9426382 2.2128263 -0.13535021 4294314240
2.9279861 2.2019353 -0.11336529 4294183680
2.9272332 2.2014875 -0.091918789 4294183680
2.9160554 2.1932054 -0.070129029 4294183680
2.7404535 2.0613484 -0.045584109 4293400320
2.0308852 1.5281513 -0.018283878 4290397440
2.1226907 1.5972375 -0.0034795906 4290789120
2.7648063 2.0799851 0.015364113 4293530880
2.8341804 2.132246 0.036663372 4293792000
2.9549947 2.2231832 0.059955213 4294314240
2.9666004 2.2320275 0.082012422 4294314240
2.9282267 2.2032964 0.10243448 4294183680
2.8002877 2.1072206 0.11845814 4293661440
2.9673362 2.2329404 0.14689738 4294314240
2.9633839 2.2300889 0.16800632 4294314240
2.9099078 2.1899953 0.18574785 4294183680
2.781194 2.0933158 0.19724745 4293661440
2.967732 2.2337208 0.23104824 4294444800
2.9608653 2.2286777 0.25092655 4294314240
2.8716986 2.1617315 0.262959 4294053120
2.7708328 2.085978 0.27235803 4293530880
2.9874027 2.2490058 0.3131659 4294444800
3.0386508 2.2876828 0.33817282 4294705920
3.0325072 2.2831872 0.35675085 4294705920
2.9372528 2.211647 0.36388204 4294314240
2.7472796 2.0688324 0.35719788 4293530880
3.0428417 2.2913444 0.41345331 4294705920
3.0298452 2.2816932 0.42922264 4294705920
3.006886 2.2645442 0.44290203 4294575360
2.9296048 2.2065122 0.44757155 4294314240
2.8130424 2.1189103 0.44472784 4293792000
3.0332541 2.2847772 0.49486008 4294705920
3.0305758 2.2828927 0.50934619 4294705920
3.0175204 2.2731969 0.52144194 4294705920
2.9953415 2.256633 0.53121126 4294575360
2.9393907 2.2146428 0.53406733 4294444800
2.9002483 2.1853032 0.53894854 4294183680
3.0260561 2.2801566 0.5740605 4294705920
3.0294695 2.2828624 0.58589149 4294836480
3.0158966 2.2727783 0.59373969 4294705920
3.0185857 2.2749403 0.60405141 4294705920
3.0138326 2.2714984 0.61217374 4294705920
2.9948022 2.257304 0.61662918 4294705920
2.9986148 2.2603137 0.62500894 4294705920
2.9815338 2.2475872 0.62829244 4294575360
2.9885461 2.2530091 0.63587523 4294575360
2.994858 2.257905 0.6425916 4294705920
2.9490116 2.2235067 0.63734668 4294444800
2.9484365 2.2232141 0.64103037 4294444800
2.9550414 2.2283325 0.64552325 4294444800
2.954664 2.2281909 0.64774513 4294444800
2.9473078 2.2227912 0.64767772 4294444800
2.947135 2.2228053 0.64841789 4294444800
2.9352658 2.214005 0.64583182 4294444800
2.9851544 2.2517531 0.65601128 4294575360
2.9774249 2.2460756 0.65279549 4294575360
2.9906218 2.2561736 0.65337759 4294705920
2.9791613 2.247685 0.64782661 4294575360
2.9936447 2.2587557 0.64712906 4294705920
2.9971092 2.2615211 0.64327562 4294705920
3.0044405 2.2672036 0.63947695 4294705920
3.009093 2.2708676 0.63433939 4294705920
3.0110943 2.2725334 0.62788963 4294705920
3.0119948 2.2733703 0.62047166 4294705920
3.0090339 2.2712958 0.61154425 4294705920
3.0025139 2.266537 0.6012128 4294705920
2.998981 2.2640319 0.59081018 4294705920
3.0158632 2.2769284 0.58368182 4294705920
3.0159392 2.277148 0.57258046 4294705920
3.0160053 2.2773607 0.56081617 4294705920
3.009109 2.2723207 0.54714525 4294705920
2.9875407 2.2571115 0.44954512 4294575360
3.0154657 2.2783616 0.43703496 4294705920
2.9653897 2.2407222 0.41291586 4294444800
2.8970747 2.1893058 0.38649106 4294183680
2.930057 2.2143764 0.37327096 4294314240
2.9592388 2.2365811 0.35877439 4294444800
2.9644976 2.2407215 0.34078187 4294444800
2.9399185 2.2223258 0.3191255 4294314240
2.9291778 2.214381 0.2988334 4294314240
2.9536891 2.2330658 0.28168714 4294314240
2.9547608 2.2340453 0.26183963 4294314240
2.9294024 2.2150564 0.23954473 4294314240
2.9408538 2.2238786 0.22006235 4294314240
2.973099 2.2484152 0.20157178 4294444800
2.9818368 2.2551911 0.18099211 4294444800
2.9557076 2.2356162 0.15824428 4294314240
2.5967417 1.9644692 0.12050719 4292878080
2.094233 1.5847772 0.082330637 4290658560
1.9165714 1.4505956 0.061478529 4290005760
2.718343 2.056855 0.066376127 4293400320
2.9704218 2.2476025 0.050417453 4294444800
2.9813442 2.2560346 0.028523186 4294444800
2.9861689 2.2598572 0.0064228042 4294444800
2.9622397 2.2419353 -0.015590836 4294314240
2.9761162 2.2526033 -0.037740421 4294444800
2.9778256 2.25407 -0.059807252 4294444800
2.9751053 2.2521861 -0.081714824 4294444800
2.9724901 2.2503812 -0.10350224 4294444800
2.9957435 2.2681468 -0.12624955 4294575360
2.9976671 2.2697768 -0.14813712 4294575360
2.9649415 2.2451892 -0.16791378 4294444800
2.9717824 2.2505383 -0.1895898 4294444800
2.9867141 2.2620106 -0.21174003 4294444800
2.9831588 2.2594929 -0.23242399 4294444800
2.9499221 2.2345092 -0.2502743 4294314240
2.9864295 2.2623136 -0.27383217 4294444800
3.0065932 2.2777498 -0.2959727 4294575360
3.0078626 2.2788837 -0.31606701 4294575360
2.9893243 2.2650206 -0.33361366 4294575360
2.855607 2.163945 -0.33690387 4293922560
3.0007875 2.2740428 -0.37294236 4294575360
3.0056639 2.2779062 -0.39200044 4294575360
3.0033333 2.2763119 -0.4096998 4294575360
2.9600201 2.2436764 -0.4210684 4294444800
2.7789028 2.1066551 -0.41101363 4293661440
3.0172558 2.2873664 -0.46306294 4294705920
3.0132577 2.2845066 -0.47857383 4294705920
2.9646416 2.2478418 -0.48616856 4294444800
2.8707182 2.1768429 -0.48504588 4294053120
2.7278118 2.0687168 -0.47392219 4293530880
2.4001842 1.8205949 -0.4278779 4292094720
2.3839476 1.8084217 -0.43547216 4292094720
2.3752925 1.8019924 -0.44385394 4291964160
2.3578193 1.7888776 -0.44997147 4291964160
2.341315 1.7764949 -0.4556292 4291833600
2.3171101 1.7582719 -0.45911446 4291833600
2.286963 1.7355411 -0.46070641 4291703040
2.2589812 1.7144482 -0.46202001 4291572480
2.217463 1.6830881 -0.45981973 4291311360
2.2355204 1.6968974 -0.4694086 4291441920
2.1614311 1.6408308 -0.45892003 4291180800
2.1796215 1.6547385 -0.46741503 4291180800
2.1908023 1.6633314 -0.47391909 4291311360
2.1973379 1.6684014 -0.47889572 4291311360
2.2157145 1.682453 -0.48593855 4291441920
2.2153277 1.6822726 -0.48831302 4291441920
2.1435635 1.627942 -0.47427884 4291050240
2.2226303 1.6880362 -0.49314535 4291441920
2.2107103 1.6791033 -0.49123549 4291311360
2.2074986 1.6767759 -0.49068794 4291311360
2.1918161 1.6649845 -0.48679003 4291311360
2.1809173 1.6568211 -0.48339656 4291180800
2.2464702 1.7066773 -0.49639061 4291572480
2.2318065 1.6956568 -0.49099961 4291441920
2.2054462 1.6757559 -0.48250148 4291311360
2.250329 1.7099305 -0.48903772 4291572480
2.3087649 1.7543974 -0.49779165 4291833600
2.3297868 1.7704654 -0.49773547 4291833600
2.3457222 1.782673 -0.49593484 4291964160
2.3581491 1.7922174 -0.49274942 4291964160
2.3720341 1.8028696 -0.48923114 4292094720
2.3802915 1.8092489 -0.48392186 4292094720
2.404434 1.8276914 -0.48119253 4292225280
2.4303629 1.8474925 -0.47810325 4292225280
2.4969125 1.8981458 -0.48214972 4292616960
2.6674199 2.0277638 -0.50487876 4293269760
2.9703033 2.2579467 -0.55026811 4294575360
3.001641 2.2818835 -0.54322547 4294705920
2.992866 2.2753496 -0.52819246 4294705920
2.9711211 2.2589612 -0.51040757 4294575360
2.9656973 2.2549701 -0.49498692 4294575360
2.9846439 2.2694945 -0.48301941 4294575360
2.9924691 2.2755692 -0.46856731 4294575360
2.9706907 2.2591488 -0.44901764 4294575360
2.963542 2.2538433 -0.43134397 4294444800
2.9811683 2.267365 -0.41674808 4294575360
2.9944665 2.2775984 -0.40090272 4294575360
2.9983737 2.2806942 -0.38324961 4294575360
2.9534235 2.246654 -0.35915828 4294444800
2.9673846 2.25739 -0.34205839 4294444800
2.9777691 2.265408 -0.32401392 4294444800
2.9774654 2.2653008 -0.30438143 4294444800
2.950995 2.2452998 -0.28190678 4294444800
2.9726324 2.2618728 -0.26377875 4294444800
2.9784157 2.2663927 -0.24376218 4294444800
2.9820349 2.2692671 -0.22323871 4294444800
2.9689884 2.2594686 -0.20128423 4294444800
2.9676831 2.2585974 -0.18001759 4294444800
2.9723799 2.2622905 -0.15890111 4294444800
2.9765916 2.2656147 -0.13752422 4294444800
2.9550593 2.2493589 -0.11492271 4294314240
2.977066 2.2662182 -0.093914643 4294444800
2.9789062 2.2677388 -0.071983814 4294444800
2.7716591 2.1102045 -0.046316635 4293530880
1.9716426 1.5017025 -0.017768474 4290266880
2.0902689 1.5920326 -0.0034061486 4290658560
2.8057208 2.136457 0.015643524 4293792000
2.9090049 2.215157 0.037758749 4294183680
3.0018446 2.2859185 0.061156761 4294575360
3.0076146 2.2904308 0.083499245 4294575360
2.9688885 2.2610826 0.10430073 4294444800
2.8030741 2.1350129 0.11910928 4293792000
2.984823 2.273452 0.14841667 4294444800
2.9812505 2.2708549 0.16976638 4294444800
2.9395189 2.2392125 0.18845852 4294314240
2.7538557 2.0980062 0.19620295 4293530880
2.9788811 2.269418 0.23294581 4294444800
2.9805448 2.2708073 0.2537092 4294444800
2.8969059 2.2072542 0.26643291 4294183680
2.7876973 2.1242268 0.27522498 4293661440
2.9847333 2.2743671 0.31428349 4294575360
2.9944422 2.2818844 0.33477002 4294575360
2.9793808 2.270541 0.35210103 4294575360
2.8675506 2.1855037 0.35688126 4294053120
2.7510061 2.0968678 0.35927156 4293530880
2.9975264 2.2847381 0.40914243 4294575360
2.9829679 2.2737772 0.42449731 4294575360
2.961592 2.2576227 0.43820554 4294444800
2.8490248 2.1720026 0.43725947 4294053120
2.8006492 2.1352735 0.44474772 4293792000
2.9927909 2.2817748 0.49046108 4294575360
2.9979033 2.2858005 0.50612068 4294705920
2.9717398 2.2659974 0.51584953 4294575360
2.954206 2.2527685 0.52627754 4294444800
2.8629115 2.1833324 0.5225448 4294053120
2.8029914 2.1377981 0.52326936 4293922560
2.9910779 2.2812641 0.56997484 4294705920
2.9772024 2.270824 0.57838362 4294575360
2.9621441 2.2594821 0.58579212 4294575360
2.9619067 2.2594364 0.59538877 4294575360
2.9577098 2.2563736 0.6034891 4294575360
2.943681 2.245816 0.60883838 4294444800
2.950506 2.2511563 0.61775374 4294575360
2.9077013 2.2186596 0.61551708 4294314240
2.9146993 2.2241328 0.6229791 4294444800
2.9249177 2.2320628 0.63043106 4294444800
2.9211168 2.2293043 0.63414735 4294444800
2.927598 2.2343874 0.6393466 4294444800
2.8639057 2.1859539 0.62847078 4294183680
2.9306653 2.2370114 0.64536023 4294444800
2.9264746 2.233959 0.64597619 4294444800
2.9192536 2.2285953 0.64516246 4294444800
2.9152679 2.2256999 0.6443007 4294444800
2.9152997 2.2258701 0.64356607 4294444800
2.9036849 2.2171552 0.63951957 4294314240
2.9566925 2.2577477 0.64886564 4294575360
2.9460628 2.2497873 0.64350593 4294575360
2.9554832 2.2571275 0.6417529 4294575360
2.947274 2.2510152 0.63543409 4294575360
2.9617829 2.2622416 0.63323694 4294575360
2.9581926 2.259656 0.62642515 4294575360
2.9660399 2.2658014 0.62128335 4294575360
2.9684155 2.2677717 0.61425096 4294575360
2.9608283 2.2621372 0.60446435 4294575360
2.9579508 2.2600987 0.59496218 4294575360
2.944521 2.2500033 0.58270758 4294444800
2.9641457 2.2651477 0.5762682 4294575360
2.9778516 2.275775 0.56789774 4294575360
2.9709592 2.270674 0.55493647 4294575360
2.9647255 2.2660758 0.54151177 4294575360
2.9502721 2.2560992 0.44594681 4294444800
2.971833 2.272742 0.43266681 4294575360
2.961014 2.264643 0.41415134 4294444800
2.9367416 2.2462609 0.39350298 4294314240
2.9377127 2.2471712 0.37591323 4294314240
2.9544528 2.2601357 0.35979944 4294444800
2.9620073 2.2660806 0.34202084 4294444800
2.9454346 2.2535815 0.32115144 4294444800
2.9308805 2.2426248 0.30034518 4294314240
2.9616342 2.2663095 0.28370529 4294444800
2.961133 2.2660983 0.26357704 4294444800
2.9681492 2.2716365 0.24377546 4294444800
2.9611382 2.2664478 0.22256212 4294444800
2.9789844 2.2802706 0.20287614 4294444800
2.9852974 2.285274 0.1820171 4294575360
2.9514835 2.2595825 0.15873523 4294444800
2.4207299 1.8537133 0.112983 4292094720
1.9435971 1.4888066 0.076896884 4290136320
1.983838 1.5197113 0.063855216 4290266880
2.4523361 1.8783262 0.060347557 4292225280
2.9577832 2.2652721 0.050446853 4294444800
2.9594734 2.2667401 0.028466512 4294444800
2.9515834 2.2608759 0.0064113243 4294314240
2.9426618 2.254221 -0.015531554 4294314240
2.9644401 2.271066 -0.037739318 4294444800
2.9667473 2.2730072 -0.059829872 4294444800
2.9505095 2.2607501 -0.081371583 4294314240
2.9560277 2.2651494 -0.10336372 4294444800
2.9781482 2.2822618 -0.12604244 4294444800
2.983496 2.2865324 -0.14807084 4294575360
2.9560001 2.2656498 -0.16813354 4294444800
2.9646037 2.2724133 -0.18995562 4294444800
2.9815085 2.2855356 -0.2122948 4294575360
2.9757361 2.2812884 -0.2328594 4294444800
2.944773 2.2577417 -0.25093278 4294444800
2.9859006 2.2894235 -0.27498797 4294575360
3.003654 2.3032 -0.29698363 4294705920
3.0028863 2.3027861 -0.31693169 4294705920
2.9871452 2.2908974 -0.33483911 4294575360
2.8469019 2.1835907 -0.337354 4294053120
2.9930134 2.2957399 -0.37361377 4294575360
2.9930687 2.2959545 -0.39207476 4294575360
2.9900198 2.2937889 -0.40967846 4294575360
2.954783 2.2669468 -0.42217815 4294444800
2.7697339 2.1252444 -0.41146395 4293661440
3.0157907 2.3140585 -0.46488389 4294705920
3.0109179 2.3104928 -0.48031613 4294705920
2.9861143 2.2916422 -0.49186736 4294705920
2.9444883 2.259887 -0.49975061 4294444800
2.8764634 2.20788 -0.50204188 4294183680
2.4436264 1.8760531 -0.43757918 4292355840
2.3979764 1.8411722 -0.43998483 4292094720
2.3662415 1.8169602 -0.44411728 4291964160
2.3466341 1.802048 -0.44981572 4291964160
2.3128095 1.7762251 -0.45206055 4291833600
2.280942 1.7518995 -0.45393059 4291703040
2.2310865 1.7137673 -0.45140967 4291441920
2.2528687 1.7306025 -0.46281058 4291572480
2.1958797 1.6869876 -0.45735142 4291311360
2.2107313 1.6985028 -0.46624833 4291441920
2.2131209 1.7004539 -0.47201416 4291441920
2.1472697 1.6500232 -0.46250126 4291180800
2.1623147 1.6616849 -0.46981564 4291180800
2.1688251 1.6667953 -0.47476274 4291180800
2.183217 1.6779568 -0.48091763 4291311360
2.1828353 1.677776 -0.48326772 4291311360
2.1864345 1.6806509 -0.48594058 4291311360
2.1940143 1.6865824 -0.48894095 4291311360
2.182148 1.6775804 -0.48702517 4291311360
2.1672373 1.6662381 -0.48385391 4291180800
2.1563091 1.6579524 -0.48100981 4291180800
2.1446762 1.6491238 -0.47745332 4291180800
2.2138402 1.7023579 -0.49133423 4291441920
2.1953335 1.6882491 -0.4850992 4291311360
2.1956453 1.6885951 -0.48248577 4291311360
2.255954 1.7350361 -0.4924421 4291572480
2.2337613 1.7180923 -0.48371539 4291441920
2.2908709 1.7620814 -0.49157304 4291703040
2.3074942 1.7749636 -0.48999768 4291833600
2.3260515 1.789333 -0.48818308 4291833600
2.3700147 1.8232288 -0.49098533 4292094720
2.409107 1.8533844 -0.49197331 4292225280
2.4480677 1.8834417 -0.49212721 4292355840
2.5038011 1.9263946 -0.49478126 4292616960
2.5937374 1.9956443 -0.50312674 4293008640
2.8439171 2.1880908 -0.54077119 4294053120
2.9767399 2.290334 -0.55391151 4294705920
2.9859774 2.2975695 -0.54278165 4294705920
2.9838769 2.2960873 -0.52893883 4294705920
2.9536462 2.2729735 -0.50964868 4294575360
2.955447 2.2744882 -0.49545982 4294575360
2.9690483 2.2850773 -0.48261946 4294575360
2.9776819 2.2918465 -0.46831274 4294575360
2.9569588 2.276037 -0.44891739 4294575360
2.9476509 2.2690053 -0.43092534 4294444800
2.9677827 2.2846172 -0.41670924 4294575360
2.9843316 2.2974744 -0.40131146 4294575360
2.9706554 2.2870803 -0.38137454 4294575360
2.9431603 2.2660532 -0.35949013 4294444800
2.9452255 2.2677662 -0.34099531 4294444800
2.959249 2.2786801 -0.32341376 4294444800
2.9556484 2.2760334 -0.30347565 4294444800
2.920929 2.2494407 -0.28025135 4294314240
2.9500382 2.2719629 -0.26291752 4294444800
2.9603243 2.2800014 -0.24334061 4294444800
2.9555838 2.2764757 -0.2222189 4294444800
2.9078696 2.2398736 -0.19797313 4294183680
2.9402754 2.2649364 -0.17912301 4294314240
2.9409888 2.2656066 -0.15789403 4294314240
2.9203033 2.249804 -0.13548011 4294314240
2.9235935 2.2524569 -0.11417528 4294314240
2.9370372 2.2629263 -0.093028754 4294314240
2.9322762 2.2593811 -0.07113225 4294314240
2.7292109 2.1031506 -0.045771498 4293400320
1.9686503 1.5176371 -0.017812287 4290266880
2.0088568 1.5486779 -0.003208301 4290397440
2.5776012 1.9867347 0.014601531 4292878080
2.8202333 2.1736946 0.036840845 4293792000
2.9506874 2.2742796 0.060429174 4294444800
2.9613945 2.2826471 0.082626604 4294444800
2.9366577 2.263715 0.10366379 4294314240
2.7676253 2.1336339 0.11816548 4293661440
2.9462051 2.2713108 0.14719024 4294444800
2.9494548 2.2739353 0.16874118 4294444800
2.9085977 2.2425807 0.18734396 4294183680
2.7724943 2.137841 0.19841161 4293661440
2.9469121 2.272342 0.23151152 4294444800
2.948694 2.2738371 0.25215572 4294444800
2.9115279 2.245321 0.26897708 4294314240
2.7682295 2.1350157 0.27455169 4293661440
2.9551721 2.2791991 0.31259674 4294444800
2.9589248 2.2822156 0.3323175 4294444800
2.9252152 2.2563591 0.3472985 4294314240
2.7512255 2.1223757 0.34403631 4293661440
2.7418938 2.1152997 0.35970208 4293530880
2.9495761 2.2755113 0.4044472 4294444800
2.9358401 2.2650487 0.4197081 4294444800
2.9016094 2.2387853 0.43130949 4294314240
2.7409101 2.1150131 0.42264608 4293661440
2.7693026 2.1370242 0.44177487 4293792000
2.9452009 2.2727768 0.48487127 4294444800
2.9284196 2.2599659 0.49666888 4294444800
2.9178135 2.2519164 0.50881034 4294444800
2.8693805 2.214694 0.51353335 4294183680
2.8352516 2.1885002 0.51984733 4294053120
2.7607219 2.1311431 0.51773244 4293792000
2.9316211 2.2630904 0.56120539 4294444800
2.9271517 2.2597761 0.57125866 4294444800
2.9084744 2.245502 0.57780927 4294444800
2.9003341 2.239356 0.5856843 4294314240
2.8909969 2.2322867 0.59258479 4294314240
2.9008563 2.2400289 0.60271525 4294314240
2.8737803 2.2192726 0.60445893 4294314240
2.8759861 2.2211108 0.61156875 4294314240
2.8829577 2.2266278 0.61899334 4294314240
2.8861113 2.2291999 0.62489772 4294314240
2.8256154 2.1826475 0.61625385 4294053120
2.8289628 2.1853685 0.6206674 4294053120
2.8285036 2.1851523 0.62352484 4294053120
2.8281407 2.1850111 0.62567061 4294053120
2.8239763 2.1819363 0.62624127 4294053120
2.8277075 2.1849577 0.627819 4294053120
2.8206217 2.1796288 0.62626743 4294053120
2.8687556 2.216938 0.63618046 4294314240
2.8688858 2.2171845 0.63472855 4294314240
2.8613169 2.2114861 0.63083982 4294183680
2.9063895 2.2464435 0.63773096 4294444800
2.8880973 2.232466 0.62999964 4294314240
2.8975639 2.2399285 0.62757045 4294314240
2.901176 2.2428708 0.62312186 4294444800
2.9047775 2.245806 0.61792797 4294444800
2.9122047 2.2516983 0.61279827 4294444800
2.9091575 2.2494991 0.60474867 4294444800
2.9171326 2.2558177 0.59826243 4294444800
2.9040978 2.2459025 0.58680594 4294314240
2.8977473 2.2411525 0.57607365 4294314240
2.8988872 2.2421913 0.56617367 4294314240
2.9333262 2.2689683 0.56196392 4294444800
2.9243321 2.2621779 0.54872715 4294444800
2.9295471 2.266371 0.5375275 4294444800
2.9001729 2.2447188 0.44039273 4294314240
2.920821 2.2608545 0.42720014 4294314240
2.928442 2.2669168 0.41147164 4294444800
2.9199786 2.2605386 0.39303875 4294314240
2.90095 2.2459865 0.37291583 4294314240
2.9230676 2.2632663 0.35761169 4294314240
2.9286227 2.2677343 0.33972174 4294444800
2.9062514 2.2505946 0.31834352 4294314240
2.8988338 2.2450242 0.29843128 4294183680
2.9160573 2.2585235 0.28063938 4294314240
2.9171133 2.2595119 0.26086915 4294314240
2.9098821 2.2540867 0.2401173 4294314240
2.9099922 2.2543433 0.21974902 4294314240
2.9388011 2.2768171 0.20107937 4294444800
2.9308612 2.270844 0.17955102 4294314240
2.8873367 2.237319 0.1560396 4294183680
2.3111188 1.7913203 0.10845118 4291703040
1.9159229 1.485431 0.07617639 4290005760
1.848408 1.4332596 0.059903279 4289744640
2.6391413 2.0457814 0.065097682 4293139200
2.8966939 2.245425 0.049679533 4294183680
2.9154441 2.2601213 0.028210225 4294314240
2.9014292 2.2494383 0.0063755251 4294183680
2.8919942 2.2423017 -0.015287903 4294183680
2.9111497 2.2573154 -0.037181444 4294314240
2.9190483 2.2636092 -0.059090357 4294314240
2.8811536 2.2344184 -0.079760805 4294183680
2.918113 2.263232 -0.10246107 4294314240
2.9344971 2.2761037 -0.12471467 4294314240
2.9342449 2.2760825 -0.14623958 4294314240
2.8553519 2.2151036 -0.16306731 4294053120
2.9289281 2.2723093 -0.18848048 4294314240
2.9334831 2.2760141 -0.20977457 4294444800
2.934449 2.2769365 -0.23062548 4294444800
2.8513882 2.2127063 -0.24400282 4294053120
2.948988 2.2885568 -0.27277732 4294444800
2.959069 2.2965479 -0.29385471 4294575360
2.9608986 2.2981405 -0.31387106 4294575360
2.9351273 2.2783253 -0.3304483 4294444800
2.768554 2.1492908 -0.32949093 4293661440
2.9612098 2.2989004 -0.37127823 4294575360
2.9538183 2.2933383 -0.38864186 4294575360
2.9487894 2.2896075 -0.4058142 4294444800
2.8656197 2.2252462 -0.41122323 4294183680
2.791826 2.1681499 -0.4166145 4293792000
2.9748707 2.3103557 -0.46060783 4294575360
2.9677341 2.304987 -0.47552511 4294575360
2.9516747 2.2926917 -0.48835459 4294575360
2.9116578 2.2617984 -0.49637568 4294444800
2.8001151 2.1753783 -0.49086729 4293922560
2.5793583 2.0041623 -0.46403754 4293008640
2.5072701 1.9483404 -0.46216831 4292616960
2.4280927 1.8870058 -0.4578087 4292355840
2.3715734 1.8432552 -0.45665172 4292094720
2.3170035 1.8010111 -0.45491585 4291833600
2.2524588 1.7510144 -0.45025712 4291572480
2.2475753 1.7473446 -0.45679843 4291572480
2.1759527 1.6918385 -0.44896945 4291311360
2.1712103 1.6882724 -0.45422918 4291311360
2.1821055 1.6968523 -0.46226075 4291311360
2.2000616 1.7109179 -0.47132906 4291441920
2.1376197 1.6625237 -0.46248579 4291180800
2.148706 1.67125 -0.46894845 4291180800
2.1629667 1.6824435 -0.47560486 4291180800
2.1702926 1.6882489 -0.48021156 4291311360
2.1730232 1.6904833 -0.48325202 4291311360
2.1804931 1.6964006 -0.48679516 4291311360
2.1724887 1.6902913 -0.48630738 4291311360
2.1614532 1.6818243 -0.48456267 4291180800
2.1613793 1.6818762 -0.48471242 4291180800
2.1427257 1.6674842 -0.48012087 4291180800
2.1319218 1.659192 -0.47674051 4291050240
2.1929998 1.7067834 -0.48888505 4291311360
2.1854601 1.7010292 -0.48508337 4291311360
2.1709943 1.6898882 -0.47919929 4291311360
2.1635969 1.6842414 -0.47434992 4291180800
2.2346046 1.7395654 -0.48607507 4291572480
2.2538147 1.7546124 -0.48577437 4291572480
2.3068662 1.7959808 -0.49206716 4291833600
2.3647573 1.8411177 -0.49856183 4292094720
2.4107006 1.8769659 -0.50168407 4292355840
2.5080378 1.9527966 -0.51453727 4292747520
2.5937145 2.0195644 -0.52383476 4293008640
2.6762326 2.0838821 -0.53133148 4293400320
2.7561364 2.1461725 -0.53712142 4293792000
2.8767262 2.2401266 -0.54948461 4294314240
2.92839 2.280458 -0.54733938 4294444800
2.9367881 2.2871249 -0.53621447 4294575360
2.9381945 2.2883511 -0.52315819 4294575360
2.9235983 2.2771225 -0.50671494 4294444800
2.9187102 2.2734478 -0.49148032 4294444800
2.9299674 2.2823384 -0.47838593 4294444800
2.9408464 2.290935 -0.4645775 4294444800
2.9227979 2.277014 -0.44570568 4294444800
2.9011345 2.2602766 -0.42600444 4294314240
2.9186511 2.274039 -0.41162398 4294444800
2.9317865 2.2843914 -0.39598668 4294444800
2.936389 2.2881007 -0.37864792 4294444800
2.8839753 2.2474141 -0.35380837 4294183680
2.8938336 2.2552135 -0.33651879 4294314240
2.9010081 2.2609231 -0.31843698 4294314240
2.9041755 2.2635121 -0.29949719 4294314240
2.8712006 2.2379529 -0.2766847 4294183680
2.8946249 2.2563179 -0.259101 4294183680
2.9133739 2.2710426 -0.24052437 4294314240
2.9108503 2.2691984 -0.21980646 4294314240
2.8298786 2.2062438 -0.1934759 4293922560
2.8869133 2.2507927 -0.17662318 4294183680
2.899435 2.2606678 -0.15632951 4294314240
2.8803437 2.2459135 -0.13419373 4294183680
2.8615491 2.231389 -0.1122071 4294053120
2.8852227 2.249953 -0.091756314 4294183680
2.8812196 2.2469528 -0.070165396 4294183680
2.7150478 2.1175783 -0.045719143 4293400320
1.9353094 1.5100291 -0.01755253 4290136320
1.9121854 1.492087 -0.0029711386 4290005760
2.4035044 1.8750979 0.013815094 4292094720
2.7775509 2.1667428 0.036488269 4293661440
2.9050639 2.2662508 0.059806664 4294314240
2.9101968 2.2703719 0.081612088 4294314240
2.8895185 2.2543721 0.1025056 4294183680
2.7212536 2.1233118 0.11675611 4293530880
2.9069164 2.2681751 0.14592409 4294314240
2.9045737 2.2664692 0.16696908 4294314240
2.8647656 2.2355504 0.18539903 4294053120
2.7332213 2.1330955 0.19652702 4293530880
2.9033766 2.2658982 0.22916713 4294314240
2.9015639 2.264606 0.24929474 4294314240
2.8685105 2.2389498 0.26624623 4294183680
2.7219391 2.124754 0.27122971 4293530880
2.9080534 2.2700341 0.30905208 4294314240
2.9039497 2.2669563 0.32767272 4294314240
2.8743365 2.2439797 0.34285334 4294183680
2.7050722 2.1120584 0.33984458 4293530880
2.6113782 2.0390792 0.34424725 4293139200
2.8947229 2.2602546 0.39877716 4294314240
2.8849871 2.2527835 0.41435727 4294314240
2.7981696 2.1851673 0.41790974 4293922560
2.6909745 2.1016428 0.41687787 4293400320
2.6511438 2.0706782 0.42494926 4293269760
2.894383 2.2606213 0.47871563 4294314240
2.8882504 2.2559636 0.49211922 4294314240
2.8671572 2.239629 0.50229442 4294183680
2.8228641 2.2051849 0.5075469 4294053120
2.7811034 2.1727145 0.51228595 4293922560
2.7217455 2.1265039 0.51278019 4293661440
2.8809738 2.2509344 0.55406219 4294314240
2.8687506 2.2415235 0.5624578 4294314240
2.8678665 2.2409658 0.57236946 4294314240
2.8576591 2.2331293 0.57972932 4294183680
2.8713048 2.2439184 0.59124458 4294314240
2.8582001 2.23382 0.59659177 4294183680
2.8118176 2.1977327 0.59417075 4294053120
2.8225787 2.2062712 0.60298944 4294053120
2.8326378 2.2142634 0.61100072 4294183680
2.7653289 2.1618252 0.60157353 4293792000
2.7755706 2.1699603 0.60813862 4293922560
2.7719212 2.1672451 0.61097074 4293922560
2.7862217 2.1785541 0.6170373 4293922560
2.7858632 2.1784124 0.61916059 4293922560
2.7817197 2.1753139 0.61971629 4293922560
2.7776732 2.172292 0.61956209 4293922560
2.7667389 2.1638882 0.61714822 4293922560
2.7551253 2.154953 0.61386096 4293792000
2.8217666 2.2071779 0.62718773 4294053120
2.8111234 2.1990049 0.62263989 4294053120
2.8528819 2.2317917 0.62888724 4294183680
2.845536 2.2261984 0.62357974 4294183680
2.8510706 2.230675 0.62035376 4294183680
2.8468912 2.2275581 0.61429459 4294183680
2.8574579 2.2359715 0.61067194 4294183680
2.872601 2.2479656 0.60725319 4294314240
2.8656838 2.2427111 0.59846354 4294314240
2.863503 2.2411609 0.58998573 4294314240
2.8606248 2.2390659 0.58069366 4294183680
2.8472869 2.2287905 0.56866544 4294183680
2.8705986 2.2471817 0.56322968 4294314240
2.8787792 2.2537398 0.55407429 4294314240
2.881187 2.2557836 0.54313332 4294314240
2.8710816 2.2480385 0.52925134 4294314240
2.8526418 2.2346592 0.43519247 4294183680
2.8762395 2.2532959 0.42263782 4294183680
2.8815305 2.2576044 0.40676817 4294314240
2.8613434 2.2419677 0.38695338 4294183680
2.843174 2.2279086 0.36720592 4294053120
2.8627975 2.2434406 0.35188752 4294183680
2.877389 2.2550349 0.33534625 4294183680
2.8593597 2.2410851 0.31467804 4294183680
2.8370633 2.2237914 0.29345772 4294053120
2.8596628 2.2416604 0.27651668 4294183680
2.8819106 2.2592568 0.2589308 4294183680
2.8589923 2.2414749 0.23703964 4294053120
2.8590889 2.2417209 0.21693553 4294053120
2.8806813 2.2588089 0.19805229 4294183680
2.8829861 2.260787 0.17746723 4294183680
2.8604665 2.2433131 0.15532175 4294053120
2.2599633 1.7728888 0.10658551 4291572480
1.9190363 1.50583 0.076649427 4290136320
1.847894 1.4501848 0.060164496 4289744640
2.6389804 2.0703883 0.065400638 4293139200
2.8528714 2.2382183 0.049192175 4294053120
2.8723218 2.2536383 0.027960246 4294183680
2.8403907 2.2287765 0.0063220225 4294053120
2.8481905 2.2350631 -0.015084096 4294053120
2.8641129 2.2477202 -0.036704678 4294183680
2.8665504 2.2498043 -0.058246154 4294183680
2.8263927 2.218482 -0.078554131 4293922560
2.8631909 2.2475142 -0.10094385 4294183680
2.8873723 2.2666538 -0.12322924 4294183680
2.8839953 2.2641783 -0.14434673 4294183680
2.812531 2.2082868 -0.16131489 4293922560
2.8717074 2.2548833 -0.18559335 4294183680
2.8778164 2.2598484 -0.20668587 4294183680
2.8657846 2.2505791 -0.22620247 4294183680
2.745286 2.156189 -0.23591885 4293661440
2.8893745 2.2694342 -0.26843423 4294314240
2.9100034 2.2857969 -0.29025853 4294314240
2.9083457 2.2846682 -0.30966294 4294314240
2.8185036 2.2143152 -0.31868738 4293922560
2.7559845 2.1654012 -0.32947078 4293661440
2.901619 2.2799015 -0.36541983 4294314240
2.8955023 2.275269 -0.38266149 4294314240
2.8614824 2.2487252 -0.39553499 4294183680
2.7926717 2.1948564 -0.40253028 4293922560
2.6962962 2.1193314 -0.40412918 4293530880
2.8665733 2.2532222 -0.44579518 4294183680
2.8396428 2.232235 -0.4569976 4294183680
2.7904899 2.1937878 -0.46369764 4293922560
2.7886674 2.1925159 -0.47750139 4293922560
2.7263587 2.1437235 -0.48006675 4293661440
2.5804515 2.0292418 -0.46634176 4293008640
2.488848 1.9574112 -0.46084461 4292616960
2.3872604 1.8777243 -0.45212975 4292225280
2.3487694 1.8476096 -0.45430133 4292094720
2.2502398 1.7703056 -0.44377401 4291572480
2.2305703 1.7549709 -0.44789439 4291572480
2.1483278 1.6904497 -0.43854985 4291180800
2.143558 1.6868181 -0.44427541 4291180800
2.157459 1.697863 -0.45339587 4291180800
2.1683056 1.7065073 -0.46141744 4291311360
2.0990951 1.6522087 -0.45168039 4291050240
2.1131756 1.6633925 -0.45926121 4291050240
2.1273134 1.6746222 -0.46637806 4291180800
2.1384139 1.6834643 -0.47232977 4291180800
2.1449347 1.688705 -0.47674415 4291180800
2.0887604 1.6446365 -0.46657398 4290919680
2.0884664 1.6445137 -0.46831453 4290919680
2.159508 1.7005031 -0.4855935 4291311360
2.1593566 1.7004948 -0.48629454 4291311360
2.1438053 1.6883707 -0.48294848 4291180800
2.1368434 1.6830021 -0.48097861 4291180800
2.1183493 1.6685586 -0.47585329 4291050240
2.0960586 1.651125 -0.46934098 4291050240
2.1685462 1.7082698 -0.4835099 4291311360
2.1533706 1.6964345 -0.47746211 4291180800
2.1576185 1.6998832 -0.47518921 4291311360
2.1394806 1.6857128 -0.46744382 4291180800
2.2210901 1.7500513 -0.48088056 4291572480
2.2371848 1.7628268 -0.47933435 4291572480
2.3272746 1.8338521 -0.49287078 4291964160
2.3722243 1.8693489 -0.49590161 4292225280
2.4700036 1.9464413 -0.50901926 4292616960
2.5454135 2.0059302 -0.51639277 4292878080
2.5572932 2.0154023 -0.50996459 4293008640
2.5622456 2.0194204 -0.50150681 4293008640
2.6459532 2.0854561 -0.50758815 4293400320
2.7464099 2.1646888 -0.51557052 4293792000
2.8289385 2.2298105 -0.51881814 4294053120
2.8536417 2.2493949 -0.51037139 4294183680
2.8554187 2.2509227 -0.49711385 4294183680
2.8529396 2.2490976 -0.48255578 4294183680
2.8648889 2.2586374 -0.46985331 4294183680
2.8733315 2.2654152 -0.45594019 4294314240
2.8568506 2.2525575 -0.43759447 4294183680
2.8438394 2.2424314 -0.41945818 4294183680
2.8791194 2.2703531 -0.40787217 4294314240
2.8824914 2.2731352 -0.39107022 4294314240
2.8740897 2.2666392 -0.37226343 4294183680
2.8372173 2.2377055 -0.34962606 4294053120
2.8424013 2.2419126 -0.33200887 4294053120
2.8580534 2.25437 -0.31512061 4294183680
2.8494518 2.2477121 -0.29515472 4294183680
2.8236575 2.2275014 -0.27330843 4294053120
2.8477449 2.2466078 -0.25603151 4294053120
2.866396 2.2614307 -0.23768894 4294183680
2.8380151 2.2391772 -0.21523196 4294053120
2.7754169 2.1899445 -0.19057564 4293792000
2.836411 2.2381504 -0.17428477 4294053120
2.8446338 2.2447522 -0.15403105 4294053120
2.8224812 2.2274032 -0.13205183 4293922560
2.8108273 2.2183311 -0.1106787 4293922560
2.8405976 2.2419248 -0.09071026 4294053120
2.8343103 2.2370842 -0.069296859 4294053120
2.6767554 2.1129415 -0.045243457 4293400320
1.8587279 1.4678566 -0.016855819 4289875200
1.9459206 1.5367081 -0.003065245 4290266880
2.2716281 1.7937084 0.013229934 4291572480
2.7421122 2.1649423 0.03622378 4293661440
2.85255 2.2521791 0.05904201 4294053120
2.8631685 2.2606747 0.080705106 4294183680
2.8425894 2.2445574 0.10134707 4294053120
2.6750975 2.1125228 0.11534639 4293400320
2.8520763 2.2522802 0.14387733 4294053120
2.8506074 2.25124 0.16466753 4294053120
2.8297396 2.2348919 0.18400837 4294053120
2.6831262 2.1193063 0.19385783 4293400320
2.8606882 2.2595549 0.22687519 4294183680
2.8507268 2.2518132 0.24609825 4294183680
2.8139241 2.2228851 0.26242873 4293922560
2.6719506 2.1109378 0.26751876 4293400320
2.8560123 2.2563484 0.30496314 4294183680
2.8637326 2.2625649 0.32465792 4294183680
2.8306153 2.2365422 0.33923092 4294053120
2.7320583 2.1588514 0.34479737 4293661440
2.6202526 2.0706918 0.34700325 4293139200
2.8517952 2.253633 0.39470947 4294183680
2.8413854 2.2455373 0.41001168 4294183680
2.8004956 2.2133713 0.4201844 4293922560
2.71714 2.1476655 0.42285016 4293661440
2.6655703 2.1070571 0.42921892 4293400320
2.8535497 2.2556465 0.47417057 4294183680
2.8485999 2.2518644 0.48763266 4294183680
2.8306177 2.237788 0.49820861 4294183680
2.8180318 2.2279737 0.50901753 4294053120
2.7233539 2.1533058 0.50400877 4293661440
2.6573024 2.1012464 0.50300151 4293400320
2.8387191 2.2447054 0.54848647 4294183680
2.8415928 2.2471075 0.5597232 4294183680
2.8357751 2.2426429 0.56859946 4294183680
2.8349626 2.2421339 0.57779425 4294183680
2.8278565 2.2366517 0.5850175 4294183680
2.8346612 2.2421641 0.5944249 4294183680
2.8031278 2.2173762 0.59507143 4294053120
2.8169322 2.2284226 0.60456121 4294183680
2.7678647 2.1897724 0.59983563 4293922560
2.7779708 2.1978965 0.60709745 4293922560
2.7812014 2.2005866 0.61217558 4293922560
2.7883854 2.206404 0.61741775 4294053120
2.7910225 2.2086279 0.62094504 4294053120
2.7875717 2.206039 0.62239432 4294053120
2.7873082 2.2059712 0.62381864 4294053120
2.7832785 2.2029259 0.62366909 4294053120
2.7832091 2.2030134 0.62366945 4294053120
2.7716479 2.1940124 0.62037468 4293922560
2.8168776 2.2299316 0.62899202 4294183680
2.8171008 2.2302549 0.62683576 4294183680
2.8108277 2.22544 0.62250996 4294053120
2.8219407 2.2343802 0.62128115 4294183680
2.8214533 2.2341447 0.61676621 4294183680
2.8324907 2.2430286 0.61401892 4294183680
2.8377233 2.2473214 0.60926896 4294183680
2.827354 2.239269 0.60048378 4294183680
2.8374145 2.2473848 0.5953179 4294183680
2.827497 2.2396905 0.5852859 4294183680
2.8187897 2.2329543 0.57487732 4294183680
2.8075216 2.2241907 0.56334507 4294053120
2.8356686 2.2466288 0.55897391 4294183680
2.8395638 2.249871 0.54908252 4294183680
2.8426747 2.2524936 0.53837991 4294183680
2.8288612 2.2417166 0.52391189 4294183680
2.8027024 2.2224536 0.42962235 4294053120
2.8312774 2.2452588 0.41802239 4294053120
2.8452997 2.2565362 0.40357208 4294183680
2.8203752 2.2369514 0.3832415 4294053120
2.8010023 2.2217636 0.36349782 4293922560
2.8217351 2.2383623 0.34850913 4294053120
2.8239524 2.2402871 0.33071479 4294053120
2.8043623 2.2249258 0.31012824 4293922560
2.7894778 2.2132926 0.28994 4293922560
2.8224721 2.2396188 0.27424526 4294053120
2.8234921 2.2405968 0.25493339 4294053120
2.8120582 2.2316997 0.23429641 4293922560
2.8082321 2.2288349 0.21413483 4293922560
2.8218884 2.2398348 0.19498575 4294053120
2.8359087 2.2511251 0.17544676 4294053120
2.7896342 2.2145917 0.15226264 4293922560
2.1493418 1.7068409 0.10196181 4291180800
1.8834699 1.4960488 0.075635709 4290005760
1.8352027 1.4578688 0.060062513 4289744640
2.5851741 2.053041 0.064437181 4293008640
2.8095062 2.2312067 0.048735544 4293922560
2.8213398 2.2407684 0.027662994 4294053120
2.789557 2.2157164 0.0063091032 4293792000
2.7973211 2.2220483 -0.014811936 4293922560
2.8131711 2.2347996 -0.036147524 4293922560
2.8116851 2.2337909 -0.057322405 4293922560
2.7834644 2.2115586 -0.077653833 4293792000
2.8161814 2.2377026 -0.099678375 4293922560
2.8363428 2.2538817 -0.12154183 4294053120
2.8329899 2.2513916 -0.14238088 4294053120
2.7689087 2.2006755 -0.15948413 4293792000
2.8278179 2.2476273 -0.18353896 4294053120
2.8307807 2.2501514 -0.20418373 4294053120
2.8149087 2.2377152 -0.22314866 4294053120
2.7098284 2.1544139 -0.23389381 4293530880
2.8426297 2.2600763 -0.26525122 4294183680
2.8523166 2.2679429 -0.28575355 4294183680
2.8436849 2.2612555 -0.30410904 4294183680
2.7237115 2.1660953 -0.30930844 4293661440
2.6682401 2.1221769 -0.32037634 4293400320
