# .PCD v0.7 - Point Cloud Data file format
VERSION 0.7
FIELDS x y z rgba
SIZE 4 4 4 4
TYPE F F F U
COUNT 1 1 1 1
WIDTH 1102
HEIGHT 1
VIEWPOINT 0 0 0 1 0 0 0
POINTS 1102
DATA ascii
1.9202272 -1.2090758 -0.14052047 4289483520
1.9192873 -1.2084122 -0.15298785 4289483520
1.9218848 -1.2099726 -0.16558495 4289483520
1.9416356 -1.2223178 -0.17963694 4289614080
1.943547 -1.2234455 -0.19196446 4289614080
1.932681 -1.2165403 -0.20275444 4289614080
1.8551527 -1.1677303 -0.20573868 4289352960
1.9317828 -1.2158277 -0.22571354 4289614080
1.9412658 -1.2217137 -0.23804459 4289614080
1.938251 -1.219744 -0.2486074 4289614080
1.9239557 -1.2106847 -0.25734293 4289614080
1.8506559 -1.164546 -0.25738153 4289352960
1.9471891 -1.2251344 -0.28100508 4289744640
1.9462017 -1.2244376 -0.29065922 4289744640
1.946782 -1.2247257 -0.30022055 4289744640
1.9411525 -1.2211119 -0.308458 4289614080
1.9176444 -1.2062663 -0.31336015 4289614080
1.9225854 -1.2092937 -0.32249418 4289614080
1.9316386 -1.2149037 -0.33201405 4289614080
1.9340897 -1.2163656 -0.34006336 4289614080
1.9358122 -1.2173693 -0.34761217 4289614080
1.9327343 -1.2153578 -0.35389331 4289614080
1.9302968 -1.2137482 -0.35986754 4289614080
1.9302424 -1.213635 -0.36586598 4289614080
1.9214203 -1.2080162 -0.36974898 4289614080
1.9144766 -1.2035768 -0.37352404 4289614080
1.9089531 -1.2000294 -0.37711325 4289614080
1.8823282 -1.1832349 -0.37600878 4289483520
1.8711145 -1.1761166 -0.37747687 4289483520
1.8485934 -1.161901 -0.37615487 4289352960
1.860744 -1.169449 -0.38145551 4289352960
1.8159056 -1.1412282 -0.37454709 4289222400
1.8081604 -1.1362897 -0.37481609 4289222400
1.8154931 -1.1408132 -0.37778252 4289222400
1.8153821 -1.1406649 -0.37875876 4289222400
1.8153354 -1.1405566 -0.37930587 4289222400
1.8598721 -1.1684194 -0.38876215 4289352960
1.8557868 -1.1657746 -0.38756794 4289352960
1.869676 -1.1744053 -0.38968307 4289483520
1.8806102 -1.1811808 -0.39071181 4289483520
1.9027748 -1.194999 -0.39359856 4289614080
1.9122109 -1.2008317 -0.3933529 4289614080
1.9214201 -1.2065207 -0.39257842 4289614080
1.9274887 -1.2102391 -0.39068037 4289614080
1.9315076 -1.2126713 -0.38789392 4289614080
1.9370903 -1.2160833 -0.38495332 4289744640
1.9366478 -1.2157167 -0.38035423 4289744640
1.9305946 -1.2118324 -0.37422565 4289614080
1.9253348 -1.2084458 -0.36784956 4289614080
1.910499 -1.1990567 -0.35927206 4289614080
1.9033455 -1.1944838 -0.35179958 4289483520
1.9042261 -1.1949462 -0.34543473 4289483520
1.9173371 -1.2030725 -0.3408522 4289614080
1.9346749 -1.213846 -0.33652139 4289614080
1.927277 -1.2091186 -0.32744962 4289614080
1.9202743 -1.2046392 -0.31813321 4289614080
1.9014546 -1.192757 -0.30660254 4289483520
1.9116846 -1.1990741 -0.29946929 4289483520
1.9314023 -1.2113327 -0.29335201 4289614080
1.9366626 -1.2145339 -0.2845785 4289614080
1.9182549 -1.2029115 -0.27205822 4289614080
1.8986373 -1.1905328 -0.25925937 4289483520
1.9275683 -1.2085564 -0.25278854 4289614080
1.9346583 -1.2129014 -0.24295959 4289614080
1.9411526 -1.2168725 -0.23271078 4289614080
1.8992628 -1.1905521 -0.21657258 4289483520
1.913252 -1.1992157 -0.20677719 4289483520
1.9320933 -1.2109146 -0.19708654 4289614080
1.9280471 -1.2082864 -0.18473747 4289614080
1.8986161 -1.1897715 -0.16994345 4289483520
1.9265841 -1.2071794 -0.16016024 4289614080
1.9320401 -1.2104975 -0.14809895 4289614080
1.9300303 -1.2091438 -0.13527715 4289614080
1.9101803 -1.1966283 -0.12118853 4289483520
1.9132481 -1.1984519 -0.10855613 4289483520
1.9126929 -1.1980089 -0.095582299 4289483520
1.9073931 -1.1945981 -0.082305282 4289483520
1.8912927 -1.1844325 -0.068611525 4289352960
1.9132953 -1.1980981 -0.056222942 4289483520
1.9227471 -1.2039126 -0.043177754 4289483520
1.9109606 -1.1964461 -0.029607221 4289483520
1.9242541 -1.2046617 -0.016409015 4289483520
1.9366897 -1.2123399 -0.0030077405 4289614080
1.9399242 -1.2142646 0.01052722 4289614080
1.9167552 -1.1996844 0.023792557 4289483520
1.977375 -1.2374783 0.038246289 4289744640
1.9856824 -1.2425711 0.052175008 4289744640
1.9697112 -1.2324904 0.065378569 4289744640
1.8053187 -1.1296638 0.072493039 4289091840
1.9603813 -1.2264634 0.091932587 4289614080
1.9801034 -1.2386876 0.1062528 4289744640
1.9605182 -1.226353 0.11838862 4289614080
1.8070331 -1.1303738 0.1212964 4289091840
1.899666 -1.1881465 0.1399007 4289483520
1.858098 -1.1620889 0.14895219 4289222400
1.9368302 -1.2111684 0.1675822 4289614080
1.7969531 -1.1237197 0.16697089 4289091840
1.9958613 -1.2478384 0.19760765 4289875200
1.9992524 -1.2498573 0.21012945 4289875200
1.9924252 -1.2454963 0.2213345 4289875200
1.923125 -1.2021343 0.2249745 4289614080
1.7708246 -1.1069664 0.21747102 4288961280
1.9918723 -1.2448583 0.25547704 4289875200
1.9844323 -1.2401174 0.2653363 4289744640
1.9662647 -1.2286825 0.27333841 4289744640
1.8659918 -1.1660113 0.26910087 4289352960
1.7463348 -1.0912542 0.26067808 4288830720
1.9805462 -1.2373086 0.30485737 4289744640
1.9796445 -1.2366511 0.31388885 4289744640
1.9698756 -1.230462 0.32111964 4289744640
1.9394807 -1.2114073 0.3244727 4289614080
1.8841269 -1.1767873 0.32295376 4289483520
1.8281348 -1.1417747 0.3205139 4289222400
1.9667046 -1.228111 0.35186318 4289744640
1.9658834 -1.2275068 0.35853887 4289744640
1.9562941 -1.2214352 0.36317775 4289744640
1.9400594 -1.2112215 0.36609012 4289614080
1.9329073 -1.2066723 0.37021142 4289614080
1.9332365 -1.2067885 0.37530723 4289614080
1.9230471 -1.2003478 0.3779138 4289614080
1.9308866 -1.2051468 0.38359344 4289614080
1.8857462 -1.1769227 0.37829551 4289483520
1.8853389 -1.1765835 0.38138601 4289483520
1.8891733 -1.1788883 0.38488784 4289483520
1.9089572 -1.1911325 0.39119765 4289614080
1.8928432 -1.1810064 0.38974541 4289483520
1.9002081 -1.1855115 0.39263061 4289483520
1.8959324 -1.1827637 0.39266759 4289483520
1.8925589 -1.1805789 0.39242646 4289483520
1.8842351 -1.175311 0.3907035 4289483520
1.8843379 -1.1752932 0.39025843 4289483520
1.8803253 -1.1727124 0.38851005 4289483520
1.9210173 -1.1979754 0.3954581 4289614080
1.9426247 -1.21135 0.39798647 4289744640
1.9271005 -1.2016 0.39248452 4289614080
1.9531058 -1.2177117 0.39491099 4289744640
1.9490064 -1.215077 0.39079431 4289744640
1.9628618 -1.2236218 0.38977963 4289744640
1.967337 -1.2263262 0.38642263 4289744640
1.9638222 -1.2240567 0.38105455 4289744640
1.9523063 -1.2168072 0.37373886 4289744640
1.9523213 -1.2167364 0.368213 4289744640
1.9497924 -1.2150828 0.36179161 4289744640
1.9748836 -1.2306194 0.35996997 4289744640
1.982937 -1.2355515 0.35453799 4289875200
1.9754777 -1.2308298 0.34594214 4289744640
1.9617226 -1.2221918 0.33593482 4289744640
1.9645914 -1.223412 0.27838978 4289744640
1.9834551 -1.2350674 0.27070728 4289744640
1.9849666 -1.2359308 0.26026583 4289744640
1.9550724 -1.2172648 0.24560645 4289614080
1.9315656 -1.2025732 0.23176537 4289614080
1.8730026 -1.1660869 0.21397042 4289352960
1.8696777 -1.1639483 0.20254238 4289352960
1.93892 -1.2069242 0.19827032 4289614080
1.9427681 -1.2092428 0.18672326 4289614080
1.9629607 -1.2217212 0.1763736 4289744640
1.9756206 -1.2295161 0.16495463 4289744640
1.9506309 -1.2139097 0.15033107 4289614080
1.9678885 -1.2245619 0.13880174 4289744640
1.9819806 -1.2332458 0.12669487 4289744640
1.9700941 -1.2257851 0.11280171 4289744640
1.9481063 -1.2120485 0.098444246 4289614080
1.9479156 -1.2118572 0.085207269 4289614080
1.9595517 -1.2190142 0.072304107 4289614080
1.9452749 -1.2100714 0.058410414 4289614080
1.9135152 -1.1902688 0.044262644 4289483520
1.9307991 -1.2009343 0.03125019 4289483520
1.935192 -1.2035911 0.017857008 4289614080
1.9204127 -1.1943394 0.0043579182 4289483520
1.9112799 -1.1885957 -0.0089732315 4289483520
1.9224827 -1.1954823 -0.022425525 4289483520
1.9161689 -1.1914898 -0.035667405 4289483520
1.9220175 -1.1950502 -0.049106568 4289483520
1.9230204 -1.1956015 -0.062412728 4289483520
1.9392977 -1.2056365 -0.07628125 4289614080
1.9446665 -1.2088975 -0.089777455 4289614080
1.9362967 -1.2036285 -0.10251062 4289614080
1.9406381 -1.2062513 -0.11579073 4289614080
1.9470346 -1.2101493 -0.12914236 4289614080
1.9485728 -1.211031 -0.14208074 4289614080
1.9289535 -1.1987805 -0.15318663 4289483520
1.9450314 -1.2086865 -0.16696835 4289614080
1.9549806 -1.2147875 -0.18020311 4289614080
1.9591393 -1.2172943 -0.19279151 4289614080
1.9516147 -1.2125508 -0.20398945 4289614080
1.8877299 -1.1728365 -0.20859618 4289352960
1.943092 -1.2071141 -0.22619559 4289614080
1.9602137 -1.2176622 -0.23948611 4289744640
1.9571817 -1.215706 -0.25011465 4289744640
1.9428278 -1.2067264 -0.25891432 4289614080
1.8692534 -1.1610132 -0.25901568 4289352960
1.9627597 -1.2189388 -0.28221124 4289744640
1.9713372 -1.2241822 -0.29333925 4289744640
1.9699254 -1.2232296 -0.30268019 4289744640
1.9522915 -1.2122167 -0.30908638 4289744640
1.9406643 -1.2049298 -0.31596494 4289614080
1.9414083 -1.2053143 -0.32446074 4289614080
1.9435902 -1.2065898 -0.33284205 4289614080
1.9495804 -1.2102262 -0.34153235 4289744640
1.951305 -1.211217 -0.34911248 4289744640
1.9515709 -1.2113032 -0.35603872 4289744640
1.9541559 -1.2128265 -0.36299115 4289744640
1.9415071 -1.2049069 -0.36665484 4289614080
1.9284565 -1.1967391 -0.36974338 4289614080
1.9298723 -1.1975372 -0.37515578 4289614080
1.9201338 -1.1914226 -0.37793791 4289614080
1.8967618 -1.1768602 -0.37751332 4289483520
1.8938829 -1.1749972 -0.38068748 4289483520
1.8796513 -1.1661004 -0.3810983 4289483520
1.879279 -1.1657906 -0.38386062 4289483520
1.8267381 -1.1331624 -0.37541348 4289222400
1.8223125 -1.1303431 -0.37638232 4289222400
1.8305076 -1.1353412 -0.37953019 4289222400
1.8345804 -1.137785 -0.38138568 4289222400
1.8345325 -1.137676 -0.3819381 4289222400
1.8783942 -1.1647587 -0.39122206 4289483520
1.8784794 -1.1647294 -0.3909016 4289483520
1.8924198 -1.1732786 -0.39301211 4289483520
1.8992088 -1.1773983 -0.39316279 4289483520
1.9222927 -1.1916053 -0.39621451 4289614080
1.9309273 -1.196865 -0.39578462 4289614080
1.9401718 -1.2025009 -0.39499643 4289614080
1.9462647 -1.206185 -0.39308202 4289744640
1.9427571 -1.2039261 -0.38876149 4289744640
1.952553 -1.2099003 -0.3866477 4289744640
1.9512722 -1.2090186 -0.38186705 4289744640
1.9517409 -1.209219 -0.37699023 4289744640
1.9357255 -1.1992198 -0.36852533 4289614080
1.9304178 -1.1958466 -0.36174262 4289614080
1.9186978 -1.1885064 -0.35339114 4289614080
1.9195848 -1.1889656 -0.34700051 4289614080
1.9327468 -1.1970171 -0.34239069 4289614080
1.9535165 -1.2097723 -0.33861691 4289744640
1.9587228 -1.2129002 -0.33164826 4289744640
1.939074 -1.2006564 -0.32013786 4289614080
1.921034 -1.189409 -0.30869412 4289614080
1.9270922 -1.1930633 -0.30084512 4289614080
1.9522467 -1.2085233 -0.29550686 4289614080
1.9555451 -1.2104686 -0.28637618 4289744640
1.9344695 -1.1973462 -0.27342775 4289614080
1.9224625 -1.189831 -0.26163387 4289483520
1.9430538 -1.2024649 -0.2539643 4289614080
1.9479326 -1.2053858 -0.24380906 4289614080
1.9600804 -1.212798 -0.23420458 4289614080
1.9180435 -1.1867267 -0.21799873 4289483520
1.9363247 -1.1979284 -0.20859595 4289614080
1.9476143 -1.2048086 -0.19802931 4289614080
1.9522914 -1.2076023 -0.1864718 4289614080
1.9087464 -1.1806071 -0.17030853 4289483520
1.9432923 -1.2018515 -0.16105013 4289614080
1.9594595 -1.211741 -0.14975473 4289614080
1.9455597 -1.2030598 -0.13596047 4289614080
1.9171444 -1.1854161 -0.12127148 4289483520
1.9329706 -1.1950935 -0.10937354 4289483520
1.9324168 -1.1946557 -0.096315406 4289483520
1.9305019 -1.1933775 -0.083102629 4289483520
1.9062679 -1.1783209 -0.068999052 4289483520
1.9279253 -1.191595 -0.056544237 4289483520
1.9351165 -1.1959378 -0.043394078 4289483520
1.9298384 -1.1925838 -0.029894616 4289483520
1.9358718 -1.1962112 -0.016545743 4289483520
1.9599175 -1.2109531 -0.0031435618 4289614080
1.967419 -1.2154843 0.010521514 4289614080
1.954005 -1.2071099 0.024040535 4289614080
1.9817522 -1.224131 0.038096566 4289744640
1.9955143 -1.2325221 0.052141372 4289744640
1.9908675 -1.2295567 0.065727815 4289744640
1.8762909 -1.1587881 0.074905165 4289352960
1.9749932 -1.2195686 0.092175372 4289744640
1.9824712 -1.2240822 0.10589965 4289744640
1.9638311 -1.2124898 0.11806426 4289614080
1.8382647 -1.1349695 0.12282559 4289222400
1.9357436 -1.1949785 0.14191268 4289614080
1.9469945 -1.2018192 0.1553243 4289614080
1.9472835 -1.2019014 0.16777611 4289614080
1.8484827 -1.1409054 0.170993 4289222400
2.0101733 -1.2404722 0.19819808 4289875200
2.0208426 -1.2469492 0.21151628 4289875200
2.0102754 -1.2403386 0.22240095 4289875200
1.9137121 -1.1807383 0.22299042 4289483520
1.9291741 -1.1901722 0.23578285 4289483520
1.9969147 -1.2318138 0.2551069 4289875200
1.9904634 -1.2277429 0.26509029 4289744640
1.9640652 -1.2113855 0.27196735 4289744640
1.9294194 -1.1899508 0.277089 4289614080
1.9042258 -1.1743413 0.28294232 4289483520
1.9983726 -1.2322319 0.30639267 4289875200
1.9868557 -1.2250445 0.31381145 4289744640
1.9677092 -1.2131605 0.3195388 4289744640
1.9120977 -1.1788263 0.3187013 4289483520
1.8516287 -1.1415071 0.31621414 4289222400
1.7805684 -1.0976737 0.31104949 4288961280
1.9692397 -1.2137328 0.35098001 4289744640
1.9688319 -1.2133901 0.35771787 4289744640
1.9465389 -1.1995779 0.36001855 4289614080
1.9403616 -1.1956863 0.36477304 4289614080
1.8947945 -1.1675553 0.36160019 4289483520
1.9143404 -1.1794963 0.37027541 4289483520
1.8619186 -1.1471539 0.36461467 4289352960
1.8773644 -1.1565727 0.37164247 4289352960
1.8810997 -1.1587861 0.37597328 4289483520
1.8848906 -1.1610335 0.37988928 4289483520
1.9004916 -1.1705459 0.38575509 4289483520
1.9002018 -1.1702833 0.38798565 4289483520
1.9041716 -1.1726408 0.39062926 4289483520
1.9040093 -1.1724572 0.39197591 4289483520
1.9114648 -1.1769586 0.39442471 4289483520
1.908078 -1.1747928 0.39418948 4289483520
1.8997232 -1.1695729 0.39247048 4289483520
1.8880774 -1.162331 0.3896178 4289483520
1.8840488 -1.1597733 0.38787484 4289483520
1.8800844 -1.1572559 0.38569474 4289483520
1.9279757 -1.1866144 0.39359134 4289614080
1.9241449 -1.1841785 0.39048985 4289614080
1.8968601 -1.1673282 0.38224438 4289483520
1.9379827 -1.1925213 0.38722175 4289614080
1.9515345 -1.2007686 0.38617674 4289744640
1.9702721 -1.2122018 0.38563514 4289744640
1.9663275 -1.209697 0.38020131 4289744640
1.9712579 -1.2126458 0.37602738 4289744640
1.9724481 -1.2132965 0.37069198 4289744640
1.9625639 -1.2071446 0.36288577 4289744640
1.9794236 -1.2174219 0.35954869 4289744640
1.9803271 -1.2178974 0.35285959 4289744640
1.9843981 -1.2203186 0.34630722 4289744640
1.9662088 -1.2090685 0.33555382 4289744640
2.0080767 -1.2344075 0.28348455 4289875200
2.0302403 -1.2479372 0.27604786 4290005760
2.0287519 -1.2469453 0.26500407 4290005760
2.0073259 -1.2337152 0.25120637 4289875200
1.9745256 -1.213505 0.23601903 4289744640
1.9636151 -1.2067332 0.22340852 4289614080
1.977208 -1.2150012 0.21329349 4289744640
1.9612327 -1.2051224 0.19980037 4289614080
1.96636 -1.2081947 0.18827766 4289614080
1.9828554 -1.2182429 0.17748941 4289744640
1.9811219 -1.2171048 0.16480161 4289744640
1.9487749 -1.1971838 0.14963655 4289614080
1.9795506 -1.2159925 0.13909437 4289744640
1.9968877 -1.2265546 0.12715554 4289744640
1.9808047 -1.2166141 0.11297637 4289744640
1.9371338 -1.1897526 0.097527862 4289483520
1.9693645 -1.20945 0.08579012 4289614080
1.9699711 -1.2097489 0.072390914 4289614080
1.9684263 -1.2087286 0.058841944 4289614080
1.9438055 -1.1935568 0.044741511 4289614080
1.9496398 -1.1970625 0.03139136 4289614080
1.945524 -1.1944666 0.017844161 4289614080
1.9477415 -1.1957544 0.0043416657 4289614080
1.9231639 -1.1806136 -0.0090450766 4289483520
1.9378825 -1.1895661 -0.022577865 4289483520
1.939217 -1.1903125 -0.036029775 4289483520
1.9450841 -1.1938373 -0.049582094 4289614080
1.9430289 -1.1925055 -0.062898889 4289614080
1.9581596 -1.2017075 -0.076810494 4289614080
1.9720637 -1.2101566 -0.090788856 4289614080
1.9513984 -1.1974186 -0.10300234 4289614080
1.9560884 -1.2002201 -0.11635847 4289614080
1.9625046 -1.2040789 -0.12976746 4289614080
1.9673434 -1.2069706 -0.14300495 4289614080
1.9536238 -1.1984911 -0.1546654 4289614080
1.9638851 -1.2047046 -0.16805424 4289614080
1.9696141 -1.2081406 -0.18097028 4289744640
1.9780325 -1.2132235 -0.19402666 4289744640
1.9628311 -1.2038373 -0.2044939 4289614080
1.9148461 -1.1743715 -0.21091457 4289483520
1.96191 -1.2031244 -0.22764242 4289614080
1.9756937 -1.2114913 -0.24058498 4289744640
1.9716933 -1.2089661 -0.25113815 4289744640
1.9497632 -1.1954614 -0.25897273 4289614080
1.8886293 -1.1579528 -0.26083654 4289352960
1.9773831 -1.2122226 -0.28336719 4289744640
1.98484 -1.2167114 -0.29436138 4289744640
1.9876007 -1.2183244 -0.30437583 4289744640
1.9755017 -1.2108402 -0.31171787 4289744640
1.9560363 -1.1988475 -0.31739682 4289614080
1.9567784 -1.1992247 -0.32592717 4289744640
1.9616668 -1.2021394 -0.33480474 4289744640
1.9683452 -1.2061487 -0.34365439 4289744640
1.9731889 -1.2090344 -0.35183439 4289744640
1.9669602 -1.2051439 -0.35762566 4289744640
1.9687083 -1.2061344 -0.36444703 4289744640
1.9639611 -1.2031503 -0.36963353 4289744640
1.9580745 -1.1994689 -0.37414744 4289744640
1.9527442 -1.196128 -0.37830529 4289744640
1.9429659 -1.1900662 -0.3811228 4289614080
1.9352469 -1.1852646 -0.38386357 4289614080
1.9082042 -1.1686438 -0.38224152 4289483520
1.8863547 -1.1552011 -0.38112813 4289483520
1.9019494 -1.1646593 -0.38715008 4289483520
1.8492187 -1.1323333 -0.37871918 4289352960
1.8447751 -1.1295379 -0.37970114 4289222400
1.8487973 -1.1319188 -0.38198739 4289352960
1.8444833 -1.1292022 -0.38209957 4289222400
1.8444351 -1.1290936 -0.3826499 4289222400
1.9010539 -1.1636254 -0.3945556 4289483520
1.910776 -1.1694857 -0.39623427 4289483520
1.9067299 -1.1669294 -0.3945848 4289483520
1.910183 -1.1689563 -0.39403132 4289483520
1.9409132 -1.1876523 -0.39863452 4289614080
1.9504212 -1.1933768 -0.39836007 4289744640
1.9554981 -1.1963922 -0.39669535 4289744640
1.9611442 -1.1997547 -0.3946687 4289744640
1.9690981 -1.2045261 -0.39262554 4289744640
1.9713695 -1.205825 -0.38897014 4289744640
1.9697615 -1.2047534 -0.3840948 4289744640
1.9731867 -1.206756 -0.37975538 4289744640
1.9579623 -1.1973672 -0.37140808 4289744640
1.9529676 -1.194227 -0.36463782 4289744640
1.9373435 -1.1845956 -0.3555207 4289614080
1.9340216 -1.1824775 -0.34832385 4289614080
1.9545748 -1.1949371 -0.34498385 4289614080
1.9723028 -1.2056698 -0.34060788 4289744640
1.9775336 -1.2087708 -0.33358839 4289744640
1.958666 -1.1971601 -0.32216537 4289744640
1.9278839 -1.1782783 -0.30862305 4289614080
1.9500387 -1.1917095 -0.3032822 4289614080
1.9656783 -1.201162 -0.29640684 4289744640
1.9667516 -1.2017233 -0.28691199 4289744640
1.9524561 -1.1929061 -0.27490956 4289614080
1.9365214 -1.1830897 -0.2625244 4289614080
1.9649945 -1.2003686 -0.25583398 4289614080
1.9732515 -1.2053114 -0.24601337 4289744640
1.975558 -1.2066231 -0.23511596 4289744640
1.9333751 -1.1807972 -0.21885987 4289483520
1.9543492 -1.1934959 -0.20968623 4289614080
1.96646 -1.2007869 -0.19912797 4289614080
1.9751565 -1.2059946 -0.18787764 4289744640
1.9370136 -1.1826396 -0.17211296 4289483520
1.9694507 -1.2023227 -0.16252685 4289614080
1.9686935 -1.2017646 -0.14979661 4289614080
1.9644182 -1.1990618 -0.136667 4289614080
1.9444308 -1.1867813 -0.12244319 4289614080
1.9549444 -1.1930941 -0.11009805 4289614080
1.9539689 -1.1924034 -0.096914783 4289614080
1.9493165 -1.1894718 -0.083480887 4289614080
1.9331048 -1.1794966 -0.06959492 4289483520
1.9498444 -1.1896012 -0.05684863 4289614080
1.9683813 -1.2007993 -0.043855052 4289614080
1.9552193 -1.1926833 -0.030043747 4289614080
1.9602516 -1.1956524 -0.016554976 4289614080
1.9748193 -1.2044294 -0.0030044478 4289614080
1.9778249 -1.2061626 0.01069749 4289614080
1.867764 -1.1390336 0.023142697 4289222400
2.0018334 -1.2205882 0.038498968 4289744640
1.9984852 -1.2184507 0.052204043 4289744640
2.0325274 -1.2390801 0.067000918 4289875200
2.0963688 -1.2778493 0.08334484 4290136320
2.082669 -1.2694058 0.09692923 4290136320
2.0987651 -1.2791018 0.1117798 4290136320
2.1194806 -1.2916081 0.12699449 4290266880
2.1148891 -1.2887096 0.14068456 4290266880
1.943591 -1.1843544 0.14214413 4289614080
1.9871376 -1.2107596 0.15809457 4289744640
2.0973272 -1.2777128 0.18008289 4290136320
2.09181 -1.2742537 0.19271798 4290136320
2.1701672 -1.3218246 0.21322986 4290397440
2.1777694 -1.3263441 0.2271505 4290528000
2.1734965 -1.3236393 0.23961206 4290528000
2.1775916 -1.3260252 0.25271919 4290528000
2.1850178 -1.3304369 0.26599327 4290528000
2.0985193 -1.277727 0.26719221 4290136320
2.0942433 -1.2750261 0.27797189 4290136320
2.1123421 -1.2859312 0.29145721 4290266880
2.1194661 -1.290162 0.3032425 4290266880
2.1709874 -1.3213847 0.32128096 4290528000
1.9868829 -1.2093606 0.30370584 4289744640
1.9782914 -1.2040442 0.31149793 4289744640
1.9731058 -1.2007991 0.3194055 4289744640
1.9072721 -1.1606941 0.31689963 4289483520
1.8987772 -1.1554425 0.32317689 4289483520
1.8392832 -1.1192002 0.32020211 4289222400
1.9613841 -1.1933086 0.34846199 4289744640
1.9357487 -1.1776421 0.3506045 4289614080
1.9115905 -1.1628758 0.35244173 4289483520
1.9429417 -1.1818342 0.36405435 4289614080
1.8803539 -1.1437262 0.35767567 4289352960
1.8999761 -1.1555597 0.36629209 4289483520
1.9314406 -1.1745844 0.37687546 4289614080
1.9553536 -1.1890205 0.38568029 4289744640
1.959085 -1.1911989 0.39013654 4289744640
1.9670871 -1.1959708 0.39500245 4289744640
1.8891535 -1.148563 0.38215491 4289483520
1.8846545 -1.1457483 0.38350555 4289352960
1.9046432 -1.1578007 0.38937241 4289483520
1.9002711 -1.1550633 0.38984862 4289483520
1.9170169 -1.1651456 0.39417809 4289483520
1.9203553 -1.1670891 0.39531326 4289614080
1.8926038 -1.1501632 0.38962364 4289483520
1.9618287 -1.1920938 0.40330172 4289744640
1.9535815 -1.1870055 0.40066084 4289744640
1.9378191 -1.1773582 0.39603305 4289614080
1.9263303 -1.1703055 0.39183146 4289614080
1.9064757 -1.1581786 0.38551432 4289483520
1.8664478 -1.1338151 0.37477329 4289352960
1.9371985 -1.1766574 0.38563618 4289614080
1.8930596 -1.149803 0.37328348 4289483520
1.9296709 -1.1719319 0.37632337 4289614080
1.9799883 -1.202371 0.38138378 4289744640
1.9797442 -1.2021425 0.37620315 4289744640
1.9847455 -1.2050952 0.37156299 4289744640
1.9768572 -1.2002318 0.36410439 4289744640
1.9697958 -1.1958709 0.35642302 4289744640
2.0028262 -1.2158189 0.35544664 4289875200
2.0080047 -1.2188789 0.34901771 4289875200
2.0453794 -1.2414571 0.34758443 4290005760
2.2635691 -1.3730868 0.31812704 4290789120
2.2838972 -1.385317 0.30915049 4290919680
2.3139966 -1.403466 0.30087462 4291050240
2.2825162 -1.3843062 0.2843253 4290919680
2.2062483 -1.3380167 0.26252148 4290658560
2.0514774 -1.2441798 0.23247652 4290005760
2.0426958 -1.2387834 0.21950239 4290005760
2.1990185 -1.3333881 0.22296941 4290528000
2.2965367 -1.3923669 0.21875504 4290919680
2.3064671 -1.3982948 0.2053808 4290919680
2.3364162 -1.4163451 0.19329418 4291050240
2.3697517 -1.4364437 0.18087022 4291180800
2.2196956 -1.3454974 0.15516862 4290658560
2.1304674 -1.2913914 0.13504776 4290266880
2.0940461 -1.2692622 0.1189008 4290136320
1.9965852 -1.2101835 0.10010882 4289744640
1.9828875 -1.2018179 0.086066023 4289744640
1.9850215 -1.2030364 0.072678007 4289744640
1.985917 -1.2035053 0.059145637 4289744640
1.9664947 -1.1916771 0.045090288 4289614080
1.9610678 -1.1883204 0.031462736 4289614080
1.9697099 -1.1934781 0.017989781 4289614080
1.963358 -1.1895621 0.0043582483 4289614080
1.9476072 -1.1799592 -0.0091380971 4289483520
1.9569675 -1.185551 -0.022723496 4289614080
1.9562296 -1.1850325 -0.036218137 4289614080
1.9741447 -1.1957989 -0.050155822 4289614080
1.9663839 -1.1910313 -0.063434333 4289614080
1.9808607 -1.199716 -0.077428803 4289614080
1.9830245 -1.2009517 -0.090961471 4289744640
1.9843162 -1.2016597 -0.10437935 4289744640
1.9775195 -1.1974758 -0.1172159 4289614080
1.9803635 -1.1991223 -0.13047975 4289744640
1.9954491 -1.2081715 -0.14453746 4289744640
1.9832425 -1.2007161 -0.15645823 4289744640
1.9796858 -1.1984917 -0.16879775 4289744640
1.9931093 -1.2065338 -0.18247767 4289744640
1.9955764 -1.2079508 -0.19504587 4289744640
1.9883291 -1.2034947 -0.20641464 4289744640
1.9368896 -1.1723249 -0.21258257 4289483520
1.9911032 -1.2050217 -0.23021166 4289744640
1.996917 -1.2084603 -0.24230134 4289744640
1.9932004 -1.2061384 -0.25297168 4289744640
1.9753591 -1.1952801 -0.26143998 4289744640
1.9072725 -1.1540594 -0.2624706 4289483520
2.003684 -1.2122447 -0.28611594 4289875200
2.0004172 -1.2101938 -0.29560927 4289875200
1.9946969 -1.2066603 -0.30436283 4289744640
1.9910362 -1.2043712 -0.31304541 4289744640
1.9830313 -1.1994579 -0.32063586 4289744640
1.9787606 -1.1968005 -0.3284162 4289744640
1.9870007 -1.2017001 -0.33792531 4289744640
1.9860748 -1.2010624 -0.34551436 4289744640
1.9802308 -1.1974542 -0.35182488 4289744640
1.9935068 -1.2053931 -0.3611691 4289875200
1.9834085 -1.1992152 -0.36586061 4289744640
1.9828005 -1.1987684 -0.37185422 4289744640
1.9726638 -1.1925678 -0.37559482 4289744640
1.9720453 -1.1921144 -0.38069057 4289744640
1.954118 -1.181211 -0.38194728 4289614080
1.9497459 -1.1784916 -0.38536796 4289614080
1.9427252 -1.1741734 -0.38779274 4289614080
1.9272228 -1.1647359 -0.38802707 4289614080
1.917166 -1.158586 -0.38886839 4289483520
1.9126325 -1.1557698 -0.3903603 4289483520
1.8555683 -1.1212531 -0.38057303 4289352960
1.8680348 -1.1286975 -0.38460615 4289352960
1.8594887 -1.1234616 -0.3838532 4289352960
1.9120263 -1.1550803 -0.39531857 4289483520
1.9120439 -1.155009 -0.39544085 4289483520
1.9302309 -1.165898 -0.39886886 4289614080
1.9327856 -1.1673555 -0.39858496 4289614080
1.9445761 -1.1743832 -0.39973807 4289614080
1.9596212 -1.1833721 -0.40107474 4289744640
1.9730622 -1.1913921 -0.40158537 4289744640
1.9830723 -1.1973414 -0.4008984 4289744640
1.9809713 -1.1959866 -0.39727753 4289744640
1.9878223 -1.2000293 -0.3949874 4289744640
1.9890182 -1.2006613 -0.39109614 4289744640
1.9837022 -1.1973671 -0.38547647 4289744640
1.9908946 -1.2016132 -0.38184473 4289875200
1.9832276 -1.1969016 -0.37491456 4289744640
1.9748851 -1.191783 -0.36747018 4289744640
1.9517466 -1.1777476 -0.3569378 4289614080
1.9484155 -1.1756507 -0.34971824 4289614080
1.9760966 -1.1922411 -0.34760019 4289744640
1.9844465 -1.1971807 -0.34153971 4289744640
1.9910513 -1.2010679 -0.33473113 4289744640
1.9730093 -1.1901058 -0.32342985 4289744640
1.95337 -1.1781828 -0.31166077 4289614080
1.9719806 -1.1893014 -0.30567375 4289744640
1.986304 -1.1978356 -0.29852304 4289744640
1.990788 -1.2004422 -0.28946185 4289744640
1.9698468 -1.187737 -0.27644444 4289614080
1.9638931 -1.1840582 -0.26537088 4289614080
1.9812137 -1.1943936 -0.25710443 4289744640
1.9901831 -1.1996992 -0.24732086 4289744640
1.9994938 -1.2052091 -0.23720528 4289744640
1.9552329 -1.1784693 -0.220633 4289614080
1.9717764 -1.1883332 -0.21088828 4289614080
1.9828804 -1.1949214 -0.20016257 4289744640
1.9871669 -1.1974053 -0.18843195 4289744640
1.9546392 -1.1777347 -0.17315087 4289614080
1.9726402 -1.1884717 -0.16229032 4289614080
1.9813675 -1.193627 -0.15031403 4289744640
1.9822379 -1.1940544 -0.13751157 4289744640
1.9563842 -1.1784046 -0.12284826 4289614080
1.9646291 -1.1832689 -0.11034001 4289614080
1.9737504 -1.1886593 -0.097648546 4289614080
1.968655 -1.1854984 -0.084110625 4289614080
1.9434628 -1.1702518 -0.069812112 4289483520
1.9644789 -1.1827946 -0.057170548 4289614080
1.9683423 -1.1850215 -0.04378444 4289614080
1.9641426 -1.1824001 -0.030168695 4289614080
1.9730371 -1.1876513 -0.016703598 4289614080
1.9858648 -1.195266 -0.0031098749 4289744640
1.9988419 -1.2029692 0.010662685 4289744640
1.8688747 -1.1247549 0.022989107 4289222400
2.1373997 -1.2860465 0.040732149 4290266880
2.2975254 -1.3821695 0.059405793 4290919680
2.3466196 -1.4115578 0.076668963 4291050240
2.2708168 -1.3658971 0.08969108 4290789120
2.4643714 -1.4820744 0.11380782 4291572480
2.4668279 -1.4834299 0.13045052 4291572480
2.4306645 -1.4615862 0.14471444 4291441920
2.3269072 -1.3991454 0.15392868 4291050240
2.3351285 -1.4039702 0.16965333 4291050240
2.3929222 -1.4385655 0.1891723 4291311360
2.4361322 -1.4643978 0.20798597 4291441920
2.298933 -1.381897 0.21073981 4290919680
2.4991961 -1.502027 0.24425763 4291703040
2.4899468 -1.4963539 0.25837809 4291703040
2.4648683 -1.4811791 0.2703779 4291572480
2.3456714 -1.4095105 0.27099618 4291180800
2.3221011 -1.3952509 0.2814478 4291050240
2.3793435 -1.4294957 0.30148596 4291311360
2.3250463 -1.3967972 0.30717933 4291050240
2.3400939 -1.4057167 0.32140952 4291180800
2.2787638 -1.368806 0.32462662 4290919680
2.3057187 -1.3848711 0.33978823 4291050240
2.1002319 -1.2614831 0.31969297 4290136320
2.0703077 -1.2434335 0.32465702 4290136320
2.0327783 -1.2208248 0.32776511 4289875200
1.9344171 -1.1617334 0.32017908 4289483520
1.9377651 -1.1636517 0.32854018 4289614080
1.9026488 -1.1425028 0.32992762 4289483520
1.9680175 -1.1816143 0.34834167 4289744640
1.9479542 -1.1694939 0.35150191 4289614080
1.9045024 -1.1433526 0.3498551 4289483520
1.9486743 -1.1697483 0.36378571 4289614080
1.9843911 -1.1910716 0.37595892 4289744640
1.9227235 -1.1540166 0.36930123 4289483520
1.9585245 -1.1753891 0.38074115 4289614080
1.9151428 -1.1493011 0.37643123 4289483520
1.9468075 -1.1681926 0.3863081 4289614080
1.9709067 -1.1825482 0.39434144 4289744640
1.9789957 -1.1873084 0.39878076 4289744640
1.9279618 -1.1566439 0.3908608 4289614080
1.9319576 -1.1589538 0.39351404 4289614080
1.9233416 -1.1537083 0.39314991 4289483520
1.9359195 -1.16116 0.39663017 4289614080
1.9274379 -1.1559963 0.3953599 4289614080
1.9824183 -1.1888447 0.40656221 4289744640
1.9656228 -1.1787014 0.40265703 4289744640
1.9176217 -1.1498719 0.39195171 4289483520
1.9682717 -1.1801218 0.40081444 4289744640
1.936455 -1.160988 0.3925072 4289614080
1.9943906 -1.1955959 0.40178317 4289875200
1.9576215 -1.1734995 0.39160562 4289614080
1.9175127 -1.1494071 0.38042569 4289483520
1.9564456 -1.1726345 0.38437843 4289614080
1.9164289 -1.1486014 0.37247816 4289483520
1.9975921 -1.1971029 0.38344184 4289875200
1.9961849 -1.19618 0.3780196 4289875200
2.0012066 -1.1991049 0.37335807 4289875200
2.0041838 -1.2008064 0.36786202 4289875200
2.0174608 -1.2086712 0.3637675 4289875200
2.0143955 -1.2067571 0.3562932 4289875200
2.1330931 -1.2776942 0.36938462 4290397440
2.2080274 -1.3224405 0.37380162 4290658560
2.4726486 -1.4801354 0.34608376 4291703040
2.4821439 -1.4857191 0.33461136 4291703040
2.4911206 -1.4909922 0.32259688 4291703040
2.4757719 -1.4817209 0.3071281 4291572480
2.4526832 -1.4678237 0.29057503 4291572480
2.4492054 -1.4656522 0.27615255 4291572480
2.4589331 -1.4713756 0.26286313 4291572480
2.4442518 -1.4625078 0.2467244 4291441920
2.4410686 -1.4605141 0.23156974 4291441920
2.4792533 -1.4832451 0.21983087 4291572480
2.4799225 -1.4835531 0.20431463 4291572480
2.4528487 -1.4672819 0.186479 4291572480
2.4211617 -1.4482564 0.16846795 4291441920
2.3231118 -1.3895799 0.1465546 4291050240
2.1925561 -1.311489 0.12395899 4290528000
2.1391184 -1.279482 0.10673274 4290266880
1.9963263 -1.1940974 0.086329058 4289744640
2.001123 -1.1968895 0.072991543 4289744640
2.0030026 -1.1979389 0.059425283 4289744640
1.9661921 -1.1758785 0.04492243 4289614080
1.9825438 -1.1855729 0.031671353 4289614080
1.9799421 -1.1839465 0.018006463 4289614080
1.9692972 -1.1775171 0.004346848 4289614080
1.9609241 -1.1724449 -0.0091847647 4289614080
1.9707019 -1.1782118 -0.022819603 4289614080
1.9732339 -1.1796514 -0.036424857 4289614080
1.9764264 -1.1814853 -0.050043996 4289614080
1.9762084 -1.1812828 -0.063541085 4289614080
1.999217 -1.1949459 -0.07789354 4289744640
2.0058675 -1.1988424 -0.091711953 4289744640
1.9858335 -1.1868104 -0.10409912 4289614080
1.9932975 -1.1911924 -0.11775587 4289744640
1.9992728 -1.1946852 -0.13128559 4289744640
2.0078735 -1.1997442 -0.1449437 4289744640
1.9880469 -1.1878383 -0.15629707 4289744640
1.9929297 -1.1906784 -0.16934828 4289744640
2.0050347 -1.1978272 -0.18294196 4289744640
2.011395 -1.2015474 -0.19592215 4289744640
2.0062034 -1.198375 -0.20756125 4289744640
1.9403988 -1.1590431 -0.21223025 4289483520
1.9985998 -1.1936889 -0.23028117 4289744640
2.0081944 -1.1993369 -0.24283156 4289744640
2.0104356 -1.2005979 -0.25428557 4289744640
1.9950892 -1.1913688 -0.26314864 4289744640
1.9224925 -1.1479979 -0.26365715 4289483520
2.0141225 -1.2025672 -0.28661421 4289875200
2.0151021 -1.2030745 -0.29675478 4289875200
2.0221314 -1.2071882 -0.30749664 4289875200
2.0141914 -1.2023762 -0.31560197 4289875200
2.0027471 -1.1954752 -0.32271203 4289744640
1.9899513 -1.1877693 -0.32913288 4289744640
2.005867 -1.1971792 -0.33996111 4289875200
2.0015337 -1.1945176 -0.34700376 4289875200
2.0060272 -1.1971171 -0.35518724 4289875200
2.0089834 -1.1987995 -0.36271808 4289875200
2.0022395 -1.1947006 -0.368063 4289875200
2.0024724 -1.1947595 -0.37425128 4289875200
1.9922949 -1.1886146 -0.37802717 4289744640
1.9950594 -1.1901815 -0.38381013 4289744640
1.981287 -1.1818953 -0.38593021 4289744640
1.9692833 -1.1746634 -0.38788968 4289744640
1.9537667 -1.1653395 -0.38864806 4289614080
1.9415948 -1.1580088 -0.38957131 4289614080
1.9323473 -1.1524204 -0.39059538 4289614080
1.9320272 -1.1521496 -0.39296129 4289614080
1.8866072 -1.1250193 -0.38561639 4289352960
1.8779632 -1.1197927 -0.38531271 4289352960
1.9348485 -1.1535866 -0.39807719 4289614080
1.9314131 -1.1514591 -0.39795229 4289614080
1.9272004 -1.1488688 -0.39720052 4289614080
1.9446049 -1.1591479 -0.40045235 4289614080
1.9598601 -1.1681455 -0.40278277 4289614080
1.9632318 -1.1700679 -0.4021835 4289744640
1.9825623 -1.1814883 -0.40437609 4289744640
1.9926668 -1.1874156 -0.40417999 4289744640
1.9972718 -1.1900688 -0.40237588 4289875200
1.999576 -1.1913521 -0.39962849 4289875200
1.9947799 -1.1884099 -0.39499772 4289744640
2.0014117 -1.1922671 -0.39217475 4289875200
2.0082731 -1.19626 -0.38891318 4289875200
2.009733 -1.1970384 -0.38413262 4289875200
1.9998001 -1.1910394 -0.37674657 4289875200
1.9871426 -1.1834203 -0.36847591 4289744640
1.9747066 -1.1759337 -0.35989991 4289744640
1.9671239 -1.1713341 -0.35186434 4289614080
1.9930346 -1.1866524 -0.34937528 4289744640
2.0089002 -1.195995 -0.34456667 4289875200
2.0099247 -1.1965116 -0.33674562 4289875200
1.9833139 -1.1805978 -0.32399881 4289744640
1.9688224 -1.1718907 -0.31304833 4289614080
1.979226 -1.1779833 -0.30573827 4289744640
2.0085492 -1.1953202 -0.30083665 4289875200
2.0033748 -1.1921508 -0.29029182 4289744640
1.9747806 -1.1750633 -0.27617997 4289614080
1.9706913 -1.1725402 -0.26537201 4289614080
1.9993753 -1.1894912 -0.25857681 4289744640
2.0077002 -1.1943427 -0.24864757 4289744640
2.0014801 -1.1905519 -0.23662035 4289744640
1.9675618 -1.170307 -0.22126576 4289614080
1.9886929 -1.1827652 -0.21197549 4289744640
1.9974718 -1.1878846 -0.20095013 4289744640
1.9902134 -1.183478 -0.1880708 4289744640
1.9669741 -1.1695814 -0.17365183 4289614080
1.9953575 -1.1863415 -0.16361171 4289744640
2.0009058 -1.1895397 -0.15128911 4289744640
1.9988801 -1.1882405 -0.13820219 4289744640
1.974465 -1.1736493 -0.1235723 4289614080
1.9893514 -1.1823909 -0.11136588 4289614080
1.9813266 -1.1775312 -0.097693115 4289614080
1.9836932 -1.17884 -0.084475875 4289614080
1.9673711 -1.1690569 -0.070451066 4289614080
1.9819583 -1.177618 -0.057498615 4289614080
1.9915495 -1.1832131 -0.044172034 4289614080
1.9795971 -1.1760247 -0.030318603 4289614080
1.9930819 -1.183929 -0.016837312 4289744640
2.0134358 -1.1959069 -0.0031720046 4289744640
2.0062976 -1.1915748 0.010654464 4289744640
1.8894646 -1.1221786 0.023137435 4289222400
2.1861358 -1.2980412 0.041467551 4290397440
2.3218775 -1.3784363 0.059800997 4290919680
2.3831775 -1.4146745 0.077556796 4291180800
2.3036668 -1.3674133 0.090638794 4290919680
2.5099237 -1.4895918 0.1154659 4291703040
2.5003493 -1.4837941 0.13173063 4291703040
2.4683487 -1.4647033 0.14641045 4291572480
2.3470433 -1.3926797 0.15469873 4291050240
2.5119224 -1.4902918 0.18170241 4291703040
2.5180435 -1.4937987 0.19825824 4291703040
2.4772277 -1.4694898 0.21071932 4291572480
2.3438263 -1.3903222 0.21406317 4291050240
2.532249 -1.5018536 0.24659504 4291833600
2.5440438 -1.5087208 0.26302311 4291833600
2.5188575 -1.4936787 0.2752884 4291833600
2.3949435 -1.4201554 0.27567786 4291311360
2.4468966 -1.4508151 0.29542223 4291441920
2.445802 -1.450051 0.30876517 4291441920
2.3870118 -1.4151182 0.31420827 4291311360
2.3935385 -1.4188709 0.32755408 4291311360
2.3601611 -1.3989946 0.33497164 4291180800
2.2801411 -1.3515049 0.33487371 4290919680
2.1194925 -1.2562875 0.32148156 4290266880
2.074105 -1.2293196 0.32411695 4290005760
2.0398562 -1.2089498 0.32775465 4289875200
1.945413 -1.1529542 0.32086685 4289614080
1.9606944 -1.1619092 0.33124524 4289614080
1.9297051 -1.1434795 0.33342385 4289483520
1.9833779 -1.1751533 0.34982255 4289744640
2.0191245 -1.1962153 0.36299381 4289875200
1.9658576 -1.1646069 0.35979667 4289614080
1.9940125 -1.1811757 0.37090233 4289744640
2.0255909 -1.1997676 0.38238302 4289875200
1.9583611 -1.1599077 0.3747966 4289614080
1.9823895 -1.1740333 0.38401371 4289744640
2.0183432 -1.1952105 0.39521152 4289875200
2.0500937 -1.213899 0.40526578 4290005760
1.9961255 -1.1818941 0.39797056 4289744640
2.0364757 -1.2056668 0.4088701 4290005760
2.0650032 -1.2224461 0.41702205 4290136320
2.0605156 -1.2197036 0.41808519 4290005760
2.076452 -1.2290362 0.42278525 4290136320
2.0602338 -1.2193599 0.42048243 4290005760
2.0356088 -1.2047158 0.41596606 4290005760
2.0119026 -1.1906177 0.41114208 4289875200
1.9831771 -1.1735551 0.40482244 4289744640
2.0529654 -1.2147156 0.41799212 4290005760
1.9836637 -1.1736765 0.40252909 4289744640
1.967856 -1.1642534 0.39745015 4289744640
1.9275016 -1.1403282 0.38704059 4289483520
1.994437 -1.1797953 0.39754212 4289744640
1.9711744 -1.1659706 0.38964978 4289744640
2.011389 -1.1896464 0.39373648 4289875200
1.9916341 -1.1778958 0.38566062 4289744640
2.0130296 -1.1904527 0.38504696 4289875200
2.0235205 -1.1965679 0.38183531 4289875200
2.0200636 -1.1944454 0.37554729 4289875200
2.0111456 -1.1890986 0.3678517 4289875200
2.0117021 -1.1893475 0.36147791 4289875200
2.0943606 -1.2380744 0.36906064 4290136320
2.1490192 -1.2702637 0.37083453 4290397440
2.2156944 -1.3095431 0.37379026 4290658560
2.4924333 -1.4723048 0.34762362 4291703040
2.5232706 -1.4904071 0.33893737 4291833600
2.5245903 -1.4910904 0.32576585 4291833600
2.5169091 -1.4864633 0.31111014 4291703040
2.4937563 -1.4727093 0.29437801 4291703040
2.5081866 -1.4811289 0.28176785 4291703040
2.5214028 -1.4888318 0.26854956 4291703040
2.492641 -1.4717723 0.25069162 4291703040
2.4907463 -1.4705622 0.23541722 4291703040
2.5041718 -1.4783884 0.22124627 4291703040
2.513442 -1.4837631 0.20632677 4291703040
2.4862833 -1.4676546 0.18833391 4291572480
2.3978746 -1.4154301 0.16628557 4291311360
2.297621 -1.356228 0.14446323 4290919680
2.1872532 -1.2910699 0.12323253 4290397440
2.2214148 -1.3111305 0.11037445 4290528000
2.0122223 -1.187723 0.086696535 4289744640
2.0201168 -1.1923034 0.073407523 4289744640
2.0176985 -1.1908042 0.059636563 4289744640
1.9936814 -1.1765743 0.045362521 4289614080
2.0100915 -1.1861737 0.031970158 4289744640
2.0040359 -1.1825316 0.018135782 4289744640
1.9933544 -1.1761639 0.0043580215 4289614080
1.9754753 -1.1655555 -0.0092384629 4289614080
1.9895937 -1.1738029 -0.022980317 4289614080
1.9921333 -1.1752268 -0.036668152 4289614080
1.9949664 -1.1768234 -0.050359964 4289614080
1.9916694 -1.1748084 -0.063835107 4289614080
2.0081689 -1.1844555 -0.077984206 4289744640
2.0170476 -1.1896124 -0.091918729 4289744640
2.0056252 -1.1828105 -0.10479529 4289744640
2.0094943 -1.185016 -0.11832124 4289744640
2.0139415 -1.1875615 -0.13180923 4289744640
2.0122464 -1.1864892 -0.14476596 4289744640
2.0069692 -1.1833076 -0.15726058 4289744640
2.0095913 -1.1847777 -0.17019317 4289744640
2.0219412 -1.1919752 -0.18386638 4289744640
2.0281594 -1.1955614 -0.19689168 4289875200
2.0170751 -1.1889606 -0.20797934 4289744640
1.9719983 -1.162349 -0.214973 4289614080
2.0203989 -1.1907668 -0.23201191 4289875200
2.0334518 -1.1983745 -0.24506223 4289875200
2.037957 -1.2009498 -0.2569038 4289875200
2.0114901 -1.1852961 -0.26441428 4289744640
1.9368508 -1.1412942 -0.26472601 4289483520
2.0273821 -1.1944959 -0.28752106 4289875200
2.0383217 -1.2008559 -0.29916158 4289875200
2.0419483 -1.202912 -0.30945918 4289875200
2.0331199 -1.1976393 -0.31748849 4289875200
2.0139463 -1.186281 -0.32341096 4289875200
2.0098937 -1.1838191 -0.33130497 4289744640
2.0148168 -1.186637 -0.34031218 4289875200
2.0224016 -1.1910199 -0.34943321 4289875200
2.0187593 -1.1887984 -0.35622367 4289875200
2.0286353 -1.1945274 -0.36502299 4289875200
2.0219362 -1.1905077 -0.37042201 4289875200
2.0136542 -1.1855572 -0.37505713 4289875200
2.0153494 -1.1864738 -0.38110545 4289875200
2.0056968 -1.1807177 -0.38453951 4289875200
1.9924028 -1.1728212 -0.38677108 4289744640
1.980343 -1.1656508 -0.38873699 4289744640
1.9681699 -1.1584145 -0.39017957 4289614080
1.9652981 -1.156646 -0.3929908 4289614080
1.9509189 -1.1481138 -0.39300913 4289614080
1.9505953 -1.1478432 -0.39538956 4289614080
1.9050163 -1.1209767 -0.38805619 4289483520
1.9014348 -1.1187927 -0.38880685 4289483520
1.8970715 -1.1161493 -0.38893792 4289352960
1.9046605 -1.1205283 -0.39107391 4289483520
1.9457457 -1.144586 -0.39966008 4289614080
1.967455 -1.1572567 -0.40378416 4289744640
1.9793676 -1.1641706 -0.4054102 4289744640
1.9819028 -1.1655748 -0.40462896 4289744640
1.9902742 -1.1704062 -0.40456206 4289744640
2.0037978 -1.1782625 -0.40505165 4289875200
2.0126669 -1.1833837 -0.40409783 4289875200
2.0183799 -1.1866505 -0.40201667 4289875200
2.0187759 -1.1867944 -0.39839575 4289875200
2.0202281 -1.1875579 -0.39451805 4289875200
2.0228639 -1.1890159 -0.39040631 4289875200
2.0186772 -1.1864682 -0.3845261 4289875200
2.0067053 -1.1793506 -0.37675676 4289875200
1.9986111 -1.1745099 -0.3693409 4289744640
1.9901495 -1.1694537 -0.36148298 4289744640
1.9953293 -1.1724036 -0.35570773 4289744640
2.0075891 -1.1795071 -0.35073191 4289744640
2.0306373 -1.1929394 -0.34711823 4289875200
2.0316722 -1.1934539 -0.33923984 4289875200
2.0074971 -1.1791778 -0.32684487 4289744640
1.9892219 -1.1683646 -0.31522477 4289744640
2.0030806 -1.176402 -0.30838245 4289744640
2.0189009 -1.1855881 -0.30136028 4289875200
2.0285604 -1.1911595 -0.29295504 4289875200
1.9943641 -1.171011 -0.27798012 4289744640
1.9864872 -1.1662987 -0.26659676 4289744640
2.0148444 -1.1828327 -0.25969875 4289744640
2.0232019 -1.187638 -0.24972332 4289875200
2.0246882 -1.188414 -0.2385648 4289875200
1.9863676 -1.1658546 -0.22263294 4289614080
2.0127311 -1.1812137 -0.21382488 4289744640
2.0206885 -1.1857822 -0.20261106 4289744640
2.0091126 -1.178902 -0.18922473 4289744640
1.9856097 -1.1650332 -0.17471501 4289614080
2.0108414 -1.1797235 -0.16433246 4289744640
2.0155504 -1.1823865 -0.1518898 4289744640
2.0100751 -1.1790824 -0.13851282 4289744640
1.9898847 -1.167158 -0.12412734 4289614080
2.0016367 -1.1739467 -0.11168381 4289744640
2.0053947 -1.1760517 -0.098565899 4289744640
2.006911 -1.1768434 -0.085196108 4289744640
1.9788935 -1.160339 -0.070634782 4289614080
2.0008624 -1.1731085 -0.05786901 4289744640
2.0038457 -1.1747589 -0.044307377 4289744640
2.0028098 -1.1740559 -0.030594315 4289744640
2.0163419 -1.1818817 -0.01700093 4289744640
2.0267167 -1.1878579 -0.0031981878 4289744640
2.0242 -1.186287 0.010691977 4289744640
1.9647011 -1.1513653 0.02389659 4289483520
2.1606076 -1.2659242 0.040860958 4290266880
2.2018361 -1.2899473 0.056610942 4290528000
2.3749862 -1.3911602 0.077026606 4291180800
2.3322978 -1.366069 0.091420971 4290919680
2.539259 -1.4870408 0.11638557 4291833600
2.5460298 -1.4908799 0.13363469 4291833600
2.5095992 -1.4694475 0.14830728 4291703040
2.3844197 -1.3961085 0.15658593 4291180800
2.5489941 -1.4922481 0.18371581 4291833600
2.551681 -1.4936978 0.2001846 4291833600
2.5107152 -1.4696208 0.21280217 4291703040
2.3725424 -1.3887088 0.21591267 4291180800
2.5702064 -1.5041651 0.24939629 4291964160
2.5640566 -1.5004481 0.2641615 4291964160
2.543849 -1.4885138 0.27704045 4291833600
2.4931314 -1.458748 0.28590328 4291703040
2.4802125 -1.4510797 0.29838413 4291572480
2.4204063 -1.4160104 0.30453047 4291311360
2.4072273 -1.4081954 0.31576073 4291311360
2.3488555 -1.3739737 0.32037529 4291050240
2.3725572 -1.3877132 0.33556175 4291180800
2.3919485 -1.3989326 0.34997743 4291311360
2.1233504 -1.2419056 0.32095668 4290266880
2.0641143 -1.2072043 0.32145932 4290005760
2.0263338 -1.1850413 0.32447964 4289875200
1.9520971 -1.1415893 0.32085696 4289614080
1.9922155 -1.1649302 0.33537921 4289744640
1.9534196 -1.1421838 0.33633566 4289614080
2.0106843 -1.1755339 0.35339081 4289744640
2.0303271 -1.1869124 0.36374328 4289875200
1.9768751 -1.1556137 0.36055976 4289744640
1.9880668 -1.1620589 0.3685357 4289744640
2.0163472 -1.1784791 0.37934396 4289875200
2.0361347 -1.1899397 0.38825256 4289875200
2.0721519 -1.2108717 0.39991987 4290005760
2.1167235 -1.2367934 0.41294023 4290266880
2.1528175 -1.2577643 0.42399585 4290397440
2.1932173 -1.2812451 0.43553355 4290528000
2.237926 -1.307237 0.44754246 4290789120
2.1538653 -1.2580956 0.43337545 4290397440
2.1782868 -1.2722505 0.4403317 4290528000
2.1738448 -1.2695662 0.44098794 4290528000
2.1822422 -1.274372 0.44371757 4290528000
2.2369707 -1.3062013 0.45531291 4290789120
2.2038267 -1.2867764 0.44859394 4290658560
2.1673534 -1.265413 0.44068277 4290397440
2.1352055 -1.2465756 0.43315294 4290266880
2.0818465 -1.2153728 0.42088899 4290136320
2.0583372 -1.2015793 0.41419277 4290005760
2.0297797 -1.184845 0.40605745 4289875200
2.0055344 -1.1706274 0.3983728 4289744640
1.9898592 -1.1614079 0.39197481 4289744640
2.0429955 -1.1923007 0.39851785 4290005760
2.0189188 -1.1781847 0.38957393 4289875200
2.0523305 -1.197577 0.39117512 4290005760
2.0411444 -1.190976 0.38382244 4289875200
2.0432003 -1.1920929 0.37852201 4289875200
2.0525854 -1.1974809 0.37409872 4290005760
2.0151808 -1.1756058 0.36085996 4289875200
2.0895765 -1.2188717 0.36696264 4290136320
2.1563833 -1.2577109 0.37082365 4290397440
2.2232859 -1.2966013 0.37377903 4290658560
2.5292852 -1.4742365 0.35152155 4291833600
2.5482228 -1.4851677 0.34109393 4291833600
2.5658755 -1.49535 0.32992214 4291964160
2.5375583 -1.4787679 0.31256911 4291833600
2.5229304 -1.4701575 0.29677513 4291703040
2.5494635 -1.485509 0.28538686 4291833600
2.5506907 -1.4861287 0.27071178 4291833600
2.526145 -1.4717478 0.25316051 4291703040
2.5199468 -1.4680471 0.23733452 4291703040
2.5377359 -1.4783071 0.22341326 4291833600
2.5430768 -1.4813218 0.20801723 4291833600
2.4991043 -1.4556414 0.18864331 4291572480
2.3547673 -1.3715664 0.1627713 4291050240
2.2188451 -1.292398 0.13909994 4290528000
2.2151976 -1.290195 0.12435127 4290528000
2.174608 -1.2665015 0.10771845 4290397440
2.0396502 -1.1879158 0.087548018 4289875200
2.03684 -1.1862072 0.073742986 4289875200
2.0375643 -1.1865546 0.059995547 4289875200
2.009145 -1.1699519 0.045539968 4289744640
2.0141993 -1.1728185 0.031918772 4289744640
2.0186713 -1.1753461 0.01818837 4289744640
2.0122755 -1.171554 0.0043627718 4289744640
1.9916739 -1.1595021 -0.0093014622 4289614080
2.0109186 -1.1706194 -0.023171149 4289744640
2.0165892 -1.1738433 -0.037018258 4289744640
2.0061102 -1.1676782 -0.050482742 4289744640
2.0161188 -1.1734236 -0.064424701 4289744640
2.0314524 -1.1822636 -0.078644454 4289744640
2.0325828 -1.1828469 -0.092328914 4289744640
2.0202553 -1.1756082 -0.10521705 4289744640
2.0293159 -1.1808003 -0.11910273 4289744640
2.0314913 -1.1819905 -0.13252428 4289744640
2.0398347 -1.1867647 -0.14627874 4289875200
2.0224555 -1.1765916 -0.1579517 4289744640
2.0371552 -1.1850585 -0.17196752 4289875200
2.0429451 -1.1883475 -0.18516557 4289875200
2.051461 -1.1932195 -0.1984992 4289875200
2.036025 -1.1841769 -0.2092384 4289875200
1.983041 -1.1533245 -0.21545416 4289614080
2.0393484 -1.1859564 -0.23341043 4289875200
2.0446994 -1.1889883 -0.24559239 4289875200
2.0415874 -1.1871046 -0.25649291 4289875200
2.0303903 -1.1805258 -0.26600975 4289875200
1.9606423 -1.1399477 -0.26708922 4289614080
2.0591986 -1.1971005 -0.29106855 4290005760
2.0515935 -1.1926069 -0.30009967 4289875200
2.0621359 -1.1986498 -0.31147522 4290005760
2.0529182 -1.1932199 -0.31950906 4290005760
2.0331538 -1.1816682 -0.32540375 4289875200
2.0299509 -1.1797308 -0.33349249 4289875200
2.0317914 -1.1807208 -0.34202921 4289875200
2.0470953 -1.1895242 -0.35251966 4289875200
2.0430083 -1.1870726 -0.35929894 4289875200
2.0475247 -1.1896138 -0.36718744 4290005760
