# .PCD v0.7 - Point Cloud Data file format
VERSION 0.7
FIELDS x y z rgba
SIZE 4 4 4 4
TYPE F F F U
COUNT 1 1 1 1
WIDTH 1128
HEIGHT 1
VIEWPOINT 0 0 0 1 0 0 0
POINTS 1128
DATA ascii
1.7008511 1.5192078 0.18710178 4289744640
1.7144269 1.5314307 0.17641306 4289875200
1.7197169 1.5362531 0.16454312 4289875200
1.7223481 1.5387009 0.15218078 4289875200
1.704612 1.5229523 0.13796447 4289744640
1.7217206 1.5383348 0.12642056 4289875200
1.7368807 1.5519783 0.11435194 4289875200
1.7338997 1.5494127 0.10087191 4289875200
1.6805387 1.5018243 0.084785938 4289614080
1.4803162 1.3229778 0.063167952 4288700160
1.5200275 1.3585542 0.052966371 4288961280
1.4553751 1.3008521 0.039267953 4288569600
1.5091189 1.3489749 0.028805204 4288830720
1.4987398 1.339782 0.016744679 4288830720
1.4341394 1.2821141 0.0046539125 4288569600
1.4572182 1.3028289 -0.0068289139 4288569600
1.4807087 1.3239144 -0.018676208 4288700160
1.4316323 1.2801156 -0.029386569 4288569600
1.4478208 1.2946727 -0.041144926 4288569600
1.4868145 1.3296257 -0.053941924 4288830720
1.4686335 1.31345 -0.064771339 4288700160
1.4728168 1.3172746 -0.076407999 4288700160
1.6261622 1.4545172 -0.096917309 4289352960
1.6204191 1.4494721 -0.10898066 4289352960
1.6276463 1.4560288 -0.12180957 4289352960
1.6382679 1.4656231 -0.13489527 4289483520
1.6329178 1.4609292 -0.14655964 4289483520
1.6006213 1.4321249 -0.1553703 4289352960
1.6321932 1.4604656 -0.1702027 4289483520
1.6402323 1.4677516 -0.18267994 4289483520
1.6369977 1.4649498 -0.19373605 4289483520
1.6181335 1.4481598 -0.20257804 4289352960
1.6245269 1.4539734 -0.21427284 4289483520
1.6261578 1.4555252 -0.22515652 4289483520
1.6340681 1.462698 -0.23672175 4289483520
1.6228817 1.4527766 -0.24523847 4289483520
1.6109403 1.442178 -0.25322556 4289352960
1.6226699 1.4527706 -0.26464736 4289483520
1.6328709 1.461996 -0.27565104 4289483520
1.6269974 1.4568292 -0.28365728 4289483520
1.6224624 1.4528604 -0.29152063 4289483520
1.6088197 1.4407349 -0.29732391 4289352960
1.6116536 1.4433638 -0.30577925 4289352960
1.6076254 1.4398472 -0.31258014 4289352960
1.6141795 1.4458088 -0.3210929 4289483520
1.6158377 1.4473855 -0.32830134 4289483520
1.6211475 1.4522336 -0.33590406 4289483520
1.6136357 1.4455957 -0.34045729 4289483520
1.6177281 1.4493537 -0.34705311 4289483520
1.608922 1.4415553 -0.35046685 4289483520
1.6132979 1.4455674 -0.35633111 4289483520
1.6085416 1.4413967 -0.35976562 4289483520
1.5951874 1.4295204 -0.36081254 4289352960
1.6015581 1.4353201 -0.36588222 4289352960
1.600193 1.4341874 -0.36877033 4289352960
1.5958211 1.4303596 -0.37052524 4289352960
1.597677 1.4321135 -0.37328875 4289352960
1.587923 1.4234604 -0.37289461 4289352960
1.5942968 1.4292643 -0.37584591 4289352960
1.5941244 1.4292001 -0.37681982 4289352960
1.5837425 1.419982 -0.37493533 4289352960
1.5931504 1.4285073 -0.3772938 4289352960
1.5946221 1.4299175 -0.37733135 4289352960
1.5929797 1.4285349 -0.37619051 4289352960
1.5965043 1.4317862 -0.37582755 4289352960
1.5992903 1.4343753 -0.37484533 4289352960
1.6065164 1.4409473 -0.3744531 4289483520
1.5998527 1.4350612 -0.37038687 4289352960
1.6099805 1.444237 -0.36976743 4289483520
1.6095001 1.4438972 -0.36626273 4289483520
1.6166787 1.4504291 -0.36405838 4289483520
1.6110864 1.4455031 -0.35855243 4289483520
1.6079255 1.4427583 -0.35319525 4289483520
1.6023569 1.4378525 -0.34692648 4289352960
1.5992696 1.4351729 -0.34082171 4289352960
1.5957217 1.4320796 -0.33424878 4289352960
1.5897533 1.4268134 -0.32681996 4289352960
1.5970556 1.4334577 -0.32173678 4289352960
1.6019375 1.4379306 -0.31574583 4289352960
1.6166646 1.4512416 -0.3112455 4289483520
1.6107881 1.4460577 -0.3023842 4289352960
1.5950294 1.4320011 -0.29143089 4289352960
1.595801 1.4327844 -0.28324208 4289352960
1.608938 1.4446707 -0.27685222 4289352960
1.6176059 1.4525455 -0.26926094 4289483520
1.6105156 1.4462701 -0.25873595 4289352960
1.5960076 1.4333322 -0.24685672 4289352960
1.596274 1.4336622 -0.23707139 4289352960
1.5979718 1.4352776 -0.22722152 4289352960
1.5317976 1.3759278 -0.20788565 4288961280
1.5949323 1.4327286 -0.20587794 4289352960
1.6211904 1.4564084 -0.1982854 4289483520
1.6173894 1.4530855 -0.18664549 4289352960
1.6214377 1.4568146 -0.17570323 4289352960
1.6121721 1.4485812 -0.1631626 4289352960
1.57839 1.4183167 -0.14827326 4289222400
1.5063653 1.3536819 -0.13040511 4288830720
1.4748498 1.3254446 -0.11666712 4288700160
1.4361604 1.2907561 -0.10276148 4288569600
1.4719356 1.3229929 -0.094090968 4288700160
1.4797007 1.3300562 -0.083194517 4288700160
1.4193008 1.2758453 -0.068783775 4288439040
1.4604304 1.3129007 -0.05936582 4288700160
1.4982704 1.3470032 -0.049130637 4288830720
1.4458946 1.2999976 -0.035999518 4288569600
1.4412956 1.2959445 -0.024468325 4288569600
1.5126828 1.3602184 -0.013669715 4288961280
1.4948282 1.3442483 -0.0016243728 4288830720
1.560527 1.4034176 0.010713068 4289091840
1.7150648 1.5424945 0.025399726 4289875200
1.7224878 1.5492685 0.03916765 4289875200
1.7437937 1.5685309 0.053437062 4290005760
1.730813 1.5569533 0.06666512 4289875200
1.7259107 1.5526414 0.079992495 4289875200
1.7209837 1.5483069 0.093156263 4289875200
1.7349735 1.5609918 0.10731359 4289875200
1.7213153 1.5488009 0.11964867 4289875200
1.6946048 1.5248638 0.13064021 4289744640
1.7254642 1.5527302 0.14595743 4289875200
1.7238593 1.551384 0.15858968 4289875200
1.7187412 1.5468757 0.17067701 4289875200
1.6781877 1.5104729 0.17873012 4289744640
1.7406369 1.56678 0.19770822 4290005760
1.740591 1.5668377 0.20981321 4290005760
1.7281981 1.5557801 0.22011445 4289875200
1.7178452 1.5465578 0.23027924 4289875200
1.6570626 1.4919301 0.23296294 4289614080
1.7333412 1.5607059 0.25474706 4290005760
1.7305959 1.5583324 0.26510376 4290005760
1.7166111 1.5458374 0.2733416 4289875200
1.7098628 1.5398576 0.28230208 4289875200
1.6742028 1.5078385 0.28593042 4289744640
1.7303033 1.5584627 0.3050141 4290005760
1.7276255 1.5561492 0.31368646 4290005760
1.7255707 1.5543965 0.32209256 4290005760
1.7196251 1.5491387 0.32936776 4289875200
1.711731 1.5421246 0.33582935 4289875200
1.71316 1.5435095 0.34370673 4289875200
1.7156258 1.5458287 0.35141581 4289875200
1.7163603 1.5465883 0.35838076 4289875200
1.7109085 1.5417732 0.36362478 4289875200
1.7058041 1.5372704 0.36848569 4289875200
1.704995 1.5366384 0.37382871 4289875200
1.7097032 1.540979 0.37996036 4289875200
1.7039591 1.5358988 0.38332719 4289875200
1.7122555 1.5434743 0.38941225 4289875200
1.7010531 1.5334731 0.39060572 4289875200
1.6962824 1.529269 0.39278722 4289875200
1.7024711 1.5349454 0.3970494 4289875200
1.6955543 1.5288057 0.39779213 4289875200
1.7055112 1.5378805 0.40203017 4289875200
1.6987004 1.531836 0.40185076 4289875200
1.6948758 1.5284836 0.40189952 4289875200
1.6911114 1.5251851 0.40148869 4289875200
1.7012906 1.5344625 0.40391698 4289875200
1.6874076 1.522037 0.40016317 4289875200
1.6991061 1.5326858 0.4020046 4289875200
1.6989481 1.5326401 0.40056384 4289875200
1.6983416 1.5321897 0.39854935 4289875200
1.707689 1.54072 0.39839253 4289875200
1.704847 1.5382531 0.39491826 4289875200
1.6947517 1.5292408 0.38932693 4289875200
1.7098324 1.5429461 0.38905168 4289875200
1.7077247 1.5411414 0.38438466 4289875200
1.7109418 1.5441422 0.38046578 4289875200
1.7065452 1.5402716 0.37441668 4289875200
1.6956754 1.5305575 0.36656177 4289875200
1.6902986 1.5258006 0.35952422 4289875200
1.6853344 1.5214157 0.3521969 4289744640
1.7152905 1.5485561 0.35166144 4289875200
1.7241571 1.5566591 0.34624255 4290005760
1.7195934 1.5526369 0.33771285 4289875200
1.6856583 1.5229048 0.27424565 4289744640
1.7095976 1.5446302 0.26796827 4289875200
1.7301015 1.5632542 0.26058412 4290005760
1.71586 1.5504841 0.24763955 4289875200
1.6878912 1.5253073 0.23270798 4289744640
1.6985304 1.5350187 0.22295073 4289744640
1.714514 1.5495614 0.21346949 4289875200
1.7058007 1.5417837 0.20062922 4289875200
1.677779 1.5165521 0.18555328 4289744640
1.6905371 1.5281808 0.17488863 4289744640
1.7068919 1.5430623 0.16419394 4289875200
1.7095073 1.5455242 0.15185952 4289875200
1.6918637 1.5296696 0.13767143 4289744640
1.7125828 1.5485004 0.12642965 4289875200
1.7135861 1.5495054 0.11343017 4289875200
1.7106171 1.5469183 0.10005914 4289875200
1.6679121 1.5083953 0.084609173 4289614080
1.465045 1.3250136 0.062860474 4288700160
1.5045439 1.3608233 0.052718163 4288830720
1.4261456 1.2899953 0.038696256 4288569600
1.5011063 1.3578855 0.028818067 4288830720
1.4833663 1.3419228 0.016674764 4288830720
1.4955019 1.3529867 0.0048930915 4288830720
1.4420645 1.304724 -0.0067797205 4288569600
1.4765525 1.3360118 -0.018708004 4288700160
1.4830757 1.3419988 -0.030589191 4288830720
1.4119614 1.27773 -0.040324446 4288439040
1.5152944 1.371326 -0.055251364 4288961280
1.5159966 1.372048 -0.067199312 4288961280
1.6048325 1.4525405 -0.083681934 4289352960
1.6298288 1.4752579 -0.097634286 4289483520
1.6051465 1.4530081 -0.10850959 4289352960
1.6152978 1.4622896 -0.12151006 4289352960
1.6221641 1.4685982 -0.13426119 4289483520
1.6205431 1.4672233 -0.14620404 4289483520
1.5160346 1.3726891 -0.14792494 4288961280
1.5681354 1.4199532 -0.16437471 4289222400
1.6225682 1.4693352 -0.18165538 4289483520
1.62263 1.4694839 -0.19303878 4289483520
1.6065814 1.4550419 -0.20218369 4289352960
1.6158923 1.4635669 -0.21424983 4289483520
1.6138279 1.4617894 -0.2246204 4289483520
1.6187503 1.4663407 -0.23573287 4289483520
1.6117481 1.4600899 -0.24483486 4289483520
1.5880668 1.4387277 -0.25094187 4289352960
1.614536 1.4628003 -0.26470569 4289483520
1.6168365 1.464977 -0.27438086 4289483520
1.6183463 1.4664376 -0.28363526 4289483520
1.613835 1.4624419 -0.29149905 4289483520
1.6062859 1.455693 -0.29842168 4289483520
1.5957458 1.4462323 -0.30435941 4289352960
1.5990752 1.4493413 -0.31256026 4289352960
1.5982647 1.4486982 -0.31960791 4289352960
1.60358 1.4536078 -0.32753453 4289483520
1.6088626 1.4584885 -0.33512348 4289483520
1.5977324 1.44849 -0.33888784 4289352960
1.5988795 1.4496214 -0.34482798 4289352960
1.5930488 1.4444263 -0.34885028 4289352960
1.5944798 1.4458151 -0.3540445 4289352960
1.5860983 1.4383059 -0.35663074 4289352960
1.5940026 1.4455649 -0.36246154 4289352960
1.5828106 1.4355057 -0.36352333 4289352960
1.5843751 1.4370154 -0.3670693 4289352960
1.5873263 1.439783 -0.37051687 4289352960
1.5818745 1.4349284 -0.37156767 4289352960
1.5794688 1.4328368 -0.37288898 4289352960
1.5792427 1.432722 -0.37428567 4289352960
1.5754242 1.4293481 -0.37439033 4289352960
1.5810794 1.4345695 -0.37630767 4289352960
1.5737257 1.4279873 -0.37468949 4289352960
1.5827944 1.4363068 -0.37654012 4289352960
1.5844942 1.4379401 -0.37619418 4289352960
1.5843523 1.4379021 -0.37496978 4289352960
1.5871222 1.4405069 -0.37399298 4289352960
1.5979564 1.4504318 -0.37446207 4289483520
1.5913275 1.4445062 -0.37039763 4289352960
1.5977514 1.4504288 -0.36893749 4289483520
1.600922 1.4533988 -0.36627734 4289483520
1.5968 1.4497482 -0.3615253 4289352960
1.6024983 1.4550135 -0.35857093 4289483520
1.5927778 1.446279 -0.35176346 4289352960
1.5938139 1.4473112 -0.34694886 4289352960
1.5870866 1.4412931 -0.34006274 4289352960
1.5872127 1.4414986 -0.3342751 4289352960
1.5812752 1.436197 -0.32684818 4289352960
1.5885379 1.4428844 -0.32176718 4289352960
1.5970551 1.4507122 -0.31650403 4289352960
1.6014467 1.4547932 -0.31000388 4289352960
1.5948647 1.4489055 -0.30103737 4289352960
1.582853 1.4380838 -0.29079571 4289352960
1.5856315 1.4406991 -0.28298721 4289352960
1.5966825 1.4508317 -0.27626005 4289352960
1.6016295 1.4554186 -0.26807678 4289352960
1.6019212 1.4557755 -0.25878292 4289352960
1.58749 1.442752 -0.24690521 4289352960
1.5840768 1.4397408 -0.23657259 4289352960
1.5846562 1.4403583 -0.2265895 4289352960
1.4848239 1.349702 -0.20264278 4288830720
1.5864184 1.4421421 -0.20593394 4289352960
1.605167 1.4592777 -0.19743778 4289352960
1.6087548 1.4626317 -0.18670589 4289352960
1.6027679 1.4572806 -0.17467426 4289352960
1.5974519 1.4525388 -0.16260402 4289352960
1.6216412 1.4746269 -0.15321998 4289483520
1.639145 1.4906379 -0.14272982 4289483520
1.5460999 1.4061115 -0.12302577 4289091840
1.4336759 1.303949 -0.10319682 4288569600
1.456686 1.3249606 -0.093680725 4288700160
1.4503648 1.3192943 -0.082048506 4288700160
1.4590456 1.3272744 -0.071156658 4288700160
1.4237956 1.2952896 -0.058253881 4288569600
1.4754792 1.3423933 -0.048712973 4288830720
1.4904137 1.3560662 -0.037378747 4288830720
1.4158477 1.2883029 -0.024234161 4288439040
1.4831549 1.3496321 -0.013547682 4288830720
1.4653956 1.3335557 -0.0016735867 4288700160
1.5595871 1.4193625 0.010686154 4289091840
1.6963546 1.5439306 0.025172153 4289744640
1.7103291 1.5567476 0.03901343 4289875200
1.716735 1.5626769 0.052803077 4289875200
1.7215672 1.5671743 0.066577256 4289875200
1.7100395 1.5567787 0.079595111 4289875200
1.71179 1.5584706 0.093068637 4289875200
1.7116706 1.5584604 0.10635328 4289875200
1.7076913 1.5549353 0.119252 4289875200
1.6825986 1.532184 0.13032568 4289744640
1.7096045 1.5568738 0.14530596 4289875200
1.710961 1.5582075 0.15816233 4289875200
1.709558 1.5570281 0.17059146 4289875200
1.666273 1.5177008 0.17833181 4289614080
1.7333577 1.5789036 0.19785394 4290005760
1.7347819 1.5803006 0.21015216 4290005760
1.7216047 1.5683957 0.22037025 4289875200
1.702045 1.5506746 0.22930673 4289875200
1.6676677 1.5194505 0.2356362 4289744640
1.7202141 1.5674256 0.25409788 4289875200
1.7176745 1.5652103 0.26446161 4289875200
1.7037659 1.5526342 0.27267978 4289875200
1.6933872 1.5432736 0.2810123 4289875200
1.6753106 1.5268958 0.28758791 4289744640
1.7173893 1.5653455 0.30429569 4290005760
1.7044735 1.5536712 0.3110798 4289875200
1.7060965 1.5552487 0.32010522 4289875200
1.7001876 1.54996 0.32733381 4289875200
1.6989216 1.5489036 0.33504918 4289875200
1.693766 1.5443008 0.34158656 4289875200
1.699145 1.5493028 0.34985772 4289875200
1.6992962 1.5495386 0.35667491 4289875200
1.6981074 1.5485522 0.36279711 4289875200
1.693031 1.5440203 0.36764872 4289875200
1.68931 1.5407239 0.37234038 4289875200
1.6867048 1.538445 0.37682742 4289875200
1.691926 1.5433047 0.38263279 4289875200
1.6856085 1.5376391 0.38538307 4289875200
1.6883073 1.5401982 0.38973686 4289875200
1.683562 1.5359662 0.39191511 4289875200
1.6693476 1.5230941 0.391399 4289744640
1.6762877 1.5295225 0.39537171 4289744640
1.6760052 1.5293614 0.39718828 4289744640
1.6721427 1.525933 0.39768827 4289744640
1.6785237 1.5318526 0.40015936 4289875200
1.6784158 1.5318508 0.40061858 4289875200
1.6856298 1.538532 0.40235633 4289875200
1.6747297 1.5286796 0.39930201 4289744640
1.6827271 1.5360764 0.40028432 4289875200
1.6832958 1.5366925 0.39902604 4289875200
1.6856009 1.5388939 0.39770943 4289875200
1.6876202 1.5408347 0.39585495 4289875200
1.689157 1.5423352 0.39341953 4289875200
1.6893045 1.5425671 0.39019853 4289875200
1.69047 1.5437288 0.38675496 4289875200
1.691283 1.5445687 0.38277596 4289875200
1.6944796 1.5475856 0.37888083 4289875200
1.6871883 1.5410236 0.37221399 4289875200
1.6829333 1.5372342 0.36582148 4289875200
1.6848758 1.5391057 0.36036021 4289875200
1.6733727 1.5286943 0.35164374 4289744640
1.6987867 1.5520089 0.35022208 4289875200
1.7059503 1.5586518 0.34450436 4289875200
1.7001363 1.5534378 0.33576688 4289875200
1.6703054 1.5265145 0.27316698 4289744640
1.702723 1.5562397 0.26828405 4289875200
1.7174443 1.5697936 0.26002768 4289875200
1.7032746 1.5569402 0.24710545 4289875200
1.6681064 1.5248897 0.23117925 4289744640
1.678946 1.5348954 0.22152829 4289744640
1.6989894 1.5533172 0.21263793 4289875200
1.6859066 1.5414534 0.19932091 4289744640
1.6624388 1.5200921 0.18481228 4289614080
1.6817497 1.5378466 0.17488274 4289744640
1.6906581 1.5460902 0.16347551 4289744640
1.6939932 1.5492378 0.1512603 4289744640
1.6764386 1.53328 0.13712102 4289744640
1.7005415 1.5554229 0.12618777 4289875200
1.7037779 1.5584813 0.11336051 4289875200
1.6943505 1.5499556 0.099615067 4289744640
1.6325306 1.4934984 0.083236247 4289483520
1.4574257 1.3333902 0.062849946 4288700160
1.4686925 1.3437828 0.05171971 4288700160
1.4261038 1.3048986 0.038885813 4288569600
1.4719056 1.3468926 0.028392553 4288830720
1.457945 1.3342019 0.016461486 4288700160
1.470017 1.3453341 0.0048208851 4288700160
1.4139068 1.2940646 -0.0066961586 4288439040
1.4578054 1.3343266 -0.018582186 4288700160
1.4473315 1.3248235 -0.030023679 4288700160
1.4759543 1.3511087 -0.042388994 4288830720
1.6233773 1.4861555 -0.059520718 4289483520
1.6374518 1.4991348 -0.072982252 4289483520
1.6407508 1.5022498 -0.086022548 4289614080
1.6343882 1.4965187 -0.09844023 4289483520
1.5894245 1.4554398 -0.10802945 4289352960
1.6039429 1.4688269 -0.12130836 4289352960
1.6069036 1.4716311 -0.13371569 4289352960
1.6084259 1.4731181 -0.14589223 4289352960
1.5735393 1.4412572 -0.15436128 4289222400
1.6040369 1.4692837 -0.16904055 4289352960
1.6090561 1.4739742 -0.18110842 4289483520
1.6124716 1.4771961 -0.19285753 4289483520
1.594542 1.4608629 -0.20174208 4289352960
1.5964679 1.4627194 -0.21280567 4289352960
1.6090873 1.4743747 -0.22515652 4289483520
1.6066513 1.4722356 -0.23521933 4289483520
1.599687 1.4659463 -0.24429828 4289352960
1.5761304 1.4444503 -0.25038263 4289352960
1.6092908 1.4749333 -0.26525047 4289483520
1.6047531 1.4708672 -0.27377924 4289483520
1.6099117 1.4756883 -0.28365728 4289483520
1.5997694 1.4664842 -0.29049397 4289483520
1.5846204 1.4526889 -0.29596004 4289352960
1.5837779 1.4520082 -0.30368006 4289352960
1.5870914 1.4551377 -0.31186345 4289352960
1.589932 1.4578341 -0.31962717 4289352960
1.5886604 1.45676 -0.32620645 4289352960
1.5931897 1.4610054 -0.33361614 4289352960
1.5966817 1.4643 -0.34045729 4289483520
1.5931939 1.4611936 -0.3454192 4289483520
1.5883783 1.4568688 -0.34966615 4289352960
1.5825282 1.4515947 -0.35324714 4289352960
1.5778259 1.4473727 -0.35664383 4289352960
1.5747887 1.4446777 -0.35998201 4289352960
1.5745546 1.4445541 -0.36353415 4289352960
1.5732056 1.4434075 -0.36640236 4289352960
1.5739543 1.4441855 -0.3693305 4289352960
1.5606194 1.4320402 -0.36850438 4289352960
1.5748577 1.4451966 -0.37375584 4289352960
1.5673751 1.4384208 -0.37342542 4289352960
1.5672046 1.438355 -0.37439308 4289352960
1.5598336 1.4316803 -0.37319943 4289352960
1.5655143 1.4369849 -0.37468913 4289352960
1.5705971 1.4417413 -0.37559634 4289352960
1.5725983 1.4436694 -0.37532473 4289352960
1.5797124 1.4502918 -0.37582755 4289352960
1.5752114 1.4462507 -0.37312645 4289352960
1.5830853 1.4535716 -0.37291446 4289352960
1.579393 1.4502729 -0.36953771 4289352960
1.5894125 1.4595652 -0.36892483 4289483520
1.5925661 1.4625535 -0.36626273 4289483520
1.5822352 1.4531575 -0.36009091 4289352960
1.5875944 1.4581715 -0.35708162 4289352960
1.5849509 1.4558353 -0.35185125 4289352960
1.575315 1.4470756 -0.3446992 4289352960
1.5722554 1.4443562 -0.33862859 4289352960
1.5723779 1.4445598 -0.3328625 4289352960
1.5693803 1.4418967 -0.32606378 4289352960
1.5627668 1.4359111 -0.31817842 4289222400
1.5850737 1.4564991 -0.31574583 4289352960
1.585796 1.4572546 -0.30855095 4289352960
1.5865368 1.4580272 -0.30100071 4289352960
1.5782351 1.4504895 -0.29143089 4289352960
1.5724282 1.4452438 -0.28206369 4289352960
1.5846924 1.4566078 -0.27558225 4289352960
1.5896113 1.4612213 -0.26741725 4289352960
1.5898991 1.461578 -0.25814253 4289352960
1.5790093 1.4516586 -0.24682724 4289352960
1.570843 1.444242 -0.23577796 4289222400
1.5911901 1.4630415 -0.22866592 4289352960
1.5943644 1.4660527 -0.21868047 4289352960
1.5736306 1.4470787 -0.20529102 4289222400
1.5929254 1.4649142 -0.19690287 4289352960
1.5937479 1.465763 -0.18587573 4289352960
1.6046628 1.4758943 -0.1757372 4289352960
1.5910236 1.463442 -0.16273712 4289352960
1.628431 1.4979441 -0.15460335 4289483520
1.6289808 1.4985445 -0.1425219 4289483520
1.627897 1.4976419 -0.13014553 4289483520
1.623525 1.4937139 -0.11740547 4289483520
1.5177554 1.3964893 -0.0980535 4288961280
1.431752 1.3174404 -0.081356287 4288569600
1.4447968 1.3295275 -0.070765428 4288700160
1.3986969 1.2871867 -0.057462208 4288439040
1.4471648 1.3318746 -0.047960483 4288700160
1.4715819 1.3544319 -0.037029527 4288830720
1.3907832 1.280146 -0.023862425 4288439040
1.4680371 1.3513397 -0.013407657 4288830720
1.45037 1.3351611 -0.0015928607 4288700160
1.5477465 1.4248924 0.01073859 4289091840
1.677177 1.5441465 0.025103398 4289744640
1.6931242 1.5589272 0.038910389 4289744640
1.7040704 1.5691047 0.052776515 4289875200
1.7052004 1.5702442 0.066378884 4289875200
1.6900579 1.5563983 0.079166025 4289744640
1.6881261 1.5547172 0.092352092 4289744640
1.6990321 1.56486 0.10621119 4289875200
1.6965405 1.5626637 0.11918423 4289875200
1.6627699 1.5316545 0.12955317 4289614080
1.6969777 1.5632635 0.14507887 4289875200
1.6946589 1.5612258 0.15756634 4289875200
1.6939989 1.5607162 0.1700145 4289875200
1.6502097 1.5204681 0.17762534 4289614080
1.7156671 1.5808789 0.19695112 4289875200
1.7148912 1.5802635 0.20892088 4289875200
1.6997032 1.5663666 0.21879511 4289875200
1.675118 1.5438074 0.22694778 4289744640
1.6220137 1.4949601 0.23046899 4289483520
1.7113831 1.5774286 0.25420421 4289875200
1.6984398 1.5655971 0.26295474 4289875200
1.6875297 1.5556383 0.271579 4289875200
1.6779385 1.5468942 0.27998841 4289744640
1.6426616 1.5144678 0.28353843 4289614080
1.694272 1.562149 0.301851 4289875200
1.6882471 1.5566921 0.30980918 4289875200
1.6862241 1.5549248 0.31810877 4289875200
1.6912683 1.5596746 0.32739535 4289875200
1.6790973 1.5485481 0.3329446 4289875200
1.674701 1.544591 0.33957884 4289744640
1.6812165 1.550698 0.34804544 4289875200
1.6844218 1.5537525 0.35546836 4289875200
1.6790328 1.5488791 0.36066169 4289875200
1.6805185 1.5503474 0.36690125 4289875200
1.669564 1.5403385 0.36997068 4289744640
1.6713274 1.5420625 0.37539986 4289875200
1.672174 1.542941 0.38019571 4289875200
1.6661789 1.5375062 0.38298193 4289744640
1.6722028 1.5431622 0.38808385 4289875200
1.6711055 1.5422467 0.39109227 4289875200
1.6569664 1.5292944 0.39056647 4289744640
1.6638707 1.5357634 0.39453071 4289744640
1.6672093 1.538942 0.39720184 4289744640
1.6669855 1.5388324 0.39856315 4289744640
1.6632016 1.5354362 0.39860442 4289744640
1.6630946 1.5354342 0.39905795 4289744640
1.6695476 1.5414889 0.40061814 4289875200
1.6695579 1.5415957 0.40016317 4289875200
1.6673832 1.5396847 0.39871699 4289875200
1.6672246 1.5396353 0.39728746 4289875200
1.6695169 1.5418493 0.39597455 4289875200
1.6722482 1.5444691 0.39429638 4289875200
1.669432 1.5419652 0.39085037 4289875200
1.669633 1.5422481 0.3876588 4289875200
1.677976 1.5500523 0.38588691 4289875200
1.6787837 1.5508962 0.38191241 4289875200
1.6790636 1.5512525 0.37737113 4289875200
1.6783327 1.5506749 0.37216616 4289875200
1.6704741 1.5435113 0.3649773 4289875200
1.6549938 1.529304 0.35578132 4289744640
1.6609604 1.5349144 0.35081732 4289744640
1.6797049 1.5523341 0.3480508 4289875200
1.6940898 1.5657269 0.34384513 4289875200
1.6875781 1.5598069 0.33497226 4289875200
1.6542386 1.5293236 0.27196845 4289744640
1.6815672 1.5546867 0.26634982 4289875200
1.6945544 1.5667926 0.25791633 4289875200
1.6877525 1.5606018 0.24614544 4289875200
1.6556872 1.5310488 0.23066813 4289744640
1.6701212 1.5444936 0.22152527 4289744640
1.6827482 1.5562688 0.21171443 4289744640
1.6741188 1.5483856 0.1989688 4289744640
1.6463825 1.5228285 0.18398955 4289614080
1.6626608 1.5379821 0.17380568 4289744640
1.6715181 1.5462725 0.16247244 4289744640
1.6740991 1.5487578 0.15026665 4289744640
1.6537019 1.5299841 0.13596825 4289614080
1.6806052 1.5549726 0.12535867 4289744640
1.6838211 1.5580463 0.11261516 4289744640
1.6854391 1.5596418 0.099604428 4289744640
1.6268777 1.5055461 0.083375573 4289483520
1.435822 1.3288231 0.062235299 4288700160
1.45363 1.3453888 0.051448744 4288700160
1.3833822 1.2804525 0.037909061 4288439040
1.4538887 1.3457978 0.02818075 4288700160
1.450274 1.3425364 0.016448267 4288700160
1.441735 1.334716 0.0047393651 4288700160
1.4539 1.3460627 -0.0069365161 4288700160
1.4112451 1.306654 -0.018098563 4288569600
1.5614945 1.4458591 -0.032580171 4289222400
1.6140724 1.4946376 -0.046619095 4289483520
1.6078938 1.48901 -0.059283618 4289483520
1.6198448 1.5001718 -0.072598927 4289483520
1.6281372 1.5079467 -0.085833021 4289483520
1.6167598 1.4975035 -0.097914256 4289483520
1.5810555 1.4645252 -0.10804985 4289352960
1.5881722 1.47121 -0.12077238 4289352960
1.6021024 1.4842079 -0.13404347 4289483520
1.5962207 1.4788522 -0.14557351 4289352960
1.589705 1.4729083 -0.15679483 4289352960
1.6032259 1.4855295 -0.16987222 4289483520
1.6030846 1.4854921 -0.1814145 4289483520
1.600207 1.4829191 -0.1924271 4289483520
1.5826498 1.4667412 -0.20132072 4289352960
1.5844065 1.4684618 -0.21233942 4289352960
1.5940427 1.4774859 -0.22425587 4289352960
1.6018306 1.4847978 -0.23577896 4289483520
1.5810539 1.4656315 -0.24275456 4289352960
1.5649101 1.4507576 -0.24993962 4289222400
1.5947449 1.4785093 -0.26426825 4289483520
1.5926564 1.4766661 -0.27317753 4289483520
1.5905173 1.4747758 -0.2817471 4289352960
1.5847946 1.4695621 -0.28932133 4289352960
1.572634 1.4583775 -0.29529893 4289352960
1.5717974 1.4576936 -0.30300066 4289352960
1.5750947 1.4608436 -0.31116652 4289352960
1.5742954 1.4601942 -0.31818059 4289352960
1.5730336 1.4591157 -0.32472855 4289352960
1.5782666 1.4640621 -0.33226117 4289352960
1.5708792 1.4573011 -0.33674836 4289352960
1.567417 1.4541808 -0.34164843 4289352960
1.5643344 1.4514123 -0.34621426 4289352960
1.5679677 1.454875 -0.35186708 4289352960
1.5732075 1.459829 -0.35749885 4289352960
1.5590943 1.446824 -0.35829645 4289352960
1.5508846 1.4392962 -0.359979 4289222400
1.5588077 1.4467404 -0.36498421 4289352960
1.5527129 1.4411745 -0.36628699 4289352960
1.5425607 1.4318419 -0.36617923 4289222400
1.5422864 1.4316775 -0.36797303 4289222400
1.5521706 1.4409435 -0.37176892 4289352960
1.5520015 1.4408772 -0.37273079 4289352960
1.5446696 1.4341607 -0.37153322 4289222400
1.5486553 1.4379518 -0.37262025 4289222400
1.5471436 1.4366387 -0.37194869 4289222400
1.552563 1.4417619 -0.3725054 4289352960
1.5506895 1.4401128 -0.37087494 4289222400
1.5610662 1.4498408 -0.3717308 4289352960
1.5619682 1.45077 -0.36988369 4289352960
1.5655364 1.4541758 -0.36822867 4289352960
1.5607502 1.4498215 -0.36418194 4289352960
1.5662863 1.4550558 -0.3621161 4289352960
1.5627387 1.4518515 -0.35752502 4289352960
1.5683715 1.4571764 -0.35461193 4289352960
1.5652536 1.4543713 -0.34930262 4289352960
1.5561492 1.4460028 -0.34229076 4289352960
1.5603364 1.449985 -0.33782122 4289352960
1.5532188 1.4434618 -0.33052602 4289222400
1.5538524 1.4441416 -0.32452339 4289222400
1.549629 1.4403071 -0.31714851 4289222400
1.5660715 1.4556813 -0.31358445 4289352960
1.5774211 1.4663234 -0.30851635 4289352960
1.5675161 1.4572077 -0.29893467 4289352960
1.5561109 1.4466962 -0.28883308 4289222400
1.5604924 1.4508611 -0.28136873 4289352960
1.5661519 1.4562147 -0.27376187 4289352960
1.5812141 1.4703122 -0.2673724 4289352960
1.5676844 1.4578234 -0.25584102 4289352960
1.5661429 1.4564817 -0.24606794 4289352960
1.578122 1.4677143 -0.238078 4289352960
1.5874217 1.4764564 -0.22928326 4289352960
1.589802 1.4787636 -0.21915823 4289352960
1.573609 1.4637938 -0.20632268 4289352960
1.5706527 1.4611359 -0.1951234 4289352960
1.5853243 1.4748772 -0.18581557 4289352960
1.5823152 1.4721706 -0.17414886 4289352960
1.574132 1.4646492 -0.1618019 4289352960
1.6063633 1.494733 -0.15325274 4289483520
1.6190939 1.5066738 -0.14234164 4289483520
1.6156355 1.5035502 -0.12978229 4289483520
1.6161472 1.5041212 -0.11742217 4289483520
1.5949185 1.4844575 -0.10351486 4289352960
1.4610699 1.3599647 -0.083396927 4288830720
1.3983858 1.3017002 -0.068791494 4288439040
1.4495636 1.3494247 -0.059800249 4288700160
1.4182892 1.3203938 -0.047185604 4288569600
1.4535508 1.3533069 -0.036699839 4288700160
1.3724464 1.2778763 -0.023605689 4288308480
1.4361174 1.3372443 -0.013114637 4288700160
1.4324479 1.3339114 -0.0015097748 4288700160
1.557117 1.4500959 0.010939764 4289222400
1.6612695 1.5471874 0.025082158 4289744640
1.6748086 1.559895 0.038780045 4289744640
1.6884634 1.5727121 0.052658323 4289875200
1.6888562 1.5731771 0.06617976 4289875200
1.6672132 1.5531143 0.078597911 4289744640
1.6791847 1.564365 0.092438966 4289744640
1.683454 1.5684413 0.10588485 4289744640
1.6758646 1.5614686 0.11844527 4289744640
1.6473864 1.5350311 0.12912303 4289614080
1.6770335 1.5627546 0.14422347 4289744640
1.6856784 1.5709093 0.1576522 4289875200
1.6711593 1.5574769 0.1687004 4289744640
1.6312535 1.5203816 0.17660235 4289614080
1.6992835 1.5838875 0.19619423 4289875200
1.6992429 1.5839494 0.20820114 4289875200
1.6936046 1.578793 0.21925403 4289875200
1.6662362 1.5533777 0.22702722 4289744640
1.6134127 1.5042269 0.23054463 4289483520
1.6848577 1.570936 0.25167599 4289875200
1.6756251 1.562426 0.26088127 4289875200
1.6682519 1.5556489 0.26998168 4289744640
1.6581498 1.546326 0.27823314 4289744640
1.623791 1.5143797 0.28184384 4289614080
1.6816584 1.5684469 0.30126998 4289875200
1.6805927 1.5675516 0.31011555 4289875200
1.6740193 1.5615187 0.31755441 4289875200
1.6663589 1.554471 0.32435498 4289744640
1.6623017 1.5507839 0.33143085 4289744640
1.6451983 1.5349246 0.3354314 4289744640
1.6686807 1.556931 0.34734648 4289875200
1.6653678 1.5539379 0.35337272 4289875200
1.6643423 1.5530788 0.35946095 4289875200
1.6546369 1.5441195 0.36322224 4289744640
1.6607031 1.549878 0.37001193 4289744640
1.6552438 1.5448804 0.37380904 4289744640
1.6511041 1.5411137 0.37744287 4289744640
1.6501272 1.5402991 0.38134754 4289744640
1.6489881 1.5393326 0.38476613 4289744640
1.6622354 1.5517967 0.3911168 4289875200
1.6445701 1.5354018 0.38973382 4289744640
1.6514384 1.5419112 0.3936896 4289744640
1.6511599 1.5417484 0.39549085 4289744640
1.6545376 1.5449995 0.3977077 4289744640
1.6471751 1.5382214 0.39687598 4289744640
1.6470691 1.5382192 0.39732367 4289744640
1.6470213 1.5382714 0.39731991 4289744640
1.6506193 1.541729 0.39772922 4289744640
1.6585321 1.5492173 0.39870691 4289875200
1.6478612 1.5393468 0.3947548 4289744640
1.6541754 1.5453424 0.39441144 4289744640
1.652263 1.5436531 0.39164087 4289744640
1.6537716 1.5451599 0.38922372 4289744640
1.6506298 1.5423214 0.38526127 4289744640
1.6589196 1.5501649 0.38350555 4289744640
1.6597828 1.5510693 0.37956581 4289744640
1.655733 1.5473821 0.37407026 4289744640
1.6562693 1.5479809 0.36918631 4289744640
1.651507 1.5436271 0.36270753 4289744640
1.6472255 1.5397222 0.35594574 4289744640
1.6521424 1.5444155 0.35075742 4289744640
1.6671761 1.558567 0.34723398 4289875200
1.6758919 1.5668137 0.34189808 4289875200
1.6713897 1.562703 0.33345687 4289875200
1.6415298 1.5357 0.27136919 4289614080
1.6650794 1.5578293 0.26519513 4289744640
1.6816195 1.5734031 0.25736216 4289875200
1.6748526 1.5671704 0.24561483 4289875200
1.6400555 1.5347072 0.22975463 4289614080
1.6541483 1.5479922 0.22062151 4289744640
1.666961 1.5600808 0.21089035 4289744640
1.6576481 1.5514628 0.19810398 4289744640
1.6300607 1.5257386 0.18317693 4289614080
1.6535254 1.547799 0.17381153 4289744640
1.6550515 1.5493251 0.16176733 4289744640
1.6619858 1.5559144 0.15001106 4289744640
1.6409705 1.5363371 0.13567512 4289614080
1.6648088 1.5587535 0.12487563 4289744640
1.6680046 1.5618442 0.11218368 4289744640
1.6603873 1.5548095 0.098676801 4289744640
1.5910597 1.489984 0.0820015 4289352960
1.4104204 1.3209035 0.061482504 4288569600
1.4317757 1.3409878 0.050966516 4288700160
1.4212298 1.3311944 0.039173231 4288569600
1.4145155 1.324989 0.027581479 4288569600
1.4072703 1.3182852 0.016061682 4288569600
1.4053458 1.3165653 0.004658795 4288569600
1.4072276 1.3184114 -0.0067368294 4288569600
1.5549353 1.4568883 -0.020035312 4289222400
1.5946642 1.4942061 -0.033438899 4289352960
1.6046597 1.5036665 -0.046585448 4289483520
1.5815085 1.4820658 -0.058614846 4289352960
1.6041887 1.5034145 -0.072275631 4289483520
1.6112491 1.5101264 -0.085392632 4289483520
1.5967625 1.4966433 -0.097217858 4289483520
1.5687141 1.4704461 -0.10777913 4289352960
1.5794345 1.4805882 -0.12075146 4289352960
1.5758114 1.4772849 -0.13255191 4289352960
1.5820874 1.4832618 -0.14506114 4289352960
1.5788962 1.4803632 -0.15656841 4289352960
1.5823412 1.4836867 -0.16856475 4289352960
1.5900491 1.4910079 -0.18091241 4289352960
1.5812278 1.4828292 -0.19117436 4289352960
1.5601404 1.4631463 -0.19953319 4289222400
1.5618939 1.4648831 -0.21045819 4289352960
1.5707581 1.4732895 -0.22218043 4289352960
1.5692421 1.4719602 -0.23223795 4289352960
1.5576422 1.4611714 -0.24046135 4289352960
1.5391264 1.4438932 -0.24716035 4289222400
1.5536253 1.4575868 -0.25885746 4289222400
1.5527742 1.45688 -0.26778954 4289222400
1.5539734 1.458097 -0.27677625 4289352960
1.5482947 1.45286 -0.28420192 4289222400
1.5492551 1.4538528 -0.29249924 4289222400
1.5284851 1.4344521 -0.29626301 4289222400
1.534906 1.4405688 -0.30488697 4289222400
1.5377328 1.4433126 -0.31249341 4289222400
1.5321126 1.438128 -0.31801474 4289222400
1.542044 1.4475415 -0.32641622 4289222400
1.5359508 1.4419124 -0.3310681 4289222400
1.5337896 1.4399742 -0.33615503 4289222400
1.5380511 1.4440659 -0.34226835 4289222400
1.5305784 1.4371403 -0.34536582 4289222400
1.5308883 1.4375217 -0.34979695 4289222400
1.5360323 1.4424429 -0.35494089 4289222400
1.5248362 1.432019 -0.35588375 4289222400
1.5175147 1.425233 -0.35727566 4289222400
1.5265538 1.4338126 -0.36210391 4289222400
1.5190605 1.4268644 -0.36259273 4289222400
1.5159178 1.4240021 -0.36368135 4289222400
1.5221601 1.4299558 -0.36659813 4289222400
1.5155334 1.4238203 -0.36598805 4289222400
1.5154207 1.4238039 -0.36651811 4289222400
1.5182213 1.426525 -0.36732373 4289222400
1.5260376 1.4339595 -0.36891127 4289222400
1.5193427 1.4277586 -0.3665604 4289222400
1.5337451 1.4413835 -0.36886248 4289222400
1.5315228 1.4393855 -0.36672595 4289222400
1.5322024 1.440115 -0.36485675 4289222400
1.5327867 1.4407549 -0.36253661 4289222400
1.5263262 1.4347726 -0.35813811 4289222400
1.5251977 1.4338021 -0.35458767 4289222400
1.5235578 1.4323505 -0.3505117 4289222400
1.52396 1.4328189 -0.34650087 4289222400
1.5172523 1.4266022 -0.34048986 4289222400
1.5197448 1.4290357 -0.33616069 4289222400
1.5167029 1.4262651 -0.33022106 4289091840
1.5052387 1.4155736 -0.32211971 4289091840
1.4992244 1.4100064 -0.31488016 4289091840
1.5064927 1.4169314 -0.31006172 4289091840
1.519225 1.4289967 -0.3059251 4289091840
1.5264055 1.435841 -0.30023038 4289222400
1.5222524 1.4320245 -0.2919507 4289222400
1.5163337 1.4265465 -0.28305084 4289091840
1.5069565 1.4178138 -0.27326444 4289091840
1.5244528 1.4343654 -0.26799497 4289222400
1.5409139 1.449945 -0.26204962 4289222400
1.5259435 1.4359487 -0.2504583 4289222400
1.5165956 1.4272419 -0.23965442 4289091840
1.5408657 1.4501734 -0.23379907 4289222400
1.5545124 1.463109 -0.22582988 4289222400
1.5547479 1.4634228 -0.21557111 4289222400
1.544078 1.4534711 -0.20363145 4289222400
1.5483798 1.4576123 -0.19348301 4289222400
1.5555226 1.4644285 -0.1833954 4289222400
1.5558431 1.4648224 -0.17224835 4289222400
1.55039 1.4597802 -0.16030999 4289222400
1.5764593 1.4844195 -0.15130116 4289352960
1.5886481 1.4959908 -0.14050883 4289352960
1.5871279 1.4946532 -0.12826991 4289352960
1.5860616 1.4937431 -0.11594719 4289352960
1.5837333 1.4916441 -0.1034319 4289352960
1.569002 1.4778625 -0.090127692 4289352960
1.4348239 1.3515635 -0.071043551 4288700160
1.3964386 1.3154885 -0.057995267 4288569600
1.3718798 1.2924347 -0.045961473 4288439040
1.3894773 1.3090955 -0.035344981 4288439040
1.3614283 1.2827499 -0.023613634 4288308480
1.3896017 1.3093776 -0.012829784 4288439040
1.3859526 1.3060213 -0.0015387244 4288439040
1.4492666 1.3657697 0.010165049 4288700160
1.6405109 1.5460933 0.024822574 4289614080
1.6619065 1.5663559 0.038609814 4289744640
1.6682111 1.5723971 0.052229855 4289744640
1.6729677 1.5769798 0.065835029 4289744640
1.6652627 1.5698156 0.078856096 4289744640
1.6633521 1.5681133 0.091990218 4289744640
1.6612482 1.5662284 0.10498302 4289744640
1.6607779 1.5658836 0.11794575 4289744640
1.6273769 1.5344876 0.12818006 4289614080
1.6677554 1.5726603 0.14413755 4289744640
1.6623033 1.5676178 0.15624584 4289744640
1.6554734 1.561275 0.16796252 4289744640
1.6149757 1.5231777 0.17573142 4289614080
1.6797328 1.5843536 0.19493219 4289875200
1.6789724 1.5837361 0.2067793 4289875200
1.6711347 1.5764422 0.21746758 4289875200
1.6533965 1.5598072 0.22645211 4289744640
1.5979731 1.5076159 0.22953376 4289483520
1.6719179 1.5774788 0.25105557 4289875200
1.662738 1.5689161 0.2602402 4289744640
1.6554071 1.5620972 0.26932061 4289744640
1.6382165 1.5459729 0.27634758 4289744640
1.6148025 1.5239732 0.28177589 4289614080
1.6687436 1.5749794 0.30055228 4289875200
1.661199 1.5679573 0.30817762 4289875200
1.6643898 1.5710679 0.31742191 4289875200
1.650653 1.5581994 0.32302606 4289744640
1.6502187 1.5578874 0.33079559 4289744640
1.6360875 1.5446441 0.33537623 4289744640
1.6486565 1.5566086 0.34503663 4289744640
1.6453663 1.5535998 0.35102308 4289744640
1.6414778 1.5500258 0.35645041 4289744640
1.6418813 1.5505044 0.36238587 4289744640
1.6450442 1.553589 0.36852393 4289744640
1.642486 1.5512706 0.37295672 4289744640
1.6419548 1.5508665 0.37740827 4289744640
1.6309471 1.5405664 0.37898436 4289744640
1.6326827 1.542303 0.38305706 4289744640
1.6394098 1.5487552 0.38787186 4289744640
1.6325881 1.5424078 0.38903043 4289744640
1.632257 1.542192 0.3912693 4289744640
1.6319808 1.5420281 0.39306325 4289744640
1.6213757 1.5321039 0.39190024 4289744640
1.6380395 1.5479476 0.39687017 4289744640
1.637933 1.5479444 0.39732173 4289744640
1.6242855 1.5351433 0.39402306 4289744640
1.6414614 1.5514742 0.39773521 4289744640
1.6343706 1.5448693 0.3951008 4289744640
1.6355708 1.5461011 0.39401105 4289744640
1.6378355 1.5483394 0.3927131 4289744640
1.6395116 1.5500214 0.39080983 4289744640
1.6417264 1.552213 0.38857225 4289744640
1.6350188 1.5459684 0.38377875 4289744640
1.6396779 1.5504713 0.38120857 4289744640
1.6505654 1.5608647 0.379605 4289744640
1.6465371 1.5571533 0.37411359 4289744640
1.6465254 1.5572402 0.36911184 4289744640
1.6423326 1.5533726 0.36275908 4289744640
1.6316155 1.5433332 0.35459772 4289744640
1.6321944 1.5439777 0.34851801 4289744640
1.6488273 1.5598099 0.34539557 4289744640
1.6593934 1.5699044 0.34049287 4289875200
1.6621003 1.5725642 0.33352986 4289875200
1.6338502 1.5464641 0.27158454 4289744640
1.648761 1.5606756 0.26403987 4289744640
1.672424 1.5831739 0.25736216 4289875200
1.6555846 1.5673317 0.2441242 4289744640
1.6219517 1.5355884 0.22846796 4289614080
1.637874 1.5507604 0.21965227 4289744640
1.6506127 1.56292 0.20997056 4289744640
1.6384537 1.5515046 0.19688705 4289744640
1.6146308 1.5290421 0.18244101 4289614080
1.633363 1.5468787 0.17263658 4289614080
1.6459967 1.5589415 0.16176733 4289744640
1.645648 1.5587093 0.14935358 4289744640
1.6283683 1.5424395 0.13537388 4289614080
1.6413878 1.5548699 0.12379626 4289614080
1.6525096 1.565504 0.11175308 4289744640
1.631557 1.5457518 0.097496994 4289614080
1.4975893 1.418919 0.077608898 4288961280
1.3614037 1.2899684 0.059672393 4288308480
1.3158199 1.2468549 0.047096666 4288177920
1.2915316 1.2239165 0.03579431 4288047360
1.3618331 1.2906189 0.0267004 4288308480
1.3408355 1.2707993 0.015387683 4288308480
1.2986845 1.2309275 0.0043289084 4288047360
1.2986999 1.2310194 -0.0062515032 4288047360
1.5167036 1.4377525 -0.019650297 4289091840
1.5296458 1.4501123 -0.032252129 4289091840
1.4970814 1.4193305 -0.043701638 4288961280
1.4547515 1.3792857 -0.054213818 4288830720
1.4768234 1.4003007 -0.066903725 4288961280
1.4863147 1.4093888 -0.07920523 4288961280
1.4914035 1.4143033 -0.091303281 4288961280
1.4707438 1.3947994 -0.10160466 4288830720
1.4750749 1.3989948 -0.11339415 4288961280
1.4882067 1.4115381 -0.12587254 4288961280
1.4950565 1.4181243 -0.13783655 4288961280
1.4681456 1.3926858 -0.14638817 4288830720
1.4793118 1.4033664 -0.1584575 4288961280
1.4935628 1.4169749 -0.17087081 4288961280
1.4902009 1.4138744 -0.18116187 4288961280
1.4795321 1.4038403 -0.19026668 4288961280
1.456524 1.3820963 -0.19734176 4288830720
1.4626794 1.3880244 -0.20803329 4288830720
1.4747864 1.3996016 -0.21946219 4288961280
1.4748952 1.399793 -0.22894241 4288961280
1.44235 1.368991 -0.23289642 4288830720
1.4627188 1.3884113 -0.24505471 4288830720
1.4652592 1.39091 -0.2540901 4288961280
1.4749831 1.4002287 -0.26415595 4288961280
1.4777011 1.4028972 -0.27273962 4288961280
1.4747944 1.4002256 -0.27997655 4288961280
1.4448619 1.371893 -0.28159901 4288830720
1.4479531 1.3749146 -0.28920132 4288830720
1.4433758 1.3706543 -0.2949363 4288830720
1.4474587 1.3746181 -0.30210072 4288830720
1.4554393 1.382284 -0.30978346 4288830720
1.4566532 1.3835239 -0.31570792 4288961280
1.4621338 1.3888168 -0.32221845 4288961280
1.4673103 1.3938215 -0.32832772 4288961280
1.4729241 1.399242 -0.33419034 4288961280
1.4748883 1.4011962 -0.33886099 4288961280
1.4583138 1.385537 -0.33884162 4288961280
1.4452049 1.3731686 -0.33915997 4288830720
1.4520606 1.3797694 -0.34375232 4288830720
1.4270831 1.3561208 -0.34037754 4288830720
1.4296372 1.3586333 -0.34313145 4288830720
1.3919824 1.3229319 -0.33579165 4288569600
1.3982066 1.328931 -0.33860409 4288700160
1.3916284 1.3227619 -0.33792147 4288569600
1.3879554 1.3193537 -0.33754295 4288569600
1.4359926 1.3651025 -0.34934744 4288830720
1.4188565 1.3488971 -0.34489486 4288700160
1.4370805 1.3663086 -0.34862828 4288830720
1.4434896 1.3724883 -0.34907344 4288830720
1.4587859 1.3871195 -0.35123822 4288961280
1.4631827 1.3913878 -0.35034585 4288961280
1.455228 1.3839105 -0.34609357 4288961280
1.4553052 1.384071 -0.34336004 4288961280
1.4421798 1.3716744 -0.3371394 4288830720
1.4425871 1.3721482 -0.33371708 4288830720
1.4269146 1.3573261 -0.32622829 4288830720
1.4335845 1.3637567 -0.32349139 4288830720
1.4292396 1.359709 -0.31788832 4288830720
1.4297618 1.3602912 -0.31301221 4288830720
1.4236625 1.3545736 -0.30634621 4288700160
1.40481 1.33672 -0.29668111 4288700160
1.4144263 1.345955 -0.29272193 4288700160
1.4262304 1.3572731 -0.28878638 4288700160
1.4363736 1.3670118 -0.28408366 4288830720
1.4311309 1.3621079 -0.27599201 4288830720
1.420615 1.3521842 -0.26664931 4288700160
1.4057344 1.3381047 -0.25631869 4288700160
1.4151995 1.3471991 -0.25016412 4288700160
1.4267106 1.3582425 -0.24396971 4288700160
1.4182763 1.3502979 -0.2340738 4288700160
1.4064047 1.3390796 -0.22347099 4288569600
1.4185736 1.3507509 -0.21643385 4288700160
1.425104 1.3570545 -0.20817533 4288700160
1.4238594 1.3559545 -0.19851498 4288700160
1.4032123 1.3363763 -0.18607789 4288569600
1.4038264 1.3370451 -0.17639028 4288569600
1.417861 1.3504971 -0.16808999 4288700160
1.4128921 1.3458489 -0.1572876 4288700160
1.3897474 1.3238858 -0.14449468 4288569600
1.3924061 1.326502 -0.13437608 4288569600
1.3991619 1.3330218 -0.12443443 4288569600
1.393308 1.3275281 -0.11322878 4288569600
1.3586615 1.2945988 -0.099873073 4288439040
1.3817754 1.3167056 -0.090741724 4288439040
1.3823967 1.3173805 -0.079848126 4288439040
1.3704699 1.3060968 -0.068232775 4288439040
1.3432086 1.2801965 -0.056093398 4288308480
1.3726283 1.3083185 -0.046241142 4288439040
1.3792734 1.3147349 -0.035279676 4288439040
1.3649403 1.3011544 -0.023805635 4288439040
1.3794501 1.3150688 -0.012806581 4288439040
1.3941709 1.3291861 -0.00155642 4288569600
1.3963122 1.3313115 0.0098478692 4288569600
1.3763582 1.3123688 0.020941017 4288439040
1.5706372 1.4977096 0.036691532 4289352960
1.6555907 1.5788178 0.05212184 4289744640
1.6610759 1.5841484 0.065729156 4289744640
1.6382934 1.5625192 0.078008763 4289744640
1.6406083 1.5648255 0.091235049 4289744640
1.6520948 1.5758805 0.10498302 4289744640
1.6444005 1.5686399 0.11742973 4289744640
1.6050402 1.5311893 0.12712124 4289483520
1.6484549 1.5727054 0.14325897 4289744640
1.656751 1.5807196 0.15658696 4289744640
1.6463488 1.5708936 0.16796252 4289744640
1.606074 1.5325611 0.17573142 4289614080
1.6596602 1.5837942 0.19367036 4289744640
1.6697167 1.5934912 0.2067793 4289875200
1.6612641 1.5855242 0.21738154 4289875200
1.6414013 1.5666655 0.22605558 4289744640
1.5754929 1.5038525 0.22755939 4289483520
1.6598226 1.5844474 0.25062129 4289875200
1.6463821 1.5717161 0.25910914 4289744640
1.6390949 1.5648578 0.26814553 4289744640
1.6298269 1.5561074 0.27645704 4289744640
1.5987211 1.5265046 0.28051695 4289614080
1.6497546 1.5753319 0.29878023 4289744640
1.6399969 1.5661129 0.3059319 4289744640
1.6487612 1.5745814 0.31618556 4289744640
1.6394079 1.5657474 0.32260519 4289744640
1.6346015 1.5612552 0.32948288 4289744640
1.6199081 1.5473183 0.333902 4289744640
1.6355585 1.5623658 0.34419465 4289744640
1.6421483 1.5687592 0.3522805 4289744640
1.6309931 1.5582007 0.35613903 4289744640
1.6360314 1.5631125 0.36309862 4289744640
1.6323967 1.5597378 0.36772016 4289744640
1.6234332 1.551271 0.37067646 4289744640
1.6314027 1.5589842 0.37706423 4289744640
1.6323552 1.5599926 0.38141713 4289744640
1.6250224 1.5530825 0.3833763 4289744640
1.6232342 1.551471 0.38617691 4289744640
1.6128899 1.5416809 0.38647035 4289614080
1.6232442 1.5516757 0.3912693 4289744640
1.6122887 1.5413002 0.39047664 4289614080
1.6227494 1.5513979 0.3944104 4289744640
1.6225864 1.5513396 0.39530933 4289744640
1.6153624 1.5445299 0.39402288 4289744640
1.625268 1.5540988 0.39645118 4289744640
1.6181587 1.5473982 0.39426666 4289744640
1.6259819 1.5549772 0.39525634 4289744640
1.6194165 1.5487958 0.39228666 4289744640
1.6216674 1.5510461 0.39099658 4289744640
1.6279098 1.5571146 0.39020026 4289744640
1.6286956 1.5579643 0.38762993 4289744640
1.625984 1.5554681 0.38377875 4289744640
1.6335285 1.5627838 0.38188931 4289744640
1.6307533 1.5602269 0.37713274 4289744640
1.6345853 1.5639915 0.37346208 4289744640
1.633859 1.563395 0.36830807 4289744640
1.6249818 1.5549984 0.36092165 4289744640
1.6144531 1.5450202 0.35281816 4289614080
1.6196636 1.5501043 0.34776491 4289744640
1.6380328 1.5677831 0.34504193 4289744640
1.6457446 1.5752633 0.33956975 4289744640
1.6427181 1.5724652 0.33147329 4289744640
1.6134856 1.54511 0.26969126 4289614080
1.6295968 1.5606366 0.26242253 4289744640
1.6524057 1.5825799 0.25569621 4289744640
1.6492971 1.579702 0.24455009 4289744640
1.6148775 1.546832 0.22873706 4289614080
1.6216238 1.5533918 0.21868302 4289614080
1.6378835 1.569066 0.20951067 4289744640
1.6257898 1.5575783 0.19645242 4289614080
1.5997915 1.5327672 0.18177027 4289483520
1.6243229 1.5563687 0.17263658 4289614080
1.631282 1.563135 0.1612135 4289744640
1.6365386 1.5682707 0.14935358 4289744640
1.6094817 1.5424395 0.13454857 4289614080
1.6359054 1.5678611 0.12406963 4289744640
1.5779289 1.5123912 0.10730355 4289483520
1.4313112 1.3719494 0.086007111 4288700160
1.3805984 1.323423 0.07194449 4288439040
1.3904749 1.3329743 0.061285999 4288569600
1.3900032 1.332606 0.050028931 4288569600
1.3583471 1.3023388 0.037855726 4288439040
1.3803316 1.3235002 0.02721381 4288439040
1.3806998 1.3239365 0.015933426 4288439040
1.3614597 1.3055694 0.004563435 4288439040
1.3438078 1.2887232 -0.0065046707 4288308480
1.3596328 1.3039815 -0.017713431 4288439040
1.3699992 1.3140063 -0.029046955 4288439040
1.3632317 1.3075976 -0.040016115 4288439040
1.3578459 1.3025135 -0.050884414 4288439040
1.3759013 1.3199162 -0.06267903 4288439040
1.3889735 1.3325402 -0.074430421 4288569600
1.3503456 1.2955632 -0.08312846 4288308480
1.3677907 1.3123832 -0.095018886 4288439040
1.3851489 1.3291217 -0.10707472 4288569600
1.383325 1.3274552 -0.1176538 4288569600
1.3485008 1.2941189 -0.12501788 4288308480
1.383561 1.3278486 -0.13872331 4288569600
1.3951601 1.3390647 -0.15027666 4288569600
1.3994814 1.3432968 -0.1610001 4288569600
1.3822187 1.3268107 -0.16897152 4288569600
1.258994 1.2086015 -0.16280845 4287916800
1.3946445 1.3389068 -0.19001153 4288569600
1.3997501 1.3438928 -0.20019324 4288569600
1.3914828 1.3360394 -0.20822065 4288569600
1.3725659 1.3179591 -0.21424651 4288439040
1.2700154 1.219565 -0.20621336 4288047360
1.4071583 1.3513452 -0.23706147 4288700160
1.4144897 1.3584713 -0.24665451 4288700160
1.4026605 1.3471953 -0.25260505 4288700160
1.4031305 1.3477314 -0.26042098 4288700160
1.3790027 1.3246396 -0.26325205 4288569600
1.3807286 1.3263808 -0.27060118 4288569600
1.3857808 1.3313178 -0.27832809 4288569600
1.3857274 1.3313502 -0.28473675 4288569600
1.3908328 1.3363394 -0.29190233 4288569600
1.3867515 1.3325018 -0.29681098 4288569600
1.3952839 1.3407845 -0.30409497 4288700160
