# .PCD v0.7 - Point Cloud Data file format
VERSION 0.7
FIELDS x y z rgba
SIZE 4 4 4 4
TYPE F F F U
COUNT 1 1 1 1
WIDTH 1077
HEIGHT 1
VIEWPOINT 0 0 0 1 0 0 0
POINTS 1077
DATA ascii
3.212868 -0.86283261 0.58060169 4293400320
3.2173135 -0.86391759 0.58346742 4293400320
3.2171133 -0.86375612 0.58480775 4293400320
3.2122695 -0.86234909 0.58461535 4293400320
3.2203879 -0.86441767 0.5860948 4293530880
3.2119658 -0.86205089 0.58387578 4293400320
3.2255228 -0.86557627 0.58496374 4293530880
3.2181797 -0.86349851 0.5815717 4293400320
3.2277951 -0.8659659 0.58055943 4293530880
3.2263927 -0.86547995 0.57687688 4293530880
3.2337592 -0.86734319 0.57407898 4293530880
3.2180693 -0.86302894 0.56652796 4293400320
3.2238724 -0.86447269 0.56211346 4293400320
3.2324378 -0.86665553 0.55749851 4293530880
3.2341657 -0.86700648 0.55103415 4293530880
3.2257977 -0.86465383 0.54222316 4293400320
3.2159045 -0.86189318 0.53256959 4293400320
3.2019925 -0.85805714 0.52169448 4293400320
3.2124407 -0.86074197 0.51419425 4293400320
3.2325504 -0.86601126 0.50755662 4293400320
3.2236791 -0.86352426 0.49574882 4293400320
3.2300138 -0.86510587 0.4857184 4293400320
2.9051504 -0.77765012 0.36136496 4292225280
2.7007694 -0.72291011 0.32355431 4291572480
2.6030762 -0.69670129 0.29957041 4291180800
2.5642118 -0.6862216 0.28267729 4291050240
2.5131505 -0.67248517 0.2645629 4290919680
2.5109932 -0.67181879 0.25157344 4290789120
2.4976158 -0.66815501 0.23725839 4290789120
2.4623454 -0.65864414 0.22085273 4290658560
2.4341006 -0.65101212 0.20517279 4290528000
2.4182489 -0.64669138 0.19055206 4290528000
2.4313321 -0.65009749 0.17802027 4290528000
2.3970065 -0.64084595 0.16193335 4290397440
2.3549685 -0.62953818 0.1455806 4290266880
2.38761 -0.638165 0.13375105 4290397440
2.3603399 -0.63080138 0.11837662 4290266880
2.324265 -0.62109029 0.1028018 4290136320
2.2847235 -0.610457 0.087409049 4290005760
2.3152034 -0.61850482 0.074667811 4290136320
2.288074 -0.61118507 0.059953835 4290005760
2.1414547 -0.57200187 0.043067712 4289483520
2.2422693 -0.59880573 0.031450298 4289875200
2.2322946 -0.5960651 0.017661992 4289875200
2.1897976 -0.58465576 0.0039081303 4289744640
2.122313 -0.56658936 -0.0092299804 4289483520
2.1454353 -0.57267445 -0.022456145 4289483520
2.1646161 -0.57770759 -0.035877988 4289614080
2.1550293 -0.57507503 -0.048852991 4289614080
2.2191641 -0.59208173 -0.063756466 4289744640
2.2284486 -0.59447432 -0.077477962 4289875200
2.1867738 -0.58329493 -0.089166924 4289744640
2.1888123 -0.58375859 -0.10229194 4289744640
2.2867351 -0.60975087 -0.12034854 4290005760
2.3005397 -0.61334312 -0.13453376 4290136320
2.253799 -0.60081893 -0.14486292 4289875200
2.2603824 -0.60248965 -0.15821332 4290005760
2.3858614 -0.63579822 -0.18042094 4290397440
2.4032261 -0.64033234 -0.19509538 4290397440
2.3524406 -0.62673551 -0.20386556 4290266880
2.3212273 -0.61834848 -0.21365762 4290136320
2.3710961 -0.63152814 -0.23074713 4290397440
2.4778366 -0.65982765 -0.25391367 4290789120
2.49491 -0.66427845 -0.26827937 4290789120
2.5484495 -0.67842275 -0.28660899 4291050240
2.6441679 -0.70377499 -0.31007627 4291311360
2.6648481 -0.70917714 -0.32498088 4291441920
3.1419883 -0.83587867 -0.39731085 4293139200
3.1914816 -0.84891784 -0.41762361 4293269760
3.2246885 -0.8576268 -0.43570107 4293400320
3.2286687 -0.85856992 -0.44950572 4293400320
3.2349343 -0.86012006 -0.46316248 4293400320
3.1912789 -0.84841263 -0.46902138 4293269760
3.20647 -0.85233408 -0.48287055 4293400320
3.2177722 -0.85522217 -0.49568042 4293400320
3.2178285 -0.85512435 -0.50623548 4293400320
3.2138827 -0.85396451 -0.51557177 4293400320
3.2263296 -0.85715574 -0.52696669 4293400320
3.2186642 -0.85500938 -0.53449279 4293400320
3.2103403 -0.85268915 -0.54125291 4293400320
3.2083306 -0.85204476 -0.54842591 4293400320
3.2087703 -0.85205048 -0.55537963 4293400320
3.2044594 -0.85079658 -0.56086236 4293400320
3.2027402 -0.85023046 -0.56613648 4293400320
3.2019901 -0.84992176 -0.57092023 4293400320
3.1932251 -0.84748852 -0.57360089 4293400320
3.1710367 -0.84149784 -0.5731703 4293269760
3.1801112 -0.84379506 -0.5776968 4293269760
3.1835802 -0.84460652 -0.58054382 4293269760
3.1747842 -0.84216797 -0.58047891 4293269760
3.1746678 -0.84202993 -0.58131665 4293269760
3.1867685 -0.84512872 -0.58370984 4293400320
3.1783097 -0.84278113 -0.58166403 4293269760
3.1961486 -0.84739923 -0.58373874 4293400320
3.2106528 -0.85113335 -0.58450937 4293400320
3.2069142 -0.8500365 -0.58127713 4293400320
3.217329 -0.85268724 -0.57992125 4293400320
3.2100866 -0.85066348 -0.57471102 4293400320
3.2144682 -0.85171717 -0.57091266 4293400320
3.2172084 -0.85233641 -0.56614947 4293400320
3.2091064 -0.85008681 -0.55883527 4293400320
3.2066247 -0.84932506 -0.551871 4293400320
3.2062407 -0.84911853 -0.54463506 4293400320
3.1994414 -0.84721553 -0.53570038 4293400320
3.1878495 -0.84404558 -0.5253948 4293269760
3.18312 -0.84269142 -0.51565838 4293269760
3.1836691 -0.84273356 -0.50619626 4293269760
3.1891022 -0.84406722 -0.49691162 4293269760
3.1931689 -0.84503949 -0.48681688 4293269760
3.102597 -0.82099688 -0.46207327 4293008640
2.92277 -0.7733711 -0.42452356 4292355840
2.7571564 -0.72951305 -0.38985902 4291703040
2.612957 -0.69132394 -0.35899594 4291180800
2.484061 -0.65718722 -0.33094525 4290789120
2.4671445 -0.65263951 -0.31801498 4290658560
2.3813822 -0.62990892 -0.29633573 4290397440
2.3547809 -0.62280804 -0.28217319 4290266880
2.4066472 -0.63642973 -0.27694884 4290528000
2.3886538 -0.63160282 -0.26324445 4290397440
2.3218505 -0.6138913 -0.24430822 4290136320
2.2623606 -0.59811455 -0.22650731 4290005760
2.3141825 -0.61172128 -0.21959662 4290136320
2.2873144 -0.60455793 -0.20487832 4290005760
2.2979658 -0.60729694 -0.19336979 4290136320
2.1931732 -0.57957584 -0.17249483 4289744640
2.2439163 -0.59289408 -0.16390571 4289875200
2.2167799 -0.58566588 -0.14934684 4289744640
2.1531801 -0.56882203 -0.13270193 4289614080
2.1660805 -0.57215708 -0.12089404 4289614080
2.1542227 -0.56896275 -0.10757772 4289614080
2.1412699 -0.56548059 -0.094238698 4289483520
2.0628269 -0.54473418 -0.07848341 4289222400
2.174773 -0.57417876 -0.069621809 4289614080
2.2285259 -0.58827859 -0.057843968 4289875200
2.2341402 -0.58968896 -0.044411272 4289875200
2.1250024 -0.56086135 -0.029315218 4289483520
2.2809331 -0.60187894 -0.017480664 4290005760
2.3134086 -0.61036354 -0.003565816 4290136320
2.286772 -0.60327536 0.0104622 4290005760
2.1653919 -0.57123524 0.023114668 4289614080
2.3648717 -0.62370086 0.039725661 4290266880
2.4013581 -0.63323492 0.054952409 4290397440
2.2588174 -0.59563124 0.065338723 4289875200
2.2938356 -0.60477984 0.080179371 4290005760
2.4329648 -0.64133078 0.099637337 4290528000
2.439573 -0.64299434 0.11440125 4290528000
2.3591976 -0.62176657 0.12450825 4290266880
2.2097275 -0.58236277 0.1294733 4289744640
2.5009639 -0.65891832 0.16102101 4290789120
2.5046086 -0.65979904 0.17551929 4290789120
2.438976 -0.64245695 0.18460855 4290528000
2.2990925 -0.60559034 0.18671809 4290136320
2.5907478 -0.68221653 0.2245629 4291050240
2.6310387 -0.69272953 0.24213099 4291311360
2.7453897 -0.72271132 0.26707205 4291703040
3.0102415 -0.79224962 0.30833754 4292616960
3.0144932 -0.79327238 0.3239125 4292616960
3.2415638 -0.85285568 0.36422974 4293400320
3.2352638 -0.85109776 0.37897199 4293400320
3.2280431 -0.84909809 0.39311692 4293400320
3.1957695 -0.84051675 0.40358645 4293269760
3.1782501 -0.83581305 0.41524333 4293269760
3.2426832 -0.85263592 0.43734118 4293400320
3.2500806 -0.85447532 0.45154586 4293530880
3.2473938 -0.85366589 0.46385416 4293530880
3.2433012 -0.85248733 0.47540647 4293530880
3.226923 -0.8480835 0.48453915 4293400320
3.1955483 -0.83974385 0.49069774 4293269760
3.2366924 -0.85043991 0.50746059 4293400320
3.2428515 -0.85195166 0.5183019 4293530880
3.2296116 -0.84837246 0.52542329 4293400320
3.2372656 -0.85027575 0.5353201 4293530880
3.2335031 -0.84918332 0.54271835 4293530880
3.2324612 -0.84880459 0.54993105 4293530880
3.2308567 -0.84827799 0.55640203 4293530880
3.2290637 -0.84770185 0.56218493 4293530880
3.2282238 -0.84737545 0.56747246 4293530880
3.2236843 -0.84607887 0.57143754 4293400320
3.2268603 -0.84680492 0.5760991 4293530880
3.2182214 -0.84443367 0.57796991 4293400320
3.2130351 -0.84296745 0.57976931 4293400320
3.2174881 -0.84402722 0.58262658 4293400320
3.217288 -0.84386736 0.58395928 4293400320
3.2124374 -0.84248883 0.58376008 4293400320
3.2215214 -0.84476042 0.58540702 4293400320
3.2121336 -0.84219319 0.58300984 4293400320
3.2390516 -0.84913379 0.58651036 4293530880
3.2364633 -0.84834641 0.58396709 4293530880
3.2279871 -0.84601736 0.57968432 4293530880
3.2313483 -0.84678745 0.57685184 4293530880
3.2253776 -0.84511435 0.57168067 4293400320
3.2277813 -0.84563309 0.56732923 4293400320
3.2288251 -0.84579551 0.56206995 4293400320
3.2326324 -0.84668064 0.5566268 4293530880
3.2209973 -0.84352547 0.5478915 4293400320
3.2307539 -0.84596616 0.54216111 4293400320
3.2208459 -0.84326297 0.53250152 4293400320
3.2202923 -0.84300643 0.52379805 4293400320
3.213073 -0.84100682 0.51342595 4293400320
3.2423 -0.84853554 0.5082199 4293530880
3.2382023 -0.84735113 0.49712628 4293400320
3.2301896 -0.8451435 0.48490056 4293400320
2.7903736 -0.72955894 0.34654641 4291833600
2.6336079 -0.68852919 0.3150197 4291311360
2.5974717 -0.67900187 0.29847047 4291180800
2.572974 -0.67251486 0.28321382 4291050240
2.5218358 -0.65907663 0.26507574 4290919680
2.5148618 -0.65716666 0.25157961 4290789120
2.5053174 -0.65458643 0.23763075 4290789120
2.4622822 -0.6432696 0.22051281 4290658560
2.4339919 -0.63580191 0.20485343 4290528000
2.4391909 -0.63707048 0.19191585 4290528000
2.4302495 -0.63465118 0.17767254 4290528000
2.4055247 -0.62811708 0.16226587 4290397440
2.3585937 -0.61579555 0.14558642 4290266880
2.3816226 -0.6217134 0.1332145 4290397440
2.3639724 -0.6170274 0.11838244 4290266880
2.3326755 -0.60878634 0.10302208 4290136320
2.297909 -0.59964353 0.087786317 4290005760
2.3139291 -0.60373402 0.074516661 4290136320
2.2867565 -0.5965724 0.059831765 4290005760
2.1447484 -0.55950403 0.043072995 4289483520
2.2408795 -0.58446014 0.03138683 4289875200
2.2270179 -0.58076984 0.017596399 4289744640
2.1931646 -0.57187599 0.0039135329 4289744640
2.1540065 -0.56160367 -0.0093399864 4289614080
2.1771631 -0.56755269 -0.02273968 4289614080
2.1398811 -0.55777204 -0.03541651 4289483520
2.1399577 -0.55771458 -0.048437119 4289483520
2.2090302 -0.57560706 -0.06336651 4289744640
2.2086582 -0.57543051 -0.076673619 4289744640
2.2449629 -0.58479315 -0.091376618 4289875200
2.1602685 -0.56268722 -0.10080792 4289614080
2.2767148 -0.59288704 -0.11963601 4290005760
2.2663865 -0.59011984 -0.13233945 4290005760
2.2292454 -0.58038372 -0.14306864 4289875200
2.2358482 -0.58201957 -0.15625985 4289875200
2.3663561 -0.61585438 -0.17867315 4290266880
2.3837562 -0.62029052 -0.19321972 4290397440
2.3232567 -0.6044873 -0.20103301 4290136320
2.2977939 -0.5977897 -0.21118012 4290136320
2.3516059 -0.61168391 -0.2285018 4290266880
2.4585202 -0.6393646 -0.25154984 4290658560
2.4573381 -0.63896984 -0.26384205 4290658560
2.4467983 -0.63614589 -0.27478364 4290658560
2.4163718 -0.62816054 -0.28299639 4290528000
2.4794784 -0.64445394 -0.3019658 4290789120
2.9319823 -0.76179701 -0.37023881 4292355840
3.0912194 -0.80301178 -0.40390548 4292878080
3.1896574 -0.82844162 -0.43031147 4293269760
3.2248974 -0.83747059 -0.44828832 4293400320
3.2317965 -0.83914644 -0.46199974 4293400320
3.2000005 -0.83078688 -0.46957499 4293269760
3.2113807 -0.8336255 -0.48286262 4293400320
3.2226994 -0.83644766 -0.49567249 4293400320
3.2179699 -0.83510906 -0.50547725 4293400320
3.2248824 -0.83678854 -0.51653588 4293400320
3.2169249 -0.83461404 -0.52462369 4293400320
3.2197671 -0.83523887 -0.53385204 4293400320
3.2295852 -0.83767128 -0.54365343 4293400320
3.2084641 -0.83208805 -0.54760432 4293400320
3.2184534 -0.83456504 -0.55619532 4293400320
3.2093613 -0.83209962 -0.56085449 4293400320
3.2076387 -0.83154356 -0.56612855 4293400320
3.1983004 -0.82901591 -0.56938624 4293400320
3.1933386 -0.82762235 -0.57273906 4293400320
3.175885 -0.82299572 -0.57316244 4293269760
3.1802049 -0.82400608 -0.57682556 4293269760
3.1846325 -0.82504427 -0.57984275 4293269760
3.1748695 -0.82241052 -0.5796023 4293269760
3.1747522 -0.82227337 -0.58043873 4293269760
3.1964047 -0.82776797 -0.58457226 4293400320
3.1736317 -0.82177067 -0.57991695 4293269760
3.1914964 -0.82628489 -0.58199507 4293400320
3.2203245 -0.83363312 -0.58536667 4293400320
3.2193577 -0.83327627 -0.58263266 4293400320
3.2222419 -0.83391523 -0.57991332 4293400320
3.2247372 -0.83445382 -0.57644302 4293400320
3.2193751 -0.83296186 -0.57090473 4293400320
3.2173464 -0.83233178 -0.56530434 4293400320
3.2235522 -0.83382988 -0.56048471 4293400320
3.2248898 -0.83407015 -0.5541569 4293400320
3.2015779 -0.82794309 -0.5430094 4293400320
3.1995435 -0.82731354 -0.53489488 4293400320
3.1841063 -0.82322299 -0.52397323 4293269760
3.160233 -0.81695533 -0.51117134 4293139200
3.1616437 -0.81721765 -0.50192875 4293139200
3.165386 -0.81808203 -0.4924657 4293139200
3.1027238 -0.80180544 -0.47232723 4293008640
2.9016666 -0.74981385 -0.43154293 4292225280
2.7719414 -0.71624368 -0.40204379 4291833600
2.6251686 -0.67828304 -0.37066823 4291311360
2.4730992 -0.63896543 -0.3393057 4290789120
2.4513509 -0.63327646 -0.3260971 4290658560
2.4478416 -0.63229358 -0.31504878 4290658560
2.4395204 -0.63007003 -0.30308312 4290658560
2.4177163 -0.62437028 -0.28924698 4290528000
2.3910644 -0.61742204 -0.27473789 4290397440
2.3605151 -0.6094709 -0.2597529 4290266880
2.2974474 -0.59313911 -0.241377 4290136320
2.252311 -0.58143324 -0.22515753 4289875200
2.2945614 -0.5922513 -0.21740599 4290005760
2.2628174 -0.58399957 -0.20237996 4290005760
2.2686462 -0.58543068 -0.19061783 4290005760
2.173336 -0.56080574 -0.17067751 4289614080
2.2289767 -0.57507068 -0.16256768 4289875200
2.19696 -0.566755 -0.14778894 4289744640
2.1245544 -0.54804009 -0.13074428 4289483520
2.1374638 -0.5512982 -0.11912087 4289483520
2.1294472 -0.54916787 -0.10618284 4289483520
2.1671462 -0.55880696 -0.095220104 4289614080
2.1121244 -0.54457682 -0.080216683 4289352960
2.1877592 -0.5639779 -0.069922872 4289614080
2.2280407 -0.57427639 -0.057739232 4289744640
2.2472186 -0.57914215 -0.044595141 4289875200
2.1185479 -0.54596794 -0.029179454 4289483520
2.284399 -0.58856785 -0.017475024 4290005760
2.3169231 -0.59686309 -0.0035600953 4290136320
2.2902455 -0.58993024 0.010467855 4290005760
2.1638386 -0.55735272 0.023067109 4289614080
2.3587792 -0.60741049 0.039566744 4290266880
2.3817658 -0.61324733 0.054421954 4290397440
2.2670875 -0.58369362 0.065485291 4290005760
2.2973177 -0.59139371 0.080185048 4290005760
2.4318187 -0.62588984 0.099444449 4290528000
2.448113 -0.63000166 0.11463481 4290528000
2.3579412 -0.60675675 0.12425821 4290266880
2.3133001 -0.59521478 0.13536412 4290136320
2.5095911 -0.64556623 0.16133884 4290789120
2.5035758 -0.64394313 0.1751865 4290789120
2.4426749 -0.62822473 0.18461458 4290528000
2.2977509 -0.59093404 0.18633135 4290005760
2.5898497 -0.66586041 0.22415084 4291050240
2.6008065 -0.66859239 0.23898752 4291180800
2.6137266 -0.6718275 0.25386545 4291180800
2.7429173 -0.70490396 0.28050163 4291703040
2.9108095 -0.74790424 0.31229168 4292225280
3.2233639 -0.82801402 0.36164221 4293400320
3.2305398 -0.8297537 0.37785318 4293400320
3.2444878 -0.83323002 0.3945314 4293400320
3.2006087 -0.82187235 0.40359437 4293269760
3.1878672 -0.81850314 0.41587856 4293269760
3.2427897 -0.83248651 0.43670195 4293400320
3.2550004 -0.83551437 0.45155391 4293530880
3.2475109 -0.83349061 0.46317744 4293400320
3.2434137 -0.83233666 0.47471219 4293400320
3.2318056 -0.82925761 0.48454714 4293400320
3.2137971 -0.82453877 0.49276367 4293400320
3.232969 -0.82934833 0.50611848 4293400320
3.238183 -0.83058012 0.51678127 4293400320
3.2344959 -0.82953095 0.52543128 4293400320
3.2421606 -0.83138967 0.53532809 4293530880
3.2297859 -0.82811511 0.54128337 4293400320
3.2401319 -0.83065951 0.55041224 4293530880
3.2319179 -0.82845062 0.55575246 4293400320
3.2309813 -0.82810521 0.56167769 4293400320
3.2378774 -0.82976454 0.56831896 4293530880
3.2323744 -0.82824963 0.57212186 4293530880
3.2231436 -0.82578075 0.57457483 4293400320
3.2135379 -0.82321626 0.57626557 4293400320
3.2178879 -0.82422274 0.5797773 4293400320
3.2128043 -0.8228153 0.58090842 4293400320
3.222146 -0.82509786 0.58396721 4293400320
3.2172875 -0.82374763 0.58376807 4293400320
3.2263846 -0.82596624 0.58541495 4293400320
3.2217531 -0.82467365 0.58388281 4293400320
3.2172196 -0.82340616 0.58168525 4293400320
3.2279854 -0.82604957 0.58156681 4293400320
3.2328572 -0.82718551 0.5796923 4293530880
3.236223 -0.82793593 0.57685983 4293530880
3.2302427 -0.8262977 0.57168865 4293400320
3.232115 -0.82666588 0.5672434 4293400320
3.2336941 -0.82695872 0.56207794 4293400320
3.2403769 -0.82855481 0.55712855 4293530880
3.2310259 -0.82605535 0.54877847 4293400320
3.2270167 -0.82492018 0.54072613 4293400320
3.2161329 -0.82202995 0.53092927 4293400320
3.2117455 -0.82079858 0.52162856 4293400320
3.2131269 -0.82103974 0.51266962 4293400320
3.2458336 -0.82927519 0.50801629 4293530880
3.2382884 -0.82723671 0.49639925 4293400320
3.235055 -0.82629865 0.48490858 4293400320
2.7124104 -0.69233358 0.33635396 4291572480
2.6107676 -0.66633075 0.31182116 4291180800
2.6061959 -0.66507304 0.2990301 4291180800
2.5672097 -0.65504634 0.28215972 4291050240
2.5208094 -0.64313346 0.26457533 4290919680
2.5138221 -0.64126366 0.25110337 4290789120
2.5052257 -0.63898444 0.23727074 4290789120
2.469847 -0.62988514 0.22086491 4290658560
2.4231639 -0.61790985 0.20363933 4290528000
2.4389932 -0.62185311 0.19161755 4290528000
2.4387364 -0.62170035 0.17803231 4290528000
2.4004374 -0.61186481 0.16168392 4290397440
2.3718123 -0.60449392 0.14619046 4290266880
2.3852017 -0.60781556 0.1332204 4290397440
2.3762364 -0.6054489 0.11882577 4290266880
2.3313391 -0.5939424 0.1028133 4290136320
2.3013611 -0.58623374 0.087792009 4290005760
2.322248 -0.59146255 0.07467927 4290136320
2.2853467 -0.5819959 0.059709705 4290005760
2.1431246 -0.54575545 0.042979881 4289483520
2.2442443 -0.57138282 0.031392384 4289875200
2.2255156 -0.56654167 0.017562406 4289744640
2.2003336 -0.56006199 0.0039269393 4289744640
2.1732025 -0.55308884 -0.0093992157 4289614080
2.1537497 -0.54806828 -0.022463694 4289483520
2.1198339 -0.53937536 -0.035033766 4289483520
2.1199126 -0.53931886 -0.047913272 4289483520
2.1745582 -0.5531196 -0.062290087 4289614080
2.1887221 -0.55663764 -0.075869359 4289614080
2.220243 -0.56456119 -0.090238124 4289744640
2.148984 -0.54639286 -0.1001305 4289483520
2.2472153 -0.57124704 -0.1179137 4289875200
2.2465582 -0.5709995 -0.13098703 4289875200
2.2093687 -0.56148261 -0.14158286 4289744640
2.2121205 -0.56210142 -0.15437365 4289744640
2.3321993 -0.59248132 -0.17583679 4290136320
2.350606 -0.59706616 -0.19025353 4290266880
2.2987247 -0.58382547 -0.19861627 4290005760
2.2819252 -0.57948381 -0.20940892 4290005760
2.3088031 -0.58621627 -0.2240171 4290136320
2.4197571 -0.61425883 -0.24722135 4290528000
2.4465547 -0.62096435 -0.26229024 4290658560
2.4042032 -0.61014503 -0.26960602 4290397440
2.3882022 -0.60600543 -0.27928424 4290397440
2.3323834 -0.59177959 -0.2836726 4290266880
2.7720027 -0.70305461 -0.34955508 4291703040
2.8666246 -0.72692144 -0.37405658 4292094720
3.0112281 -0.76343888 -0.4056755 4292616960
3.1634676 -0.80187976 -0.43910247 4293139200
3.2027688 -0.81171817 -0.45716774 4293269760
3.1961472 -0.80992979 -0.46830374 4293269760
3.2113853 -0.81367463 -0.48213583 4293400320
3.2194593 -0.81560564 -0.49442926 4293400320
3.22278 -0.81633371 -0.50546926 4293400320
3.2249119 -0.81676102 -0.51576316 4293400320
3.2265203 -0.817056 -0.52539408 4293400320
3.2284069 -0.8174215 -0.53447688 4293400320
3.2296257 -0.81761825 -0.54284263 4293400320
3.2218659 -0.81554496 -0.549061 4293400320
3.2184792 -0.81457806 -0.55536371 4293400320
3.2189341 -0.81458271 -0.56167912 4293400320
3.217207 -0.81403613 -0.56696129 4293400320
3.19017 -0.8070938 -0.56708807 4293269760
3.1811812 -0.80471402 -0.56970525 4293269760
3.185401 -0.80567223 -0.57401371 4293269760
3.1801763 -0.80424464 -0.57595438 4293269760
3.1846106 -0.80525732 -0.57896829 4293269760
3.1843805 -0.8050921 -0.58046317 4293269760
3.1842625 -0.80495542 -0.58130091 4293269760
3.1747093 -0.80243689 -0.57973987 4293269760
3.1917322 -0.80662829 -0.58234394 4293269760
3.2058046 -0.81007403 -0.58372295 4293400320
3.2099431 -0.81101215 -0.58260751 4293400320
3.2118247 -0.81138062 -0.58039969 4293400320
3.212307 -0.81139636 -0.57726121 4293400320
3.2245567 -0.81438094 -0.57554638 4293400320
3.2241731 -0.81417823 -0.57089674 4293400320
3.2269201 -0.81476557 -0.5661335 4293400320
3.2235737 -0.81381625 -0.55964804 4293400320
3.2185507 -0.81244469 -0.55224019 4293400320
3.2078745 -0.80964851 -0.54325974 4293400320
3.2043085 -0.80864567 -0.53488696 4293400320
3.1744833 -0.80102456 -0.52160925 4293269760
3.1582286 -0.79682577 -0.51008177 4293139200
3.1185424 -0.78672379 -0.49435636 4293008640
3.0097148 -0.75920409 -0.46758932 4292616960
2.8647816 -0.72259569 -0.43552071 4292094720
2.7564268 -0.69521064 -0.40937272 4291703040
2.6400585 -0.66581434 -0.38238353 4291311360
2.4793308 -0.62525481 -0.34960023 4290789120
2.4537067 -0.61872411 -0.33614704 4290658560
2.4319136 -0.61315966 -0.32303298 4290528000
2.4187629 -0.60977238 -0.31084931 4290528000
2.4065602 -0.60662466 -0.29855093 4290528000
2.315634 -0.58366555 -0.27665374 4290136320
2.3714869 -0.59764755 -0.27208599 4290397440
2.3360584 -0.58865911 -0.25668398 4290266880
2.2680583 -0.57147878 -0.2379415 4290005760
2.2373178 -0.56367528 -0.22332771 4289875200
2.2796218 -0.57424545 -0.21567063 4290005760
2.2342949 -0.56277549 -0.19953789 4289875200
2.2536507 -0.56757295 -0.18907756 4289875200
2.1620591 -0.54447496 -0.1695397 4289614080
2.2042317 -0.5550096 -0.16052841 4289744640
2.1818347 -0.54931152 -0.14655453 4289614080
2.1180282 -0.5332076 -0.1301474 4289483520
2.1125524 -0.531766 -0.1175621 4289352960
2.1006403 -0.52870756 -0.10459641 4289352960
2.1755142 -0.54745352 -0.095439069 4289614080
2.1524565 -0.54159415 -0.081610084 4289483520
2.1737058 -0.54686493 -0.06937062 4289614080
2.2313466 -0.56127387 -0.0577337 4289744640
2.2505524 -0.56602782 -0.04458956 4289875200
2.1265397 -0.53482133 -0.029239433 4289483520
2.2790582 -0.57304543 -0.017405044 4290005760
2.3106599 -0.58090782 -0.0035420044 4290136320
2.2936416 -0.57656515 0.010473545 4290005760
2.1670468 -0.54472464 0.023072485 4289614080
2.3622758 -0.59364587 0.039572604 4290266880
2.3998413 -0.60299808 0.054763153 4290397440
2.3486881 -0.59009153 0.067766473 4290266880
2.291028 -0.57555592 0.079850644 4290005760
2.4354212 -0.61169946 0.099450491 4290528000
2.4372048 -0.61207151 0.11395827 4290528000
2.3517466 -0.59056824 0.12375227 4290266880
2.3070419 -0.57928759 0.13480198 4290136320
2.5084665 -0.62970906 0.16103342 4290789120
2.4976046 -0.62690884 0.17451474 4290789120
2.4462907 -0.61397123 0.18462066 4290528000
2.2963171 -0.57631391 0.18594462 4290005760
2.5936823 -0.65074885 0.22415727 4291050240
2.60079 -0.65244877 0.23863874 4291180800
2.5300024 -0.63463587 0.24536316 4290919680
2.5738361 -0.64553553 0.26280338 4291050240
2.7664523 -0.69369203 0.29635295 4291703040
3.1841073 -0.79818577 0.35671321 4293139200
3.2266409 -0.80873489 0.37684706 4293400320
3.2357962 -0.81092548 0.39290026 4293400320
3.2053394 -0.80320007 0.40360233 4293269760
3.1973903 -0.80110949 0.41651383 4293269760
3.2453156 -0.81300133 0.43640509 4293400320
3.255002 -0.81532222 0.45089561 4293530880
3.2475033 -0.81334293 0.46250078 4293400320
3.2385995 -0.81101233 0.4733156 4293400320
3.2365785 -0.81040365 0.48455516 4293400320
3.2137449 -0.80458993 0.49203664 4293400320
3.2329464 -0.80928838 0.5053764 4293400320
3.2429633 -0.81168902 0.51678932 4293400320
3.23927 -0.81066138 0.52543932 4293400320
3.2421558 -0.81127816 0.53454602 4293400320
3.2431705 -0.81142694 0.54273438 4293530880
3.2315106 -0.80840808 0.54814589 4293400320
3.2405138 -0.81055254 0.55641806 4293530880
3.2339306 -0.80880231 0.56137025 4293400320
3.2378705 -0.80968076 0.56748849 4293530880
3.2333162 -0.80843717 0.57145357 4293400320
3.2365005 -0.80912614 0.57611507 4293530880
3.2230551 -0.80566233 0.57712972 4293400320
3.2226312 -0.80545008 0.57978529 4293400320
3.2175395 -0.80407232 0.5809164 4293400320
3.2173386 -0.80391526 0.58224517 4293400320
3.234935 -0.80819952 0.58611548 4293530880
3.2215822 -0.80475962 0.58369094 4293400320
3.2350998 -0.80802429 0.58544791 4293530880
3.235338 -0.80797517 0.58410984 4293530880
3.2461207 -0.8105557 0.58398318 4293530880
3.2328379 -0.80713356 0.57884413 4293400320
3.2362072 -0.80786431 0.5760166 4293400320
3.2401891 -0.80874729 0.57261449 4293530880
3.2368724 -0.80781025 0.56725144 4293400320
3.2384534 -0.80809391 0.56208599 4293400320
3.2355742 -0.80726564 0.55549264 4293400320
3.2305996 -0.80591512 0.54790753 4293400320
3.2403841 -0.80824196 0.54217714 4293400320
3.2208638 -0.80326748 0.53093725 4293400320
3.2164693 -0.80206168 0.52163655 4293400320
3.2178521 -0.80229479 0.51267761 4293400320
3.2385283 -0.80733186 0.5061357 4293400320
3.2430494 -0.80834496 0.49640733 4293400320
3.2423549 -0.80805916 0.48529765 4293400320
2.6631603 -0.66338366 0.32976529 4291311360
2.6049359 -0.64880747 0.31067595 4291180800
2.6099968 -0.64997393 0.29903522 4291180800
2.5661285 -0.63897318 0.28163382 4291050240
2.5293124 -0.62972879 0.26508555 4290919680
2.5174873 -0.62669933 0.25110614 4290789120
2.5040457 -0.62326884 0.23681496 4290789120
2.4695797 -0.61461425 0.22052008 4290658560
2.4412048 -0.60747552 0.20485981 4290528000
2.4464183 -0.60868359 0.19192144 4290528000
2.4326091 -0.60516578 0.17732352 4290528000
2.4126506 -0.60012156 0.1622697 4290397440
2.3655798 -0.58834571 0.14558934 4290266880
2.3983669 -0.59640199 0.13375905 4290397440
2.3889129 -0.59396887 0.11928323 4290397440
2.334734 -0.58043426 0.10280791 4290136320
2.2998626 -0.57169551 0.087600045 4290005760
2.306227 -0.5731923 0.074044801 4290005760
2.2935245 -0.56995761 0.059829671 4290005760
2.1413918 -0.5321331 0.042873446 4289483520
2.2387755 -0.55621213 0.031259011 4289875200
2.2336063 -0.55484957 0.017592028 4289744640
2.2132406 -0.54971886 0.0039363187 4289744640
2.1569514 -0.5356828 -0.0093317945 4289483520
2.1778097 -0.54077607 -0.022687417 4289614080
2.1465757 -0.53295577 -0.035429433 4289483520
2.0997047 -0.52126229 -0.047407363 4289352960
2.1641352 -0.53715253 -0.061919279 4289614080
2.2339852 -0.55438095 -0.077327795 4289875200
2.2098904 -0.54833174 -0.089706287 4289744640
2.1249545 -0.52721459 -0.098891005 4289483520
2.2272129 -0.55246311 -0.11671819 4289744640
2.2265611 -0.55222183 -0.12965694 4289744640
2.1844802 -0.54172349 -0.13981101 4289614080
2.1824026 -0.54113102 -0.15210713 4289614080
2.3171895 -0.57441425 -0.17447639 4290136320
2.3211131 -0.57530242 -0.18762372 4290136320
2.2788432 -0.56476027 -0.19663975 4290005760
2.3619745 -0.58524609 -0.21643429 4290266880
2.2889557 -0.56709933 -0.22179684 4290005760
2.3962166 -0.59354722 -0.24449091 4290397440
2.4134095 -0.59771383 -0.25839475 4290528000
2.3806653 -0.58953178 -0.26660931 4290397440
2.3636894 -0.58525062 -0.27604708 4290266880
2.2991261 -0.56920743 -0.27925539 4290136320
2.6308687 -0.6511187 -0.33134395 4291311360
2.719295 -0.67287803 -0.35438612 4291572480
2.8059077 -0.69418323 -0.37755051 4291833600
2.951694 -0.73010141 -0.40919778 4292355840
3.0997357 -0.76656669 -0.44187406 4292878080
3.1658933 -0.78279799 -0.46323317 4293139200
3.1926932 -0.78930563 -0.47866568 4293269760
3.2119715 -0.79395443 -0.49259147 4293269760
3.2223623 -0.79640806 -0.50469553 4293400320
3.231302 -0.7985031 -0.51605755 4293400320
3.237253 -0.79986 -0.52639675 4293400320
3.2302451 -0.79801899 -0.5340265 4293400320
3.2250404 -0.79662353 -0.54130715 4293400320
3.2213259 -0.79559636 -0.54819155 4293400320
3.2159343 -0.79415601 -0.55413765 4293400320
3.2141266 -0.79360026 -0.56004387 4293400320
3.2089462 -0.7922132 -0.56470162 4293400320
3.1816576 -0.78537554 -0.56476915 4293269760
3.1782749 -0.78443372 -0.56837022 4293269760
3.1815453 -0.78513235 -0.57249671 4293269760
3.1906593 -0.78727132 -0.57701778 4293269760
3.1611803 -0.77989942 -0.57388616 4293139200
3.1561708 -0.77855903 -0.57449692 4293139200
3.1899686 -0.78678 -0.58149576 4293269760
3.1804016 -0.78431684 -0.57993239 4293269760
3.1889665 -0.78632057 -0.58099091 4293269760
3.1844049 -0.7850914 -0.57898402 4293269760
3.2107711 -0.79147822 -0.58190173 4293400320
3.2102447 -0.79124266 -0.57926005 4293400320
3.2122371 -0.79162747 -0.57639545 4293400320
3.2189767 -0.79318088 -0.57369989 4293400320
3.2254086 -0.79465836 -0.570265 4293400320
3.2162976 -0.79231119 -0.56342995 4293400320
3.2133965 -0.7914927 -0.55704737 4293400320
3.2175992 -0.79242218 -0.55124581 4293400320
3.2026446 -0.78863961 -0.54155535 4293269760
3.1904418 -0.78553498 -0.53176725 4293269760
3.1538582 -0.77643603 -0.51743549 4293139200
3.1129446 -0.76627499 -0.50201029 4293008640
2.9538858 -0.72707164 -0.46758145 4292486400
2.8038158 -0.69008833 -0.43498823 4291833600
2.7191565 -0.66919136 -0.41278386 4291572480
2.597506 -0.63920951 -0.38521764 4291180800
2.4816344 -0.61065549 -0.35892412 4290789120
2.4559693 -0.60427135 -0.34576476 4290658560
2.4379954 -0.59977841 -0.33346638 4290528000
2.4074914 -0.59220898 -0.31928262 4290528000
2.3991253 -0.59007859 -0.30783197 4290397440
2.3868923 -0.58699924 -0.29563302 4290397440
2.282316 -0.56124806 -0.27223462 4290005760
2.3334038 -0.57371843 -0.26728299 4290136320
2.3210802 -0.57062048 -0.25461301 4290136320
2.3270793 -0.57202041 -0.24369541 4290136320
2.2125111 -0.54383266 -0.22047833 4289744640
2.2500262 -0.55296892 -0.21250734 4289875200
2.2230027 -0.54626906 -0.19817944 4289744640
2.2239866 -0.5464415 -0.18626036 4289744640
2.1370907 -0.52505893 -0.16728045 4289483520
2.1890008 -0.53772354 -0.15912263 4289614080
2.2270205 -0.54697895 -0.14928406 4289744640
2.1760492 -0.53441274 -0.13342549 4289614080
2.0826201 -0.51144111 -0.11566655 4289222400
2.1704574 -0.53290784 -0.10781638 4289614080
2.1822526 -0.53573191 -0.095515341 4289614080
2.1555543 -0.52912199 -0.0815292 4289483520
2.1768332 -0.53426969 -0.06928774 4289614080
2.2345562 -0.54834485 -0.057647467 4289744640
2.2401931 -0.54965705 -0.044236921 4289875200
2.119885 -0.52012002 -0.029025195 4289352960
2.28719 -0.56102931 -0.0173495 4290005760
2.3188362 -0.56870854 -0.0034548184 4290136320
2.2920794 -0.56208599 0.010543143 4290005760
2.1653023 -0.53097844 0.023107992 4289614080
2.3656666 -0.57995826 0.039669741 4290266880
2.403285 -0.58909285 0.054862257 4290397440
2.2688498 -0.55611938 0.065443784 4289875200
2.2904305 -0.56133032 0.079809532 4290005760
2.4486189 -0.59996259 0.099949881 4290528000
2.4406981 -0.59794956 0.11405946 4290528000
2.359967 -0.57812738 0.12410585 4290266880
2.320045 -0.56829089 0.13546561 4290136320
2.5120587 -0.61517423 0.16113666 4290789120
2.506026 -0.61362159 0.17495614 4290789120
2.4497921 -0.59979618 0.1847201 4290528000
2.304445 -0.56419075 0.18642984 4290005760
2.6022325 -0.63690329 0.22467953 4291050240
2.6045096 -0.63737899 0.23874146 4291180800
2.5336199 -0.61997592 0.24546185 4290919680
2.4469364 -0.59871829 0.24956344 4290528000
2.6728184 -0.65382308 0.28600132 4291311360
3.0671206 -0.75005203 0.34321663 4292747520
3.2003584 -0.78249669 0.37335742 4293269760
3.2240043 -0.7881707 0.39102337 4293269760
3.2099164 -0.78462976 0.40371424 4293269760
3.1923175 -0.78023231 0.41536763 4293269760
3.2499485 -0.79419959 0.43651259 4293400320
3.2596481 -0.79646444 0.45100027 4293530880
3.2521381 -0.79452854 0.46260187 4293400320
3.243221 -0.79224962 0.47341293 4293400320
3.2277372 -0.78836882 0.48263499 4293400320
3.2183301 -0.78597122 0.49212587 4293400320
3.2462037 -0.79266721 0.50681263 4293400320
3.2427893 -0.79173064 0.5161069 4293400320
3.243891 -0.79189527 0.52551699 4293400320
3.2515774 -0.79366499 0.53540957 4293530880
3.2439611 -0.7917034 0.54216176 4293400320
3.2543347 -0.79412711 0.55129683 4293530880
3.2365115 -0.78967774 0.55499762 4293400320
3.2489858 -0.79261249 0.56323546 4293530880
3.2377007 -0.78975689 0.56669915 4293400320
3.228353 -0.78737384 0.56980664 4293400320
3.2372885 -0.78944468 0.57547283 4293400320
3.2190385 -0.78489345 0.57562172 4293400320
3.2224441 -0.78561676 0.57895291 4293400320
3.222131 -0.78543413 0.58093858 4293400320
3.218102 -0.78434652 0.58156967 4293400320
3.2266266 -0.78631479 0.5837869 4293400320
3.2309651 -0.78726327 0.58456206 4293400320
3.2215347 -0.78486049 0.58215994 4293400320
3.2399566 -0.78923512 0.58410311 4293530880
3.2411833 -0.78942478 0.58225018 4293530880
3.2470269 -0.79073721 0.58053768 4293530880
3.2360408 -0.78795552 0.57514048 4293400320
3.2352393 -0.78765112 0.57089269 4293400320
3.2414951 -0.7890625 0.56721419 4293400320
3.2430785 -0.78933722 0.56204259 4293400320
3.2354031 -0.78736085 0.55462116 4293400320
3.2486374 -0.7904669 0.55012608 4293530880
3.2363806 -0.78737688 0.5406723 4293400320
3.2302623 -0.78577912 0.53165954 4293400320
3.2210641 -0.78343314 0.52156276 4293400320
3.2272506 -0.78482479 0.51336193 4293400320
3.2431548 -0.78857601 0.50604922 4293400320
3.2428763 -0.78839594 0.49557978 4293400320
3.2309754 -0.7853936 0.48280501 4293400320
2.615587 -0.63514978 0.32340437 4291180800
2.5841322 -0.62743092 0.30775207 4291050240
2.6002657 -0.63125098 0.29749545 4291180800
2.5650237 -0.62261665 0.28111404 4291050240
2.5329854 -0.61476111 0.26509735 4290919680
2.5211425 -0.61180145 0.25111941 4290789120
2.5028422 -0.60727799 0.2363719 4290789120
2.4770374 -0.60093778 0.22088222 4290658560
2.4399042 -0.59185541 0.20447059 4290528000
2.419107 -0.58673179 0.18951726 4290528000
2.4361386 -0.59076965 0.17734429 4290528000
2.4074221 -0.5837301 0.161704 4290397440
2.3690112 -0.57434583 0.14561285 4290266880
2.3969927 -0.58103371 0.13351333 4290397440
2.3923771 -0.579831 0.11931039 4290397440
2.334235 -0.56567687 0.10266445 4290136320
2.3129098 -0.56043404 0.088001259 4290136320
2.3192852 -0.56189328 0.074389845 4290136320
2.3017075 -0.55755877 0.059990112 4290005760
2.1357496 -0.51734382 0.042728186 4289483520
2.2507672 -0.54507697 0.031418361 4289875200
2.2407312 -0.54256994 0.017660158 4289875200
2.2028396 -0.53333056 0.0039458876 4289744640
2.164937 -0.52409118 -0.0093132462 4289614080
2.175626 -0.52659637 -0.022593647 4289614080
2.1733186 -0.52596086 -0.035770927 4289614080
2.0745642 -0.50202656 -0.046740208 4289222400
2.1439497 -0.51871127 -0.061217103 4289483520
2.2090471 -0.53435534 -0.076316923 4289744640
2.1897795 -0.52962375 -0.088722326 4289614080
2.095015 -0.50666648 -0.097322203 4289352960
2.2071385 -0.53365725 -0.11545763 4289744640
2.2016394 -0.53225106 -0.12797993 4289744640
2.1604769 -0.52223897 -0.13803452 4289614080
2.1719844 -0.5249384 -0.1511164 4289614080
2.2788541 -0.55064321 -0.1713018 4290005760
2.2963681 -0.55478656 -0.18530989 4290005760
2.2501736 -0.5435636 -0.19384214 4289875200
2.3276289 -0.56216139 -0.21293519 4290136320
2.2642002 -0.54678559 -0.21903583 4289875200
2.3716295 -0.5726034 -0.24158427 4290266880
2.3936954 -0.57783806 -0.25586325 4290397440
2.3560822 -0.56868857 -0.26342747 4290266880
2.3390958 -0.56451219 -0.27273339 4290266880
2.2792807 -0.55001837 -0.27639854 4290005760
2.4815285 -0.5986588 -0.31207415 4290658560
2.5635729 -0.61833274 -0.3335993 4291050240
2.642731 -0.63730609 -0.35507071 4291311360
2.705946 -0.65243512 -0.3745997 4291572480
2.8528996 -0.68772042 -0.40610719 4292094720
3.0821402 -0.74280393 -0.45028427 4292878080
3.1487617 -0.75873148 -0.47134373 4293139200
3.1836996 -0.76703 -0.48749366 4293269760
3.2063935 -0.77238017 -0.5014106 4293269760
3.2145138 -0.77422285 -0.51257885 4293269760
3.2139668 -0.77398038 -0.52180398 4293269760
3.2148974 -0.77409351 -0.53067058 4293400320
3.2089555 -0.77255422 -0.53778189 4293269760
3.2198088 -0.77505398 -0.54709327 4293400320
3.2106118 -0.77273285 -0.55237746 4293400320
3.1755559 -0.76419681 -0.55249375 4293269760
3.1589119 -0.76008862 -0.55507112 4293139200
3.1677375 -0.76210237 -0.5614565 4293139200
3.1159401 -0.74954963 -0.55640775 4293008640
3.1249728 -0.75161457 -0.56149679 4293008640
3.1245301 -0.75140303 -0.56424177 4293008640
3.1241944 -0.75121754 -0.56634766 4293008640
3.1335428 -0.75335795 -0.56954974 4293139200
3.1238496 -0.75092602 -0.56863397 4293008640
3.1286304 -0.75196981 -0.56968236 4293008640
3.1105404 -0.74752367 -0.56591141 4293008640
3.160912 -0.75951034 -0.57389861 4293139200
3.1770129 -0.76326978 -0.57497656 4293269760
3.1763456 -0.76300514 -0.57234567 4293269760
3.1890745 -0.76595467 -0.57144547 4293269760
3.2026565 -0.7691083 -0.57000351 4293269760
3.2086923 -0.77045143 -0.56653291 4293400320
3.2008541 -0.76846725 -0.55996299 4293269760
3.1947985 -0.76691133 -0.55307865 4293269760
3.1868832 -0.76491028 -0.54525965 4293269760
3.1697793 -0.76070732 -0.53529495 4293139200
3.1477327 -0.75532109 -0.52397072 4293139200
3.0563827 -0.73332793 -0.50081897 4292747520
2.8975165 -0.69516283 -0.46673143 4292225280
2.751339 -0.66004825 -0.43502846 4291703040
2.6473196 -0.63504225 -0.41024426 4291311360
2.5768504 -0.61807907 -0.39074376 4291050240
2.4704554 -0.59251672 -0.36597237 4290658560
2.3843527 -0.5718205 -0.3444747 4290397440
2.3576348 -0.56534815 -0.33156407 4290266880
2.3952069 -0.57426846 -0.32724947 4290397440
2.3781385 -0.57010752 -0.31504223 4290397440
2.3658824 -0.56709951 -0.30324125 4290266880
2.3623025 -0.56616873 -0.29227906 4290266880
2.262392 -0.5421893 -0.26958087 4290005760
2.3183737 -0.55551159 -0.26529509 4290136320
2.2963512 -0.55017143 -0.2516602 4290005760
2.3023446 -0.55153346 -0.24088472 4290005760
2.1875987 -0.52402097 -0.21780691 4289614080
2.2299964 -0.53409111 -0.21044129 4289744640
2.1942027 -0.5254643 -0.1954639 4289744640
2.2038987 -0.52771431 -0.18444666 4289744640
2.1129894 -0.50591695 -0.16528982 4289352960
2.1688435 -0.51920038 -0.1575692 4289614080
2.2020562 -0.52707005 -0.14754339 4289744640
2.1471186 -0.51387608 -0.13160822 4289483520
2.053546 -0.49145561 -0.11403081 4289222400
2.1578653 -0.51631111 -0.10718326 4289483520
2.1936388 -0.52478892 -0.096019424 4289614080
2.1634958 -0.51752323 -0.081857167 4289614080
2.1702235 -0.51906329 -0.069130473 4289614080
2.2328894 -0.53395802 -0.057679012 4289744640
2.2433968 -0.53639787 -0.044395171 4289875200
2.1229169 -0.50757253 -0.029176814 4289352960
2.2904615 -0.54749268 -0.017514894 4290005760
2.3124268 -0.55266398 -0.0036114941 4290005760
2.2914684 -0.54759264 0.010355747 4290005760
2.1586747 -0.51584297 0.022841824 4289483520
2.3690526 -0.56595868 0.039493196 4290266880
2.4018633 -0.57371145 0.054570463 4290397440
2.3457019 -0.56024504 0.067405142 4290136320
2.2975996 -0.54870361 0.079772741 4290005760
2.4424062 -0.58315641 0.099367611 4290528000
2.4490533 -0.58466595 0.11410275 4290528000
2.3536334 -0.56184769 0.12341672 4290266880
2.3049169 -0.55016536 0.13421315 4290005760
2.5205133 -0.60146815 0.1612605 4290789120
2.4960306 -0.59555739 0.17382136 4290658560
2.4484532 -0.58414638 0.18417379 4290528000
2.299021 -0.54847693 0.18555543 4290005760
2.6011164 -0.62035394 0.22407316 4291050240
2.6033993 -0.62081712 0.23811164 4291050240
2.5285363 -0.60291147 0.24443941 4290789120
2.4504454 -0.58424193 0.24939384 4290528000
2.5212145 -0.60101163 0.26919892 4290789120
2.9492981 -0.70282054 0.32934779 4292355840
3.1817474 -0.75804621 0.37044445 4293139200
3.2189648 -0.76680261 0.38964689 4293269760
3.2096896 -0.76449519 0.40290782 4293269760
3.201719 -0.76249856 0.4158017 4293269760
3.2520549 -0.77437049 0.43597966 4293400320
3.2594979 -0.77603823 0.45014909 4293400320
3.2562582 -0.77516508 0.46234739 4293400320
3.2440138 -0.77215093 0.47268075 4293400320
3.2362106 -0.77019316 0.48304781 4293400320
3.2277496 -0.76807928 0.49270642 4293400320
3.2456455 -0.77222973 0.50585324 4293400320
3.2474294 -0.77255005 0.51596743 4293400320
3.2528546 -0.77373523 0.52608556 4293400320
3.2466197 -0.77214974 0.53370702 4293400320
3.2485979 -0.77251524 0.54204863 4293400320
3.2541842 -0.77373737 0.55038047 4293530880
3.2551506 -0.77386171 0.55730456 4293530880
3.2449889 -0.77134347 0.56165576 4293400320
3.2471161 -0.77174312 0.56746352 4293530880
3.237752 -0.76941454 0.57058841 4293400320
3.245738 -0.77120417 0.57610059 4293530880
3.2365725 -0.76892287 0.57789236 4293400320
3.2366173 -0.76882726 0.58064175 4293400320
3.2267165 -0.76637179 0.58091831 4293400320
3.2313042 -0.76735348 0.58311778 4293400320
3.2403238 -0.76938576 0.58543599 4293400320
3.2355554 -0.76814735 0.58457607 4293400320
3.2309008 -0.766936 0.58305073 4293400320
3.2445545 -0.77006507 0.58414084 4293530880
3.2323608 -0.76706606 0.5798915 4293400320
3.2468359 -0.77038831 0.57974344 4293530880
3.2502136 -0.77107942 0.57691711 4293530880
3.2398198 -0.76850706 0.57097894 4293400320
3.2412856 -0.76874471 0.56647426 4293400320
3.2515032 -0.7710551 0.56281835 4293530880
3.2399764 -0.76821452 0.5547443 4293400320
3.2484262 -0.770105 0.54944968 4293400320
3.2409503 -0.76822394 0.54082018 4293400320
3.2300172 -0.76552463 0.53102916 4293400320
3.2256081 -0.76437008 0.52173442 4293400320
3.2221847 -0.76344877 0.51201707 4293400320
3.247726 -0.76938158 0.50624639 4293400320
3.2474451 -0.76920289 0.49578905 4293400320
3.2403412 -0.7674098 0.48374471 4293400320
2.6095262 -0.61782283 0.32221651 4291180800
2.5925233 -0.61371171 0.30833274 4291050240
2.6125503 -0.61835396 0.29849508 4291180800
2.5733929 -0.60900807 0.28164667 4291050240
2.5364718 -0.60019326 0.26509821 4290919680
2.5207376 -0.59638631 0.25073272 4290789120
2.5062861 -0.59288341 0.23636973 4290789120
2.4804456 -0.5866915 0.22087848 4290658560
2.4335611 -0.5755319 0.20365185 4290528000
2.4533384 -0.58011502 0.19193371 4290528000
2.4394894 -0.57675833 0.17733571 4290528000
2.410733 -0.56988382 0.16169386 4290397440
2.3722689 -0.56072026 0.1456012 4290266880
2.3954291 -0.56610072 0.13322859 4290397440
2.3912849 -0.56503737 0.11907613 4290397440
2.3228579 -0.5488103 0.10200423 4290136320
2.3112254 -0.54598373 0.087797418 4290005760
2.3273363 -0.54970038 0.07452701 4290136320
2.2951398 -0.54202557 0.059713438 4290005760
2.1474416 -0.50712323 0.04288419 4289483520
2.2450995 -0.53006589 0.031270243 4289875200
2.2399149 -0.52876359 0.017603232 4289744640
2.2146239 -0.52272373 0.0039374577 4289744640
2.1765187 -0.51366639 -0.0093752537 4289614080
2.1892052 -0.51657706 -0.022729477 4289614080
2.1604531 -0.50972652 -0.035544995 4289483520
2.100471 -0.49552327 -0.047282252 4289352960
2.1754758 -0.51310921 -0.06205612 4289614080
2.2086422 -0.52083969 -0.076233856 4289744640
2.1558206 -0.50832683 -0.087272979 4289483520
2.155612 -0.50820071 -0.10001674 4289483520
2.1732204 -0.51226735 -0.1135765 4289614080
2.2429268 -0.52859086 -0.13022819 4289875200
2.2233794 -0.52391225 -0.1418785 4289744640
2.1283393 -0.50147802 -0.14793169 4289483520
2.2635272 -0.53319585 -0.16996482 4289875200
2.2810717 -0.53724086 -0.18387261 4290005760
2.3082538 -0.54355055 -0.19859852 4290005760
2.3026927 -0.54216135 -0.21041952 4290005760
2.2256203 -0.52396476 -0.21506682 4289744640
2.3467779 -0.55235845 -0.23878101 4290266880
2.3553305 -0.55428505 -0.2514782 4290266880
2.321557 -0.54626745 -0.25927082 4290136320
2.3006964 -0.54128551 -0.26794884 4290005760
2.3313577 -0.54840577 -0.28235418 4290136320
2.4472301 -0.57553387 -0.30739993 4290528000
2.4691558 -0.58059603 -0.32095319 4290658560
2.5007143 -0.58791822 -0.33562502 4290789120
2.5554051 -0.60066801 -0.35337281 4290919680
2.6467011 -0.62200499 -0.37635285 4291311360
2.7569103 -0.64777374 -0.40236312 4291703040
2.8663702 -0.67335933 -0.42861637 4292094720
2.9526489 -0.69349951 -0.45161256 4292355840
2.9851353 -0.70101714 -0.4662843 4292486400
3.0093448 -0.70659161 -0.47931296 4292616960
3.0542381 -0.71701461 -0.495285 4292747520
3.016119 -0.70797288 -0.49727869 4292616960
3.0659103 -0.71954125 -0.51318938 4292747520
3.0055578 -0.70529121 -0.51009059 4292616960
3.0324237 -0.71148467 -0.5210945 4292747520
3.0593569 -0.71769226 -0.53161597 4292747520
3.0854044 -0.72369075 -0.54146433 4292878080
2.9960392 -0.70265335 -0.53037453 4292616960
3.0040503 -0.70442855 -0.53574967 4292616960
3.0227075 -0.70869654 -0.54242778 4292616960
3.0309107 -0.7105158 -0.54662931 4292747520
3.0401745 -0.71258312 -0.55039823 4292747520
3.0351591 -0.7113077 -0.55094844 4292747520
3.0254569 -0.70893598 -0.55000126 4292747520
3.0168209 -0.70681471 -0.5486024 4292616960
2.9987028 -0.70247567 -0.54484415 4292616960
2.9797294 -0.69793808 -0.54030466 4292486400
3.0743704 -0.71997732 -0.55565137 4292878080
3.0373874 -0.711227 -0.54657626 4292747520
2.9966588 -0.70160347 -0.53626132 4292616960
2.9656093 -0.69424599 -0.52712923 4292486400
3.0159299 -0.70591336 -0.53178751 4292616960
2.9610596 -0.69298977 -0.517331 4292486400
2.9949574 -0.70081627 -0.51778191 4292616960
2.9315765 -0.68590868 -0.50091231 4292355840
2.901356 -0.67875326 -0.48931429 4292225280
2.8284371 -0.66162503 -0.47020754 4291964160
2.7334087 -0.63933724 -0.44731477 4291572480
2.6604898 -0.6222195 -0.42797002 4291311360
2.5813324 -0.6036498 -0.40757281 4291050240
2.5459361 -0.59530312 -0.39395112 4290919680
2.4446673 -0.57158041 -0.37016022 4290658560
2.432379 -0.56863457 -0.35976923 4290528000
2.4239631 -0.56659359 -0.34961563 4290528000
2.4020517 -0.56140393 -0.33724013 4290397440
2.3753064 -0.55508792 -0.32399842 4290397440
2.3495092 -0.5489949 -0.31073529 4290266880
2.3410847 -0.54695624 -0.29955831 4290266880
2.3239477 -0.54288614 -0.28704727 4290136320
2.3106558 -0.53971392 -0.27482685 4290136320
2.2799146 -0.53247392 -0.26043779 4290005760
2.3230925 -0.54246974 -0.25411335 4290136320
2.2638204 -0.52858061 -0.23642297 4289875200
2.2368193 -0.52221698 -0.22226174 4289875200
2.1961815 -0.51267719 -0.20685396 4289744640
2.2542944 -0.52615088 -0.20038913 4289875200
2.2257128 -0.51942217 -0.18587606 4289744640
2.170929 -0.50659126 -0.16943511 4289614080
2.1993675 -0.51314867 -0.15941851 4289614080
2.2113421 -0.51586998 -0.14781646 4289744640
2.131568 -0.49722534 -0.13034028 4289483520
2.0378613 -0.47534165 -0.11287261 4289091840
2.1692798 -0.50587422 -0.1074494 4289614080
2.1878626 -0.5101335 -0.095483579 4289614080
2.1615689 -0.50394684 -0.081518367 4289483520
2.1829064 -0.50884628 -0.069276795 4289614080
2.2359209 -0.52111524 -0.057512429 4289744640
2.2552054 -0.52553356 -0.044395708 4289875200
2.1956236 -0.51160461 -0.029946977 4289614080
2.288697 -0.53318578 -0.017302496 4290005760
2.3204305 -0.54049593 -0.0034372127 4290136320
2.2945721 -0.53441226 0.010535775 4290005760
2.1577017 -0.50251973 0.022970064 4289483520
2.3722587 -0.55233192 0.039681636 4290266880
2.4099808 -0.56102771 0.054874338 4290397440
2.3488731 -0.5467521 0.067593157 4290136320
2.2822082 -0.53118879 0.079310201 4290005760
2.4457052 -0.56910723 0.099563912 4290528000
2.4474943 -0.56944805 0.11407173 4290528000
2.3568096 -0.54830831 0.12360548 4290266880
2.3080261 -0.53690577 0.13439745 4290005760
2.5141895 -0.58471149 0.16083741 4290789120
2.4993942 -0.58119893 0.17401895 4290658560
2.4468939 -0.56893349 0.1840001 4290528000
2.3157122 -0.53840649 0.1868341 4290136320
2.5958812 -0.60336322 0.22352023 4291050240
2.6020508 -0.60471493 0.23786604 4291050240
2.5406656 -0.59039074 0.24547459 4290919680
2.5468769 -0.59175324 0.25906396 4290919680
2.6434307 -0.61407286 0.28208053 4291311360
3.0023367 -0.69723856 0.33504209 4292486400
3.1811814 -0.73862243 0.37010455 4293139200
3.2349091 -0.75098211 0.39127532 4293269760
3.2231917 -0.74816447 0.40427744 4293269760
3.1963525 -0.74184173 0.41475615 4293139200
3.2502806 -0.75424182 0.43536356 4293400320
3.2638721 -0.75728983 0.45035011 4293400320
3.2654526 -0.75755346 0.4632265 4293400320
3.2618697 -0.75662041 0.47483423 4293400320
3.2405527 -0.75157893 0.48322663 4293400320
3.227262 -0.74839777 0.49214205 4293400320
3.2465429 -0.75276083 0.5054785 4293400320
3.2614141 -0.75610131 0.51765215 4293530880
3.2572193 -0.75502604 0.52623308 4293400320
3.2509763 -0.75347668 0.53384542 4293400320
3.2433412 -0.75160509 0.54057455 4293400320
3.2489393 -0.75279647 0.54887599 4293400320
3.2499106 -0.75291657 0.55577111 4293400320
3.2531891 -0.75357014 0.56242096 4293530880
3.2418723 -0.75084674 0.56587678 4293400320
