# .PCD v0.7 - Point Cloud Data file format
VERSION 0.7
FIELDS x y z rgba
SIZE 4 4 4 4
TYPE F F F U
COUNT 1 1 1 1
WIDTH 1104
HEIGHT 1
VIEWPOINT 0 0 0 1 0 0 0
POINTS 1104
DATA ascii
3.4086964 0.71040958 -0.61855662 4293922560
3.4087625 0.71053475 -0.6180492 4293922560
3.4296465 0.71499461 -0.62058926 4294053120
3.4423397 0.7177493 -0.62091064 4294053120
3.4415321 0.71769196 -0.6180687 4294053120
3.4502828 0.71962547 -0.61621708 4294053120
3.4566219 0.7210564 -0.61320335 4294053120
3.4723825 0.72445077 -0.61112016 4294183680
3.4695373 0.72396743 -0.60503763 4294183680
3.4751606 0.72524881 -0.59972662 4294183680
3.4723613 0.724774 -0.59226543 4294183680
3.4798212 0.72643781 -0.58586061 4294183680
3.4739957 0.72533077 -0.57654315 4294183680
3.4679694 0.724181 -0.56656027 4294183680
3.4578974 0.72218639 -0.55531138 4294053120
3.4490688 0.7204501 -0.54368192 4294053120
3.4496667 0.72067994 -0.53294301 4294053120
3.486362 0.72844332 -0.52705127 4294183680
3.4906127 0.72943598 -0.51552129 4294183680
3.4800787 0.72734177 -0.50124878 4294183680
3.4564023 0.72250235 -0.48464742 4294053120
3.4466426 0.72056741 -0.4695819 4294053120
3.4595435 0.72336435 -0.45706326 4294053120
3.4664781 0.72491539 -0.44316313 4294053120
3.4631293 0.72431809 -0.42744017 4294053120
3.4440517 0.72043371 -0.40940312 4293922560
3.4551065 0.7228449 -0.39453039 4294053120
3.4735825 0.72680753 -0.3799296 4294053120
3.4824564 0.7287637 -0.36372831 4294053120
3.4410493 0.72020799 -0.34204146 4293922560
3.4407148 0.72023773 -0.32427496 4293922560
3.4639406 0.72519422 -0.30825615 4294053120
3.4556885 0.72356808 -0.28902328 4293922560
3.4287162 0.71802533 -0.26810279 4293922560
3.4554114 0.72370863 -0.25109047 4293922560
3.4623332 0.72525591 -0.23218487 4293922560
3.4786658 0.72877276 -0.21353073 4294053120
3.4724419 0.72756934 -0.19320671 4294053120
3.4448838 0.72189963 -0.17168531 4293922560
3.4613194 0.72543854 -0.15224019 4293922560
3.4713178 0.72763032 -0.13219634 4294053120
3.4368916 0.7205196 -0.11046602 4293922560
3.4682252 0.72717959 -0.090754882 4293922560
3.473561 0.72839552 -0.07004983 4294053120
3.4912539 0.7322005 -0.04938525 4294053120
3.4638231 0.72655189 -0.028090509 4293922560
3.4904652 0.73223287 -0.0072162622 4294053120
3.495765 0.73344237 0.0138993 4294053120
3.4883566 0.73198843 0.034932662 4294053120
3.5046656 0.73550624 0.056213155 4294053120
3.5156622 0.73791111 0.07750763 4294183680
3.5271227 0.74041402 0.098858416 4294183680
3.4963081 0.73405159 0.11880092 4294053120
3.5111568 0.73726535 0.14006291 4294183680
3.5223749 0.73971856 0.16117747 4294183680
3.5143137 0.73812753 0.18125074 4294183680
3.4618313 0.72721505 0.19848596 4293922560
3.5217435 0.73988736 0.22197425 4294183680
3.5382063 0.74344361 0.24291465 4294314240
3.5246589 0.74070114 0.2615447 4294183680
3.4713476 0.72960961 0.27657026 4294053120
3.5370317 0.7435019 0.30081904 4294314240
3.5459807 0.74548346 0.32031283 4294314240
3.5513258 0.74670875 0.33919859 4294314240
3.5225906 0.74077547 0.35433492 4294183680
3.3499086 0.70459831 0.35360679 4293661440
3.5488691 0.74650264 0.39177713 4294314240
3.5429263 0.74535769 0.40784287 4294314240
3.5382473 0.74447834 0.42354423 4294314240
3.4872324 0.7338587 0.43297631 4294183680
3.4109535 0.71792483 0.43822742 4293922560
3.5393598 0.74502641 0.46945959 4294314240
3.5390401 0.74506474 0.48363099 4294314240
3.5475547 0.74696153 0.49848765 4294314240
3.5279491 0.74294388 0.50878572 4294314240
3.4970992 0.73655975 0.51669794 4294183680
3.4794879 0.73295993 0.52580172 4294183680
3.5352633 0.74480391 0.54549819 4294314240
3.5383155 0.74555439 0.55662209 4294314240
3.5395854 0.74593037 0.56683362 4294314240
3.5372603 0.74554998 0.57580906 4294314240
3.5362926 0.7454558 0.58432668 4294314240
3.5206587 0.74227327 0.58970392 4294314240
3.5151453 0.74122208 0.59603947 4294314240
3.4969847 0.73750663 0.59948963 4294314240
3.5143609 0.74127823 0.60831982 4294314240
3.5059404 0.73961526 0.61199105 4294314240
3.51388 0.74140042 0.61779457 4294314240
3.518074 0.74239707 0.62222797 4294314240
3.4746926 0.73336422 0.61748874 4294183680
3.4781625 0.73420829 0.62030751 4294183680
3.5072656 0.74045902 0.62697774 4294314240
3.5119386 0.74155927 0.62855816 4294314240
3.5070963 0.74065298 0.62769669 4294314240
3.5071957 0.74078959 0.62697881 4294314240
3.4976296 0.73888713 0.6237992 4294314240
3.5150504 0.74268043 0.62468684 4294314240
3.5058722 0.74086058 0.62011188 4294314240
3.5156186 0.74303609 0.61814916 4294314240
3.5258465 0.74531448 0.61552101 4294314240
3.5300491 0.74632162 0.6110996 4294314240
3.5381465 0.74815232 0.60661525 4294444800
3.5311594 0.74679726 0.59883523 4294314240
3.5373182 0.74822003 0.59258246 4294444800
3.5337038 0.74757826 0.58399677 4294314240
3.5196223 0.74472439 0.57304424 4294314240
3.5060861 0.74198538 0.56158352 4294314240
3.5272858 0.7465902 0.55500561 4294314240
3.5437243 0.7501902 0.54692632 4294444800
3.5326912 0.74798143 0.53396356 4294314240
3.5179849 0.74499536 0.51991433 4294314240
3.4838064 0.73857027 0.42570165 4294183680
3.5267224 0.7477864 0.41501325 4294314240
3.5329039 0.74922401 0.39931417 4294314240
3.508244 0.74412769 0.37977087 4294183680
3.4858372 0.73950744 0.3602711 4294053120
3.5014565 0.74294555 0.34432408 4294183680
3.5123601 0.74538541 0.32739353 4294183680
3.4962368 0.74209595 0.30760828 4294183680
3.4638243 0.7353512 0.28630453 4294053120
3.4916112 0.7413727 0.26967341 4294053120
3.5035324 0.74403065 0.2513015 4294183680
3.4899266 0.74127358 0.23083122 4294053120
3.4696527 0.7371006 0.20985411 4294053120
3.498244 0.74329799 0.19154564 4294053120
3.4992185 0.74363488 0.17134447 4294053120
3.5052903 0.74505436 0.1511602 4294183680
3.4644666 0.73651564 0.12899306 4293922560
3.4757421 0.73903972 0.10879052 4294053120
3.4829297 0.74069631 0.088227719 4294053120
3.4799311 0.74018931 0.067282133 4294053120
3.4669244 0.73755521 0.046162058 4293922560
3.4745803 0.73931205 0.025292801 4294053120
3.479429 0.74047267 0.0042952518 4294053120
3.4313159 0.73037291 -0.016512915 4293922560
3.4620223 0.73703116 -0.03758698 4293922560
3.468365 0.73850965 -0.058583707 4294053120
3.4737585 0.73978662 -0.079577126 4294053120
3.454005 0.73571336 -0.099826738 4293922560
3.4750473 0.74032027 -0.12116182 4294053120
3.4946079 0.74461329 -0.14256081 4294053120
3.4834812 0.74237484 -0.16260813 4294053120
3.4525855 0.73592621 -0.18131524 4293922560
3.4713206 0.74004447 -0.20236699 4294053120
3.4732749 0.74058968 -0.22234458 4294053120
3.4584312 0.73755634 -0.24093673 4293922560
3.4649174 0.73906648 -0.26071006 4294053120
3.4976556 0.7461713 -0.28239542 4294183680
3.5079215 0.74848849 -0.30219704 4294183680
3.4941556 0.74568319 -0.31958356 4294183680
3.4358623 0.73338264 -0.33217296 4293922560
3.4911799 0.74530536 -0.35536501 4294183680
3.4971616 0.74670899 -0.37345892 4294183680
3.4893191 0.7451638 -0.38965878 4294183680
3.4780531 0.74288714 -0.40495601 4294053120
3.4208364 0.73080361 -0.41413766 4293922560
3.5157332 0.7511819 -0.44143882 4294183680
3.5112946 0.75036144 -0.45618415 4294183680
3.5063918 0.74944109 -0.47032103 4294183680
3.5038052 0.74901474 -0.48421189 4294183680
3.4897156 0.74613094 -0.4959048 4294183680
3.4781597 0.74378699 -0.50730181 4294183680
3.4741318 0.7430501 -0.51916689 4294183680
3.4869368 0.74590945 -0.53298938 4294183680
3.4834938 0.74529672 -0.54375648 4294183680
3.4805696 0.74479419 -0.55396599 4294183680
3.4824646 0.74532127 -0.56430739 4294183680
3.4752934 0.74390942 -0.57252079 4294183680
3.4677896 0.7424255 -0.57998526 4294183680
3.4650552 0.74196059 -0.58755612 4294183680
3.446996 0.73821664 -0.59180802 4294053120
3.4326842 0.73527277 -0.59595507 4294053120
3.4289594 0.73459297 -0.60121769 4294053120
3.4073961 0.73009437 -0.60261834 4293922560
3.4066346 0.73004675 -0.60696566 4293922560
3.4204328 0.73311579 -0.61321712 4294053120
3.3550107 0.71922153 -0.60451204 4293792000
3.3546002 0.71924567 -0.60675782 4293792000
3.3543069 0.71929437 -0.60831892 4293792000
3.4190013 0.73326492 -0.620974 4294053120
3.4093177 0.73130262 -0.61941624 4293922560
3.4093831 0.73142833 -0.61890811 4293922560
3.4302411 0.73601002 -0.62144637 4294053120
3.4515843 0.74069661 -0.62332982 4294183680
3.4421117 0.73877716 -0.61891937 4294053120
3.4460361 0.73972923 -0.61620206 4294053120
3.4712534 0.74524754 -0.61654246 4294183680
3.4719613 0.74550986 -0.6117841 4294183680
3.4797218 0.74728465 -0.60754639 4294183680
3.4746172 0.74629909 -0.60035706 4294183680
3.4763675 0.74678367 -0.59366477 4294183680
3.4707103 0.74567807 -0.58503246 4294183680
3.4793658 0.74764383 -0.57813144 4294183680
3.4662488 0.74493545 -0.56696278 4294183680
3.4584646 0.74337089 -0.55607277 4294053120
3.4448171 0.74054617 -0.5436669 4294053120
3.4580648 0.7434966 -0.53488475 4294053120
3.4820628 0.74875641 -0.52703607 4294183680
3.4896009 0.75048125 -0.515993 4294183680
3.4709454 0.74657798 -0.50053561 4294183680
3.4472952 0.74159992 -0.48395246 4294053120
3.4461462 0.74145603 -0.47007924 4294053120
3.4723823 0.7471981 -0.45931116 4294053120
3.4752021 0.74790734 -0.4448123 4294053120
3.4588544 0.74449509 -0.42742506 4294053120
3.4397995 0.7404995 -0.4093881 4293922560
3.455698 0.74401969 -0.39507073 4294053120
3.4726012 0.74775666 -0.38027677 4294053120
3.4869082 0.75093579 -0.36462855 4294183680
3.4416637 0.74130249 -0.3425107 4293922560
3.4501772 0.74323428 -0.32555416 4293922560
3.457371 0.74488229 -0.30803701 4294053120
3.4673536 0.74713075 -0.29034296 4294053120
3.4342256 0.74009901 -0.26885116 4293922560
3.4546397 0.74459285 -0.25133011 4293922560
3.4580524 0.74542665 -0.23216976 4293922560
3.474364 0.74903846 -0.21351555 4294053120
3.4717972 0.74858481 -0.19339499 4294053120
3.4530218 0.74463928 -0.17228939 4293922560
3.4619207 0.74665481 -0.15244029 4293922560
3.4787419 0.75037777 -0.13262847 4294053120
3.4326384 0.74054122 -0.11045101 4293922560
3.4688189 0.74843663 -0.090867959 4294053120
3.474148 0.74968374 -0.070133552 4294053120
3.4908414 0.75338101 -0.049425561 4294053120
3.4595339 0.74672961 -0.02807538 4293922560
3.483845 0.75207013 -0.0071961363 4294053120
3.5016117 0.75600058 0.013954517 4294053120
3.4981055 0.7553435 0.035088155 4294053120
3.5065353 0.75726122 0.056327846 4294183680
3.5247004 0.76127982 0.077817813 4294183680
3.5329366 0.76315707 0.09915898 4294183680
3.4785738 0.75152522 0.11836121 4294053120
3.5139885 0.75926805 0.14036469 4294183680
3.5285509 0.76251161 0.16167513 4294183680
3.5290506 0.76272011 0.18225066 4294183680
3.4512234 0.74601591 0.19813909 4293922560
3.5186975 0.76068592 0.222073 4294183680
3.5338168 0.76405221 0.24293011 4294314240
3.5327051 0.76391351 0.26248175 4294314240
3.4509897 0.7463612 0.27530652 4293922560
3.546279 0.76704985 0.30199453 4294314240
3.5600784 0.77013439 0.32199976 4294314240
3.5457304 0.76713651 0.33910075 4294314240
3.5186963 0.76139599 0.35439858 4294183680
3.3506098 0.7251606 0.35413471 4293661440
3.544754 0.76723546 0.39182496 4294314240
3.5433815 0.76704258 0.40841761 4294314240
3.5213163 0.7623747 0.42205864 4294314240
3.4926021 0.75626773 0.43419668 4294183680
3.4202912 0.74072802 0.43998724 4293922560
3.5446532 0.76773703 0.47076121 4294314240
3.5491722 0.76882076 0.48563311 4294444800
3.543144 0.76762253 0.49850318 4294314240
3.5284011 0.76453805 0.50949931 4294314240
3.4966192 0.7577644 0.51728523 4294183680
3.4283848 0.74309695 0.51874542 4294053120
3.5492272 0.76936907 0.54834825 4294444800
3.5247936 0.76418608 0.55520231 4294314240
3.5351808 0.7665444 0.56684911 4294314240
3.5328577 0.76615036 0.5758245 4294314240
3.5261991 0.76481736 0.58340126 4294314240
3.5249557 0.76465786 0.59117395 4294314240
3.515589 0.76273835 0.59687269 4294314240
3.5109429 0.76184195 0.60264599 4294314240
3.5148015 0.76278949 0.60916954 4294314240
3.5102432 0.76191294 0.61352062 4294314240
3.5143178 0.76290864 0.61865705 4294314240
3.5088751 0.76184106 0.6213913 4294314240
3.4742134 0.75443542 0.61818874 4294183680
3.4786406 0.75550854 0.62118167 4294183680
3.5077064 0.76192874 0.62785399 4294314240
3.5123727 0.76305628 0.62943542 4294314240
3.5123487 0.76316667 0.62943584 4294314240
3.5028212 0.76121449 0.62699419 4294314240
3.5163713 0.76427281 0.62793738 4294314240
3.5022724 0.76132864 0.62321001 4294314240
3.5159414 0.76441479 0.62268335 4294314240
3.5198987 0.7653929 0.6196894 4294314240
3.5262618 0.76689446 0.61637771 4294314240
3.5343134 0.7687639 0.61261702 4294444800
3.5337288 0.76875758 0.60663074 4294444800
3.5315697 0.76840961 0.59966856 4294444800
3.5415792 0.77070725 0.59405261 4294444800
3.5242548 0.76706314 0.58317983 4294314240
3.5152249 0.76522207 0.57305962 4294314240
3.511359 0.76450396 0.56314594 4294314240
3.5277064 0.76818305 0.55578125 4294314240
3.5441258 0.77187949 0.54768777 4294444800
3.5302045 0.76897544 0.53427088 4294314240
3.5280924 0.76864094 0.52207458 4294314240
3.4978292 0.76310635 0.42797041 4294183680
3.5406995 0.77257794 0.41720083 4294314240
3.535573 0.77158934 0.40013927 4294314240
3.5095456 0.76604348 0.3804113 4294183680
3.4862816 0.76109862 0.36079276 4294183680
3.51687 0.7678985 0.34629697 4294183680
3.5286877 0.77060604 0.32935229 4294314240
3.5014548 0.76479423 0.30847993 4294183680
3.4736116 0.75884753 0.28750008 4294053120
3.498194 0.76434165 0.27054861 4294183680
3.506258 0.76623183 0.25184172 4294183680
3.5051198 0.76611364 0.2321561 4294183680
3.4830811 0.7614314 0.21096066 4294053120
3.5097613 0.76738852 0.19244884 4294183680
3.5156176 0.76879883 0.1723956 4294183680
3.5191731 0.76970696 0.15198265 4294183680
3.4766626 0.76054901 0.12964363 4294053120
3.4824131 0.76193595 0.10917157 4294053120
3.4847679 0.76258117 0.088421829 4294053120
3.4940701 0.76474565 0.067677222 4294053120
3.4642763 0.75836146 0.046223301 4294053120
3.4812596 0.7622059 0.025412293 4294053120
3.4847012 0.76308942 0.0043471889 4294053120
3.4504013 0.75571579 -0.016585974 4293922560
3.462507 0.75849432 -0.037597839 4293922560
3.4776313 0.76193434 -0.058771923 4294053120
3.4791093 0.76238835 -0.079756811 4294053120
3.4544966 0.75713009 -0.099922791 4293922560
3.4842973 0.76378512 -0.12159277 4294053120
3.4999251 0.76733828 -0.142912 4294183680
3.497592 0.76695812 -0.16342671 4294053120
3.4481945 0.75626647 -0.18126646 4293922560
3.4717817 0.76156378 -0.20260195 4294053120
3.478606 0.76318884 -0.22291918 4294053120
3.472548 0.76199043 -0.24217778 4294053120
3.4741473 0.76247019 -0.2616863 4294053120
3.4970999 0.76763207 -0.28265801 4294183680
3.5073504 0.7700097 -0.30248001 4294183680
3.4972379 0.76792127 -0.3202202 4294183680
3.4363508 0.75469267 -0.33259135 4293922560
3.4834278 0.76514888 -0.35497466 4294053120
3.4878516 0.76624781 -0.37288621 4294183680
3.4945858 0.76785374 -0.39069125 4294183680
3.482358 0.76529711 -0.40592131 4294183680
3.40678 0.74882966 -0.41291022 4293922560
3.5112548 0.77189666 -0.44138595 4294183680
3.5165105 0.7731784 -0.4573921 4294314240
3.5106397 0.77201581 -0.47143969 4294314240
3.5032115 0.77051032 -0.48469648 4294183680
3.4747241 0.7643761 -0.49435461 4294183680
3.4833949 0.76640624 -0.50866449 4294183680
3.4745345 0.76458281 -0.51984155 4294183680
3.4776607 0.76539367 -0.53220296 4294183680
3.4803073 0.7660988 -0.54390663 4294183680
3.4867418 0.76763672 -0.55561203 4294183680
3.4828446 0.76690203 -0.56504619 4294183680
3.4756796 0.76544774 -0.57327384 4294183680
3.4778211 0.76604009 -0.58236551 4294183680
3.4519749 0.76047295 -0.58604777 4294053120
3.4377787 0.75746775 -0.59094334 4294053120
3.4427428 0.75867885 -0.59843028 4294053120
3.4293919 0.75585741 -0.6020295 4294053120
3.399193 0.7493245 -0.60190594 4293922560
3.4167125 0.7532984 -0.60951108 4294053120
3.3512473 0.73899388 -0.60155767 4293792000
3.3593769 0.7408976 -0.60604942 4293792000
3.3503098 0.7390123 -0.60673612 4293792000
3.3548238 0.74011868 -0.60917246 4293792000
3.3498406 0.73913169 -0.60917681 4293792000
3.3449769 0.73817009 -0.60849243 4293792000
3.4050181 0.7515173 -0.61889613 4293922560
3.4003954 0.75060922 -0.61682051 4293922560
3.4117303 0.7532196 -0.61691695 4294053120
3.424509 0.75614864 -0.61654085 4294053120
3.437772 0.75918472 -0.61551249 4294053120
3.4527516 0.76259983 -0.61404598 4294183680
3.4675095 0.76596653 -0.61178946 4294183680
3.4704461 0.76672471 -0.60671359 4294183680
3.471242 0.76700997 -0.60055596 4294183680
3.4732654 0.76756579 -0.59391195 4294183680
3.4749269 0.76804131 -0.58651406 4294183680
3.4748988 0.7681433 -0.57815295 4294183680
3.4640687 0.76585913 -0.56735945 4294183680
3.4540224 0.76374692 -0.55610073 4294053120
3.4452164 0.76190764 -0.54446059 4294053120
3.4536211 0.76386994 -0.53491938 4294053120
3.4727576 0.76820374 -0.52634239 4294183680
3.4905233 0.77223533 -0.51683557 4294183680
3.4858196 0.77130097 -0.50337285 4294183680
3.4515676 0.76383388 -0.48522434 4294053120
3.4465523 0.76282835 -0.47079155 4294053120
3.465354 0.76708859 -0.45902693 4294053120
3.4722772 0.76872265 -0.44506896 4294053120
3.4592495 0.76594388 -0.42808622 4294053120
3.4353719 0.76076388 -0.40945232 4293922560
3.4609525 0.76652443 -0.3962495 4294053120
3.4793885 0.77070516 -0.38158277 4294053120
3.4824181 0.77147722 -0.36470315 4294183680
3.4422107 0.76267952 -0.34308371 4293922560
3.4553711 0.76569265 -0.32654491 4294053120
3.460067 0.76683235 -0.30875802 4294053120
3.4677522 0.76863396 -0.29083705 4294053120
3.4355659 0.76160634 -0.26939118 4293922560
3.4554582 0.76611072 -0.25180525 4294053120
3.460758 0.76738381 -0.23274522 4294053120
3.4711554 0.7697863 -0.21369022 4294053120
3.4809718 0.77206045 -0.19425596 4294053120
3.4498413 0.76526159 -0.17245343 4293922560
3.4623365 0.76812911 -0.15275864 4294053120
3.4704776 0.77003205 -0.13258937 4294053120
3.4437518 0.76420635 -0.11105877 4293922560
3.4748864 0.7712068 -0.091254085 4294053120
3.4899709 0.77465016 -0.070656262 4294053120
3.4917703 0.77514821 -0.049615741 4294053120
3.4745162 0.77142048 -0.028348194 4294053120
3.4888315 0.77469438 -0.0073317573 4294053120
3.5038455 0.77812409 0.013863967 4294183680
3.4927208 0.77575517 0.034961771 4294053120
3.4988909 0.77722335 0.05615915 4294053120
3.5219131 0.78243202 0.07773646 4294183680
3.5469267 0.78808397 0.099557452 4294314240
3.4975092 0.77721483 0.11903738 4294183680
3.5151162 0.78122336 0.1404698 4294183680
3.5301507 0.78466177 0.16183552 4294183680
3.5232754 0.78323567 0.18206662 4294183680
3.4613979 0.76959336 0.19886024 4294053120
3.5305312 0.7850489 0.22298603 4294314240
3.5358024 0.78632116 0.24326032 4294314240
3.5316322 0.78549618 0.26262206 4294314240
3.4562767 0.76885277 0.27596858 4294053120
3.5483229 0.78940922 0.30244157 4294314240
3.5629914 0.79277235 0.32256311 4294444800
3.5601735 0.79224926 0.3408061 4294444800
3.5326214 0.78622717 0.35614774 4294314240
3.3744519 0.75115967 0.35700819 4293792000
3.5464082 0.7894997 0.39240646 4294314240
3.54844 0.79005575 0.40942332 4294314240
3.5400467 0.78829324 0.4247475 4294314240
3.4892192 0.77708989 0.43423897 4294183680
3.4294417 0.76389253 0.44163996 4293922560
3.5450437 0.78972042 0.47132817 4294444800
3.5627666 0.79377103 0.48803139 4294444800
3.5569482 0.79258281 0.50100404 4294444800
3.5373816 0.78833401 0.51137304 4294314240
3.5114295 0.78266269 0.52006829 4294314240
3.4423075 0.76737678 0.52145159 4294053120
3.5444348 0.79022753 0.54824662 4294444800
3.5530443 0.79225403 0.56030685 4294444800
3.5537596 0.79252285 0.57050192 4294444800
3.551429 0.7921136 0.57954192 4294444800
3.5351331 0.7885927 0.58558428 4294444800
3.5435174 0.79057175 0.5950079 4294444800
3.5293393 0.78752267 0.59994078 4294444800
3.5246923 0.78659803 0.60575271 4294314240
3.5161772 0.7848112 0.6101678 4294314240
3.5201325 0.78580528 0.6160211 4294314240
3.5232353 0.78661001 0.6210115 4294444800
3.4981086 0.78111857 0.62027717 4294314240
3.4927909 0.78004533 0.62229168 4294314240
3.488555 0.77921367 0.62375873 4294314240
3.5065527 0.78334403 0.62846816 4294314240
3.4919837 0.7802074 0.62660891 4294314240
3.526058 0.78792888 0.63272989 4294444800
3.512696 0.78506255 0.62960213 4294314240
3.5204587 0.78691298 0.62951517 4294314240
3.5025311 0.78302705 0.62410396 4294314240
3.5296447 0.78920096 0.62596595 4294444800
3.5201325 0.78719527 0.62058789 4294314240
3.5342798 0.79047573 0.61864012 4294444800
3.5365355 0.79110038 0.61386466 4294444800
3.5373805 0.79141039 0.60811949 4294444800
3.5409896 0.79233891 0.60212851 4294444800
3.5319405 0.79043823 0.59329402 4294444800
3.5331511 0.79083163 0.58550453 4294444800
3.5241363 0.78893882 0.57535851 4294314240
3.5135181 0.78668725 0.56433141 4294314240
3.5313737 0.79080522 0.55719608 4294314240
3.5534959 0.79587948 0.54997027 4294444800
3.5391135 0.79278702 0.5364424 4294444800
3.5378995 0.79264122 0.52433974 4294444800
3.4988153 0.78422409 0.42864493 4294183680
3.5520692 0.79627746 0.41907978 4294444800
3.5377162 0.79319263 0.40089741 4294314240
3.5255036 0.79058659 0.38263029 4294314240
3.5008831 0.78519988 0.36276627 4294183680
3.5124428 0.78791934 0.34630269 4294183680
3.5329909 0.79265445 0.33017233 4294314240
3.498987 0.78516281 0.30865228 4294183680
3.4741001 0.77971298 0.28790167 4294053120
3.4951606 0.78456467 0.27065146 4294183680
3.5106018 0.78815782 0.25246525 4294183680
3.5192046 0.79021853 0.23337324 4294183680
3.4933031 0.78453898 0.21183492 4294183680
3.5207298 0.79082388 0.19327947 4294183680
3.5217092 0.79117554 0.17289579 4294183680
3.5104077 0.78877091 0.1517777 4294183680
3.4772751 0.78146446 0.12980939 4294053120
3.4988482 0.786439 0.10980076 4294183680
3.4997957 0.78678334 0.088888422 4294183680
3.4868207 0.78400069 0.067594439 4294053120
3.4699545 0.780343 0.046326771 4294053120
3.4786186 0.78242034 0.025392409 4294053120
3.4944506 0.78610921 0.004328954 4294053120
3.4422626 0.77451098 -0.016604351 4293922560
3.4647648 0.77969909 -0.037709519 4294053120
3.4807611 0.78342611 -0.058941156 4294053120
3.4840374 0.78429395 -0.080014937 4294053120
3.4562974 0.77818596 -0.10014694 4293922560
3.4844809 0.78465581 -0.12180081 4294053120
3.4928904 0.78667879 -0.14285463 4294053120
3.4912064 0.78643101 -0.16338591 4294053120
3.4604907 0.77964902 -0.18219605 4294053120
3.4709976 0.78214377 -0.20286672 4294053120
3.4672987 0.78144091 -0.22253098 4294053120
3.4692094 0.78200072 -0.24230789 4294053120
3.4737871 0.78316116 -0.26204833 4294053120
3.5062337 0.79059917 -0.28381473 4294183680
3.5055423 0.79057384 -0.30276713 4294183680
3.5011342 0.78971064 -0.32104385 4294183680
3.4407351 0.77622873 -0.33349785 4293922560
3.4948823 0.78856057 -0.35665479 4294183680
3.4954154 0.78880966 -0.37423012 4294183680
3.4912422 0.78799731 -0.39087361 4294183680
3.473475 0.78411877 -0.40546003 4294053120
3.3604338 0.75875002 -0.4078677 4293792000
3.5139141 0.793495 -0.44234103 4294314240
3.5094862 0.79262382 -0.45711714 4294314240
3.5022283 0.79111338 -0.47096536 4294183680
3.5089693 0.79276139 -0.48616654 4294314240
3.4934976 0.78939551 -0.49771202 4294183680
3.4710472 0.78445256 -0.50755858 4294183680
3.4772182 0.78597021 -0.52095562 4294183680
3.4762816 0.78588271 -0.53271741 4294183680
3.4676011 0.78404558 -0.54265684 4294183680
3.4650798 0.78359878 -0.55290687 4294183680
3.4642932 0.78354323 -0.56279314 4294183680
3.4592798 0.78253198 -0.57133347 4294183680
3.4392216 0.77811962 -0.57667059 4294053120
3.4249654 0.77501684 -0.58223456 4294053120
3.4163644 0.77319115 -0.58803838 4294053120
3.3774784 0.76451641 -0.58785862 4293922560
3.3957379 0.76876187 -0.59690166 4293922560
3.3387623 0.75599116 -0.59197551 4293792000
3.3380153 0.75593585 -0.59624416 4293792000
3.360435 0.76112151 -0.60398275 4293792000
3.3599072 0.76111543 -0.60692042 4293792000
3.286793 0.74468124 -0.59599155 4293530880
3.2769015 0.7425521 -0.59577686 4293530880
3.359025 0.76125258 -0.61161369 4293792000
3.358969 0.76135105 -0.61179948 4293792000
3.3311837 0.75516969 -0.60622752 4293792000
3.3313651 0.75531989 -0.60504311 4293792000
3.3877325 0.76819664 -0.61332566 4293922560
3.3991718 0.7708981 -0.61272055 4293922560
3.4072483 0.77283776 -0.61078042 4294053120
3.4196479 0.77575713 -0.6088832 4294053120
3.4449134 0.78159273 -0.60851997 4294053120
3.4557483 0.78415829 -0.60485005 4294183680
3.4585834 0.78491044 -0.59905803 4294183680
3.4649208 0.78645635 -0.59316301 4294183680
3.4600215 0.78545392 -0.58465904 4294183680
3.4717891 0.78823078 -0.5782811 4294183680
3.4662132 0.78707379 -0.56833702 4294183680
3.4566903 0.78502053 -0.55713594 4294183680
3.4371042 0.78068286 -0.54376131 4294053120
3.4655392 0.78724074 -0.53733206 4294183680
3.4810343 0.7908631 -0.52814466 4294183680
3.5002832 0.79533803 -0.51880914 4294314240
3.4844356 0.79184622 -0.50367612 4294183680
3.4598591 0.78637111 -0.48686597 4294053120
3.4431849 0.7826885 -0.47078121 4294053120
3.4629803 0.787287 -0.45913994 4294053120
3.4859655 0.79261076 -0.44722819 4294183680
3.4665661 0.78830725 -0.42936808 4294053120
3.445945 0.78372467 -0.41106033 4294053120
3.4675274 0.78873008 -0.39732519 4294053120
3.4882543 0.79354209 -0.38285235 4294183680
3.4917188 0.79443151 -0.36594662 4294183680
3.444067 0.78370148 -0.34350628 4294053120
3.4540055 0.78606105 -0.3266255 4294053120
3.4635839 0.78833902 -0.30925319 4294053120
3.4628613 0.78827488 -0.29057875 4294053120
3.4353557 0.78211921 -0.2694962 4293922560
3.4490244 0.78532714 -0.25142872 4294053120
3.4691463 0.79000366 -0.23337272 4294053120
3.4826202 0.7931686 -0.21442957 4294053120
3.4829204 0.79333657 -0.19436772 4294053120
3.45647 0.7874167 -0.17275789 4294053120
3.4794466 0.79274482 -0.15345657 4294053120
3.4854598 0.7942127 -0.13307428 4294053120
3.4486144 0.78592384 -0.11109866 4293922560
3.4853621 0.79438877 -0.09138108 4294053120
3.492054 0.79601169 -0.070519499 4294053120
3.4944336 0.79665279 -0.04944456 4294053120
3.4759183 0.79253477 -0.028122002 4294053120
3.499769 0.79806656 -0.0070864107 4294183680
3.5189805 0.80254275 0.014222891 4294183680
3.4882615 0.79564315 0.035243686 4294053120
3.5106988 0.80085534 0.056705061 4294183680
3.5284133 0.80499244 0.078267001 4294183680
3.5421629 0.80822682 0.099841312 4294314240
3.4902472 0.79649246 0.11922926 4294053120
3.5216126 0.80374312 0.14119849 4294183680
3.5454955 0.80928946 0.16303732 4294314240
3.5372477 0.80750978 0.18331203 4294314240
3.4754422 0.79351413 0.20020635 4294053120
3.5493438 0.81047153 0.22474957 4294314240
3.5409791 0.80866516 0.24421589 4294314240
3.5465326 0.8100341 0.26435319 4294314240
3.4751523 0.7938475 0.27810818 4294053120
3.5537591 0.8118881 0.30357513 4294314240
3.5631697 0.81413907 0.32327315 4294444800
3.5640657 0.8144471 0.34189293 4294444800
3.5157261 0.80351436 0.35517049 4294314240
3.3739767 0.77124953 0.35767093 4293792000
3.5562856 0.8129828 0.39426765 4294444800
3.5576949 0.81340933 0.41127667 4294444800
3.5445719 0.81051654 0.42608938 4294314240
3.49439 0.7991569 0.43568468 4294183680
3.3653333 0.76977253 0.43417791 4293792000
3.5548892 0.81319034 0.47347933 4294444800
3.5625687 0.81505197 0.48886117 4294444800
3.5582306 0.8141675 0.502051 4294444800
3.5332859 0.80857235 0.51165134 4294314240
3.5155745 0.80462998 0.52155548 4294314240
3.4523237 0.79027337 0.52383274 4294053120
3.5500321 0.81272513 0.5500074 4294444800
3.5462742 0.81197464 0.56013966 4294444800
3.5520439 0.81340408 0.57113153 4294444800
3.5472195 0.81241047 0.57976162 4294444800
3.526731 0.80783272 0.5850957 4294444800
3.5211365 0.80666286 0.59215361 4294314240
3.5212064 0.80678964 0.59945911 4294314240
3.5297544 0.80885774 0.60752159 4294444800
3.516443 0.80592233 0.61110669 4294314240
3.5155888 0.805839 0.61611444 4294314240
3.5038269 0.80325818 0.61847216 4294314240
3.4983983 0.80212778 0.62119907 4294314240
3.5026917 0.80322474 0.62491775 4294314240
3.507103 0.8043496 0.62792778 4294314240
3.5068338 0.80440271 0.62936306 4294314240
3.5018861 0.80338424 0.62921619 4294314240
3.5018618 0.80349451 0.62921029 4294314240
3.5264156 0.80923975 0.63287002 4294444800
3.5131946 0.80632621 0.62900978 4294314240
3.5162697 0.80714935 0.62732738 4294314240
3.5299063 0.81039542 0.62677526 4294444800
3.5338569 0.81142122 0.6237511 4294444800
3.5431874 0.81368208 0.62092626 4294444800
3.5362136 0.81220323 0.6145153 4294444800
3.5405135 0.81331152 0.60934371 4294444800
3.5438831 0.81420714 0.6032846 4294444800
3.5375617 0.81287897 0.59487778 4294444800
3.5387754 0.81328088 0.5870524 4294444800
3.5288262 0.81112015 0.57671374 4294444800
3.523453 0.81001008 0.56648964 4294314240
3.5403295 0.81401074 0.55914813 4294444800
3.5573997 0.81805766 0.55108953 4294444800
3.549156 0.81629008 0.53844988 4294444800
3.5473502 0.81600183 0.52619714 4294444800
3.5016243 0.80655485 0.42957869 4294183680
3.5289226 0.81296533 0.41692552 4294314240
3.5565214 0.8194474 0.40358385 4294444800
3.5207858 0.81135154 0.38264903 4294314240
3.4988532 0.80643153 0.36306119 4294183680
3.5270569 0.81305587 0.34822854 4294314240
3.5348566 0.81498313 0.3308109 4294314240
3.5127482 0.81002164 0.31030285 4294183680
3.4779356 0.80213171 0.28862908 4294053120
3.5185735 0.81162578 0.27285263 4294183680
3.5222259 0.81259906 0.2536661 4294314240
3.5246248 0.81328392 0.23407319 4294314240
3.4979203 0.8072595 0.21242757 4294183680
3.5186493 0.81217062 0.19345453 4294183680
3.5270143 0.81423205 0.17341945 4294314240
3.5229712 0.81343228 0.15255685 4294183680
3.4871426 0.80529952 0.13038515 4294053120
3.5020425 0.808869 0.11008313 4294183680
3.5106831 0.81099516 0.089320049 4294183680
3.496166 0.80777711 0.067903213 4294183680
3.4763315 0.80333042 0.046512049 4294053120
3.4951055 0.80779654 0.025585629 4294183680
3.4992907 0.80889511 0.0043813335 4294183680
3.4526699 0.79825985 -0.016636094 4293922560
3.4675426 0.801826 -0.037747905 4294053120
3.4925613 0.80773735 -0.059176955 4294183680
3.4845204 0.80601126 -0.080088571 4294053120
3.4692283 0.80260867 -0.10061151 4294053120
3.5026081 0.81045538 -0.12255261 4294183680
3.5057638 0.81131709 -0.14352627 4294183680
3.4870842 0.80713004 -0.16336353 4294053120
3.4650309 0.80216134 -0.18263139 4294053120
3.4852257 0.80696267 -0.2039225 4294053120
3.4972045 0.80986482 -0.22470209 4294183680
3.4689317 0.80345434 -0.24256319 4294053120
3.483325 0.8069151 -0.26306963 4294183680
3.4975042 0.81032711 -0.28343621 4294183680
3.5095241 0.81324011 -0.30346581 4294183680
3.4959121 0.81021941 -0.32094306 4294183680
3.3790317 0.78328437 -0.32790533 4293792000
3.4958675 0.81046879 -0.357182 4294183680
3.4998436 0.81151921 -0.37515503 4294183680
3.4964285 0.81085724 -0.39192778 4294183680
3.467947 0.80438656 -0.40530682 4294053120
3.3888052 0.78617316 -0.41181377 4293792000
3.5134923 0.81519759 -0.44283053 4294314240
3.5129864 0.81520861 -0.45813674 4294314240
3.5149417 0.81578988 -0.47325963 4294314240
3.5113039 0.81507385 -0.48709401 4294314240
3.489774 0.81020749 -0.4978011 4294183680
3.4776683 0.80752516 -0.50916266 4294183680
3.4624233 0.80411327 -0.51939005 4294183680
3.4567869 0.8029294 -0.53039712 4294183680
3.4292586 0.79666406 -0.5373348 4294053120
3.429383 0.7968148 -0.54790485 4294053120
3.4061186 0.79153544 -0.55404657 4293922560
3.371525 0.78362364 -0.55755138 4293792000
3.3497894 0.77869457 -0.56239498 4293792000
3.3155715 0.77086461 -0.56436306 4293661440
3.2727599 0.76103556 -0.56404829 4293530880
3.2851698 0.76403195 -0.57253212 4293530880
3.2297957 0.75127894 -0.56847101 4293400320
3.2385671 0.75342816 -0.57495868 4293400320
3.2560737 0.75760764 -0.58236736 4293530880
3.268883 0.76069593 -0.58829796 4293530880
3.2683685 0.76068693 -0.59116167 4293530880
3.2727623 0.76181865 -0.59422868 4293530880
3.2724743 0.76186138 -0.59575766 4293530880
3.2675073 0.7608152 -0.59574026 4293530880
3.2492309 0.75667214 -0.59260094 4293400320
3.2358651 0.75366986 -0.58966851 4293400320
3.2264497 0.7515853 -0.58677506 4293400320
3.2859142 0.76552933 -0.59569347 4293530880
3.268096 0.76148903 -0.58989042 4293530880
3.2455871 0.75635511 -0.58259195 4293400320
3.3122759 0.77198589 -0.59056854 4293661440
3.3471515 0.78021276 -0.59205931 4293792000
3.3896642 0.79021984 -0.59409726 4293922560
3.4155617 0.79635924 -0.5924207 4294053120
3.4271266 0.79916102 -0.58750403 4294053120
3.4450696 0.80344898 -0.58294046 4294183680
3.4531522 0.80544001 -0.57597893 4294183680
3.4631598 0.80787963 -0.56863183 4294183680
3.4540427 0.80586189 -0.55749297 4294183680
3.4472868 0.80439365 -0.54614395 4294053120
3.4584754 0.80710781 -0.53699994 4294183680
3.4875934 0.81400263 -0.52989703 4294183680
3.5023737 0.81755537 -0.51986635 4294314240
3.4870582 0.81408948 -0.50478542 4294183680
3.4650064 0.80905104 -0.48830131 4294183680
3.4576621 0.80744183 -0.47345492 4294053120
3.4759703 0.81181681 -0.46154407 4294183680
3.490334 0.81527203 -0.44845638 4294183680
3.4854887 0.81424487 -0.4323611 4294183680
3.4587505 0.80810732 -0.413214 4294053120
3.4807613 0.81334722 -0.39945272 4294183680
3.5110331 0.82051677 -0.38594919 4294314240
3.5001678 0.81808269 -0.36740655 4294183680
3.4559383 0.80785644 -0.34523681 4294053120
3.463625 0.80975229 -0.32806149 4294053120
3.4817896 0.81409562 -0.31138596 4294183680
3.4804311 0.81387913 -0.2925376 4294183680
3.456773 0.80845231 -0.27163476 4294053120
3.4835045 0.81479812 -0.254381 4294183680
3.48738 0.81580395 -0.23501404 4294183680
3.4997959 0.81880587 -0.21587867 4294183680
3.4942083 0.81760001 -0.1953634 4294183680
3.4790418 0.81415439 -0.17422536 4294053120
3.4915631 0.81718135 -0.15430535 4294183680
3.4941871 0.81789452 -0.1336959 4294183680
3.4566526 0.8092162 -0.11161676 4294053120
3.4799592 0.81476575 -0.091473073 4294053120
3.498898 0.81929493 -0.070866197 4294183680
3.5159554 0.82338494 -0.049931958 4294183680
3.4824336 0.81564152 -0.02832775 4294053120
3.5121698 0.82269895 -0.0072384509 4294183680
3.5253165 0.82587552 0.014149451 4294183680
3.5034697 0.82086217 0.035326298 4294183680
3.5223863 0.82538998 0.056850836 4294183680
3.5482657 0.83154899 0.078691974 4294314240
3.5551555 0.83326322 0.10022115 4294314240
3.5039897 0.8213827 0.11974023 4294183680
3.5353088 0.82881767 0.14181794 4294314240
3.5445645 0.83108658 0.16309458 4294314240
3.5518854 0.83290297 0.18419813 4294314240
3.4755764 0.81512624 0.20036778 4294053120
3.5360639 0.82939929 0.22409426 4294314240
3.5593939 0.83496827 0.24569818 4294444800
3.5436394 0.83137828 0.26437855 4294314240
3.4098775 0.80012614 0.2731488 4293922560
3.5625098 0.83600694 0.30461919 4294444800
3.5680223 0.83740276 0.32403809 4294444800
3.5640655 0.83657873 0.34224471 4294444800
3.5341983 0.82967824 0.35741004 4294314240
3.2934988 0.7733255 0.34952238 4293530880
3.5659676 0.83733779 0.39577097 4294444800
3.5576928 0.83550143 0.41173187 4294444800
3.5494192 0.83366531 0.42715093 4294444800
3.4872482 0.81918103 0.43529016 4294183680
3.3704133 0.79186398 0.43533409 4293792000
3.5597057 0.83639687 0.47467351 4294444800
3.5625441 0.83717006 0.48943454 4294444800
3.5630312 0.83739173 0.50332713 4294444800
3.5429347 0.83278048 0.5136652 4294444800
3.5045528 0.82387418 0.52055377 4294314240
3.4611039 0.8137759 0.52580822 4294183680
3.5634851 0.83793235 0.55277342 4294575360
3.5506513 0.83502686 0.56153077 4294444800
3.553057 0.835702 0.57201368 4294444800
3.5471902 0.83443373 0.58049285 4294444800
3.5536346 0.83605921 0.5903101 4294444800
3.5393894 0.83282214 0.59598845 4294444800
3.530807 0.83091611 0.60187352 4294444800
3.5308449 0.83103693 0.60850507 4294444800
3.525079 0.82979345 0.6134147 4294444800
3.5084169 0.82598752 0.61567593 4294314240
3.507674 0.82592565 0.61998004 4294314240
3.5166373 0.82814777 0.62527788 4294444800
3.5161247 0.82814145 0.6281653 4294444800
3.5291569 0.83132303 0.63273877 4294444800
3.51546 0.8282153 0.63178051 4294444800
3.515311 0.82829618 0.63250452 4294444800
3.5104907 0.82727802 0.63164294 4294314240
3.5311742 0.83226502 0.63461763 4294444800
3.5266001 0.83130616 0.63230598 4294444800
3.5392611 0.83440679 0.63233095 4294444800
3.5301335 0.83237648 0.62772095 4294444800
3.5256457 0.8314392 0.62320894 4294444800
3.5392995 0.83477676 0.62115586 4294444800
3.5495939 0.83732414 0.6177516 4294444800
3.5586903 0.83959049 0.61338389 4294575360
3.5572593 0.83937645 0.6064716 4294575360
3.5509508 0.83801287 0.59803456 4294444800
3.5521674 0.83842385 0.59017557 4294444800
3.542237 0.83620667 0.57979941 4294444800
3.5416846 0.83620119 0.57030815 4294444800
3.5431421 0.8366704 0.56047505 4294444800
3.5669396 0.8424111 0.55344725 4294575360
3.5490844 0.83832496 0.53930682 4294444800
3.5520983 0.83916342 0.52775955 4294444800
3.515228 0.8312853 0.43184814 4294314240
3.5473318 0.83899993 0.41968426 4294444800
3.556525 0.84130311 0.40414909 4294444800
3.5393474 0.83737451 0.38520348 4294314240
3.5134621 0.83138657 0.3650873 4294314240
3.5329144 0.83611608 0.34929669 4294314240
3.5448794 0.83907688 0.33221525 4294314240
3.5128193 0.83162677 0.31074718 4294183680
3.4977078 0.82818365 0.29067886 4294183680
3.5226047 0.83420473 0.27355257 4294314240
3.5358779 0.83747756 0.25501066 4294314240
3.5295396 0.83611047 0.23473418 4294314240
3.5016491 0.82964194 0.21295904 4294183680
3.5370967 0.83816534 0.194748 4294314240
3.5420516 0.839472 0.17441076 4294314240
3.5313692 0.83707625 0.15314405 4294314240
3.5060067 0.83120298 0.13128342 4294183680
3.5131497 0.83302778 0.11059771 4294183680
3.5166461 0.83398926 0.089609049 4294183680
3.4954076 0.82909006 0.067996725 4294183680
3.4891493 0.82773954 0.046761975 4294183680
3.4970658 0.82974833 0.025650401 4294183680
3.5162187 0.83442163 0.0044232523 4294183680
3.4755387 0.82490969 -0.016754905 4294053120
3.5065949 0.8324064 -0.038211558 4294183680
3.5034096 0.83178395 -0.059426676 4294183680
3.5002811 0.83117473 -0.080545753 4294183680
3.4980524 0.83077872 -0.10157163 4294183680
3.5211678 0.83639646 -0.12335528 4294183680
3.5330629 0.83935297 -0.14482674 4294314240
3.5007927 0.83182663 -0.16421463 4294183680
3.4933388 0.83018935 -0.18436033 4294183680
3.5037811 0.83280081 -0.20527323 4294183680
3.5157351 0.8357718 -0.22618623 4294183680
3.4874914 0.82919574 -0.24417917 4294183680
3.5105879 0.83481365 -0.26547599 4294183680
3.5305531 0.83968914 -0.28649059 4294314240
3.5376918 0.84151787 -0.30630445 4294314240
3.5240829 0.83841568 -0.32395646 4294314240
3.402503 0.80964649 -0.33061975 4293922560
3.5152082 0.83656853 -0.35963392 4294314240
3.5154965 0.83676767 -0.37733287 4294314240
3.5132141 0.83635521 -0.39433265 4294314240
3.4830143 0.82930183 -0.4076094 4294183680
3.3293958 0.79288518 -0.4051328 4293661440
3.5341051 0.84171438 -0.44602248 4294314240
3.5245004 0.83955824 -0.46025184 4294314240
3.5335548 0.84184206 -0.47640139 4294444800
3.5200684 0.83876044 -0.4889628 4294314240
3.4770746 0.82865238 -0.49665341 4294183680
3.4719779 0.82756454 -0.50901043 4294183680
3.424026 0.81626999 -0.51431888 4294053120
3.3808999 0.80612093 -0.51944965 4293922560
3.3339412 0.79505539 -0.52310145 4293661440
3.3000171 0.78709155 -0.52794582 4293661440
3.2674348 0.77944463 -0.53220385 4293530880
3.2045362 0.76456964 -0.53065103 4293269760
3.1874568 0.76061136 -0.53586322 4293269760
3.1590416 0.75394899 -0.53844523 4293139200
3.189611 0.76134795 -0.55045921 4293269760
3.1438189 0.75053889 -0.54863816 4293139200
3.1611328 0.75477701 -0.55713648 4293139200
3.1881194 0.76132309 -0.56676596 4293269760
3.1960289 0.76331931 -0.57239962 4293269760
3.106926 0.74216789 -0.55990791 4293008640
3.1150577 0.74421394 -0.56419486 4293008640
3.1194632 0.74537063 -0.56716174 4293008640
3.1105685 0.74335223 -0.56704998 4293008640
3.1142352 0.7443316 -0.56856477 4293008640
3.0911973 0.73893446 -0.56454283 4292878080
3.1758776 0.75925893 -0.57951933 4293269760
3.1626406 0.75620204 -0.57594812 4293139200
3.1447237 0.75202584 -0.57087004 4293139200
3.1898465 0.76290846 -0.57654524 4293269760
3.1539431 0.75443333 -0.5669077 4293139200
3.1171741 0.74574852 -0.55653679 4293008640
3.1508236 0.75389087 -0.55808812 4293139200
3.214936 0.76931655 -0.564237 4293400320
3.2392449 0.77523017 -0.56260043 4293400320
3.2737997 0.78359461 -0.56197953 4293530880
3.3170662 0.7940439 -0.56204039 4293661440
3.3552434 0.80327821 -0.56040442 4293792000
3.4200161 0.81887585 -0.56230587 4294053120
3.4506605 0.82631278 -0.55769825 4294183680
3.4611356 0.82892555 -0.54907703 4294183680
3.4717784 0.83157861 -0.53979194 4294183680
3.5038743 0.8393659 -0.53308785 4294314240
3.5180798 0.84287268 -0.52290088 4294314240
3.5121098 0.84155029 -0.50909626 4294314240
3.4872155 0.83569664 -0.49209234 4294183680
3.4760385 0.83312541 -0.47661132 4294183680
3.4943328 0.83761042 -0.4646059 4294183680
3.5164919 0.84302163 -0.45242417 4294314240
3.5076029 0.8409971 -0.43568829 4294314240
3.4783885 0.83410263 -0.41611743 4294183680
3.50351 0.84022403 -0.40260211 4294314240
3.5232887 0.84506637 -0.3878147 4294314240
3.5254235 0.84568125 -0.37055236 4294314240
3.4847634 0.8360393 -0.34858122 4294183680
3.4827311 0.83565372 -0.33031082 4294183680
3.5067129 0.8415041 -0.31403229 4294183680
3.5047526 0.8411358 -0.29497311 4294183680
3.4724946 0.83350211 -0.27323151 4294053120
3.4969335 0.83946311 -0.25569868 4294183680
3.5110781 0.84295636 -0.23692255 4294183680
3.5099719 0.84279191 -0.21678978 4294183680
3.515137 0.84413171 -0.1967898 4294183680
3.5033386 0.84140164 -0.17566952 4294183680
3.5068362 0.84234107 -0.1551792 4294183680
3.5128405 0.8438822 -0.13458025 4294183680
3.4858217 0.83749741 -0.11269977 4294183680
3.5040064 0.84196192 -0.09221781 4294183680
3.5141726 0.84450239 -0.071258873 4294183680
3.5231974 0.84676927 -0.050088495 4294314240
3.5091796 0.84350342 -0.028570473 4294183680
3.523242 0.84698045 -0.0072561097 4294314240
3.5364451 0.85025191 0.014228968 4294314240
3.5302217 0.84885758 0.035659451 4294314240
3.5424864 0.85190451 0.057268925 4294314240
3.5592813 0.85604078 0.079060696 4294314240
3.5645318 0.85740387 0.10063983 4294444800
3.526207 0.84829497 0.12068036 4294314240
3.5524757 0.85470951 0.14271843 4294314240
3.5528643 0.85490447 0.16371801 4294314240
3.550859 0.85452414 0.18441577 4294314240
3.4843612 0.83863693 0.20116717 4294183680
3.5532014 0.85529125 0.22550656 4294314240
3.5729871 0.86015195 0.24699281 4294444800
3.5688114 0.85925055 0.26663896 4294444800
3.4284239 0.82558227 0.27502838 4293922560
3.5721142 0.86025172 0.30587864 4294444800
3.5902863 0.86472803 0.32652569 4294575360
3.5835857 0.86322021 0.3446101 4294575360
3.5341442 0.85142547 0.35791564 4294314240
3.387933 0.81633538 0.36004713 4293792000
3.5793958 0.86252654 0.39782658 4294575360
3.5761647 0.86185426 0.41445741 4294575360
3.5676782 0.85991663 0.42995757 4294444800
3.5311277 0.85122037 0.44138935 4294314240
3.3792489 0.81474525 0.43709469 4293792000
3.5770237 0.86248696 0.47765839 4294575360
3.5759165 0.86232769 0.49196762 4294575360
3.5715771 0.86139011 0.50524932 4294575360
3.5563142 0.85782039 0.51633477 4294444800
3.5141273 0.84776145 0.52271485 4294314240
3.4745779 0.83833611 0.52860165 4294183680
3.5585439 0.85868412 0.55278975 4294575360
3.5691988 0.86136281 0.5652613 4294575360
3.5691745 0.8614676 0.5754202 4294575360
3.570111 0.8618046 0.58506817 4294575360
3.5583012 0.85906798 0.59192151 4294575360
3.5527055 0.85783011 0.59907585 4294575360
3.5297432 0.85240269 0.60254401 4294444800
3.5307379 0.85275483 0.60934788 4294444800
3.5431888 0.85587215 0.61743629 4294444800
3.5035462 0.8464182 0.61569202 4294314240
3.5257962 0.85190195 0.62406266 4294444800
3.5251639 0.85186356 0.62767988 4294444800
3.5246491 0.85185415 0.63057834 4294444800
3.5338306 0.85418671 0.63447291 4294444800
3.5239816 0.85192436 0.63420731 4294444800
3.5286188 0.8531611 0.63579607 4294444800
3.5238047 0.85211545 0.63493448 4294444800
3.520071 0.85133117 0.63351965 4294444800
3.5264859 0.85299951 0.63318115 4294444800
3.539129 0.85617411 0.63320321 4294444800
3.521394 0.85200739 0.62705541 4294444800
3.5437336 0.85752797 0.62729168 4294444800
3.5525815 0.85978866 0.62436914 4294575360
3.5638235 0.86262941 0.62110579 4294575360
3.562367 0.86240041 0.61488819 4294575360
3.5714872 0.86473024 0.60975963 4294575360
3.5642335 0.86310011 0.60112208 4294575360
3.5654542 0.86352038 0.59322274 4294575360
3.5469048 0.85915726 0.58138776 4294444800
3.5549984 0.86124146 0.57326406 4294575360
3.558394 0.86218971 0.56368637 4294575360
3.5754271 0.86644024 0.55555254 4294575360
3.5624092 0.86341625 0.54210073 4294575360
3.5649443 0.86415815 0.53042126 4294575360
3.5260181 0.85556072 0.43379298 4294314240
3.5520399 0.86199933 0.42084336 4294444800
3.5647972 0.86522406 0.40566981 4294444800
3.5478206 0.86123919 0.38667992 4294444800
3.5220971 0.85513186 0.36651063 4294314240
3.5396805 0.85952866 0.35046971 4294314240
3.5570614 0.86387795 0.33383739 4294444800
3.5311537 0.85772431 0.31281963 4294314240
3.5160725 0.85419661 0.29262748 4294314240
3.5308552 0.85791713 0.27459159 4294314240
3.5357878 0.85924762 0.25537655 4294314240
3.5386703 0.86008102 0.23568559 4294314240
3.5115621 0.8536315 0.21387549 4294183680
3.5480452 0.86262572 0.19563909 4294314240
3.5587363 0.86535734 0.17549212 4294444800
3.5365591 0.86010408 0.1535992 4294314240
3.5096486 0.85369909 0.1316192 4294183680
3.5262833 0.85787547 0.11118147 4294314240
3.5223742 0.85705936 0.089896113 4294314240
3.51917 0.8564145 0.068569094 4294183680
3.4975169 0.85128349 0.046954986 4294183680
3.5158622 0.85587817 0.025839096 4294183680
3.5219114 0.85748351 0.0044521918 4294314240
3.4795752 0.84731865 -0.016782366 4294053120
3.5023489 0.8529923 -0.038202696 4294183680
3.5034077 0.85338342 -0.05949406 4294183680
3.5151532 0.85637558 -0.080986142 4294183680
3.4984548 0.85244465 -0.10170987 4294183680
3.5216546 0.858226 -0.12352934 4294314240
3.5387537 0.8625235 -0.14524756 4294314240
3.5206444 0.85824764 -0.16536216 4294314240
3.4990866 0.8531304 -0.18490694 4294183680
3.5081637 0.85547435 -0.20580247 4294183680
3.5267632 0.86013889 -0.2271983 4294314240
3.5018783 0.85420817 -0.24551496 4294183680
3.5208607 0.85896683 -0.26661068 4294314240
3.549325 0.86603802 -0.28840232 4294444800
3.5443056 0.8649478 -0.30729181 4294314240
3.5360935 0.86307847 -0.32550097 4294314240
3.4016006 0.83041155 -0.33098063 4293922560
3.539643 0.86420894 -0.36262649 4294314240
3.5308242 0.86218959 -0.37949437 4294314240
3.5234492 0.86052155 -0.39602095 4294314240
3.5143311 0.85842729 -0.41183627 4294314240
3.3382299 0.81557804 -0.40676332 4293661440
3.5548673 0.86858177 -0.44925705 4294444800
3.5503955 0.86762083 -0.46426877 4294444800
3.5471063 0.86694795 -0.4788844 4294444800
3.5314076 0.86324388 -0.49121132 4294444800
3.4770026 0.85008448 -0.49732554 4294183680
3.2410254 0.79256624 -0.4758063 4293400320
3.1797969 0.77772439 -0.47829264 4293139200
3.1556592 0.77194089 -0.48551282 4293139200
3.1340668 0.76677728 -0.49242046 4293008640
3.1178908 0.76293558 -0.49949858 4293008640
3.0839021 0.75473779 -0.50300515 4292878080
3.0375047 0.74350327 -0.50368828 4292747520
3.0033453 0.73525763 -0.50561118 4292616960
3.0348129 0.7430591 -0.51798755 4292747520
2.9880748 0.73173326 -0.51639456 4292486400
3.0196893 0.73957139 -0.52770674 4292616960
3.0465868 0.74625713 -0.53769284 4292747520
2.9612305 0.72547537 -0.5271638 4292486400
2.9883168 0.73220617 -0.53594387 4292616960
3.0154898 0.73895961 -0.54418397 4292616960
3.0054481 0.73660398 -0.54509842 4292616960
2.9265699 0.71739322 -0.53283221 4292355840
3.0143757 0.73899329 -0.55027735 4292616960
3.0142159 0.73905522 -0.55106878 4292616960
2.9912117 0.73352116 -0.54704154 4292616960
2.9721394 0.72894824 -0.54309815 4292486400
3.0482004 0.74768192 -0.55587912 4292747520
3.0207336 0.74105161 -0.54912436 4292616960
2.9838002 0.732099 -0.54005551 4292486400
3.0251215 0.74232417 -0.54450887 4292747520
2.989337 0.73364991 -0.53445518 4292616960
3.0171678 0.74056947 -0.53515774 4292616960
3.0278139 0.7432766 -0.53213614 4292747520
3.0785792 0.75582242 -0.53543937 4292878080
3.0838866 0.75722182 -0.53011584 4292878080
3.1003964 0.76136899 -0.52605933 4292878080
3.1252306 0.76755887 -0.5227133 4293008640
3.1628959 0.77689809 -0.52075481 4293139200
3.251781 0.79880798 -0.52628523 4293400320
3.3593092 0.82529843 -0.5336619 4293792000
3.4766917 0.85421377 -0.54130369 4294183680
3.523994 0.86593229 -0.53689027 4294444800
3.5291421 0.86730385 -0.52527022 4294444800
3.5274327 0.86699134 -0.51202393 4294444800
3.501745 0.8607899 -0.49482512 4294314240
3.4890916 0.85778773 -0.47906148 4294314240
3.5097098 0.862957 -0.46729425 4294314240
3.5233655 0.86641663 -0.45393351 4294314240
