# .PCD v0.7 - Point Cloud Data file format
VERSION 0.7
FIELDS x y z rgba
SIZE 4 4 4 4
TYPE F F F U
COUNT 1 1 1 1
WIDTH 1104
HEIGHT 1
VIEWPOINT 0 0 0 1 0 0 0
POINTS 1104
DATA ascii
3.1434207 -1.3368331 -0.53233665 4293661440
3.1494048 -1.3392621 -0.54298842 4293661440
3.1401598 -1.3352159 -0.55038631 4293661440
3.1379564 -1.3341639 -0.55835569 4293661440
3.1314781 -1.3312947 -0.56490195 4293661440
3.133637 -1.3320971 -0.5723455 4293661440
3.1168399 -1.3248428 -0.57563841 4293661440
3.0954044 -1.3156185 -0.57733709 4293530880
3.0957224 -1.3156395 -0.58238655 4293530880
3.0674655 -1.3035191 -0.58134824 4293400320
3.0796337 -1.3085754 -0.58727133 4293530880
3.0928082 -1.3140584 -0.59273195 4293530880
3.0788972 -1.3080347 -0.59231669 4293530880
3.083221 -1.3097572 -0.59471285 4293530880
3.0831225 -1.3096011 -0.59556723 4293530880
3.0704465 -1.3041035 -0.59329933 4293400320
3.0936496 -1.3138424 -0.59726894 4293530880
3.110055 -1.320693 -0.59922194 4293530880
3.1173918 -1.3236923 -0.59872091 4293661440
3.1219289 -1.3255024 -0.59697872 4293661440
3.1278226 -1.3278879 -0.59479326 4293661440
3.1353052 -1.3309473 -0.59220463 4293661440
3.1358025 -1.3310412 -0.58760077 4293661440
3.1322756 -1.3294275 -0.58156884 4293661440
3.1259358 -1.3266202 -0.57436156 4293661440
3.1327724 -1.3294041 -0.56891054 4293661440
3.1392205 -1.3320225 -0.56270468 4293661440
3.1358969 -1.330495 -0.55409473 4293661440
3.1220603 -1.3245082 -0.54303932 4293661440
3.1047826 -1.3170629 -0.53085387 4293530880
3.1042933 -1.3167388 -0.5209859 4293530880
3.1200352 -1.3232979 -0.51319808 4293530880
3.1408651 -1.3320134 -0.505539 4293661440
3.1501029 -1.335812 -0.49533463 4293661440
3.1370907 -1.3301768 -0.48108962 4293661440
3.1120784 -1.3194554 -0.46461555 4293530880
3.0991337 -1.3138512 -0.44957849 4293530880
3.1165211 -1.3211039 -0.43841743 4293530880
3.1206198 -1.3227235 -0.42480376 4293530880
3.1145329 -1.3200263 -0.40934196 4293530880
3.0903616 -1.3096665 -0.39119601 4293400320
3.117857 -1.3211995 -0.37913916 4293530880
3.1258078 -1.3244501 -0.36411124 4293530880
3.1301153 -1.3261567 -0.34819689 4293530880
3.0874918 -1.3079838 -0.32688737 4293400320
3.0909171 -1.3093177 -0.31030822 4293400320
3.0976846 -1.3120669 -0.29367176 4293400320
3.1058381 -1.3154024 -0.27676541 4293400320
3.0794346 -1.3041048 -0.25658745 4293269760
3.0939109 -1.3101174 -0.23960938 4293400320
3.1106422 -1.3170834 -0.22236541 4293400320
3.1083722 -1.3160046 -0.20344011 4293400320
3.1257346 -1.3232359 -0.18549268 4293530880
3.0882962 -1.307272 -0.16422053 4293400320
3.1023047 -1.3130833 -0.14565758 4293400320
3.1069484 -1.3149307 -0.12638648 4293400320
3.0743945 -1.3010384 -0.10564614 4293269760
3.1064637 -1.3144898 -0.087023318 4293400320
3.1069238 -1.3145667 -0.067218922 4293400320
3.121387 -1.3205671 -0.047556262 4293400320
3.090822 -1.3075204 -0.027263131 4293400320
3.119313 -1.3194531 -0.007484192 4293400320
3.1302147 -1.3239452 0.012592998 4293530880
3.1242352 -1.3212979 0.032615438 4293400320
3.1249247 -1.321471 0.052631915 4293400320
3.1394117 -1.3274775 0.072913811 4293530880
3.1498013 -1.3317505 0.09317454 4293530880
3.1260793 -1.3216037 0.1122383 4293530880
3.1255577 -1.3212646 0.13185257 4293530880
3.14082 -1.3275967 0.15207438 4293530880
3.139852 -1.3270687 0.17143001 4293530880
3.1152596 -1.3165579 0.18914941 4293400320
3.131387 -1.3232542 0.20907275 4293530880
3.1545472 -1.3329204 0.22946702 4293530880
3.1541562 -1.332636 0.24802996 4293661440
3.1145794 -1.3157991 0.26300612 4293400320
3.1487489 -1.3301134 0.28387281 4293530880
3.1694334 -1.3387302 0.30351833 4293661440
3.1644766 -1.3365173 0.32045946 4293661440
3.148973 -1.3298513 0.3358629 4293661440
3.095787 -1.3072761 0.34651005 4293400320
3.1611481 -1.3347538 0.37007701 4293661440
3.156733 -1.3327708 0.38537952 4293661440
3.154072 -1.3315285 0.4004246 4293661440
3.1185665 -1.316424 0.41066897 4293530880
3.0849516 -1.3021201 0.42037341 4293400320
3.1537385 -1.3310316 0.44368917 4293661440
3.1643445 -1.3353884 0.45866984 4293661440
3.1594479 -1.3332034 0.47090533 4293661440
3.1560566 -1.3316542 0.48279113 4293661440
3.1450098 -1.3268757 0.49289659 4293661440
3.1116073 -1.3126684 0.49877256 4293530880
3.1478488 -1.3278373 0.51522881 4293661440
3.1565723 -1.3313985 0.52673858 4293661440
3.1509979 -1.3289297 0.53526413 4293661440
3.1445992 -1.3261137 0.54299235 4293661440
3.1448812 -1.3261153 0.5512231 4293661440
3.1415331 -1.3245863 0.5581671 4293661440
3.1479232 -1.3271627 0.56619287 4293661440
3.1343243 -1.3213134 0.5699501 4293661440
3.1380742 -1.3227772 0.57617027 4293661440
3.1332815 -1.3206406 0.5801456 4293661440
3.1247661 -1.3169357 0.58273107 4293661440
3.1160982 -1.3131672 0.58458096 4293530880
3.1202481 -1.3148001 0.58813858 4293661440
3.1199639 -1.3145646 0.5901711 4293661440
3.1279578 -1.3178164 0.59307522 4293661440
3.1151803 -1.3123186 0.59134507 4293530880
3.1152215 -1.3122206 0.59134531 4293530880
3.1269169 -1.3170309 0.59285533 4293661440
3.1444275 -1.3242892 0.59475678 4293661440
3.1270964 -1.3168756 0.58937567 4293661440
3.1275566 -1.316954 0.58666128 4293661440
3.1467605 -1.3249234 0.58674681 4293661440
3.1500912 -1.3262097 0.58315855 4293661440
3.1449151 -1.3239151 0.57731467 4293661440
3.1557217 -1.3283477 0.57371318 4293792000
3.1508555 -1.3261839 0.56658238 4293661440
3.1472557 -1.3245535 0.55903316 4293661440
3.135772 -1.3196061 0.54946661 4293661440
3.1335328 -1.3185492 0.54091066 4293661440
3.1307764 -1.3172748 0.53164899 4293661440
3.1409295 -1.3214313 0.52393687 4293661440
3.1564345 -1.3278382 0.51642895 4293661440
3.1512341 -1.3255357 0.50490659 4293661440
3.1329806 -1.317744 0.49079442 4293661440
3.1151979 -1.3094133 0.40332958 4293530880
3.1480615 -1.3231108 0.39248532 4293661440
3.1603696 -1.3281683 0.37841865 4293661440
3.1172593 -1.3099401 0.35745376 4293530880
3.108695 -1.3062288 0.34030652 4293400320
3.1324127 -1.3160797 0.32622519 4293530880
3.1394653 -1.3189287 0.30987984 4293530880
3.0999455 -1.3022157 0.28877679 4293400320
3.1016574 -1.3028224 0.27139688 4293400320
3.1196864 -1.3102814 0.25502673 4293400320
3.1279759 -1.3136493 0.23742503 4293530880
3.1154754 -1.3082875 0.21800858 4293400320
3.0973573 -1.300568 0.19813965 4293400320
3.1312857 -1.3146993 0.18127716 4293530880
3.1276135 -1.3130447 0.16185588 4293530880
3.1267674 -1.3125764 0.14242779 4293530880
3.1063571 -1.3038973 0.12208374 4293400320
3.1077197 -1.3043568 0.10257546 4293400320
3.1142521 -1.3069856 0.083071679 4293400320
3.1195254 -1.3090858 0.063364916 4293400320
3.0912287 -1.2971011 0.04305255 4293269760
3.0984969 -1.3000387 0.023315692 4293400320
3.1020889 -1.3014334 0.0034518561 4293400320
3.0781195 -1.2912676 -0.016318794 4293269760
3.0938966 -1.2977736 -0.036237381 4293400320
3.1112037 -1.3049198 -0.05635161 4293400320
3.1208587 -1.3088562 -0.076443255 4293400320
3.0921609 -1.2967105 -0.095395133 4293269760
3.1155066 -1.3063868 -0.11582235 4293400320
3.1335843 -1.3138529 -0.13619439 4293530880
3.1358964 -1.3147088 -0.15586613 4293530880
3.0924172 -1.2963709 -0.17284155 4293400320
3.1170113 -1.3065671 -0.19332337 4293400320
3.1237416 -1.3092748 -0.21268292 4293400320
3.1216862 -1.3083005 -0.23124582 4293400320
3.1127956 -1.3044623 -0.24899 4293400320
3.1345983 -1.3134844 -0.26899728 4293530880
3.1565464 -1.3225658 -0.28897998 4293661440
3.153301 -1.321092 -0.3064509 4293530880
3.1103024 -1.3029672 -0.31946948 4293400320
3.135093 -1.3132374 -0.33900085 4293530880
3.14184 -1.3159493 -0.35638076 4293530880
3.1432414 -1.3164222 -0.37280688 4293530880
3.1307695 -1.3110859 -0.38712206 4293530880
3.0875199 -1.2928643 -0.39692947 4293400320
3.1620796 -1.3239665 -0.42158648 4293661440
3.1696115 -1.3270046 -0.43722907 4293661440
3.1638792 -1.3244898 -0.45056432 4293661440
3.1729391 -1.3281666 -0.46551621 4293661440
3.1560225 -1.3209715 -0.47610456 4293661440
3.1364815 -1.3126793 -0.48561439 4293661440
3.1373799 -1.3129408 -0.49766704 4293661440
3.1486764 -1.3175528 -0.51085073 4293661440
3.1448302 -1.3158289 -0.52102637 4293661440
3.1466496 -1.316475 -0.53154105 4293661440
3.1444492 -1.3154397 -0.54077035 4293661440
3.1433828 -1.3148787 -0.5495671 4293661440
3.149369 -1.3172672 -0.55898041 4293661440
3.1346812 -1.3110098 -0.56406319 4293661440
3.1413953 -1.3137023 -0.57232714 4293661440
3.1154602 -1.3027436 -0.57394648 4293530880
3.1112502 -1.3008692 -0.5788449 4293530880
3.103384 -1.2974668 -0.58237386 4293530880
3.0750566 -1.285512 -0.58133763 4293400320
3.0827098 -1.2885976 -0.58639854 4293400320
3.0868304 -1.2902062 -0.59012026 4293530880
3.0819705 -1.2880616 -0.59144086 4293400320
3.0817618 -1.2878609 -0.59296322 4293400320
3.0862048 -1.2896034 -0.59469259 4293530880
3.0862148 -1.2894937 -0.59487802 4293530880
3.0967555 -1.2937828 -0.59639978 4293530880
3.1086571 -1.2986397 -0.59748417 4293530880
3.1387267 -1.3110834 -0.6013428 4293661440
3.1250999 -1.3052764 -0.59612578 4293661440
3.1400957 -1.3114226 -0.59567183 4293661440
3.1348686 -1.3091235 -0.59068263 4293661440
3.1390014 -1.3107326 -0.5867734 4293661440
3.1445596 -1.3129365 -0.58243656 4293661440
3.1372945 -1.3097869 -0.57505703 4293661440
3.1405075 -1.3110113 -0.56894213 4293661440
3.1515226 -1.3154918 -0.56355345 4293661440
3.1390827 -1.3101829 -0.55332989 4293661440
3.1297653 -1.306178 -0.54308015 4293661440
3.1078856 -1.2969319 -0.53012025 4293530880
3.116513 -1.3004154 -0.52179641 4293530880
3.118607 -1.3011726 -0.51175129 4293530880
3.1403959 -1.310145 -0.50427371 4293661440
3.1419754 -1.3106865 -0.49289849 4293661440
3.1411712 -1.3102336 -0.48059079 4293661440
3.1106081 -1.2973704 -0.46331686 4293530880
3.1022003 -1.2937479 -0.44898257 4293400320
3.1242037 -1.3028061 -0.43848705 4293530880
3.1283116 -1.3044016 -0.42487663 4293530880
3.108464 -1.2960104 -0.40761542 4293400320
3.0979774 -1.2915225 -0.39127433 4293400320
3.1071937 -1.2952476 -0.37699521 4293400320
3.1289206 -1.3041859 -0.36366314 4293530880
3.122813 -1.3015232 -0.34661862 4293530880
3.0813169 -1.2841148 -0.32552138 4293269760
3.0893393 -1.2873416 -0.30948022 4293400320
3.1084442 -1.2951849 -0.29406381 4293400320
3.1134877 -1.2971689 -0.27686423 4293400320
3.0741332 -1.280659 -0.25561625 4293269760
3.0981247 -1.2905358 -0.23944964 4293400320
3.1054063 -1.2934517 -0.22155155 4293400320
3.1206338 -1.2996759 -0.20385009 4293400320
3.1196043 -1.2991297 -0.18478489 4293400320
3.0912902 -1.2872236 -0.16408814 4293269760
3.0991986 -1.2903996 -0.14526856 4293400320
3.1182885 -1.2982295 -0.1266537 4293400320
3.0727365 -1.2791514 -0.10544677 4293269760
3.101191 -1.2908784 -0.086781733 4293400320
3.1099577 -1.29441 -0.067241125 4293400320
3.1207633 -1.2987893 -0.047553431 4293400320
3.0980523 -1.2892219 -0.027384089 4293400320
3.1177597 -1.2973044 -0.0075877747 4293400320
3.1237934 -1.299697 0.012409707 4293400320
3.1207666 -1.2983203 0.032371707 4293400320
3.1372337 -1.3050519 0.052579425 4293530880
3.1439989 -1.3077472 0.0727107 4293530880
3.1603277 -1.3144194 0.093124457 4293530880
3.1245465 -1.2994218 0.1117781 4293400320
3.1378655 -1.3048419 0.1319152 4293530880
3.1371589 -1.3044301 0.1513941 4293530880
3.1513426 -1.3102083 0.17150313 4293530880
3.1137087 -1.2944463 0.18846245 4293400320
3.1344872 -1.3029654 0.20863657 4293530880
3.1530988 -1.3105825 0.22866964 4293530880
3.1527102 -1.3103024 0.24717963 4293530880
3.122246 -1.2975254 0.26287964 4293400320
3.1611009 -1.3135517 0.28415939 4293661440
3.1701975 -1.3172122 0.30272123 4293661440
3.1722651 -1.317952 0.32033533 4293661440
3.1530466 -1.3098502 0.33535066 4293530880
3.1034057 -1.2891144 0.34639239 4293400320
3.1643362 -1.3143022 0.3694236 4293661440
3.1553233 -1.3104409 0.38414785 4293661440
3.1535769 -1.3095976 0.39926755 4293661440
3.1262393 -1.2981294 0.41056007 4293530880
3.1062872 -1.2897294 0.42213473 4293400320
3.1557248 -1.3101352 0.44277593 4293661440
3.1785393 -1.3194871 0.45949456 4293792000
3.162643 -1.3127708 0.47012812 4293661440
3.1638179 -1.3131403 0.48269704 4293661440
3.1481719 -1.3065299 0.49209273 4293661440
3.1146886 -1.2925195 0.49795756 4293530880
3.1510201 -1.3074768 0.51440179 4293661440
3.1634891 -1.3125323 0.52652043 4293661440
3.1543787 -1.3086355 0.53445184 4293661440
3.1523259 -1.3076667 0.54292327 4293661440
3.1444004 -1.3042625 0.54972506 4293661440
3.1401336 -1.3023764 0.55649328 4293661440
3.1419842 -1.3030273 0.56368768 4293661440
3.1374652 -1.3010371 0.56907499 4293661440
3.1416731 -1.3026654 0.57537466 4293661440
3.1364191 -1.3003711 0.57926625 4293661440
3.1494753 -1.305667 0.58586466 4293661440
3.1146405 -1.2911123 0.58285075 4293530880
3.1188002 -1.2927213 0.58640605 4293530880
3.1312561 -1.297768 0.59084052 4293661440
3.1228867 -1.2941846 0.59065628 4293530880
3.1310077 -1.2974341 0.59288937 4293661440
3.1435304 -1.302507 0.59525734 4293661440
3.1345794 -1.2986833 0.59286189 4293661440
3.1389401 -1.3003744 0.59228247 4293661440
3.1302044 -1.296641 0.58853936 4293661440
3.1352158 -1.2986015 0.58668619 4293661440
3.1499119 -1.3045723 0.5859319 4293661440
3.1441405 -1.302067 0.58067518 4293661440
3.1446502 -1.302163 0.57590169 4293661440
3.1461291 -1.3026602 0.57062584 4293661440
3.145802 -1.3024098 0.5643515 4293661440
3.1412756 -1.3004212 0.55667418 4293661440
3.1352308 -1.2978046 0.54810154 4293661440
3.1320689 -1.2963817 0.53941554 4293530880
3.1338651 -1.2970108 0.53095764 4293661440
3.1481483 -1.3028067 0.52394855 4293661440
3.1633136 -1.3089668 0.5163874 4293661440
3.1495168 -1.3031436 0.50350302 4293661440
3.1406343 -1.2993548 0.49090049 4293661440
3.1226907 -1.2914408 0.40332729 4293530880
3.1464522 -1.3011526 0.39134067 4293530880
3.159703 -1.3065172 0.37742648 4293661440
3.1317308 -1.2948389 0.35824338 4293530880
3.1124926 -1.2867731 0.33989602 4293400320
3.1307452 -1.2942052 0.32525921 4293530880
3.1470139 -1.3008158 0.30986646 4293530880
3.1120026 -1.2862333 0.2891888 4293400320
3.0962169 -1.2795979 0.27025512 4293400320
3.1188912 -1.2888551 0.25433147 4293400320
3.1133673 -1.2864603 0.23572986 4293400320
3.1321869 -1.2941227 0.21862718 4293530880
3.1131053 -1.2861274 0.1986423 4293400320
3.1258893 -1.2912956 0.18050319 4293400320
3.135129 -1.2949991 0.16182451 4293530880
3.1342802 -1.2945355 0.14239407 4293530880
3.0916514 -1.2768196 0.12118085 4293269760
3.1146343 -1.2861979 0.10251914 4293400320
3.1154521 -1.2864233 0.082864486 4293400320
3.1177762 -1.2872707 0.063135445 4293400320
3.1032739 -1.2811719 0.04307146 4293400320
3.1167054 -1.2866042 0.023348382 4293400320
3.1169353 -1.2865868 0.0034099815 4293400320
3.0725682 -1.2681649 -0.016300537 4293269760
3.0945292 -1.2771164 -0.036211025 4293269760
3.1162269 -1.2859578 -0.056363136 4293400320
3.1144857 -1.2851273 -0.076161519 4293400320
3.099581 -1.2788663 -0.095454454 4293269760
3.1322205 -1.2922187 -0.11622716 4293400320
3.1318645 -1.291959 -0.1358569 4293400320
3.1388009 -1.2947069 -0.15570211 4293530880
3.0952177 -1.2766201 -0.17264965 4293269760
3.1152563 -1.2847718 -0.19281945 4293400320
3.1300306 -1.2907515 -0.21267034 4293400320
3.1291699 -1.2902837 -0.23131591 4293400320
3.1110368 -1.2826954 -0.24832468 4293400320
3.1404901 -1.2947243 -0.26893064 4293530880
3.1502917 -1.2986511 -0.28779072 4293530880
3.1479642 -1.2975782 -0.30527434 4293530880
3.1085496 -1.2812213 -0.31859922 4293400320
3.1426029 -1.2951416 -0.33907491 4293530880
3.1493649 -1.2978142 -0.35645506 4293530880
3.1470923 -1.296764 -0.37244597 4293530880
3.1208119 -1.2858236 -0.3850421 4293530880
3.0857306 -1.2712595 -0.39582378 4293400320
3.1696496 -1.3057137 -0.42165974 4293661440
3.1655962 -1.3039294 -0.43570474 4293661440
3.168061 -1.3048298 -0.45015398 4293661440
3.1713696 -1.3060774 -0.46424538 4293661440
3.1681545 -1.3046385 -0.47686249 4293661440
3.1410546 -1.2933662 -0.48522815 4293530880
3.1448865 -1.2948297 -0.49773198 4293661440
3.1562097 -1.2993765 -0.51091391 4293661440
3.1539962 -1.2983507 -0.52135885 4293661440
3.154177 -1.2983103 -0.53159976 4293661440
3.1519711 -1.2972877 -0.54082644 4293661440
3.1472497 -1.2952302 -0.54898351 4293661440
3.1486881 -1.2957073 -0.5575766 4293661440
3.1334155 -1.289309 -0.56253731 4293661440
3.1279461 -1.2869446 -0.56856126 4293530880
3.1274698 -1.2866346 -0.57482433 4293530880
3.1059301 -1.2776606 -0.57651299 4293530880
3.1016932 -1.2758046 -0.58070052 4293530880
3.0906105 -1.2711335 -0.58291221 4293400320
3.0946372 -1.272676 -0.58728695 4293530880
3.0896585 -1.2705157 -0.58927172 4293400320
3.0984488 -1.2740163 -0.59319955 4293530880
3.0936856 -1.2719445 -0.59384793 4293530880
3.080837 -1.2665495 -0.5922482 4293400320
3.0808473 -1.2664404 -0.59242797 4293400320
3.1087158 -1.2777805 -0.59727049 4293530880
3.0952861 -1.2721474 -0.59348607 4293530880
3.1198199 -1.2821145 -0.59628028 4293530880
3.1280203 -1.2853688 -0.59523892 4293661440
3.1293843 -1.2858139 -0.5921979 4293661440
3.1378109 -1.28916 -0.58979446 4293661440
3.1510682 -1.2944897 -0.58758545 4293661440
3.1429641 -1.2910448 -0.58070832 4293661440
3.1411517 -1.2901843 -0.57434022 4293661440
3.1480205 -1.2928888 -0.5688861 4293661440
3.1475215 -1.2925674 -0.56143266 4293661440
3.138375 -1.2886955 -0.5518167 4293661440
3.1372533 -1.2881186 -0.54300553 4293661440
3.1153212 -1.2789991 -0.53003979 4293530880
3.1102552 -1.2768041 -0.51941931 4293530880
3.1182115 -1.2799541 -0.51037198 4293530880
3.1409087 -1.289153 -0.503052 4293530880
3.1449142 -1.2906798 -0.49207509 4293661440
3.1325223 -1.2854784 -0.47801083 4293530880
3.1052177 -1.2741593 -0.46129188 4293400320
3.1050358 -1.2739691 -0.44819582 4293400320
3.117914 -1.2791359 -0.43642846 4293530880
3.1389182 -1.2876351 -0.42516115 4293530880
3.1059813 -1.2740097 -0.40617454 4293400320
3.0997579 -1.2713417 -0.39041582 4293400320
3.1175687 -1.2785295 -0.37719542 4293400320
3.1265037 -1.2820766 -0.36235267 4293530880
3.139483 -1.2872812 -0.34746858 4293530880
3.0803943 -1.2629408 -0.32447591 4293269760
3.1000299 -1.2708745 -0.30963221 4293400320
3.1029673 -1.2719625 -0.2926614 4293400320
3.1058481 -1.2730272 -0.2753365 4293400320
3.0768638 -1.2610334 -0.25504035 4293269760
3.108938 -1.2740611 -0.23951277 4293400320
3.1111977 -1.2748705 -0.22123072 4293400320
3.1166716 -1.2769967 -0.20289573 4293400320
3.1141148 -1.2758327 -0.18380544 4293400320
3.0894244 -1.2656027 -0.16338122 4293269760
3.1044195 -1.2716286 -0.14494461 4293400320
3.1127796 -1.2749362 -0.12590183 4293400320
3.0846884 -1.2633164 -0.10537709 4293269760
3.1085842 -1.2729852 -0.086548373 4293400320
3.1136689 -1.2749506 -0.066924214 4293400320
3.1231086 -1.2786984 -0.047235284 4293400320
3.100805 -1.2694516 -0.027101668 4293269760
3.128334 -1.2806033 -0.0073498129 4293400320
3.1349323 -1.2831867 0.012672513 4293400320
3.1281943 -1.2803119 0.032621317 4293400320
3.131743 -1.2816468 0.052615106 4293400320
3.1546266 -1.2908926 0.073037468 4293530880
3.1641421 -1.2946675 0.093271926 4293530880
3.1495366 -1.2885742 0.11265874 4293530880
3.1231265 -1.2776535 0.13123955 4293400320
3.1584828 -1.2919976 0.15231676 4293530880
3.1551304 -1.2905084 0.17155811 4293530880
3.1118615 -1.2726964 0.18815641 4293400320
3.1419287 -1.2848743 0.20888898 4293530880
3.1630294 -1.2933841 0.22909904 4293530880
3.1601911 -1.2921056 0.24743016 4293530880
3.1167328 -1.2742225 0.26204073 4293400320
3.1639855 -1.2934206 0.28399235 4293530880
3.1755471 -1.2980278 0.30275905 4293661440
3.1668818 -1.294368 0.31927702 4293661440
3.1559136 -1.2897679 0.33509812 4293530880
3.1015518 -1.2674381 0.34559587 4293400320
3.1672316 -1.2941567 0.3691164 4293661440
3.1661 -1.2935764 0.38477194 4293661440
3.1559346 -1.289306 0.39884022 4293530880
3.1336293 -1.2800781 0.41076908 4293530880
3.1136429 -1.2717988 0.42233855 4293400320
3.1631968 -1.2919196 0.44297689 4293661440
3.1640408 -1.2921468 0.45651579 4293661440
3.165544 -1.2926431 0.46963653 4293661440
3.1667235 -1.293007 0.48218083 4293661440
3.1556242 -1.2883586 0.49226552 4293661440
3.1174819 -1.2726723 0.49739084 4293530880
3.1539011 -1.2874213 0.51381379 4293661440
3.1581657 -1.289045 0.5245437 4293661440
3.1664193 -1.2922963 0.53536469 4293661440
3.155216 -1.2876078 0.54226935 4293661440
3.1427035 -1.2823859 0.54825336 4293661440
3.147568 -1.2842544 0.55660522 4293661440
3.1494236 -1.2848953 0.56378984 4293661440
3.1448944 -1.2829318 0.56916696 4293661440
3.1486628 -1.2843528 0.57537431 4293661440
3.1356323 -1.2789228 0.57782489 4293661440
3.1386833 -1.2800515 0.58254057 4293661440
3.1220193 -1.2731414 0.58289993 4293530880
3.1261899 -1.2747271 0.5864442 4293530880
3.1259048 -1.274496 0.58846515 4293530880
3.1257274 -1.274309 0.58981168 4293530880
3.121098 -1.2723074 0.5896216 4293530880
3.1418614 -1.2806555 0.59352744 4293661440
3.1338022 -1.2772561 0.59129393 4293661440
3.1509464 -1.2841275 0.59310824 4293661440
3.145828 -1.2819269 0.59003139 4293661440
3.1480374 -1.282712 0.58763349 4293661440
3.1482592 -1.2826874 0.58417022 4293661440
3.1543531 -1.2850548 0.58109963 4293661440
3.1521149 -1.2840283 0.57580727 4293661440
3.1490314 -1.2826575 0.56969321 4293661440
3.1532717 -1.2842697 0.56423181 4293661440
3.1533058 -1.2841688 0.55734915 4293661440
3.1426773 -1.2797266 0.54795712 4293661440
3.1269035 -1.2731906 0.53709549 4293530880
3.1413102 -1.2789419 0.5307883 4293661440
3.155628 -1.2846559 0.52376592 4293661440
3.17083 -1.2907289 0.51619142 4293661440
3.1570008 -1.2849858 0.5032956 4293661440
3.1426768 -1.2790424 0.48983729 4293530880
3.1127293 -1.2660093 0.40107551 4293400320
3.1494219 -1.2808176 0.39076892 4293530880
3.1580977 -1.2842317 0.37632987 4293530880
3.1359584 -1.2751168 0.35786682 4293530880
3.1199801 -1.2685081 0.33989736 4293400320
3.1474974 -1.2795813 0.32621622 4293530880
3.1453571 -1.278598 0.30896458 4293530880
3.1148717 -1.2660949 0.28876585 4293400320
3.1036627 -1.2614276 0.27026051 4293400320
3.1288385 -1.2715461 0.2545369 4293400320
3.130095 -1.2719442 0.23643467 4293400320
3.125849 -1.2701067 0.21767169 4293400320
3.1112256 -1.2640537 0.19805709 4293400320
3.1365519 -1.2742295 0.18069544 4293400320
3.1343355 -1.2732166 0.16140871 4293400320
3.1376488 -1.2744497 0.14221923 4293400320
3.1120443 -1.263939 0.12170122 4293400320
3.1174884 -1.2660379 0.10238326 4293400320
3.1275694 -1.2700192 0.083004035 4293400320
3.1169298 -1.2655873 0.062985756 4293400320
3.0909441 -1.2549264 0.042818028 4293269760
3.115854 -1.2649269 0.023306997 4293400320
3.1299791 -1.2705482 0.0034372376 4293400320
3.0836551 -1.2516354 -0.016298089 4293269760
3.1019621 -1.2589539 -0.036187559 4293269760
3.1178231 -1.2652786 -0.056231964 4293400320
3.1219656 -1.2668475 -0.076135918 4293400320
3.1053603 -1.2599986 -0.095376842 4293269760
3.1334829 -1.2712954 -0.11596764 4293400320
3.1356812 -1.2720747 -0.13566807 4293400320
3.1333776 -1.2710278 -0.1550311 4293400320
3.1004694 -1.257569 -0.1724987 4293269760
3.1273615 -1.268363 -0.19307473 4293400320
3.1375451 -1.27238 -0.21263911 4293400320
3.1283605 -1.2685434 -0.23067035 4293400320
3.1231258 -1.2663087 -0.24866065 4293400320
3.1434088 -1.2744187 -0.26850316 4293530880
3.1556776 -1.2792788 -0.28755921 4293530880
3.1462889 -1.2753599 -0.30434778 4293530880
3.1252363 -1.2667147 -0.31950936 4293400320
3.1348388 -1.2704934 -0.33739367 4293530880
3.1486263 -1.2759672 -0.35548449 4293530880
3.1546438 -1.2782918 -0.3724122 4293530880
3.1375084 -1.2712362 -0.38614213 4293530880
3.0931337 -1.2531472 -0.39579102 4293400320
3.1643748 -1.2818922 -0.41991737 4293661440
3.1664314 -1.282611 -0.43474397 4293661440
3.1719842 -1.2847456 -0.44960058 4293661440
3.17117 -1.2843013 -0.4630737 4293661440
3.1537192 -1.2771207 -0.47352335 4293661440
3.148587 -1.2749288 -0.48519811 4293530880
3.1652677 -1.2815678 -0.49972981 4293661440
3.1567693 -1.2780131 -0.50975406 4293661440
3.1523948 -1.2761282 -0.51982081 4293661440
3.1497517 -1.2749442 -0.52955866 4293661440
3.1512148 -1.2754222 -0.53937924 4293661440
3.1543896 -1.2765926 -0.54889005 4293661440
3.1516597 -1.2753735 -0.55674672 4293661440
3.1409237 -1.2709154 -0.56251705 4293661440
3.1354403 -1.2685829 -0.56854266 4293530880
3.1303926 -1.266427 -0.57396978 4293530880
3.1133697 -1.2594279 -0.57649809 4293530880
3.1136892 -1.2594438 -0.58154047 4293530880
3.0897923 -1.2496663 -0.58135492 4293400320
3.0892632 -1.2493398 -0.58485818 4293400320
3.0934036 -1.2509011 -0.58857024 4293400320
3.0397913 -1.2291131 -0.58057725 4293269760
3.0441487 -1.2307637 -0.58294332 4293269760
3.0882099 -1.2484628 -0.59224838 4293400320
3.0882189 -1.2483536 -0.59243059 4293400320
3.1024601 -1.2539961 -0.59465158 4293530880
3.1153302 -1.2590834 -0.59591132 4293530880
3.1111057 -1.2572622 -0.593207 4293530880
3.1318476 -1.2655287 -0.59455895 4293530880
3.1505661 -1.2729762 -0.59480006 4293661440
3.1453121 -1.270738 -0.58981353 4293661440
3.1412389 -1.2689773 -0.5843783 4293661440
3.1413355 -1.2689008 -0.57904887 4293661440
3.1395147 -1.26805 -0.5727008 4293661440
3.1475861 -1.2711937 -0.56748325 4293661440
3.1330829 -1.2652217 -0.55755997 4293530880
3.1412947 -1.2684218 -0.55105138 4293530880
3.1310108 -1.2641543 -0.54067463 4293530880
3.1107719 -1.2558689 -0.52804852 4293530880
3.1176808 -1.2585428 -0.51946586 4293530880
3.1335301 -1.2648245 -0.51170772 4293530880
3.1438186 -1.2688607 -0.50237256 4293530880
3.1432414 -1.2685117 -0.49069914 4293530880
3.1354055 -1.2652338 -0.47737157 4293530880
3.1080327 -1.2540742 -0.46067342 4293400320
3.1032507 -1.2520301 -0.44693753 4293400320
3.1277876 -1.2618127 -0.43683776 4293530880
3.1372023 -1.2654942 -0.42399013 4293530880
3.1133883 -1.2557737 -0.40624949 4293400320
3.0942526 -1.2479416 -0.38887283 4293400320
3.1167068 -1.2568809 -0.37627524 4293400320
3.1293466 -1.2618616 -0.36190397 4293400320
3.1423538 -1.2669892 -0.34704694 4293530880
3.0831215 -1.2429951 -0.32407978 4293269760
3.0991068 -1.2493241 -0.30889606 4293400320
3.1057427 -1.2518834 -0.29232174 4293400320
3.1261914 -1.2600089 -0.2765798 4293400320
3.08882 -1.2448334 -0.2555227 4293269760
3.1017313 -1.2499208 -0.23849188 4293269760
3.1139834 -1.2547418 -0.2210079 4293400320
3.1133163 -1.2543572 -0.2023031 4293400320
3.1261654 -1.2594173 -0.18418892 4293400320
3.0930791 -1.2459745 -0.16329713 4293269760
3.1118157 -1.2534055 -0.14505889 4293400320
3.1155608 -1.2547978 -0.12583095 4293400320
3.0744214 -1.2381164 -0.10489246 4293139200
3.1045368 -1.2501274 -0.086349063 4293269760
3.1189063 -1.255797 -0.066998862 4293400320
3.1263757 -1.2586879 -0.047295321 4293400320
3.0989153 -1.2475181 -0.027143657 4293269760
3.12428 -1.2576116 -0.0074477228 4293400320
3.1389689 -1.2634069 0.012531677 4293400320
3.1329441 -1.2608657 0.032465536 4293400320
3.1299269 -1.2595351 0.052331846 4293400320
3.1491559 -1.2671552 0.072608694 4293530880
3.1642568 -1.2731131 0.092923358 4293530880
3.1394353 -1.2630107 0.11190189 4293400320
3.1259305 -1.257462 0.13091597 4293400320
3.1660063 -1.2734637 0.1521855 4293530880
3.1542339 -1.2686118 0.17097203 4293530880
3.1285374 -1.2581617 0.18858524 4293400320
3.1540427 -1.2683005 0.20906609 4293530880
3.1622314 -1.2714756 0.22836867 4293530880
3.158464 -1.2698436 0.2465802 4293530880
3.1241562 -1.2559359 0.26191512 4293400320
3.1668978 -1.2729988 0.28345281 4293530880
3.18311 -1.2793969 0.30263382 4293661440
3.1744239 -1.2757883 0.31915376 4293661440
3.158812 -1.2693975 0.33448872 4293530880
3.1006303 -1.2459043 0.34455675 4293400320
3.1643014 -1.2713687 0.36778325 4293530880
3.1644173 -1.2712981 0.38354054 4293530880
3.1588399 -1.2689408 0.39814794 4293530880
3.1539865 -1.2668746 0.41234502 4293530880
3.1118472 -1.2498351 0.4209891 4293400320
3.1615229 -1.2696677 0.44158906 4293661440
3.167892 -1.2721082 0.45588636 4293661440
3.1602058 -1.2689054 0.46763653 4293661440
3.1613934 -1.2692655 0.48013511 4293661440
3.1539466 -1.2661598 0.49074808 4293661440
3.1366916 -1.2591177 0.49918139 4293530880
3.1531436 -1.265605 0.51239127 4293661440
3.1565032 -1.2668371 0.52294779 4293661440
3.1656961 -1.2704097 0.53390074 4293661440
3.1535516 -1.2654206 0.54063076 4293661440
3.1593361 -1.2676253 0.54978275 4293661440
3.1510234 -1.2641746 0.55583674 4293661440
3.1532445 -1.2649499 0.56308216 4293661440
3.1523521 -1.2644763 0.5691154 4293661440
3.151566 -1.2640455 0.57449687 4293661440
3.1385043 -1.2586921 0.57694602 4293530880
3.1461356 -1.2616372 0.58250731 4293661440
3.1294305 -1.2548245 0.58287227 4293530880
3.1336098 -1.2563854 0.58642203 4293530880
3.1287501 -1.2543229 0.58759069 4293530880
3.1285708 -1.2541368 0.58894104 4293530880
3.1447003 -1.2604871 0.59266722 4293661440
3.1447399 -1.2603883 0.59266746 4293661440
3.1412318 -1.2588679 0.5913009 4293661440
3.1401253 -1.2583101 0.58968943 4293661440
3.157856 -1.2652994 0.59090549 4293661440
3.1509223 -1.2624068 0.58680773 4293661440
3.1557164 -1.2642128 0.58420181 4293661440
3.1618233 -1.2665441 0.58113748 4293661440
3.1550016 -1.2636973 0.57501799 4293661440
3.1519079 -1.2623439 0.56891799 4293661440
3.1514623 -1.2620512 0.56263459 4293661440
3.1479409 -1.260527 0.55515218 4293661440
3.1537781 -1.26275 0.5486635 4293661440
3.1386831 -1.2565931 0.53792113 4293530880
3.1358976 -1.2553648 0.52870679 4293530880
3.1676776 -1.2679709 0.52461338 4293661440
3.1654732 -1.2669743 0.51420033 4293661440
3.1552782 -1.2627803 0.5019365 4293661440
3.150104 -1.260596 0.48994356 4293530880
3.120096 -1.2477418 0.40107352 4293400320
3.1510167 -1.2599925 0.39004332 4293530880
3.1594822 -1.2632637 0.37560645 4293530880
3.1429989 -1.2565609 0.35782427 4293530880
3.113503 -1.244658 0.33839431 4293400320
3.1364563 -1.2537203 0.32430932 4293400320
3.1481731 -1.2582903 0.30851549 4293530880
3.1222389 -1.2478138 0.28877038 4293400320
3.1017463 -1.2395135 0.26946297 4293269760
3.1245239 -1.2485029 0.25359416 4293400320
3.1360168 -1.2529823 0.23633119 4293400320
3.1332395 -1.2517605 0.21768068 4293400320
3.1057172 -1.2406549 0.19725142 4293269760
3.1408103 -1.2545596 0.18052568 4293400320
3.1417441 -1.2548202 0.16142122 4293400320
3.140888 -1.2543658 0.14204441 4293400320
3.1064057 -1.2404851 0.12121009 4293269760
3.1248555 -1.2477399 0.10239923 4293400320
3.1227014 -1.2467681 0.082697541 4293400320
3.1280088 -1.248775 0.063078657 4293400320
3.1066051 -1.2401199 0.04295224 4293269760
3.1139278 -1.2429312 0.0232588 4293269760
3.1225162 -1.2462472 0.003443554 4293400320
3.0817325 -1.2298613 -0.016226564 4293269760
3.1068285 -1.2397643 -0.036135163 4293269760
3.1180878 -1.2441453 -0.056079123 4293400320
3.1293392 -1.2485222 -0.076110147 4293400320
3.1034095 -1.238067 -0.095065415 4293269760
3.1378739 -1.2517023 -0.11582875 4293400320
3.1384451 -1.2518179 -0.13543905 4293400320
3.1407764 -1.2526352 -0.15500177 4293400320
3.1031518 -1.2375199 -0.17221138 4293269760
3.121762 -1.2448289 -0.19224407 4293400320
3.1319733 -1.2487882 -0.21172988 4293400320
3.1264784 -1.2464855 -0.22995658 4293400320
3.1236887 -1.2452615 -0.24808736 4293400320
3.1508288 -1.2559669 -0.26847023 4293530880
3.1594236 -1.2592793 -0.28718916 4293530880
3.1500137 -1.2554162 -0.30395702 4293530880
3.1187396 -1.2428416 -0.31806085 4293400320
3.1385391 -1.2506183 -0.33696288 4293530880
3.146817 -1.2538035 -0.35440987 4293530880
3.1528525 -1.2560949 -0.37129065 4293530880
3.1449113 -1.2528185 -0.38610852 4293530880
3.0993664 -1.2345657 -0.39562216 4293400320
3.1672294 -1.2614807 -0.41927367 4293661440
3.1739008 -1.2640234 -0.43471098 4293661440
3.1748605 -1.2642913 -0.44891682 4293661440
3.1606951 -1.2585372 -0.46042642 4293661440
3.1565559 -1.2567756 -0.47280315 4293530880
3.1376169 -1.2491229 -0.48234022 4293530880
3.1460712 -1.252375 -0.4955017 4293530880
3.1559422 -1.2561902 -0.50839353 4293661440
3.1469681 -1.2525049 -0.51767844 4293530880
3.1525865 -1.254627 -0.5287627 4293661440
3.1503835 -1.2536367 -0.53794426 4293661440
3.1489818 -1.2529652 -0.54663742 4293661440
3.1545022 -1.2550474 -0.55591679 4293661440
3.1483247 -1.2524762 -0.56249666 4293661440
3.1336641 -1.246531 -0.56686652 4293530880
3.1123762 -1.2379513 -0.569309 4293530880
3.0997806 -1.2328295 -0.57261848 4293400320
3.1118665 -1.237523 -0.57982147 4293530880
3.0970683 -1.2315264 -0.58134383 4293400320
3.1011136 -1.2330221 -0.58571339 4293400320
3.0472617 -1.211502 -0.57842392 4293269760
3.0469468 -1.211266 -0.58057266 4293269760
3.0467386 -1.2110726 -0.58206707 4293269760
3.1000519 -1.2321494 -0.59312356 4293400320
3.0954852 -1.2302219 -0.59243304 4293400320
3.0864539 -1.2265205 -0.59020078 4293400320
3.1017528 -1.2324865 -0.59193009 4293400320
3.1184225 -1.2389958 -0.59321731 4293530880
3.1346357 -1.2453225 -0.59370542 4293530880
3.1442416 -1.2490236 -0.59223008 4293661440
3.1435494 -1.2486337 -0.58811969 4293661440
3.148622 -1.2505333 -0.58440018 4293661440
3.1487176 -1.2504562 -0.57907367 4293661440
3.1569688 -1.2536172 -0.57456243 4293661440
3.1549807 -1.2527122 -0.56751424 4293661440
3.1450274 -1.2486454 -0.5584079 4293530880
3.1394982 -1.2463354 -0.54948306 4293530880
3.1337743 -1.2439485 -0.53992432 4293530880
3.1218283 -1.2390924 -0.52872705 4293530880
3.1167324 -1.2369556 -0.51813793 4293400320
3.1316953 -1.2427784 -0.51026028 4293530880
3.1490357 -1.2495433 -0.50208122 4293530880
3.145469 -1.2480125 -0.48995364 4293530880
3.1369126 -1.2445028 -0.47654244 4293530880
3.1134856 -1.235095 -0.46046364 4293400320
3.1189027 -1.237129 -0.44820586 4293400320
3.126827 -1.2401568 -0.43575042 4293400320
3.1383257 -1.2446012 -0.42322165 4293530880
3.1185153 -1.2366308 -0.40604123 4293400320
3.1061246 -1.2316034 -0.38952917 4293400320
3.128633 -1.2404119 -0.37691268 4293400320
3.1366827 -1.2434872 -0.36198825 4293400320
3.1450956 -1.2467061 -0.34662485 4293530880
3.0885005 -1.2241604 -0.32397473 4293269760
3.1051657 -1.2306504 -0.30886823 4293269760
3.1037598 -1.2299787 -0.29154655 4293269760
3.1159124 -1.2346791 -0.27512324 4293400320
3.0821533 -1.2211896 -0.25447401 4293269760
3.1013918 -1.2286968 -0.23801047 4293269760
3.122911 -1.2371058 -0.22122897 4293400320
3.128963 -1.2393874 -0.20295288 4293400320
3.1154416 -1.233917 -0.1832372 4293400320
3.1003253 -1.227816 -0.16340852 4293269760
3.1061008 -1.2299882 -0.14456715 4293269760
3.1228592 -1.2365081 -0.1259471 4293400320
3.0844145 -1.2211734 -0.10510411 4293269760
3.111809 -1.2319032 -0.086468279 4293269760
3.1237493 -1.236514 -0.067067176 4293400320
3.1244016 -1.2366567 -0.047277153 4293400320
3.1108232 -1.2311678 -0.027308013 4293269760
3.1301134 -1.2386857 -0.0075694681 4293400320
3.1367426 -1.2411928 0.012367506 4293400320
3.1179667 -1.2336488 0.032109611 4293269760
3.1372583 -1.2411648 0.052203562 4293400320
3.1487198 -1.2455823 0.072300248 4293400320
3.1716685 -1.2545424 0.09279266 4293530880
3.1337769 -1.2394402 0.11131084 4293400320
3.1425447 -1.2427914 0.13117358 4293400320
3.1511252 -1.246068 0.15098803 4293400320
3.1607656 -1.249763 0.17079549 4293530880
3.1228657 -1.2346637 0.18767634 4293400320
3.1553068 -1.2473718 0.20853262 4293530880
3.1733496 -1.2543867 0.22850661 4293530880
3.1696441 -1.2528051 0.24674639 4293530880
3.122201 -1.2339399 0.2610155 4293400320
3.1644931 -1.2505358 0.28245133 4293530880
3.1900117 -1.2605015 0.30245641 4293661440
3.1892693 -1.2600906 0.31977296 4293661440
3.1658437 -1.2507194 0.33432952 4293530880
3.0986388 -1.2240577 0.34341601 4293269760
3.1763341 -1.2546295 0.36820194 4293661440
3.1715474 -1.2526222 0.38339251 4293530880
3.1662352 -1.2504078 0.39803624 4293530880
3.1484425 -1.243266 0.41055217 4293530880
3.1108251 -1.2282988 0.41976482 4293400320
3.1652327 -1.2496628 0.4409723 4293530880
3.1753056 -1.2535226 0.45578617 4293661440
3.1724105 -1.2522633 0.46824923 4293661440
3.1724746 -1.2521722 0.48059973 4293661440
3.1484358 -1.2425697 0.48866025 4293530880
3.1239254 -1.2327828 0.49590814 4293530880
3.1605182 -1.247106 0.51231003 4293661440
3.1602068 -1.2468674 0.52226341 4293661440
3.1730978 -1.2518369 0.53382772 4293661440
3.1584072 -1.2459263 0.54013246 4293661440
3.1621287 -1.2472786 0.54892254 4293661440
3.1620593 -1.2471356 0.55642354 4293661440
3.1514342 -1.2428304 0.56139457 4293661440
3.1633863 -1.2474281 0.56972682 4293661440
3.1497538 -1.241938 0.57278633 4293661440
3.1412475 -1.2384698 0.57606739 4293530880
3.1498132 -1.2417318 0.5817973 4293661440
3.1239007 -1.2314037 0.58046186 4293530880
3.1317561 -1.234386 0.58469009 4293530880
3.1278009 -1.2327133 0.58603007 4293530880
3.1230376 -1.2307228 0.5865227 4293530880
3.1483684 -1.2405897 0.59197366 4293661440
3.1484063 -1.2404903 0.5919798 4293661440
3.1393888 -1.2368239 0.58958805 4293530880
3.1520267 -1.241688 0.5905605 4293661440
3.1477962 -1.2399076 0.58767569 4293661440
3.1490936 -1.2403047 0.58513093 4293661440
3.1548131 -1.2424428 0.58271027 4293661440
3.1600132 -1.2443763 0.57949477 4293661440
3.1586766 -1.2437358 0.57439536 4293661440
3.1638327 -1.2456515 0.56979406 4293661440
3.1587958 -1.2435546 0.56269127 4293661440
3.1681209 -1.247111 0.55747539 4293661440
3.1574395 -1.242793 0.54809552 4293661440
3.146184 -1.2382497 0.5380308 4293530880
3.1339955 -1.2333403 0.52724284 4293530880
3.1612451 -1.2439491 0.52242386 4293661440
3.1761339 -1.2496928 0.51482987 4293661440
3.1747658 -1.2490405 0.50396472 4293661440
3.1574237 -1.2421046 0.49004993 4293530880
3.1262343 -1.2292335 0.40093866 4293400320
3.1619627 -1.243167 0.39049697 4293530880
3.1667488 -1.2449352 0.37560296 4293530880
3.136344 -1.2328711 0.35624462 4293400320
3.1160326 -1.2247761 0.33788753 4293400320
3.1353302 -1.2322482 0.32344383 4293400320
3.1507769 -1.2382058 0.30805558 4293530880
3.1155071 -1.2242353 0.28748009 4293400320
3.1042383 -1.2196968 0.26905212 4293269760
3.1295245 -1.2295191 0.25340724 4293400320
3.13394 -1.2311417 0.23562242 4293400320
3.1210468 -1.2259657 0.21632561 4293400320
3.1048853 -1.2195072 0.19673344 4293269760
3.1409175 -1.233546 0.18010353 4293400320
3.1418509 -1.2338004 0.16104102 4293400320
3.1476405 -1.2359613 0.14200605 4293400320
3.108891 -1.2206365 0.121011 4293269760
3.1180773 -1.2241316 0.10192443 4293269760
3.1261516 -1.2271895 0.082578629 4293400320
3.1264181 -1.2271826 0.062880762 4293400320
3.100708 -1.2169813 0.042750474 4293269760
3.1164238 -1.2230377 0.02320026 4293269760
3.1315441 -1.2288593 0.0034200901 4293400320
3.0841529 -1.2101543 -0.016227873 4293139200
3.1080487 -1.2194186 -0.0360935 4293269760
3.1137443 -1.2215419 -0.055900447 4293269760
3.123491 -1.2252538 -0.075822674 4293400320
3.1038282 -1.2174306 -0.094890341 4293269760
3.1320479 -1.2283865 -0.1153797 4293400320
3.1473174 -1.2342622 -0.13554338 4293400320
3.1433313 -1.2325871 -0.15480566 4293400320
3.1065507 -1.2180549 -0.17203869 4293269760
3.1242743 -1.224892 -0.1919926 4293400320
3.1391559 -1.2306137 -0.21176489 4293400320
3.1252875 -1.2250661 -0.22937827 4293400320
3.122494 -1.2238595 -0.24746081 4293400320
3.1496987 -1.2344087 -0.26779649 4293400320
3.1666656 -1.2409445 -0.28722629 4293530880
3.1572337 -1.2371359 -0.3039943 4293530880
3.1258872 -1.2247425 -0.31809795 4293400320
3.1410985 -1.2305895 -0.33650398 4293400320
3.1525486 -1.234962 -0.35428128 4293530880
3.1541421 -1.2354733 -0.37063095 4293530880
3.1432602 -1.2310988 -0.38506103 4293530880
3.1018424 -1.2147676 -0.3950699 4293269760
3.1822498 -1.2461401 -0.4203366 4293661440
3.1728559 -1.2423482 -0.4336116 4293661440
3.1763127 -1.2435879 -0.44813231 4293661440
3.1808507 -1.2452503 -0.46233961 4293661440
3.1637826 -1.2384555 -0.4728379 4293530880
3.1447997 -1.2309126 -0.48237398 4293530880
3.1532726 -1.2341155 -0.49553469 4293530880
3.1563914 -1.2352226 -0.50733685 4293530880
3.1587734 -1.2360411 -0.5184648 4293530880
3.1505995 -1.2327297 -0.52725279 4293530880
3.1742206 -1.2418567 -0.5408054 4293661440
3.1561873 -1.2346886 -0.5466646 4293661440
3.1506791 -1.2324207 -0.55400151 4293530880
3.1426654 -1.2291732 -0.56022817 4293530880
3.1408331 -1.2283434 -0.56688893 4293530880
3.1320906 -1.2248117 -0.5716278 4293530880
3.1186626 -1.2194486 -0.57481015 4293530880
3.1189845 -1.2194619 -0.57983828 4293530880
3.0995648 -1.2117579 -0.58049953 4293400320
3.1036196 -1.2132308 -0.58486187 4293400320
3.0542309 -1.1938159 -0.57843429 4293269760
3.0493295 -1.19179 -0.57970917 4293269760
3.0408671 -1.1883729 -0.57962608 4293139200
3.102556 -1.212366 -0.59225202 4293400320
3.1025639 -1.2122567 -0.59243423 4293400320
3.1168699 -1.2177329 -0.59465522 4293530880
3.1042595 -1.212694 -0.59105313 4293400320
3.1117942 -1.2155242 -0.59059972 4293400320
3.1326289 -1.2235482 -0.59196264 4293530880
3.1385849 -1.2257602 -0.58980411 4293530880
3.1424768 -1.2271657 -0.58656293 4293530880
3.1546633 -1.2318095 -0.58416772 4293661440
3.1559162 -1.2321838 -0.57905257 4293661440
3.149493 -1.2295617 -0.57187068 4293530880
3.1447356 -1.22759 -0.56435442 4293530880
3.1430254 -1.2268078 -0.5567497 4293530880
3.1420772 -1.2263232 -0.54864705 4293530880
3.1372578 -1.224328 -0.53925544 4293530880
3.1151595 -1.2155913 -0.52635539 4293400320
3.1100454 -1.2134824 -0.51580513 4293400320
3.1385748 -1.2244983 -0.51016915 4293530880
3.1433301 -1.2262385 -0.49997967 4293530880
3.1434364 -1.2261651 -0.48846832 4293530880
3.141912 -1.2254556 -0.47615814 4293530880
3.1076775 -1.2119906 -0.45849881 4293400320
3.1130996 -1.213991 -0.44629073 4293400320
3.13397 -1.2220142 -0.43568537 4293400320
3.1454945 -1.2263923 -0.42315322 4293530880
3.1210134 -1.2167339 -0.40536943 4293400320
3.1085913 -1.2117778 -0.38887644 4293400320
3.1218886 -1.2168462 -0.37516606 4293400320
3.1299484 -1.2198728 -0.36030778 4293400320
3.1470888 -1.226437 -0.34597069 4293530880
3.1001883 -1.2080476 -0.32437479 4293269760
3.0995436 -1.2076827 -0.3075186 4293269760
3.120126 -1.215587 -0.29232535 4293400320
3.123023 -1.2166009 -0.27502912 4293400320
3.089186 -1.2033073 -0.25437832 4293269760
3.1038198 -1.2088929 -0.23755588 4293269760
3.1123676 -1.2121075 -0.21987845 4293269760
3.131448 -1.2194227 -0.20254748 4293400320
3.1266773 -1.2174501 -0.18337345 4293400320
3.1073937 -1.2098283 -0.16330069 4293269760
3.1131811 -1.2119669 -0.1444571 4293269760
3.1215951 -1.2151275 -0.12549721 4293269760
3.0886455 -1.202189 -0.104896 4293139200
3.1164303 -1.212888 -0.086284176 4293269760
3.121547 -1.2147645 -0.066749781 4293269760
3.1231303 -1.2152658 -0.047031272 4293269760
3.1001997 -1.20623 -0.027032653 4293269760
3.1294076 -1.217478 -0.0074285935 4293400320
3.1261747 -1.2161056 0.012421401 4293269760
3.1343813 -1.2191825 0.032328282 4293400320
3.1177938 -1.2126166 0.05188749 4293269760
3.0908146 -1.2020109 0.070937634 4293269760
2.9001076 -1.1277462 0.084792867 4292486400
2.7715137 -1.0776443 0.098361395 4292094720
3.0556223 -1.1879894 0.12738654 4293139200
3.1521449 -1.2253965 0.15082124 4293400320
3.1549156 -1.2263577 0.17022023 4293400320
3.1336834 -1.2179903 0.18802415 4293400320
3.1494496 -1.224002 0.20780003 4293400320
3.1675363 -1.2309144 0.22769745 4293530880
3.1684742 -1.2311625 0.24622147 4293530880
3.125572 -1.2143792 0.26082721 4293400320
3.1670315 -1.2303697 0.28215992 4293530880
3.1833231 -1.2365816 0.30126122 4293530880
3.182584 -1.2361778 0.318501 4293530880
3.1730266 -1.2323496 0.33444658 4293530880
3.1056683 -1.2060776 0.34352863 4293269760
3.1742702 -1.2326002 0.36724406 4293530880
3.1790192 -1.2343277 0.38353693 4293530880
3.1780443 -1.233833 0.39872462 4293530880
3.1602082 -1.2267934 0.41125858 4293530880
3.1132526 -1.2084532 0.41924337 4293400320
3.1707463 -1.2306522 0.44084102 4293530880
3.1770387 -1.232978 0.45510077 4293661440
3.1796005 -1.2338561 0.46834233 4293661440
3.1832762 -1.2351662 0.48123485 4293661440
3.1601844 -1.2260917 0.4894594 4293530880
3.1428521 -1.2192532 0.49786407 4293530880
3.1704483 -1.2298424 0.5128352 4293661440
3.1710532 -1.2299615 0.52294421 4293661440
3.1710753 -1.2298547 0.53235215 4293661440
3.164402 -1.2271515 0.53999919 4293661440
3.1554856 -1.2235794 0.54659307 4293530880
3.1655424 -1.2273636 0.55583316 4293661440
3.164 -1.2266506 0.56240863 4293661440
3.1622765 -1.2258676 0.56828624 4293661440
3.1568897 -1.2236651 0.57282645 4293661440
3.1529601 -1.2220277 0.5769425 4293530880
3.1569493 -1.2234592 0.58182687 4293661440
3.1564457 -1.2231497 0.58520347 4293661440
3.130583 -1.2130153 0.58316958 4293530880
3.1385624 -1.2159932 0.58672923 4293530880
3.134707 -1.2143861 0.58738965 4293530880
3.1509094 -1.2205485 0.59111404 4293530880
3.1371691 -1.215113 0.58853161 4293530880
3.1543179 -1.2216407 0.59104055 4293661440
3.1509018 -1.220204 0.58899957 4293530880
3.1595242 -1.2234288 0.58850801 4293661440
3.1608257 -1.2238188 0.58595318 4293661440
3.1619635 -1.2241453 0.58267522 4293661440
3.1579828 -1.2224905 0.57777286 4293661440
3.1612389 -1.2236371 0.57351434 4293661440
3.1613452 -1.2235646 0.56800604 4293661440
3.1659565 -1.2252353 0.56263107 4293661440
3.1624177 -1.2237521 0.55514866 4293661440
3.1461833 -1.2173576 0.54483658 4293530880
3.143904 -1.2163628 0.53634763 4293530880
3.1457081 -1.2169479 0.52793074 4293530880
3.1647246 -1.2241905 0.52172494 4293661440
3.1870236 -1.2327012 0.51532763 4293661440
3.1614766 -1.2227075 0.50061917 4293530880
3.1645818 -1.2237949 0.48994005 4293530880
3.1286721 -1.2093104 0.40034503 4293400320
3.165405 -1.223394 0.39003822 4293530880
3.1701994 -1.2251337 0.3751612 4293530880
3.1387959 -1.2128868 0.35571533 4293400320
3.1277168 -1.2084945 0.33838394 4293400320
3.144877 -1.2150121 0.32369065 4293400320
3.1578979 -1.2199296 0.30804843 4293530880
3.1399271 -1.212876 0.28907004 4293400320
3.1196945 -1.2049502 0.26977202 4293269760
3.1328752 -1.209929 0.25309673 4293400320
3.0386548 -1.1734359 0.22794278 4293008640
2.5910077 -1.0004932 0.17922558 4291441920
2.4545715 -0.94772828 0.15523009 4290919680
2.5555735 -0.98663008 0.14625171 4291311360
2.8166852 -1.0873253 0.14406408 4292225280
3.1158075 -1.2026724 0.14023942 4293269760
3.0990489 -1.196094 0.12033936 4293269760
3.1219444 -1.2048187 0.10180172 4293269760
3.1192198 -1.2036563 0.082190394 4293269760
3.1334763 -1.2090456 0.062858924 4293400320
3.0921798 -1.1930031 0.042515323 4293139200
3.1234581 -1.2049583 0.023176247 4293269760
3.1208847 -1.2038547 0.0033768513 4293269760
3.0826349 -1.1889919 -0.016208652 4293139200
3.115062 -1.2013872 -0.036120627 4293269760
3.117038 -1.2020383 -0.05586154 4293269760
3.1212096 -1.2035358 -0.07562539 4293269760
3.0998268 -1.1951813 -0.094584025 4293269760
3.1344495 -1.2084177 -0.11523918 4293400320
3.1480782 -1.2135594 -0.13530286 4293400320
3.1457589 -1.2125534 -0.15460928 4293400320
3.1110907 -1.1990809 -0.1719356 4293269760
3.1313179 -1.2067647 -0.19202666 4293400320
3.1369193 -1.2088115 -0.21117251 4293400320
3.1323318 -1.2069323 -0.22941351 4293400320
3.1295311 -1.2057419 -0.2474965 4293400320
3.1567962 -1.2161331 -0.26783291 4293400320
3.1598527 -1.2171979 -0.28600052 4293530880
3.1685278 -1.2204264 -0.30443323 4293530880
3.1199224 -1.2015955 -0.31681395 4293400320
3.1418974 -1.2099462 -0.33587021 4293400320
3.1596487 -1.2166687 -0.35431868 4293530880
3.1575344 -1.215742 -0.37023318 4293530880
3.1503379 -1.212859 -0.3850981 4293530880
3.1134598 -1.1985515 -0.39569521 4293400320
3.180151 -1.2241088 -0.41915274 4293661440
3.1831486 -1.2251489 -0.43407774 4293661440
3.1705074 -1.2201706 -0.44634461 4293530880
3.1750615 -1.2218096 -0.46049723 4293661440
3.1689727 -1.2193536 -0.47258472 4293530880
3.1435606 -1.209464 -0.48113492 4293530880
3.1520562 -1.2126194 -0.4942643 4293530880
3.1634927 -1.2169056 -0.50736874 4293530880
3.15204 -1.2123876 -0.51622921 4293530880
3.1539977 -1.2130275 -0.5266664 4293530880
3.1546268 -1.2131563 -0.53628969 4293530880
3.1540711 -1.2128296 -0.5450992 4293530880
3.1605401 -1.2152035 -0.55451381 4293530880
3.1451287 -1.2091657 -0.55943322 4293530880
3.1478961 -1.2101165 -0.5669111 4293530880
3.1219096 -1.2000155 -0.56851208 4293400320
3.1348748 -1.2048861 -0.57652032 4293530880
3.1177192 -1.1981809 -0.57831961 4293400320
3.0973375 -1.1902373 -0.57879591 4293400320
3.1059997 -1.1934539 -0.58401012 4293400320
3.0528235 -1.1729133 -0.57688129 4293269760
3.0525074 -1.172682 -0.57901984 4293269760
3.043107 -1.1689613 -0.57875788 4293139200
3.10953 -1.194362 -0.59225547 4293400320
3.0957508 -1.1889584 -0.58980894 4293400320
3.0921924 -1.1874802 -0.58862346 4293400320
3.1204286 -1.19821 -0.59279501 4293530880
3.1187878 -1.1974673 -0.59059292 4293400320
3.135072 -1.2036058 -0.59108639 4293530880
3.1456385 -1.2075483 -0.58979166 4293530880
3.1495388 -1.2089314 -0.58654761 4293530880
3.1433518 -1.2064432 -0.58075029 4293530880
3.1547253 -1.2106937 -0.57751518 4293530880
