# .PCD v0.7 - Point Cloud Data file format
VERSION 0.7
FIELDS x y z rgba
SIZE 4 4 4 4
TYPE F F F U
COUNT 1 1 1 1
WIDTH 1129
HEIGHT 1
VIEWPOINT 0 0 0 1 0 0 0
POINTS 1129
DATA ascii
1.36517 1.3219094 -0.16430633 4288439040
1.3682967 1.324998 -0.15470712 4288439040
1.3512747 1.3086032 -0.14276364 4288439040
1.3500258 1.3074592 -0.132467 4288439040
1.3636656 1.3207134 -0.12339328 4288439040
1.367692 1.3246715 -0.11318033 4288439040
1.3559796 1.3134077 -0.10160208 4288439040
1.3495419 1.3072444 -0.09045215 4288439040
1.3515476 1.3092471 -0.079806261 4288439040
1.3540373 1.3117181 -0.069067337 4288439040
1.3295926 1.2881342 -0.057055723 4288308480
1.3489019 1.3068753 -0.046905953 4288308480
1.3656873 1.3231764 -0.03632414 4288439040
1.3579916 1.3157939 -0.024975814 4288439040
1.3565969 1.3145071 -0.013792546 4288439040
1.3766233 1.3339466 -0.0026626473 4288439040
1.379657 1.3369455 0.0086943824 4288569600
1.377737 1.3351513 0.020019993 4288569600
1.4663305 1.4209479 0.033334676 4288961280
1.6284432 1.577902 0.050324604 4289744640
1.634683 1.5840161 0.06384293 4289744640
1.6304799 1.5800239 0.076901928 4289744640
1.6238644 1.5736963 0.089676112 4289614080
1.6271776 1.5769788 0.10287202 4289744640
1.6251159 1.5750588 0.11562676 4289614080
1.608776 1.5593171 0.12709735 4289614080
1.6221507 1.5723405 0.14074589 4289614080
1.6321408 1.5820886 0.15412742 4289744640
1.6334872 1.5834694 0.16661201 4289744640
1.6062605 1.5571854 0.17581269 4289614080
1.6414711 1.5913556 0.19169444 4289744640
1.6458967 1.5957196 0.20406629 4289744640
1.6384114 1.5885504 0.21471742 4289744640
1.6297656 1.5802571 0.22486593 4289744640
1.5996008 1.5511227 0.23153704 4289614080
1.6397229 1.5900601 0.24816607 4289744640
1.636937 1.5874426 0.25828204 4289744640
1.6233214 1.5743357 0.26629966 4289744640
1.6104015 1.5619017 0.27396846 4289614080
1.6049482 1.5567001 0.2824862 4289614080
1.631458 1.5824633 0.29641971 4289744640
1.6251606 1.5764456 0.3041825 4289744640
1.632188 1.5833378 0.31409228 4289744640
1.6184417 1.5701034 0.31962073 4289744640
1.615944 1.5677679 0.32692075 4289744640
1.6112087 1.5632643 0.33336073 4289744640
1.6110834 1.5632285 0.34034821 4289744640
1.618626 1.5706246 0.34859186 4289744640
1.615278 1.5674672 0.35410973 4289744640
1.6135309 1.5658618 0.35954946 4289744640
1.6157378 1.5680896 0.36545357 4289744640
1.609048 1.5616944 0.36891097 4289744640
1.6080124 1.5607804 0.37321025 4289744640
1.6062933 1.5592045 0.37690902 4289744640
1.6043928 1.5574533 0.38011685 4289744640
1.598367 1.5517029 0.38188821 4289614080
1.607897 1.5610362 0.38692826 4289744640
1.5972416 1.5507976 0.38666582 4289614080
1.6005086 1.5540597 0.38930386 4289614080
1.600293 1.553946 0.39064291 4289614080
1.6001327 1.5538864 0.39153647 4289614080
1.600028 1.5538818 0.39198363 4289614080
1.6032351 1.5570903 0.39278042 4289744640
1.6024734 1.55645 0.39214504 4289744640
1.6025362 1.5566103 0.39125061 4289744640
1.6008447 1.5550696 0.38947046 4289614080
1.6089797 1.5630636 0.38961247 4289744640
1.6061367 1.5604074 0.38663778 4289744640
1.6081499 1.562464 0.38437784 4289744640
1.6096678 1.5640409 0.38154313 4289744640
1.6061871 1.5607679 0.37708399 4289744640
1.61673 1.5711058 0.37545291 4289744640
1.6139637 1.5685278 0.37027881 4289744640
1.6106846 1.5654523 0.36457387 4289744640
1.5946833 1.5500268 0.35563329 4289614080
1.5885007 1.5441325 0.34854206 4289614080
1.5994302 1.5548519 0.34477621 4289614080
1.6232898 1.5781285 0.34325513 4289744640
1.6255821 1.5804664 0.33667701 4289744640
1.6165104 1.5717696 0.3273932 4289744640
1.5875628 1.5443847 0.26613769 4289614080
1.6216323 1.5776027 0.26185071 4289744640
1.6378988 1.5935268 0.25408614 4289744640
1.6101743 1.566704 0.23930085 4289614080
1.5869731 1.5442737 0.22525358 4289483520
1.6080587 1.5648841 0.21723925 4289614080
1.6153252 1.5720659 0.20692405 4289614080
1.5960326 1.5534317 0.19306926 4289614080
1.5813323 1.5392594 0.17979833 4289483520
1.6035209 1.5609496 0.17045592 4289614080
1.6139479 1.5712076 0.15943456 4289614080
1.6097 1.567198 0.1467441 4289614080
1.5978557 1.555801 0.13332401 4289614080
1.6118532 1.5695345 0.12188927 4289614080
1.4872297 1.4484471 0.10073879 4289091840
1.3859907 1.3500867 0.082846202 4288569600
1.3716139 1.3362066 0.070957527 4288439040
1.3823769 1.3467813 0.06031375 4288569600
1.3711972 1.3360096 0.048653476 4288439040
1.2815133 1.2488531 0.034992415 4288047360
1.3655635 1.3307363 0.026045745 4288439040
1.3590338 1.324486 0.014720239 4288439040
1.3460461 1.3119498 0.0034687053 4288439040
1.3372731 1.3035138 -0.0075989654 4288308480
1.3521564 1.3181024 -0.018848749 4288439040
1.3506249 1.3167146 -0.029959416 4288439040
1.3286817 1.2954556 -0.040391766 4288308480
1.3515508 1.3178217 -0.052157056 4288439040
1.360924 1.3270508 -0.063609198 4288439040
1.3649806 1.3311042 -0.074854784 4288439040
1.3327696 1.2998402 -0.08380346 4288308480
1.3598357 1.3263006 -0.096352294 4288439040
1.3704044 1.3366967 -0.10792752 4288439040
1.3611244 1.3277612 -0.11783406 4288439040
1.3091096 1.277195 -0.12343878 4288177920
1.3669658 1.3336564 -0.1393149 4288439040
1.3807313 1.3471702 -0.15108939 4288569600
1.374426 1.3411298 -0.16056022 4288569600
1.3284826 1.2964641 -0.16484547 4288308480
1.0996541 1.0735713 -0.14429244 4287264000
1.3743747 1.341386 -0.18994427 4288569600
1.3674725 1.3347601 -0.19833831 4288569600
1.3542356 1.3219583 -0.20546007 4288439040
1.2086283 1.1801214 -0.19124012 4287786240
1.1173314 1.091208 -0.18387586 4287394560
1.3770338 1.3444808 -0.23507307 4288569600
1.378075 1.3455952 -0.24346502 4288569600
1.3685938 1.3364493 -0.24967793 4288569600
1.3284147 1.2973665 -0.24973454 4288308480
1.1518791 1.1253005 -0.22271861 4287525120
1.3668652 1.335055 -0.27128017 4288569600
1.3598543 1.3283131 -0.27655867 4288569600
1.3566202 1.3252532 -0.28224161 4288439040
1.3510429 1.3199068 -0.28707626 4288439040
1.3497107 1.3187004 -0.29245463 4288439040
1.3318388 1.3013566 -0.29384014 4288439040
1.3015435 1.2718879 -0.29196668 4288308480
1.209816 1.1824712 -0.27555695 4287786240
1.2361704 1.2082701 -0.28547955 4287916800
1.1740479 1.1477269 -0.27455363 4287655680
1.1934055 1.166697 -0.2822243 4287786240
1.2036153 1.1767405 -0.2874808 4287786240
1.1489199 1.123431 -0.27682009 4287525120
1.1655556 1.1397444 -0.28292987 4287655680
1.1681243 1.1423268 -0.28533158 4287655680
1.17496 1.1490749 -0.28845486 4287655680
1.1712643 1.1455407 -0.28866276 4287655680
1.1676105 1.1420466 -0.28853819 4287655680
1.1647035 1.1392804 -0.2882576 4287655680
1.1611339 1.1358663 -0.28747508 4287655680
1.150561 1.1256118 -0.28462577 4287525120
1.1407334 1.1160831 -0.28163525 4287525120
1.1951165 1.169269 -0.29412147 4287786240
1.1783264 1.1529397 -0.28873432 4287655680
1.1580489 1.1332014 -0.28220168 4287525120
1.2071342 1.1812205 -0.29218003 4287786240
1.3082442 1.2800707 -0.31412926 4288308480
1.3158236 1.2875509 -0.31305647 4288308480
1.334656 1.3060266 -0.31423295 4288439040
1.3431103 1.314363 -0.31253317 4288439040
1.3513948 1.3225335 -0.31038401 4288439040
1.3552479 1.3263741 -0.30682141 4288569600
1.3514239 1.3227115 -0.30116871 4288439040
1.3456825 1.3171738 -0.29477778 4288439040
1.3336587 1.3054945 -0.28674328 4288439040
1.3231301 1.2952751 -0.27879563 4288308480
1.3413519 1.3131574 -0.27654743 4288439040
1.3713099 1.3425142 -0.27617747 4288569600
1.3677118 1.3390685 -0.26861331 4288569600
1.3528707 1.3246299 -0.25863281 4288439040
1.3326249 1.3049052 -0.24751461 4288439040
1.3380357 1.3102639 -0.24096069 4288439040
1.3512384 1.3232419 -0.23543109 4288439040
1.3547487 1.3267429 -0.22785105 4288439040
1.3364754 1.308941 -0.21644618 4288439040
1.3320636 1.304693 -0.20718668 4288308480
1.3581896 1.3303108 -0.20230246 4288439040
1.3630688 1.33515 -0.19382501 4288439040
1.3427373 1.3153301 -0.18165626 4288439040
1.3281399 1.3011168 -0.17030643 4288308480
1.3503263 1.3228843 -0.1634299 4288439040
1.360557 1.3329576 -0.15469272 4288439040
1.3381145 1.3110672 -0.1421632 4288308480
1.3402584 1.3132286 -0.13224255 4288439040
1.3591594 1.3317853 -0.12367104 4288439040
1.3595963 1.3322773 -0.11313614 4288439040
1.3483074 1.3212953 -0.1015878 4288439040
1.3383362 1.3116016 -0.090197109 4288308480
1.34747 1.3206028 -0.08000432 4288439040
1.3508464 1.3239702 -0.06928283 4288439040
1.3256396 1.2993639 -0.0571962 4288308480
1.3412677 1.3147215 -0.046891753 4288308480
1.3515271 1.3248258 -0.036137044 4288439040
1.3567363 1.3299876 -0.025081232 4288439040
1.3417722 1.3154027 -0.013704274 4288308480
1.3652579 1.3384558 -0.0026407153 4288439040
1.3755766 1.348621 0.0087320078 4288569600
1.3627923 1.336169 0.019931186 4288439040
1.4444549 1.4161853 0.033041842 4288830720
1.6156533 1.5838742 0.050231259 4289614080
1.621316 1.5894942 0.063699208 4289744640
1.6112521 1.5797155 0.076446481 4289614080
1.6011062 1.5698557 0.088942148 4289614080
1.6106713 1.5792979 0.10242671 4289614080
1.6178045 1.5863597 0.1157788 4289744640
1.5960997 1.5651788 0.12683162 4289614080
1.6058344 1.5747888 0.1401422 4289614080
1.6184653 1.5872371 0.15372455 4289744640
1.613549 1.5824987 0.1655352 4289614080
1.5900414 1.5595485 0.17504725 4289614080
1.6250554 1.593926 0.19087727 4289744640
1.6365739 1.605289 0.20408364 4289744640
1.6291306 1.5980763 0.21473469 4289744640
1.6034735 1.573018 0.22252007 4289614080
1.5734875 1.543716 0.22907615 4289483520
1.6233323 1.5926355 0.24710436 4289744640
1.6205654 1.590005 0.25717494 4289744640
1.6166697 1.5862687 0.26673615 4289744640
1.598744 1.5687828 0.27355289 4289614080
1.5859334 1.5563089 0.28075001 4289614080
1.6151307 1.5850071 0.29514492 4289744640
1.6124113 1.582425 0.30353451 4289744640
1.6184796 1.5884572 0.3132481 4289744640
1.6057332 1.5760469 0.31893671 4289744640
1.603251 1.5736984 0.32621995 4289744640
1.5921865 1.5629363 0.33132318 4289614080
1.6022012 1.5728407 0.34041843 4289744640
1.6082085 1.5788175 0.34834051 4289744640
1.5990665 1.5699412 0.35257393 4289744640
1.5980368 1.5690196 0.35814652 4289744640
1.5960046 1.5671155 0.36306939 4289614080
1.5964012 1.5675938 0.36811692 4289744640
1.5925552 1.563912 0.37174988 4289614080
1.5936635 1.5650898 0.37609649 4289614080
1.5952933 1.5667802 0.38013375 4289744640
1.5913504 1.5630051 0.38239679 4289614080
1.5889281 1.560722 0.38456517 4289614080
1.5853678 1.557323 0.38599873 4289614080
1.581584 1.5537051 0.38691592 4289614080
1.5912141 1.563249 0.39065981 4289614080
1.5847267 1.5569799 0.38999853 4289614080
1.5846224 1.5569745 0.39044392 4289614080
1.5842961 1.5567522 0.39037594 4289614080
1.5863501 1.5588665 0.39043435 4289614080
1.5864116 1.5590265 0.38954389 4289614080
1.5889469 1.5616155 0.38880026 4289614080
1.5900036 1.5627543 0.38723561 4289614080
1.5864716 1.5593892 0.38410464 4289614080
1.5926911 1.5655981 0.38287535 4289614080
1.5934949 1.5664915 0.37988552 4289744640
1.5935501 1.5666507 0.37627146 4289614080
1.597697 1.5708287 0.3731719 4289744640
1.6012794 1.5744535 0.36948478 4289744640
1.5874531 1.5609829 0.36138919 4289614080
1.5856272 1.5592974 0.35565013 4289614080
1.5759554 1.5499061 0.34778237 4289614080
1.5868207 1.5606875 0.34402999 4289614080
1.610543 1.5841011 0.3425234 4289744640
1.6057639 1.5795183 0.3344928 4289744640
1.6073275 1.5811672 0.32741028 4289744640
1.57854 1.5536149 0.26615447 4289614080
1.6124154 1.5870308 0.26186782 4289744640
1.6179577 1.5925978 0.25244758 4289744640
1.5974758 1.5725799 0.23878886 4289614080
1.5779511 1.5535007 0.22527035 4289483520
1.5945027 1.5698936 0.21665767 4289614080
1.5990406 1.5744754 0.20602807 4289614080
1.5869572 1.5627115 0.19308613 4289614080
1.5723398 1.5484539 0.17981504 4289483520
1.5844494 1.5604839 0.16941106 4289614080
1.5912573 1.5673008 0.15811211 4289614080
1.5934806 1.5696087 0.14611495 4289614080
1.5788045 1.5552908 0.13250689 4289483520
1.5927191 1.5691022 0.12115034 4289614080
1.4752083 1.4535928 0.10051271 4289091840
1.3645737 1.3448324 0.082050234 4288439040
1.3609591 1.3413798 0.070824362 4288439040
1.3710033 1.35137 0.060175169 4288569600
1.3562683 1.3369716 0.048415005 4288439040
1.312251 1.293746 0.036043495 4288308480
1.3542272 1.3351711 0.025992416 4288439040
1.340922 1.322176 0.014623175 4288439040
1.3319693 1.3134644 0.0034672467 4288308480
1.3332213 1.3148 -0.0076056658 4288308480
1.3408943 1.322459 -0.018784059 4288439040
1.3393714 1.3210624 -0.029865254 4288439040
1.3182653 1.3003777 -0.040290292 4288308480
1.3402921 1.3221757 -0.052004214 4288439040
1.3531721 1.3349667 -0.063594803 4288439040
1.3586378 1.3404553 -0.07491947 4288439040
1.3152142 1.2977771 -0.08315862 4288308480
1.3485314 1.3307058 -0.096084215 4288439040
1.355128 1.3373091 -0.10732111 4288439040
1.342705 1.3251703 -0.11689078 4288439040
1.2988067 1.282009 -0.12315527 4288177920
1.3577573 1.3402102 -0.13915503 4288439040
1.3664721 1.3489033 -0.15037143 4288569600
1.3616334 1.3442367 -0.15996304 4288569600
1.3145257 1.2978988 -0.16403471 4288308480
1.0898387 1.076475 -0.14381301 4287264000
1.3615817 1.3444926 -0.18924068 4288569600
1.3561348 1.3392233 -0.19780736 4288439040
1.335896 1.3193657 -0.20382594 4288439040
1.1981981 1.183665 -0.19066454 4287786240
1.1109581 1.0977097 -0.18386403 4287394560
1.3713031 1.3545852 -0.23542278 4288569600
1.3730406 1.3563992 -0.24395224 4288569600
1.3593141 1.3429577 -0.24939318 4288569600
1.3074321 1.2918702 -0.247187 4288308480
1.1389605 1.1257418 -0.22147292 4287525120
1.3520197 1.3360533 -0.26985958 4288569600
1.3548259 1.3389186 -0.27710244 4288569600
1.3453593 1.3296722 -0.28149104 4288439040
1.3370005 1.321517 -0.28570923 4288439040
1.3420084 1.3265531 -0.29244035 4288439040
1.3207228 1.3056358 -0.2930465 4288439040
1.2870878 1.2725242 -0.29036841 4288177920
1.2064215 1.1929779 -0.27634814 4287786240
1.2227944 1.2092245 -0.28399962 4287916800
1.1673446 1.1545589 -0.2745412 4287655680
1.1802769 1.1674066 -0.2807107 4287655680
1.1967424 1.1837443 -0.28746805 4287786240
1.1318407 1.1197301 -0.27426085 4287525120
1.1518887 1.1396037 -0.28120717 4287525120
1.1586491 1.1463555 -0.28463092 4287655680
1.1682488 1.1559122 -0.2884424 4287655680
1.1680769 1.155817 -0.28951809 4287655680
1.1581382 1.146073 -0.28782979 4287655680
1.1608516 1.1488264 -0.28894228 4287655680
1.1509975 1.139163 -0.28659123 4287525120
1.141185 1.1295389 -0.28391692 4287525120
1.2015184 1.189225 -0.29832399 4287786240
1.1784798 1.1665318 -0.29168281 4287655680
1.1680895 1.1563346 -0.28785905 4287655680
1.1486276 1.1371703 -0.2815029 4287525120
1.2002352 1.1882448 -0.29216722 4287786240
1.2909542 1.2779828 -0.31174684 4288308480
1.2984874 1.2855042 -0.31069508 4288308480
1.3311647 1.3178813 -0.31519786 4288439040
1.338941 1.3256449 -0.31333935 4288439040
1.3445256 1.331242 -0.3105672 4288439040
1.3439908 1.3307886 -0.30600825 4288439040
1.343698 1.330574 -0.30115438 4288439040
1.340712 1.3276955 -0.2953631 4288439040
1.3226734 1.3099314 -0.28600293 4288439040
1.3199667 1.3073263 -0.27971402 4288308480
1.327351 1.3147004 -0.27522108 4288439040
1.3634683 1.350492 -0.27616289 4288569600
1.3528496 1.3400617 -0.26720864 4288569600
1.3451335 1.3325006 -0.25861844 4288439040
1.3186603 1.306384 -0.24631608 4288308480
1.326857 1.3145607 -0.24030817 4288439040
1.339982 1.3276135 -0.23479885 4288439040
1.3491191 1.3367214 -0.22819513 4288439040
1.3288299 1.3167161 -0.21643199 4288439040
1.3219193 1.3099455 -0.20677789 4288308480
1.3462334 1.3340701 -0.2016611 4288439040
1.3489056 1.3367814 -0.19290043 4288439040
1.3350544 1.3231413 -0.181642 4288439040
1.3205401 1.3088431 -0.17029233 4288308480
1.3362261 1.324432 -0.16263978 4288439040
1.3455991 1.3337739 -0.15385807 4288439040
1.3304564 1.3188511 -0.14214899 4288308480
1.3290428 1.3175163 -0.13187644 4288308480
1.3414514 1.3298632 -0.12274762 4288439040
1.348267 1.3366745 -0.11282468 4288439040
1.3403094 1.328861 -0.10155225 4288439040
1.3281395 1.3168764 -0.090010881 4288308480
1.3362061 1.3249259 -0.079777762 4288439040
1.3367215 1.3254995 -0.068938278 4288439040
1.3109472 1.3000419 -0.056873247 4288308480
1.326087 1.3150954 -0.046612993 4288308480
1.3395813 1.3285207 -0.036009088 4288439040
1.342573 1.3315464 -0.024947172 4288439040
1.3291239 1.3182902 -0.013638378 4288308480
1.3532318 1.3422291 -0.0026174509 4288439040
1.3641462 1.3531029 0.0087244557 4288569600
1.3478826 1.3370582 0.019842271 4288439040
1.4290785 1.4175491 0.032894861 4288830720
1.5858027 1.5728651 0.04960734 4289614080
1.6049287 1.5918869 0.063436903 4289614080
1.5980761 1.585174 0.076275878 4289614080
1.5919352 1.5791656 0.08895915 4289614080
1.6049933 1.5921788 0.10267013 4289614080
1.6056993 1.5929548 0.11559225 4289614080
1.5848374 1.57236 0.12667967 4289614080
1.5937986 1.5813158 0.13991092 4289614080
1.5992711 1.5868154 0.152796 4289614080
1.5908444 1.5785416 0.16416645 4289614080
1.57739 1.5652846 0.17467292 4289614080
1.6093736 1.5970608 0.19014347 4289744640
1.6208286 1.6084933 0.20330395 4289744640
1.6079443 1.5958019 0.21318386 4289744640
1.5978175 1.5858434 0.22302945 4289614080
1.5680009 1.5563656 0.2296091 4289483520
1.6069676 1.5950741 0.24604255 4289744640
1.6013973 1.5896325 0.25561804 4289744640
1.5975286 1.585878 0.26511756 4289744640
1.5895789 1.5780776 0.27356988 4289614080
1.5768411 1.565529 0.28076687 4289614080
1.5988294 1.5874146 0.29387 4289744640
1.6031663 1.5917988 0.30355164 4289744640
1.5993521 1.5881006 0.31135139 4289744640
1.5965254 1.5853819 0.31895378 4289744640
1.5870304 1.5760498 0.32480124 4289614080
1.589376 1.5784618 0.33266094 4289614080
1.5930122 1.5821549 0.34043548 4289744640
1.5856535 1.5749425 0.34545779 4289614080
1.5835825 1.5729755 0.35119331 4289614080
1.5783548 1.5678773 0.35579681 4289614080
1.5805424 1.5701364 0.36164555 4289614080
1.5802381 1.569924 0.36651173 4289614080
1.5834183 1.5731699 0.37176684 4289614080
1.5785195 1.5684 0.37469134 4289614080
1.5693448 1.5593871 0.37613156 4289614080
1.5766832 1.5667622 0.3810778 4289614080
1.5728155 1.5630169 0.38288194 4289614080
1.5794898 1.5697355 0.38680309 4289614080
1.5725067 1.5628991 0.38693276 4289614080
1.5722939 1.5627835 0.38826352 4289614080
1.5651451 1.5557832 0.3874239 4289614080
1.5752503 1.5659125 0.39039254 4289614080
1.5682117 1.5590224 0.38866314 4289614080
1.5737479 1.5646182 0.3895874 4289614080
1.57871 1.5696455 0.38990769 4289614080
1.5763283 1.5673815 0.38795826 4289614080
1.577378 1.5685258 0.38639757 4289614080
1.5710683 1.5623618 0.38259143 4289614080
1.5800477 1.5713837 0.38204813 4289614080
1.5773484 1.568807 0.3782278 4289614080
1.5834522 1.5749757 0.37606433 4289614080
1.5815216 1.5731642 0.37154737 4289614080
1.5815808 1.57333 0.36706859 4289614080
1.5783334 1.5702113 0.36140609 4289614080
1.5748708 1.5668792 0.35529611 4289614080
1.5633968 1.5555861 0.34702268 4289614080
1.5741979 1.566429 0.34328377 4289614080
1.5914704 1.583706 0.34044358 4289744640
1.6000438 1.5923399 0.33524373 4289744640
1.591071 1.5835346 0.3259916 4289744640
1.5659435 1.5592915 0.26557535 4289483520
1.6003264 1.5936029 0.26142555 4289744640
1.6157002 1.6090131 0.2535688 4289744640
1.5775594 1.571195 0.23719561 4289614080
1.5590008 1.5528519 0.22387186 4289483520
1.5789806 1.5728461 0.21580833 4289614080
1.5898424 1.5837722 0.20604511 4289614080
1.5707655 1.5649112 0.19224046 4289483520
1.5562286 1.5505655 0.17902079 4289483520
1.5753331 1.5696963 0.16942796 4289614080
1.5785661 1.5730345 0.15777653 4289614080
1.5744094 1.5690185 0.14522079 4289483520
1.5661813 1.5609496 0.13222583 4289483520
1.5800142 1.5748407 0.12089729 4289614080
1.4497283 1.4452583 0.099367611 4288961280
1.3503457 1.346424 0.081680745 4288439040
1.355956 1.3521149 0.070986569 4288439040
1.3560266 1.3522906 0.059878457 4288439040
1.3484584 1.3448594 0.048429471 4288439040
1.3046937 1.3013781 0.036057491 4288308480
1.3365095 1.3331684 0.025817001 4288439040
1.3296564 1.3264464 0.014599173 4288308480
1.3172122 1.3141539 0.003463943 4288308480
1.3184569 1.3154967 -0.0075498275 4288308480
1.3197103 1.3168484 -0.018578421 4288308480
1.3252801 1.3225011 -0.029707255 4288308480
1.3166939 1.3140486 -0.040462069 4288308480
1.3290287 1.3264434 -0.051851407 4288308480
1.3418901 1.3393649 -0.063415363 4288439040
1.3373611 1.3349552 -0.074158132 4288439040
1.304096 1.3019011 -0.082919359 4288308480
1.3407586 1.3385497 -0.09606982 4288439040
1.3437812 1.3416669 -0.10702486 4288439040
1.3405573 1.3385564 -0.11736637 4288439040
1.2842532 1.2825196 -0.12246733 4288177920
1.3471041 1.3452913 -0.13884927 4288439040
1.3577995 1.3560606 -0.150269 4288569600
1.3537816 1.3521574 -0.15994851 4288569600
1.3104711 1.3090628 -0.16446324 4288308480
1.080732 1.0800041 -0.14342718 4287264000
1.3466831 1.3453851 -0.18824139 4288439040
1.349171 1.3479687 -0.1979188 4288439040
1.3352276 1.3341588 -0.20489146 4288439040
1.1912847 1.1906364 -0.19065174 4287786240
1.0911899 1.0908458 -0.18162948 4287264000
1.3570676 1.3562521 -0.23431656 4288569600
1.3549347 1.3542237 -0.2421184 4288569600
1.3479609 1.3473631 -0.24873133 4288569600
1.3088971 1.3084705 -0.24888578 4288308480
1.1351899 1.1351686 -0.22200893 4287525120
1.3428171 1.3425223 -0.26956439 4288439040
1.3400024 1.3398089 -0.27564797 4288439040
1.3372421 1.3371487 -0.28140283 4288439040
1.3399583 1.3399559 -0.28798854 4288439040
1.3311874 1.3312922 -0.29175282 4288439040
1.3068067 1.3070379 -0.29162925 4288308480
1.2946551 1.2949932 -0.2937564 4288308480
1.248824 1.2493075 -0.28770322 4288047360
1.2087514 1.2093669 -0.28235683 4287916800
1.1571126 1.1578664 -0.2737039 4287655680
1.169971 1.1707902 -0.27986425 4287655680
1.1828555 1.1837412 -0.28577149 4287786240
1.1253012 1.1263165 -0.27424875 4287525120
1.1382635 1.1393428 -0.27948457 4287525120
1.1449858 1.1461349 -0.28289792 4287525120
1.1482607 1.1494821 -0.28514478 4287655680
1.1480913 1.1493871 -0.28620824 4287655680
1.1514448 1.1528124 -0.28781742 4287655680
1.1443917 1.1458359 -0.28649041 4287525120
1.1345944 1.136115 -0.28413874 4287525120
1.1276239 1.129218 -0.28216317 4287525120
1.1883049 1.1899503 -0.29674679 4287786240
1.1681844 1.1699078 -0.29080382 4287655680
1.1550671 1.1568639 -0.28629366 4287655680
1.2132978 1.2151573 -0.29905751 4287916800
1.1932955 1.1952288 -0.29215437 4287786240
1.2737333 1.2757372 -0.30936459 4288177920
1.3033293 1.3054098 -0.31365168 4288308480
1.3206784 1.3228368 -0.31451973 4288439040
1.327711 1.3299469 -0.31250462 4288439040
1.3367503 1.3390642 -0.31055281 4288439040
1.3354336 1.3378232 -0.3058143 4288439040
1.3380235 1.3404891 -0.30161247 4288439040
1.3266711 1.3292069 -0.29395655 4288439040
1.3115289 1.3141313 -0.28522933 4288308480
1.3053405 1.3080118 -0.27821064 4288308480
1.3161755 1.3189238 -0.27447796 4288439040
1.3513846 1.3542259 -0.27529395 4288569600
1.3478835 1.3507948 -0.26776227 4288569600
1.3275459 1.3305142 -0.25670877 4288439040
1.3154168 1.3184457 -0.24712582 4288308480
1.3191789 1.3222798 -0.24029396 4288439040
1.3273205 1.3304971 -0.23391992 4288439040
1.334996 1.3382484 -0.22710657 4288439040
1.3211392 1.3244464 -0.21641776 4288439040
1.3072441 1.3106042 -0.20565888 4288308480
1.3321165 1.3355699 -0.20069394 4288439040
1.3375821 1.3411088 -0.19238043 4288439040
1.3273261 1.3309076 -0.18162771 4288439040
1.3128952 1.316525 -0.17027819 4288308480
1.3281372 1.3318515 -0.16258225 4288439040
1.3378085 1.3416011 -0.15384366 4288439040
1.3121841 1.3160069 -0.14099877 4288308480
1.3185278 1.3224238 -0.13158074 4288308480
1.3372091 1.3411968 -0.12305786 4288439040
1.3404595 1.3445169 -0.11281023 4288439040
1.3226701 1.3267642 -0.10078461 4288308480
1.3204476 1.3246018 -0.089996658 4288308480
1.3214083 1.3256274 -0.079339027 4288308480
1.3219188 1.3262022 -0.068557136 4288308480
1.3054101 1.3097274 -0.056949142 4288308480
1.3155804 1.3199784 -0.046498615 4288308480
1.3388844 1.3433883 -0.03618649 4288439040
1.3421613 1.3467354 -0.025071345 4288439040
1.3214234 1.3260207 -0.013624135 4288308480
1.3425659 1.3472682 -0.0025970619 4288439040
1.3562423 1.3610365 0.0087390738 4288569600
1.3400618 1.3448865 0.019856559 4288439040
1.4144416 1.4194899 0.03276401 4288830720
1.5766145 1.5820861 0.049624335 4289614080
1.5920993 1.5976808 0.063314304 4289614080
1.588816 1.5944661 0.076293007 4289614080
1.5756528 1.5813482 0.088580765 4289614080
1.582287 1.5880736 0.1018272 4289614080
1.5893403 1.5952203 0.11510006 4289614080
1.5657806 1.5716789 0.12590496 4289483520
1.5810367 1.5870494 0.13961755 4289614080
1.5900011 1.5961138 0.15281315 4289614080
1.5834887 1.589662 0.16437678 4289614080
1.5583899 1.5645735 0.17359431 4289483520
1.5965253 1.6028897 0.1897434 4289744640
1.6079152 1.61439 0.20287846 4289744640
1.5986216 1.6051503 0.21320111 4289744640
1.5815265 1.588086 0.22206184 4289614080
1.5420536 1.5485772 0.2271478 4289483520
1.5878222 1.5945601 0.24454898 4289614080
1.5886028 1.5954241 0.25507295 4289614080
1.5847579 1.5916487 0.26455045 4289614080
1.5733517 1.5802886 0.27237579 4289614080
1.5606911 1.5676696 0.27953142 4289614080
1.5832553 1.5903885 0.29272422 4289614080
1.5840715 1.5912911 0.30170625 4289614080
1.5865779 1.59389 0.31068495 4289744640
1.5767795 1.5841434 0.31686744 4289614080
1.5715358 1.5789669 0.32352602 4289614080
1.5668882 1.5743885 0.32988939 4289614080
1.5739986 1.5816102 0.33835557 4289614080
1.5729648 1.5806599 0.34471166 4289614080
1.5657783 1.5735347 0.3492915 4289614080
1.5691952 1.5770526 0.35581374 4289614080
1.5644028 1.5723313 0.36006153 4289614080
1.5682808 1.5763139 0.3658798 4289614080
1.5610006 1.569096 0.36866477 4289614080
1.565877 1.5740827 0.37387872 4289614080
1.5581563 1.5664232 0.37564811 4289614080
1.5598183 1.5681844 0.37922272 4289614080
1.5574257 1.5658755 0.38136867 4289614080
1.5633669 1.5719357 0.38511005 4289614080
1.5633759 1.5720401 0.38694963 4289614080
1.5562136 1.5649431 0.3865566 4289614080
1.5525813 1.5613915 0.38657683 4289614080
1.5563732 1.5652975 0.38798785 4289614080
1.556324 1.5653464 0.38798809 4289614080
1.5583532 1.5674839 0.38804933 4289614080
1.5563365 1.5655581 0.38664943 4289614080
1.556747 1.5660713 0.38539833 4289614080
1.5643504 1.5738126 0.3854638 4289614080
1.5615922 1.5711442 0.38252303 4289614080
1.5604386 1.5700887 0.37953243 4289614080
1.5681832 1.5779762 0.37824473 4289614080
1.5619749 1.5718424 0.37315306 4289614080
1.5682055 1.5782111 0.3705909 4289614080
1.5696054 1.5797257 0.36643666 4289614080
1.5594138 1.569589 0.35918164 4289614080
1.5594493 1.5697334 0.35389289 4289614080
1.5506158 1.5609615 0.3462162 4289483520
1.5615621 1.5720767 0.34253752 4289614080
1.5841273 1.5948772 0.34087086 4289744640
1.5774888 1.5883148 0.33247226 4289614080
1.5720507 1.5829594 0.32399848 4289614080
1.5470355 1.5585364 0.26392344 4289483520
1.5840142 1.5958605 0.26029408 4289614080
1.5929894 1.6050115 0.25148845 4289744640
1.5718851 1.5838933 0.23774165 4289614080
1.5464232 1.558387 0.22338311 4289483520
1.5627768 1.574965 0.21486263 4289614080
1.577783 1.5901896 0.20569693 4289614080
1.5517938 1.5641484 0.19104964 4289483520
1.5391978 1.5515871 0.17811689 4289483520
1.5591366 1.5717808 0.16868633 4289483520
1.5693768 1.5822124 0.15779351 4289614080
1.5617278 1.5746322 0.14491226 4289483520
1.550029 1.5629727 0.1316468 4289483520
1.5746298 1.5878699 0.12120719 4289614080
1.4380171 1.4503962 0.099158525 4288961280
1.360007 1.3719307 0.082757935 4288569600
1.3382014 1.3500714 0.070484109 4288439040
1.3446068 1.3566297 0.059737343 4288439040
1.3444254 1.356553 0.04858138 4288439040
1.2801892 1.2919346 0.035604674 4288177920
1.3280729 1.340287 0.025818875 4288439040
1.32543 1.3377286 0.014651828 4288439040
1.3158644 1.3281928 0.0034939249 4288308480
1.3072513 1.3196155 -0.0075148675 4288308480
1.3151866 1.3277174 -0.018609483 4288308480
1.3219639 1.3346534 -0.029792909 4288308480
1.3090185 1.3217069 -0.040447894 4288308480
1.3145925 1.32743 -0.051573969 4288308480
1.3305479 1.3436216 -0.063233331 4288439040
1.3295636 1.3427339 -0.074143738 4288439040
1.3055274 1.3185989 -0.083483852 4288308480
1.3286338 1.3420051 -0.095744751 4288439040
1.3324848 1.3459935 -0.10673305 4288439040
1.3327389 1.346354 -0.11735193 4288439040
1.2669286 1.2800701 -0.12150992 4288177920
1.3357358 1.3495853 -0.13847071 4288439040
1.3428609 1.3568778 -0.14947303 4288439040
1.3461843 1.3603351 -0.15996963 4288569600
1.3048204 1.3186992 -0.16470098 4288308480
1.1347483 1.1471691 -0.15146759 4287525120
1.3388251 1.3532188 -0.18822688 4288439040
1.3342973 1.3487511 -0.19687147 4288439040
1.3315625 1.3460922 -0.20551398 4288439040
1.2309719 1.2446501 -0.19814493 4287916800
1.0848191 1.0971951 -0.18161771 4287264000
1.3421608 1.357094 -0.23308916 4288569600
1.3435345 1.3585813 -0.24147661 4288569600
1.3303231 1.3453408 -0.24690442 4288439040
1.2914919 1.306226 -0.24700512 4288308480
1.1936312 1.20749 -0.23479103 4287786240
1.3314929 1.3468163 -0.26884693 4288439040
1.32243 1.3377593 -0.2736176 4288439040
1.325953 1.3414137 -0.28065228 4288439040
1.3286545 1.3442382 -0.28722265 4288439040
1.3164601 1.3320134 -0.29020667 4288439040
1.305084 1.320613 -0.29294133 4288439040
1.2905645 1.3060343 -0.29453459 4288308480
1.2318081 1.246752 -0.28543869 4288047360
1.1954426 1.2100883 -0.28087711 4287786240
1.1468818 1.161094 -0.27286664 4287655680
1.1596658 1.1740935 -0.27901787 4287655680
1.1662364 1.1808137 -0.28340158 4287655680
1.1124858 1.1265596 -0.27270848 4287394560
1.1219089 1.13616 -0.27707803 4287525120
1.1285937 1.1429926 -0.28047681 4287525120
1.1415476 1.1561639 -0.28513241 4287655680
1.1413788 1.1560678 -0.28619584 4287655680
1.1377878 1.1525109 -0.28606513 4287525120
1.1376998 1.1524951 -0.28647807 4287525120
1.1279594 1.1427174 -0.28412649 4287525120
1.1175674 1.1322787 -0.28128025 4287525120
1.1744316 1.1898619 -0.2949959 4287786240
1.1648141 1.1802071 -0.29165757 4287655680
1.1448483 1.1600828 -0.28541851 4287655680
1.206201 1.222217 -0.2990444 4287916800
1.1828516 1.1986684 -0.29128906 4287786240
1.2662824 1.2831479 -0.30935082 4288177920
1.2922401 1.3094867 -0.31279933 4288308480
1.3157252 1.333326 -0.31516933 4288439040
1.3202404 1.3379718 -0.31256056 4288439040
1.3254614 1.3433317 -0.30972838 4288439040
1.3179061 1.3357618 -0.30356351 4288439040
1.320477 1.3384386 -0.2993958 4288439040
1.3154361 1.3334112 -0.29316881 4288439040
1.3038538 1.3217615 -0.28521517 4288308480
1.2977011 1.3156059 -0.27819654 4288308480
1.3081236 1.326228 -0.27439064 4288439040
1.3330414 1.3515248 -0.27314231 4288439040
1.3365145 1.3551133 -0.26705271 4288569600
1.3155111 1.3339202 -0.25586542 4288439040
1.3007505 1.3190452 -0.24579576 4288308480
1.3081242 1.3265803 -0.23966946 4288308480
1.323036 1.3417491 -0.2345234 4288439040
1.3271797 1.3460144 -0.22709216 4288439040
1.3170464 1.335821 -0.21700357 4288439040
1.3030808 1.321745 -0.20619714 4288308480
1.3235306 1.3425236 -0.20056055 4288439040
1.325616 1.3447033 -0.19176812 4288439040
1.3192019 1.3382734 -0.18156511 4288439040
1.3052058 1.3241621 -0.17026401 4288308480
1.3133591 1.332487 -0.16170606 4288308480
1.3194696 1.3387426 -0.15261419 4288439040
1.307608 1.3267909 -0.14132084 4288308480
1.3073002 1.3265436 -0.13121469 4288308480
1.3217195 1.3412178 -0.12233444 4288439040
1.3291551 1.3488168 -0.11250344 4288439040
1.3114136 1.3309039 -0.10050132 4288308480
1.3056949 1.3251725 -0.089500941 4288308480
1.3140153 1.3336679 -0.079345904 4288308480
1.3106632 1.3303342 -0.068359479 4288308480
1.2942501 1.3137628 -0.05678067 4288308480
1.3078704 1.32763 -0.046484396 4288308480
1.3240157 1.344058 -0.03598034 4288439040
1.3202504 1.3403049 -0.02479125 4288439040
1.3136781 1.3337061 -0.013609851 4288308480
1.3346963 1.3550764 -0.0025825487 4288439040
1.3381088 1.3586001 0.0086892322 4288439040
1.3322062 1.35268 0.019871045 4288439040
1.3967392 1.4181738 0.032561526 4288700160
1.5613514 1.5851482 0.049451638 4289483520
1.5793062 1.6034294 0.063193642 4289614080
1.5696772 1.5937415 0.075837247 4289614080
1.5568898 1.5808498 0.088060781 4289483520
1.5730101 1.5972736 0.10184431 4289614080
1.570205 1.5945051 0.11440396 4289614080
1.5495899 1.5736732 0.1253563 4289483520
1.5647585 1.5891343 0.13901363 4289614080
1.5708709 1.5954112 0.15188438 4289614080
1.5707016 1.595317 0.16402911 4289614080
1.5471594 1.5715131 0.17337738 4289483520
1.5871617 1.6121715 0.18976067 4289744640
1.5914919 1.6166441 0.20201007 4289744640
1.5794603 1.6045171 0.21190819 4289614080
1.5722493 1.5972805 0.22207893 4289614080
1.5364982 1.5610845 0.2276808 4289483520
1.5819962 1.6073314 0.24510576 4289744640
1.5846797 1.6101362 0.25596035 4289744640
1.5719744 1.5973246 0.26398331 4289614080
1.5543662 1.5795363 0.27069712 4289614080
1.5452662 1.570382 0.2784211 4289483520
1.5704848 1.5960605 0.29209524 4289614080
1.5678197 1.5934393 0.3003929 4289614080
1.5703145 1.5960561 0.3093349 4289614080
1.5612715 1.5869612 0.31562236 4289614080
1.5553669 1.5810521 0.32210714 4289614080
1.5507494 1.5764498 0.32843858 4289614080
1.564759 1.59076 0.33837259 4289614080
1.5637307 1.5898036 0.34472868 4289614080
1.5565858 1.5826367 0.34930846 4289614080
1.5527689 1.5788494 0.35418797 4289614080
1.5579017 1.5841513 0.36069903 4289614080
1.559072 1.5854301 0.36589679 4289614080
1.5449133 1.5711409 0.36703998 4289614080
1.5497627 1.5761577 0.37223649 4289614080
1.544155 1.5705538 0.3744905 4289614080
1.5471996 1.5737394 0.37839535 4289614080
1.5448215 1.5714172 0.38053539 4289614080
1.5479633 1.5747036 0.3835879 4289614080
1.5410625 1.5677878 0.38370243 4289614080
1.5408528 1.5676706 0.38502195 4289614080
1.5406961 1.5676082 0.38590252 4289614080
1.5437747 1.5708343 0.3871398 4289614080
1.5437254 1.5708828 0.38714007 4289614080
1.5491959 1.5765424 0.3880662 4289614080
1.5437365 1.571094 0.38580433 4289614080
1.54138 1.5688001 0.38386902 4289614080
1.5458695 1.5734656 0.38318229 4289614080
1.5455031 1.5731963 0.38083968 4289614080
1.5512663 1.5791594 0.37954932 4289614080
1.5492864 1.5772514 0.37591699 4289614080
1.5493349 1.5774066 0.37234038 4289614080
1.5527608 1.580997 0.36913037 4289614080
1.5569174 1.5853318 0.36564252 4289614080
1.5504904 1.5789042 0.35925546 4289614080
1.5468175 1.5752777 0.3531208 4289614080
1.5414968 1.5699753 0.34623301 4289483520
1.5523782 1.5811541 0.34255442 4289614080
1.5713447 1.6005603 0.34013903 4289744640
1.571677 1.601012 0.33322325 4289744640
1.5593348 1.5885689 0.32329756 4289614080
1.5437779 1.5734819 0.26494193 4289483520
1.5677302 1.5979824 0.25916252 4289614080
1.5766488 1.6071817 0.25040156 4289614080
1.5556645 1.5859373 0.23670046 4289614080
1.5373197 1.5673776 0.22339989 4289483520
1.5535764 1.5840505 0.21487959 4289614080
1.5650051 1.5958096 0.2052574 4289614080
1.5321866 1.562507 0.18977238 4289483520
1.5266428 1.5569799 0.177728 4289352960
1.5498022 1.5806899 0.16868664 4289483520
1.5531464 1.5842183 0.1571053 4289483520
1.5490345 1.5801514 0.14460371 4289483520
1.5396692 1.5707318 0.13155881 4289483520
1.5555624 1.5870477 0.12046798 4289483520
1.4257983 1.45494 0.098915018 4288961280
1.3345703 1.3620837 0.081709839 4288439040
1.3339684 1.3615764 0.070691429 4288439040
1.3358957 1.3636471 0.059716929 4288439040
1.3302009 1.3579488 0.048368096 4288439040
1.272643 1.2993799 0.035618573 4288177920
1.3167433 1.3444414 0.02576541 4288439040
1.3212709 1.3491629 0.014706285 4288439040
1.3046056 1.3322759 0.0034993789 4288308480
1.2941248 1.3216928 -0.0074685854 4288308480
1.303931 1.3317966 -0.018544927 4288308480
1.3106682 1.3387722 -0.029698791 4288308480
1.2942995 1.3221815 -0.040215362 4288308480
1.3103381 1.338645 -0.051698118 4288308480
1.3261982 1.3549289 -0.063386425 4288439040
1.321721 1.350467 -0.074129291 4288439040
1.2915325 1.3197713 -0.0830644 4288308480
1.3207954 1.3497329 -0.09573032 4288439040
1.3211292 1.3501784 -0.10643686 4288439040
1.3150955 1.3441255 -0.11647082 4288439040
1.2807286 1.3091544 -0.12354958 4288177920
1.3237261 1.3531421 -0.13802572 4288439040
1.3251685 1.3547187 -0.14836466 4288439040
1.3312656 1.3610467 -0.15912138 4288439040
1.3006034 1.3298472 -0.1651293 4288308480
1.125262 1.150926 -0.15108112 4287525120
1.3309214 1.3610065 -0.18821232 4288439040
1.3229401 1.3529594 -0.19634062 4288439040
1.3139628 1.3438934 -0.20398802 4288439040
1.2202269 1.2482615 -0.19756889 4287916800
1.0679896 1.0928627 -0.1798514 4287264000
1.3370727 1.3678004 -0.23357019 4288569600
1.3328235 1.363561 -0.24096027 4288569600
1.3259337 1.3566228 -0.2475372 4288439040
1.2838631 1.3137393 -0.24699108 4288308480
1.1052636 1.13135 -0.21869566 4287394560
1.3173946 1.3481938 -0.26756716 4288439040
1.3166957 1.3475766 -0.27403566 4288439040
1.3118929 1.3427647 -0.27931291 4288439040
1.3076669 1.3385412 -0.2843529 4288439040
1.3052253 1.3361402 -0.28942651 4288439040
1.2911544 1.3218508 -0.29152417 4288308480
1.2725801 1.3029553 -0.29214418 4288308480
1.2245268 1.2539189 -0.28542528 4288047360
1.1780273 1.2064637 -0.27841973 4287786240
1.1269981 1.15437 -0.26972017 4287525120
1.1466047 1.1744968 -0.2775045 4287655680
1.165543 1.1939424 -0.28490412 4287786240
1.1059067 1.1330332 -0.27269638 4287394560
1.1118298 1.139166 -0.27621076 4287525120
1.1219187 1.1495599 -0.28046453 4287525120
1.1217135 1.1494249 -0.28183514 4287525120
1.1311852 1.1591883 -0.28531575 4287525120
1.134499 1.1626525 -0.28692263 4287655680
1.1178916 1.1457356 -0.28315532 4287525120
1.1047674 1.13238 -0.27993143 4287394560
1.1047606 1.1324437 -0.27970082 4287394560
1.1640413 1.193174 -0.29411411 4287786240
1.1510384 1.1799409 -0.28991225 4287655680
1.1284359 1.1568813 -0.28299063 4287525120
1.1887357 1.2186655 -0.29645729 4287916800
1.2217798 1.2525595 -0.30264652 4288047360
1.2587887 1.2905153 -0.30933705 4288177920
1.2845925 1.3170049 -0.31278524 4288308480
1.3017364 1.3346317 -0.31366143 4288439040
1.3158727 1.3491808 -0.3133665 4288439040
1.3107209 1.3439834 -0.30809402 4288439040
1.310105 1.343429 -0.30354917 4288439040
1.3092101 1.3425882 -0.29859495 4288439040
1.3097217 1.3431869 -0.29361904 4288439040
1.2992407 1.332528 -0.28588417 4288439040
1.2834133 1.3163921 -0.27675891 4288308480
1.2969222 1.3302988 -0.27364755 4288308480
1.327974 1.362174 -0.27371001 4288569600
1.3189149 1.352968 -0.26509225 4288439040
1.3042599 1.3380282 -0.25517428 4288439040
1.2930467 1.3266121 -0.24578159 4288308480
1.3003764 1.3341901 -0.2396552 4288308480
1.3117338 1.3458948 -0.2338912 4288439040
1.3117502 1.3459809 -0.22577542 4288439040
1.2988371 1.332819 -0.21526471 4288308480
1.2962364 1.3302219 -0.20632222 4288308480
1.312217 1.3466642 -0.2000169 4288439040
1.3177623 1.3524143 -0.19175369 4288439040
1.3016536 1.3359736 -0.18020345 4288308480
1.2880334 1.3220811 -0.16901125 4288308480
1.3021523 1.3366168 -0.16126761 4288308480
1.3074766 1.3421396 -0.15211414 4288439040
1.2935919 1.3279734 -0.14062513 4288308480
1.2963678 1.3308833 -0.13087882 4288308480
1.3173701 1.3524771 -0.12264456 4288439040
1.3212771 1.3565476 -0.11248895 4288439040
1.3106127 1.3456798 -0.10102493 4288439040
1.2960446 1.3308083 -0.08935485 4288308480
1.3027377 1.3377343 -0.079119444 4288308480
1.30948 1.3447112 -0.068691336 4288308480
1.2900661 1.3248683 -0.056920882 4288308480
1.2966263 1.3316582 -0.046344999 4288308480
1.3153807 1.3509538 -0.035944365 4288439040
1.3159122 1.3515629 -0.02484321 4288439040
1.2992061 1.3344933 -0.013524998 4288308480
1.3190157 1.3548738 -0.0025517882 4288439040
1.3301734 1.366382 0.008703826 4288439040
1.3145434 1.3504145 0.019740662 4288439040
1.3873413 1.4251529 0.032550804 4288700160
1.5416242 1.5834882 0.049136732 4289483520
1.5636114 1.6061194 0.062957115 4289614080
1.550294 1.5925332 0.075366452 4289483520
1.5473605 1.5895994 0.088061035 4289483520
1.5601935 1.6028422 0.10163504 4289614080
1.5539204 1.5964822 0.11391153 4289614080
1.5355109 1.5776684 0.12497654 4289483520
1.5492066 1.5917987 0.13847174 4289483520
1.5615513 1.604544 0.15190151 4289614080
1.5497943 1.592556 0.16283143 4289614080
1.5331007 1.5755006 0.17284539 4289483520
1.5645313 1.6078374 0.18819194 4289614080
1.579268 1.6230425 0.20167308 4289744640
1.5700874 1.6136993 0.21192543 4289614080
1.5601411 1.6035695 0.22170214 4289614080
1.5204387 1.5628922 0.22666486 4289483520
1.5788499 1.6229376 0.24609439 4289744640
1.5602025 1.6038748 0.25353292 4289614080
1.5529423 1.5965024 0.26236436 4289614080
1.5513723 1.5949723 0.27180424 4289614080
1.5291708 1.5722574 0.27718544 4289483520
1.561161 1.60519 0.29211238 4289614080
1.5585114 1.6025532 0.30041 4289614080
1.5582266 1.6023455 0.30880511 4289614080
1.5520011 1.5960369 0.31563941 4289614080
1.5426791 1.586548 0.32140613 4289614080
1.5353302 1.5790855 0.32713446 4289483520
1.5485694 1.5927713 0.33689168 4289614080
1.5447925 1.5889791 0.34260872 4289614080
1.541139 1.585314 0.34792763 4289614080
1.531431 1.575429 0.35142925 4289483520
1.5424513 1.5868407 0.35927504 4289614080
1.5394872 1.5838856 0.36348024 4289614080
1.5391749 1.5836557 0.36787772 4289614080
1.5405552 1.5851661 0.37225342 4289614080
1.5315425 1.5759968 0.37366992 4289614080
1.5311327 1.5756686 0.37672368 4289614080
1.5322057 1.5768653 0.37970209 4289614080
1.5318937 1.5766394 0.38189465 4289614080
1.5284691 1.5732149 0.38286024 4289483520
1.5248264 1.5695665 0.38331485 4289483520
1.521237 1.5659733 0.38332751 4289483520
1.5345982 1.5798078 0.38715667 4289614080
1.5276816 1.5727954 0.38542706 4289483520
1.5365525 1.5820168 0.38721919 4289614080
1.5345584 1.5800673 0.38582119 4289614080
1.5322155 1.5777596 0.38388586 4289614080
1.5232431 1.5686345 0.37985417 4289483520
1.533565 1.5793537 0.38017642 4289614080
1.5324223 1.5782826 0.37720227 4289614080
1.5366365 1.5827225 0.37509647 4289614080
1.5357549 1.5819219 0.37130356 4289614080
1.5366496 1.5829494 0.36750555 4289614080
1.540779 1.5873058 0.36403713 4289614080
1.5350752 1.5815459 0.35783136 4289614080
1.5341743 1.5807283 0.35234869 4289614080
1.5254411 1.5718513 0.34469667 4289483520
1.5334996 1.5802549 0.34043431 4289614080
1.5523489 1.5997665 0.33805895 4289614080
1.5591694 1.6069006 0.33256856 4289614080
1.5500549 1.5976332 0.32331461 4289614080
1.520753 1.5682101 0.26257458 4289483520
1.5521675 1.6006817 0.25814572 4289614080
1.5672604 1.6163472 0.25041881 4289614080
1.5394739 1.5878462 0.23565918 4289483520
1.5184625 1.5663208 0.22200109 4289483520
1.5380839 1.5866542 0.21403004 4289483520
1.5522155 1.6013349 0.20481785 4289614080
1.5228806 1.5712304 0.1897669 4289483520
1.5140773 1.5622791 0.17733908 4289352960
1.530153 1.5789661 0.16756552 4289483520
1.5376408 1.5868049 0.15648752 4289483520
1.53633 1.5855764 0.14429516 4289483520
1.5185102 1.5673306 0.13054805 4289352960
1.5355691 1.5850377 0.11965173 4289483520
1.4075638 1.4531929 0.098253168 4288830720
1.3161806 1.3590868 0.081084035 4288439040
1.3225369 1.3657469 0.070521303 4288439040
1.3251474 1.3685455 0.059606932 4288439040
1.3153101 1.3585075 0.048129391 4288439040
1.2615737 1.3031923 0.035535172 4288177920
1.3088906 1.3520989 0.02577983 4288439040
1.3064305 1.3496672 0.014643914 4288308480
1.2905599 1.333401 0.0034977002 4288308480
1.2829252 1.325629 -0.0074337167 4288308480
1.2989904 1.3423084 -0.018571615 4288308480
1.2931069 1.3363427 -0.029461209 4288308480
1.283794 1.3268373 -0.040113889 4288308480
1.2990415 1.3426765 -0.05154537 4288308480
1.3105481 1.3546574 -0.062999226 4288439040
1.3141311 1.3584615 -0.07413163 4288439040
1.2838243 1.3272833 -0.083050251 4288308480
1.2997096 1.3437855 -0.094752401 4288308480
1.3097702 1.3542767 -0.10614071 4288439040
1.3037732 1.3481898 -0.11614693 4288308480
1.2730825 1.3166039 -0.12353554 4288177920
1.3158231 1.3608415 -0.1380112 4288439040
1.3228067 1.3681586 -0.14897536 4288439040
1.3136119 1.358767 -0.15793982 4288439040
1.2893723 1.3338343 -0.16467258 4288308480
1.1116155 1.1503193 -0.15013352 4287394560
1.3126506 1.358085 -0.18672951 4288439040
1.3146914 1.3602962 -0.19627433 4288439040
1.302657 1.3479649 -0.20343383 4288439040
1.2094817 1.25179 -0.19699289 4287916800
1.0588448 1.0962222 -0.17937183 4287264000
1.3221817 1.3684448 -0.2323429 4288439040
1.32486 1.371314 -0.24094565 4288569600
1.3193984 1.3657702 -0.24778317 4288439040
1.2761905 1.321208 -0.246977 4288308480
1.1725996 1.2142186 -0.23339479 4287786240
1.3054506 1.3516495 -0.26672143 4288439040
1.3088255 1.3552363 -0.27402124 4288439040
1.3068551 1.353296 -0.27989885 4288439040
1.303286 1.3497018 -0.28508991 4288439040
1.2994229 1.3458024 -0.28985828 4288439040
1.2861811 1.3322026 -0.29213351 4288308480
1.2587938 1.3039703 -0.29070446 4288177920
1.2137737 1.2574953 -0.28460795 4288047360
1.1675528 1.209771 -0.27759206 4287786240
1.1202568 1.1609277 -0.2697078 4287525120
1.1328931 1.1740791 -0.27582452 4287655680
1.152405 1.1943452 -0.28337616 4287655680
1.0924416 1.1323822 -0.2709865 4287394560
1.1051774 1.1456355 -0.27619857 4287525120
1.1049373 1.1454624 -0.27787161 4287525120
1.1115791 1.1524104 -0.28095841 4287525120
1.1148354 1.1558551 -0.28287402 4287525120
1.1147088 1.1557981 -0.28360471 4287525120
1.1077799 1.1486996 -0.28227192 4287525120
1.107733 1.1487235 -0.28235915 4287525120
1.091306 1.1317898 -0.27794737 4287394560
1.1440741 1.1864892 -0.29079929 4287655680
1.1441478 1.1866384 -0.28989962 4287655680
1.1182586 1.1599048 -0.28211564 4287525120
1.1816188 1.2255819 -0.29644421 4287916800
1.2144649 1.259668 -0.30263308 4288047360
1.2652665 1.3123521 -0.3127858 4288308480
1.2700533 1.3173863 -0.3110947 4288308480
1.290247 1.3383777 -0.31275192 4288439040
1.3018268 1.350449 -0.31187552 4288439040
1.2963597 1.3448632 -0.30654055 4288439040
1.3043183 1.3531836 -0.3040145 4288439040
1.300743 1.3495556 -0.29843697 4288439040
1.2984467 1.3472519 -0.2928313 4288439040
1.2818487 1.3301299 -0.28374371 4288308480
1.2757255 1.3238583 -0.27674481 4288308480
1.2892067 1.3378991 -0.27364469 4288308480
1.3200186 1.3698992 -0.27369541 4288569600
1.3134816 1.3631982 -0.26557663 4288439040
1.2998855 1.3491803 -0.25583673 4288439040
1.2756625 1.3241469 -0.24392541 4288308480
1.2894844 1.3385416 -0.23906636 4288308480
1.2970433 1.3464458 -0.23265202 4288439040
1.2976853 1.3471805 -0.22468708 4288439040
1.2882943 1.3375146 -0.2147906 4288308480
1.2788073 1.3277477 -0.20476149 4288308480
1.2981389 1.3478559 -0.19904993 4288439040
1.3098637 1.3600794 -0.19173919 4288439040
1.2903961 1.3399628 -0.179708 4288308480
1.2830771 1.3324405 -0.16936208 4288308480
1.2978039 1.3477765 -0.16168413 4288308480
1.299638 1.3497446 -0.15209976 4288439040
1.2892967 1.3390864 -0.14098945 4288308480
1.2885948 1.3384236 -0.13086456 4288308480
1.3052292 1.3557401 -0.12223264 4288439040
1.3029612 1.3534532 -0.1115838 4288439040
1.2923572 1.3425196 -0.10020377 4288308480
1.288272 1.3383464 -0.08934059 4288308480
1.2914577 1.3417147 -0.078893021 4288308480
1.2884486 1.3386571 -0.067980409 4288308480
1.2691483 1.3186984 -0.056320406 4288177920
1.2819109 1.3320017 -0.046080545 4288308480
1.2908381 1.3413268 -0.035470232 4288308480
1.3045487 1.355616 -0.024762414 4288439040
1.298351 1.3492492 -0.013584309 4288308480
1.3111024 1.3625447 -0.0025372759 4288439040
1.3221927 1.3741175 0.0087184608 4288439040
1.3163594 1.3681289 0.019900147 4288439040
1.3766561 1.4307699 0.03251072 4288700160
1.5286132 1.5885476 0.049033649 4289483520
1.5542299 1.6152105 0.062974319 4289614080
1.5409919 1.6015469 0.075383507 4289483520
1.5380754 1.5985959 0.088078059 4289483520
1.5439004 1.6047187 0.10119928 4289614080
1.5376664 1.5983239 0.113419 4289483520
1.5214558 1.5815715 0.12459814 4289483520
1.5364466 1.5972111 0.1381782 4289483520
1.5452576 1.6064364 0.15124285 4289614080
1.5404918 1.6015661 0.16284849 4289614080
1.5142161 1.5743606 0.17176643 4289483520
1.5516833 1.6133438 0.18779175 4289614080
1.5697871 1.6322234 0.20169047 4289744640
1.5509931 1.6127863 0.21063229 4289614080
1.5404205 1.6018864 0.22024186 4289614080
1.5016509 1.5616999 0.22523572 4289352960
1.5500631 1.6120626 0.24308953 4289614080
1.5439421 1.6057862 0.25242537 4289614080
1.5436164 1.6055299 0.26238146 4289614080
1.5358596 1.5975543 0.27073109 4289614080
1.5199865 1.5811467 0.27720228 4289483520
1.5352805 1.5971185 0.28902787 4289614080
1.539528 1.6016154 0.29856426 4289614080
1.535128 1.5971283 0.30608752 4289614080
1.5358121 1.5979244 0.31425399 4289614080
1.5272354 1.5890976 0.32013068 4289483520
1.5295353 1.5915738 0.32788533 4289614080
1.5324098 1.5946481 0.33541062 4289614080
1.5320843 1.5943977 0.34186247 4289614080
1.5216047 1.583594 0.34561479 4289483520
