# .PCD v0.7 - Point Cloud Data file format
VERSION 0.7
FIELDS x y z rgba
SIZE 4 4 4 4
TYPE F F F U
COUNT 1 1 1 1
WIDTH 1072
HEIGHT 1
VIEWPOINT 0 0 0 1 0 0 0
POINTS 1072
DATA ascii
0.80993307 -1.1223816 -0.1788387 4286741760
0.83806294 -1.1612203 -0.17904121 4286872320
0.82943124 -1.149192 -0.17105915 4286872320
0.82408559 -1.1417112 -0.16366942 4286741760
0.8223505 -1.139226 -0.15687001 4286741760
0.82501286 -1.1428235 -0.15072863 4286741760
0.83678728 -1.1590232 -0.14596748 4286872320
0.82324088 -1.1402011 -0.13664912 4286741760
0.82413656 -1.1413538 -0.12968495 4286741760
0.8188678 -1.1339818 -0.12164898 4286741760
0.82787931 -1.1463562 -0.1155683 4286872320
0.82242465 -1.1387277 -0.107313 4286741760
0.82294357 -1.1393584 -0.099766932 4286741760
0.82621658 -1.1437963 -0.092412829 4286741760
0.83445811 -1.1551012 -0.085407563 4286872320
0.83489603 -1.1556181 -0.07743036 4286872320
0.81654221 -1.1301634 -0.067801014 4286741760
0.83266628 -1.1523597 -0.060986869 4286872320
0.83040667 -1.1491491 -0.052625362 4286872320
0.81430256 -1.1268089 -0.043512277 4286741760
0.82034069 -1.1350648 -0.035640631 4286741760
0.82801616 -1.1455816 -0.027667347 4286741760
0.83107144 -1.1497142 -0.019403961 4286872320
0.82418513 -1.1401136 -0.010926726 4286741760
0.83416533 -1.1538107 -0.0026363374 4286872320
0.8387661 -1.1600763 0.0058196029 4286872320
0.84257269 -1.165244 0.014346099 4286872320
0.8364495 -1.1566988 0.022664966 4286872320
0.84456789 -1.1678199 0.031358335 4286872320
0.84473705 -1.1679637 0.039805572 4286872320
0.85164219 -1.1774073 0.048592627 4286872320
0.82625937 -1.1422764 0.055311605 4286741760
0.8300215 -1.1473821 0.063695051 4286741760
0.83569789 -1.1551293 0.072244912 4286872320
0.83688498 -1.1566795 0.080393933 4286872320
0.81460643 -1.1258454 0.086008593 4286741760
0.82646912 -1.1421298 0.095016293 4286741760
0.82619774 -1.1416686 0.10263702 4286741760
0.83178967 -1.1492974 0.11091702 4286872320
0.81787765 -1.1300168 0.11640801 4286741760
0.82395816 -1.1383197 0.12453277 4286741760
0.83803868 -1.1576571 0.13389783 4286872320
0.85131162 -1.1758779 0.14321761 4287002880
0.84411442 -1.1658632 0.14899637 4286872320
0.81544518 -1.1262376 0.15053867 4286741760
0.82742202 -1.14267 0.1592534 4286872320
0.83287144 -1.1500995 0.16667131 4286872320
0.834382 -1.1520971 0.17316726 4286872320
0.83402449 -1.1515193 0.17908859 4286872320
0.80958307 -1.1177393 0.1794779 4286741760
0.81774789 -1.1289127 0.18675417 4286741760
0.82304937 -1.136138 0.1932534 4286741760
0.82282448 -1.1357454 0.19826987 4286741760
0.82048023 -1.1324323 0.20253412 4286741760
0.81783938 -1.1287113 0.20646355 4286741760
0.79748225 -1.100578 0.20557232 4286611200
0.80321997 -1.1084054 0.21107121 4286741760
0.80432117 -1.1098439 0.21514437 4286741760
0.80969566 -1.1171697 0.22013614 4286741760
0.80942875 -1.1167234 0.22336476 4286741760
0.8093248 -1.1165019 0.22637631 4286741760
0.80291486 -1.1075947 0.22734223 4286741760
0.80402035 -1.1090405 0.23014572 4286741760
0.80070037 -1.1043916 0.23141067 4286741760
0.79561025 -1.0973059 0.23187257 4286611200
0.79679263 -1.0988591 0.2338753 4286611200
0.79648501 -1.0983609 0.23516901 4286611200
0.79640973 -1.098183 0.23625387 4286611200
0.79925609 -1.102028 0.23792785 4286741760
0.79055136 -1.0899707 0.23588957 4286611200
0.79944766 -1.1021448 0.23880771 4286741760
0.79817289 -1.1003172 0.23841773 4286741760
0.79808599 -1.1001253 0.23810087 4286741760
0.80036563 -1.103191 0.23820615 4286741760
0.80362409 -1.1076038 0.23831651 4286741760
0.8076762 -1.1131085 0.23837207 4286741760
0.8059203 -1.1106207 0.23643543 4286741760
0.8061192 -1.1108235 0.23479578 4286741760
0.81156063 -1.1182398 0.23438981 4286741760
0.80620372 -1.1107992 0.23060077 4286741760
0.7996639 -1.1017326 0.2262399 4286741760
0.79680955 -1.0977374 0.22268483 4286611200
0.79492682 -1.0950795 0.21915786 4286611200
0.81845695 -1.1273763 0.22227302 4286741760
0.81920594 -1.1283373 0.21886098 4286741760
0.82539546 -1.1367807 0.21661232 4286872320
0.83063495 -1.1439171 0.21380915 4286872320
0.8102507 -1.1158172 0.20426412 4286741760
0.80750817 -1.1119791 0.19904236 4286741760
0.83770299 -1.1530584 0.17069817 4286872320
0.84069449 -1.1571031 0.16497573 4286872320
0.83724064 -1.1522894 0.15781087 4286872320
0.81545746 -1.1222872 0.14722455 4286741760
0.82639503 -1.137253 0.14244556 4286741760
0.8385371 -1.1538725 0.13752393 4286872320
0.83606094 -1.1504045 0.12997928 4286872320
0.81819737 -1.1257954 0.12008241 4286741760
0.83071649 -1.1429313 0.11453991 4286741760
0.83695847 -1.1514421 0.10784097 4286872320
0.83598882 -1.1500452 0.10004961 4286872320
0.82317156 -1.1323743 0.090863235 4286741760
0.84326029 -1.159904 0.085124008 4286872320
0.8523733 -1.1723559 0.077911921 4286872320
0.84523094 -1.162481 0.069116667 4286872320
0.83532709 -1.1488149 0.060185414 4286872320
0.85018253 -1.1691513 0.052913185 4286872320
0.85344964 -1.1735728 0.044687785 4286872320
0.84408468 -1.1606486 0.035816353 4286872320
0.83360499 -1.1461952 0.027055418 4286741760
0.83974212 -1.1545577 0.018841486 4286872320
0.83836228 -1.1525995 0.010392058 4286872320
0.83432585 -1.1469945 0.0019524338 4286872320
0.8229723 -1.1313456 -0.0063511762 4286741760
0.82296491 -1.1312728 -0.014625146 4286741760
0.82989752 -1.1407257 -0.02307863 4286741760
0.83370066 -1.1458824 -0.03152813 4286741760
0.83661944 -1.1498246 -0.039978139 4286872320
0.83427221 -1.1465396 -0.048139434 4286872320
0.84168708 -1.1566511 -0.056864157 4286872320
0.84311175 -1.1585417 -0.065209918 4286872320
0.833749 -1.1456302 -0.072573945 4286872320
0.83896863 -1.152728 -0.081090271 4286872320
0.84177142 -1.1565088 -0.089362465 4286872320
0.848037 -1.1650397 -0.097991578 4286872320
0.83812517 -1.151377 -0.10461213 4286872320
0.84578758 -1.161823 -0.11329143 4286872320
0.85272509 -1.1712732 -0.12188269 4286872320
0.85144323 -1.1694487 -0.12921749 4286872320
0.83739132 -1.1501101 -0.13434076 4286872320
0.83948672 -1.1529182 -0.14180279 4286872320
0.81707066 -1.122112 -0.14480224 4286741760
0.65587384 -0.90100384 -0.12156842 4285827840
0.68386334 -0.9393307 -0.13215965 4285958400
0.5736624 -0.78817898 -0.11529211 4285305600
0.61810887 -0.84907049 -0.12883407 4285566720
0.66282326 -0.91032213 -0.14294213 4285827840
0.6133582 -0.84245867 -0.1365754 4285566720
0.59803414 -0.82140309 -0.13720155 4285436160
-3.5431967 4.8550601 0.83478522 4278190335
0.59970659 -0.82359803 -0.14520772 4285436160
0.61343002 -0.8423574 -0.1521754 4285566720
0.63297856 -0.86909735 -0.16060564 4285697280
0.61592937 -0.84568107 -0.15959688 4285566720
0.60035008 -0.82428163 -0.15861601 4285566720
0.56824654 -0.78024274 -0.15286139 4285305600
0.54167795 -0.74379253 -0.14814682 4285175040
-3.5314751 4.8366537 0.9788686 4278190335
-3.5303376 4.834796 0.9920612 4278190335
-3.5292943 4.833066 1.0041294 4278190335
-3.5283508 4.8314714 1.0150604 4278190335
-3.5275121 4.8300185 1.0248429 4278190335
-3.5267825 4.8287134 1.0334662 4278190335
-3.5261662 4.8275619 1.0409216 4278190335
-3.5256667 4.8265686 1.047201 4278190335
-3.5252867 4.825738 1.0522982 4278190335
-3.5250287 4.8250723 1.0562075 4278190335
-3.5248947 4.8245745 1.0589252 4278190335
-3.5248859 4.8242464 1.0604481 4278190335
-3.525003 4.8240891 1.0607748 4278190335
-3.5252461 4.8241024 1.0599049 4278190335
-3.5256152 4.824286 1.0578394 4278190335
-3.526109 4.8246388 1.0545805 4278190335
-3.526726 4.8251586 1.0501313 4278190335
-3.5274642 4.8258419 1.0444968 4278190335
-3.5283208 4.8266854 1.0376825 4278190335
0.54280919 -0.74437404 -0.15864916 4285175040
0.5341379 -0.73245829 -0.15468161 4285175040
0.58282316 -0.79901689 -0.16699572 4285436160
0.62396431 -0.85524511 -0.17667381 4285697280
0.58752608 -0.80533892 -0.16420653 4285436160
0.61561406 -0.84370315 -0.16958173 4285566720
0.60481495 -0.82887286 -0.16399829 4285566720
0.60509783 -0.82920098 -0.16127335 4285566720
0.60830992 -0.83353484 -0.1591268 4285566720
0.62787855 -0.86023504 -0.16095443 4285697280
0.62003148 -0.8494432 -0.1555206 4285566720
0.63146544 -0.86501551 -0.15471821 4285697280
0.64601195 -0.88484067 -0.15434831 4285697280
0.68147796 -0.93326157 -0.15848452 4285958400
0.67755681 -0.92783332 -0.15309286 4285958400
0.76351911 -1.0452665 -0.16725712 4286480640
0.84613484 -1.1581081 -0.17932741 4286872320
0.83772105 -1.1465237 -0.1713945 4286872320
0.83159274 -1.138064 -0.16384704 4286872320
0.82752126 -1.1324159 -0.15660171 4286741760
0.83531225 -1.1429771 -0.15139727 4286872320
0.84940451 -1.1621457 -0.14699101 4286872320
0.83869112 -1.1474224 -0.13810776 4286872320
0.83092707 -1.1367301 -0.12971568 4286741760
0.83134854 -1.1372203 -0.12252314 4286741760
0.83749104 -1.1455244 -0.11598305 4286872320
0.83493859 -1.1419519 -0.1080826 4286872320
0.83090353 -1.1363549 -0.099934317 4286741760
0.84112334 -1.1502246 -0.093336128 4286872320
0.84648484 -1.1574582 -0.08595401 4286872320
0.84176975 -1.1509323 -0.07745152 4286872320
0.8295666 -1.1341844 -0.068340026 4286741760
0.84232086 -1.1515094 -0.061208833 4286872320
0.8372429 -1.1444899 -0.052642066 4286872320
0.82140583 -1.1227858 -0.043548446 4286741760
0.82989693 -1.1342889 -0.035775494 4286741760
0.84058869 -1.1487936 -0.02787145 4286872320
0.83495581 -1.1410189 -0.019345572 4286741760
0.83422047 -1.1399281 -0.01097933 4286741760
0.84915227 -1.1602142 -0.0026714499 4286872320
0.85142511 -1.1632262 0.0058515677 4286872320
0.85068709 -1.1621304 0.014361099 4286872320
0.84745783 -1.1576364 0.022771599 4286872320
0.86259151 -1.1781902 0.031761274 4287002880
0.85719091 -1.1707344 0.040061086 4286872320
0.85608464 -1.1691363 0.048450015 4286872320
0.83826268 -1.1447434 0.055658452 4286872320
0.84496588 -1.1537966 0.064314373 4286872320
0.84773213 -1.1574805 0.072691493 4286872320
0.85187948 -1.1630468 0.081171118 4286872320
0.82646757 -1.1283152 0.086555727 4286741760
0.83311182 -1.137287 0.09500923 4286741760
0.83873749 -1.1448691 0.1033542 4286872320
0.8473205 -1.156481 0.11207581 4286872320
0.82680809 -1.1284384 0.11673276 4286741760
0.8388291 -1.1447352 0.12575838 4286872320
0.85066235 -1.1607741 0.13482121 4286872320
0.85815042 -1.1708902 0.14321032 4287002880
0.85383785 -1.1649271 0.14950281 4286872320
0.82199538 -1.1214598 0.15053169 4286741760
0.82877541 -1.1306129 0.15823904 4286741760
0.83956033 -1.1452199 0.16666418 4286872320
0.84636992 -1.1544105 0.17424543 4286872320
0.84072161 -1.146633 0.17908147 4286872320
0.81843162 -1.1161934 0.17998575 4286741760
0.82138014 -1.1201272 0.1860846 4286741760
0.82965696 -1.1313161 0.19324636 4286741760
0.82942981 -1.1309249 0.19826284 4286741760
0.8270663 -1.1276256 0.20252712 4286741760
0.82865655 -1.1297096 0.20751856 4286741760
0.81232625 -1.1073991 0.20771833 4286741760
0.81361276 -1.1090715 0.21209018 4286741760
0.8189652 -1.1162779 0.21730438 4286741760
0.81911665 -1.1164054 0.22091556 4286741760
0.81884617 -1.1159589 0.22415572 4286741760
0.81581813 -1.1117606 0.22636941 4286741760
0.80935645 -1.102891 0.22733538 4286741760
0.81047028 -1.1043303 0.23013887 4286741760
0.81588238 -1.1116174 0.23390812 4286741760
0.81059891 -1.1043537 0.23434721 4286741760
0.80770046 -1.1003357 0.23518014 4286741760
0.80599862 -1.0979464 0.23607521 4286741760
0.80279654 -1.0935173 0.23624709 4286611200
0.80566531 -1.0973457 0.23792104 4286741760
0.80272597 -1.0932753 0.23760536 4286611200
0.80293977 -1.0934936 0.23793864 4286611200
0.80748999 -1.0996089 0.23927318 4286741760
0.80448413 -1.0954499 0.23809408 4286741760
0.81261849 -1.106438 0.23991792 4286741760
0.81006569 -1.1028959 0.23830965 4286741760
0.81181431 -1.105202 0.23768327 4286741760
0.81529945 -1.1098688 0.23727606 4286741760
0.82061356 -1.1170213 0.23710391 4286741760
0.81806409 -1.1134855 0.2343829 4286741760
0.81597823 -1.1105806 0.23153175 4286741760
0.80314797 -1.0930749 0.2254149 4286611200
0.80845797 -1.1002227 0.22413336 4286741760
0.80656183 -1.0975782 0.22058728 4286741760
0.81623292 -1.1106511 0.21990703 4286741760
0.83689505 -1.1386558 0.22179478 4286872320
0.84020931 -1.1430891 0.21873483 4286872320
0.83435684 -1.1350694 0.21305576 4286872320
0.82069534 -1.1164432 0.20524354 4286741760
0.81397527 -1.1072482 0.1990355 4286741760
0.84735316 -1.1521482 0.17128439 4286872320
0.85272634 -1.1593769 0.16599765 4286872320
0.84968489 -1.1551808 0.15887421 4286872320
0.8243438 -1.1207119 0.14763877 4286741760
0.84186059 -1.1444268 0.14394711 4286872320
0.84229594 -1.1449525 0.13703811 4286872320
0.84865856 -1.1535237 0.13088007 4286872320
0.8276999 -1.1250119 0.12050413 4286741760
0.83808434 -1.139042 0.11463105 4286872320
0.84365529 -1.1465381 0.10783385 4286872320
0.84563637 -1.1491622 0.10039243 4286872320
0.8327176 -1.1315676 0.091179036 4286741760
0.86125886 -1.1702315 0.086238913 4286872320
0.86156154 -1.1705769 0.078118607 4286872320
0.85495514 -1.1615486 0.069348708 4286872320
0.84497279 -1.1479414 0.060389057 4286872320
0.86007696 -1.1683676 0.053095929 4286872320
0.86027527 -1.1685719 0.044680536 4286872320
0.85676736 -1.163749 0.036056984 4286872320
0.84917122 -1.1533815 0.027332144 4286872320
0.85254413 -1.1578925 0.018968087 4286872320
0.85100055 -1.155735 0.010456306 4286872320
0.84396446 -1.1461294 0.001951483 4286872320
0.83548754 -1.1345708 -0.0064050248 4286741760
0.83844715 -1.1385213 -0.014791055 4286741760
0.84246701 -1.143909 -0.023250598 4286872320
0.84684157 -1.1497769 -0.031779349 4286872320
0.84864742 -1.1521616 -0.040239275 4286872320
0.84628034 -1.1488887 -0.048452951 4286872320
0.84402317 -1.1457653 -0.056576416 4286872320
0.85881943 -1.1657584 -0.065906271 4286872320
0.84337693 -1.1447619 -0.072837293 4286872320
0.84997767 -1.1536448 -0.081510447 4286872320
0.85768461 -1.1640257 -0.090337649 4286872320
0.85000789 -1.1535568 -0.097447701 4286872320
0.85062289 -1.1543255 -0.10533769 4286872320
0.86008567 -1.1670835 -0.11430068 4286872320
0.86338389 -1.1714869 -0.12243528 4287002880
0.85012448 -1.1534551 -0.12800221 4286872320
0.73145485 -0.99261045 -0.1164271 4286219520
0.84347314 -1.1443131 -0.14135431 4286872320
0.67860174 -0.9208976 -0.11932679 4285958400
0.6849432 -0.92943507 -0.12595296 4285958400
0.61946064 -0.8406831 -0.11877891 4285566720
-3.5800445 4.8474269 0.71309644 4278190335
0.64014548 -0.86860102 -0.13237172 4285697280
0.62581408 -0.84914136 -0.13390423 4285566720
0.63239491 -0.85800368 -0.13970028 4285697280
0.59714186 -0.81021565 -0.13591723 4285436160
-3.5714226 4.8343363 0.8348152 4278190335
0.63037658 -0.85511911 -0.15142235 4285697280
0.63243961 -0.85786134 -0.15564913 4285697280
0.59878653 -0.81224966 -0.15074237 4285436160
0.62965965 -0.85399514 -0.16186434 4285697280
0.59105301 -0.80168325 -0.15493177 4285436160
0.55011249 -0.74621832 -0.14682317 4285175040
0.58237946 -0.78984594 -0.15800697 4285436160
-3.5595944 4.8159976 0.97889841 4278190335
-3.5584459 4.8141465 0.992091 4278190335
-3.5573926 4.8124223 1.0041592 4278190335
-3.5564399 4.810833 1.0150902 4278190335
-3.5555928 4.8093848 1.0248727 4278190335
-3.5548558 4.8080845 1.033496 4278190335
-3.5542328 4.8069363 1.0409514 4278190335
-3.5537274 4.8059459 1.0472308 4278190335
0.91251194 -1.2359799 -0.27055612 4287264000
0.9182986 -1.2437274 -0.27330285 4287264000
0.89889193 -1.217398 -0.26823172 4287264000
0.91533345 -1.2395552 -0.27352729 4287264000
0.89072311 -1.2061914 -0.2662532 4287133440
-3.5532925 4.8034821 1.0599346 4278190335
-3.5536625 4.8036637 1.0578692 4278190335
-3.5541584 4.8040137 1.0546101 4278190335
-3.5547783 4.8045297 1.050161 4278190335
-3.5555205 4.8052087 1.0445265 4278190335
-3.5563819 4.8060474 1.0377123 4278190335
-3.5573597 4.8070416 1.0297258 4278190335
0.57768059 -0.78241801 -0.16595468 4285305600
0.56710374 -0.76806891 -0.16121866 4285305600
0.60176945 -0.81486517 -0.1690563 4285436160
0.62331855 -0.84392929 -0.1728255 4285566720
0.58717579 -0.79503143 -0.16048495 4285436160
0.63783389 -0.86342382 -0.17157927 4285697280
0.63519329 -0.85979515 -0.16795255 4285697280
0.64138287 -0.86809629 -0.16644791 4285697280
0.64464879 -0.87244642 -0.16394866 4285697280
0.64733982 -0.87601906 -0.1610855 4285697280
0.65652066 -0.88835669 -0.15958558 4285827840
0.62270486 -0.84262097 -0.14761575 4285566720
0.67156762 -0.90854931 -0.15495437 4285827840
0.69260395 -0.9368909 -0.15525982 4285958400
0.66386563 -0.89801699 -0.14430128 4285827840
0.80392522 -1.0870612 -0.16904943 4286611200
0.84571368 -1.1434003 -0.17167011 4286872320
0.83681947 -1.1313089 -0.16358192 4286741760
0.82638317 -1.1171373 -0.15515909 4286741760
0.84466964 -1.1417377 -0.15189128 4286872320
0.85690147 -1.1581624 -0.14712474 4286872320
0.84515679 -1.1422254 -0.13808081 4286872320
0.83422261 -1.1273842 -0.12920919 4286741760
0.83947098 -1.134382 -0.12275059 4286741760
0.85315293 -1.1527581 -0.11722655 4286872320
0.84227186 -1.1379906 -0.10817841 4286872320
0.84064949 -1.1357162 -0.10031568 4286741760
0.84894621 -1.1468228 -0.093467981 4286872320
0.85706717 -1.1576905 -0.086349264 4286872320
0.85813463 -1.1590427 -0.078342207 4286872320
0.83756471 -1.1312122 -0.068461686 4286741760
0.85333967 -1.1524005 -0.061527982 4286872320
0.85357928 -1.1526362 -0.053254258 4286872320
0.83731896 -1.1306232 -0.044050358 4286741760
0.84282804 -1.1379651 -0.036054473 4286741760
0.8488307 -1.1459711 -0.027930155 4286872320
0.85791862 -1.1581352 -0.0197313 4286872320
0.84775966 -1.1443528 -0.011078139 4286872320
0.86722106 -1.1704972 -0.0027166591 4287002880
0.86414915 -1.1662679 0.0058834907 4286872320
0.86259711 -1.1640873 0.014438788 4286872320
0.85821795 -1.1580975 0.022870637 4286872320
0.87017006 -1.1741143 0.031780314 4287002880
0.8693617 -1.172936 0.040300734 4287002880
0.87227154 -1.1767671 0.048966661 4287002880
0.84845221 -1.1445893 0.055882737 4286872320
0.85167634 -1.1488457 0.064307258 4286872320
0.85446399 -1.1525135 0.072684363 4286872320
0.85919702 -1.158801 0.08121603 4286872320
0.83600497 -1.1274794 0.086856581 4286741760
0.84567469 -1.1404161 0.095672525 4286872320
0.84836918 -1.1439586 0.10370924 4286872320
0.85107428 -1.1475148 0.11168008 4286872320
0.83337098 -1.123594 0.1167258 4286741760
0.84588492 -1.1403568 0.12581035 4286872320
0.8544445 -1.1517942 0.13434881 4286872320
0.86629891 -1.167665 0.14342406 4287002880
0.86654508 -1.1679096 0.15052289 4287002880
0.83385432 -1.1238264 0.15149125 4286741760
0.84068513 -1.1329359 0.15923932 4286872320
0.84918278 -1.1442873 0.16723873 4286872320
0.85308367 -1.1494523 0.17423832 4286872320
0.85034949 -1.1456895 0.17969795 4286872320
0.82492316 -1.1113987 0.17997886 4286741760
0.83085114 -1.1192926 0.18674026 4286741760
0.83919168 -1.1304311 0.19392034 4286872320
0.83896089 -1.1300391 0.19895439 4286872320
0.83952951 -1.1307229 0.20395072 4286872320
0.83920401 -1.1302043 0.20849702 4286872320
0.81876659 -1.1026403 0.2077115 4286741760
0.82832009 -1.1154084 0.21421279 4286741760
0.82309884 -1.1083094 0.21667841 4286741760
0.82796681 -1.1147766 0.22153772 4286741760
0.82769299 -1.1143305 0.22478713 4286741760
0.8246398 -1.1101487 0.22700934 4286741760
0.81871468 -1.1021073 0.22814676 4286741760
0.8198362 -1.1035388 0.23095898 4286741760
0.81940442 -1.1028829 0.23306653 4286741760
0.81996363 -1.1035594 0.23518199 4286741760
0.81409967 -1.0956042 0.23517336 4286741760
0.81826663 -1.1011298 0.23777321 4286741760
0.81818843 -1.1009508 0.23887016 4286741760
0.81204712 -1.0926261 0.23791429 4286741760
0.81496572 -1.0964748 0.23932111 4286741760
0.81812167 -1.1006421 0.24051858 4286741760
0.81682593 -1.0988293 0.24012864 4286741760
0.8137961 -1.0946878 0.23894857 4286741760
0.81611162 -1.0977269 0.23905183 4286741760
0.81942171 -1.1021017 0.23915918 4286741760
0.82393277 -1.1080891 0.23932503 4286741760
0.82410854 -1.1082546 0.2379472 4286741760
0.81886709 -1.1011461 0.2347406 4286741760
0.82453972 -1.1086934 0.23437604 4286741760
0.82243699 -1.1058006 0.23152491 4286741760
0.81775528 -1.0994463 0.22769906 4286741760
0.81805342 -1.0997783 0.22500344 4286741760
0.81294501 -1.0928532 0.22058052 4286741760
0.82859206 -1.113789 0.22147283 4286741760
0.84337151 -1.133558 0.22174962 4286872320
0.84685707 -1.1381673 0.2187278 4286872320
0.84686607 -1.1381106 0.21454138 4286872320
0.83014375 -1.1156015 0.20596787 4286741760
0.82928574 -1.1143836 0.20117453 4286741760
0.85702103 -1.1511645 0.17187062 4286872320
0.862836 -1.1588976 0.16663885 4286872320
0.85640311 -1.1502031 0.15886711 4286872320
0.83383381 -1.1198685 0.14815828 4286741760
0.85684282 -1.1506612 0.14534801 4286872320
0.85431027 -1.1471996 0.13789266 4286872320
0.85536724 -1.1485518 0.13087298 4286872320
0.83960366 -1.1273504 0.12126879 4286741760
0.85305178 -1.1453177 0.11575209 4286872320
0.85568911 -1.148789 0.10850471 4286872320
0.85530198 -1.1482056 0.10073526 4286872320
0.84466887 -1.1338875 0.091753066 4286741760
0.86879224 -1.1661607 0.086303674 4287002880
0.86909723 -1.1665045 0.07817658 4287002880
0.86823905 -1.1652894 0.069864422 4286872320
0.85660762 -1.1496359 0.060731731 4286872320
0.87838137 -1.1787527 0.053789642 4287002880
0.87929577 -1.1799128 0.04529918 4287002880
0.87097466 -1.1686972 0.036358073 4287002880
0.66505867 -0.89271736 0.021289092 4285827840
0.79658991 -1.0689025 0.017594969 4286480640
0.79427314 -1.0657395 0.0096926503 4286480640
0.71891659 -0.96472412 0.0016753882 4286088960
0.82885247 -1.1119462 -0.0063082241 4286741760
0.82585347 -1.1078675 -0.01445756 4286741760
0.81426293 -1.0922809 -0.022296255 4286611200
0.63505685 -0.85218757 -0.02361278 4285566720
0.85382986 -1.1451542 -0.040174671 4286872320
0.84719706 -1.1362078 -0.048131675 4286872320
0.79388702 -1.064752 -0.05279861 4286480640
0.66632378 -0.89386946 -0.050719015 4285827840
0.85263026 -1.1432943 -0.07306695 4286872320
0.83375591 -1.1179584 -0.079333946 4286741760
0.68613869 -0.92025065 -0.071699865 4285958400
0.62936383 -0.84418744 -0.071584672 4285566720
0.83533424 -1.1198843 -0.10264084 4286741760
0.82349968 -1.1039788 -0.10858837 4286741760
0.7054292 -0.94586688 -0.099260718 4285958400
0.65701789 -0.88101357 -0.098163091 4285697280
0.64999717 -0.87156683 -0.10266094 4285697280
0.66992927 -0.89819407 -0.11140814 4285827840
0.69900769 -0.93705863 -0.12195672 4285958400
0.65518165 -0.87835598 -0.11954589 4285697280
0.59638709 -0.79962969 -0.11346778 4285436160
-3.6082251 4.8264894 0.71312624 4278190335
0.65945923 -0.88392758 -0.13530056 4285827840
0.64203811 -0.86056834 -0.13630296 4285697280
0.61720151 -0.82729071 -0.13528554 4285566720
0.5688349 -0.76253939 -0.12847272 4285305600
-3.5995271 4.8134484 0.83484489 4278190335
0.65787673 -0.88155204 -0.15679058 4285827840
0.61207575 -0.82023984 -0.14946987 4285566720
0.62601709 -0.83883667 -0.15636216 4285566720
0.61846012 -0.82867992 -0.15775059 4285566720
0.61228585 -0.82037318 -0.15924062 4285566720
0.58284658 -0.78095728 -0.15433626 4285305600
0.63782591 -0.85442364 -0.17168283 4285697280
-3.5875926 4.7951779 0.97892803 4278190335
0.81348431 -1.0891665 -0.2253055 4286611200
0.87425524 -1.1703421 -0.24514139 4287002880
0.96008396 -1.2850044 -0.27219179 4287525120
0.94863629 -1.2696217 -0.27160817 4287394560
0.9757759 -1.3058174 -0.28178331 4287655680
1.0315497 -1.3802786 -0.30007941 4287916800
1.0172396 -1.3610659 -0.2977491 4287786240
1.0200789 -1.3647733 -0.30006668 4287916800
1.0259031 -1.3724682 -0.30292305 4287916800
1.0199631 -1.3644426 -0.30195791 4287916800
1.0311692 -1.3793262 -0.30571315 4287916800
1.0312024 -1.3792804 -0.30580741 4287916800
1.0312726 -1.3792835 -0.30555645 4287916800
0.99786711 -1.3345675 -0.2950595 4287786240
0.93998498 -1.2571623 -0.27706313 4287394560
0.90827197 -1.2147202 -0.26654708 4287264000
0.82559085 -1.1042116 -0.24095368 4286741760
-3.5843227 4.7852464 1.0377419 4278190335
-3.5853062 4.7862349 1.0297552 4278190335
0.61650431 -0.82479209 -0.17571466 4285566720
0.59698915 -0.79867864 -0.16838261 4285436160
0.59231716 -0.79238588 -0.16511033 4285436160
0.64538276 -0.86317503 -0.17754415 4285697280
0.60600394 -0.8105467 -0.16433644 4285436160
0.60627311 -0.81084925 -0.16183169 4285436160
0.66329575 -0.88690317 -0.17401126 4285827840
0.66361868 -0.88727158 -0.17087343 4285827840
0.6609894 -0.88369977 -0.1667936 4285827840
0.66430032 -0.88805503 -0.16401713 4285827840
0.66703027 -0.89163435 -0.16087808 4285827840
0.65314281 -0.87304062 -0.15362096 4285697280
0.65647763 -0.87742692 -0.15029964 4285697280
0.65387541 -0.87389189 -0.14544778 4285697280
0.68059438 -0.90947115 -0.14678596 4285827840
0.6762324 -0.90358657 -0.14111321 4285827840
0.68950742 -0.9212265 -0.13889566 4285958400
0.67261928 -0.89863539 -0.13048257 4285827840
0.67896104 -0.90702665 -0.12650569 4285827840
0.65667063 -0.87723553 -0.11718483 4285697280
0.7060219 -0.94297552 -0.12029038 4285958400
0.71177518 -0.95057642 -0.11539525 4286088960
0.6660912 -0.88959986 -0.10237547 4285827840
0.66343933 -0.88599843 -0.09626352 4285827840
0.7128551 -0.95180345 -0.097192056 4286088960
0.71917242 -0.96015257 -0.091652378 4286088960
0.68472385 -0.91416752 -0.081073195 4285827840
0.67902392 -0.90650254 -0.074175023 4285827840
0.67090541 -0.89561564 -0.067060873 4285827840
0.71131003 -0.94938731 -0.064426243 4286088960
0.65840697 -0.87882763 -0.053386014 4285697280
0.70337772 -0.93867576 -0.050308771 4285958400
0.69157666 -0.92288339 -0.042795159 4285958400
0.70915008 -0.94622314 -0.03700294 4285958400
0.69489831 -0.92716813 -0.029475244 4285958400
0.67221332 -0.89688379 -0.021919016 4285827840
0.67531443 -0.9009459 -0.015379243 4285827840
0.73608458 -0.98180485 -0.0095245223 4286219520
0.76037955 -1.0140814 -0.0023438369 4286350080
0.87127846 -1.1616656 0.0058785807 4286872320
0.87915444 -1.1720635 0.014591531 4287002880
0.87221938 -1.1627421 0.023053542 4286872320
0.88015574 -1.1732188 0.031886555 4287002880
0.88291937 -1.1768086 0.040601198 4287002880
0.88847882 -1.1841191 0.049477827 4287002880
0.86051124 -1.1468079 0.056226794 4286872320
0.87036055 -1.1598287 0.065194882 4286872320
0.87016684 -1.1594834 0.073433354 4286872320
0.87193489 -1.1617486 0.081769064 4286872320
0.84556061 -1.1265707 0.087157443 4286741760
0.8553046 -1.1394494 0.096000649 4286872320
0.86041588 -1.1461635 0.10435395 4286872320
0.86373883 -1.1504978 0.11245019 4286872320
0.83990556 -1.1187116 0.1167189 4286741760
0.85850322 -1.143363 0.12668373 4286872320
0.86952037 -1.1579297 0.13564435 4286872320
0.874731 -1.1647727 0.14368565 4287002880
0.86735851 -1.1548835 0.14948851 4286872320
0.84363085 -1.1232502 0.15206666 4286741760
0.84727389 -1.128011 0.15923238 4286872320
0.861211 -1.1464564 0.16827853 4286872320
0.86573619 -1.152388 0.17543706 4286872320
0.8653633 -1.1518085 0.18143676 4286872320
0.84331101 -1.1224149 0.18254568 4286741760
0.84615272 -1.1261106 0.18868837 4286872320
0.84874409 -1.1294732 0.19459431 4286872320
0.84791428 -1.1282895 0.19950624 4286872320
0.84908104 -1.1297591 0.20465903 4286872320
0.8433972 -1.1221269 0.20790514 4286872320
0.82815236 -1.101794 0.208451 4286741760
0.82648504 -1.0995014 0.21207657 4286741760
0.82954425 -1.1034878 0.21667162 4286741760
0.83207393 -1.1067708 0.22090186 4286741760
0.83417338 -1.1094822 0.22478031 4286741760
0.8370319 -1.1132016 0.22861944 4286741760
0.82848907 -1.1017802 0.22906785 4286741760
0.82728863 -1.1001105 0.23124066 4286741760
0.8317498 -1.1059591 0.23472919 4286741760
0.82341623 -1.0948194 0.23433366 4286741760
0.8234359 -1.0947715 0.23601408 4286741760
0.82704175 -1.0994849 0.23844832 4286741760
0.82675153 -1.0990262 0.23948756 4286741760
0.82373625 -1.0949508 0.23945422 4286741760
0.81541473 -1.0838335 0.23759195 4286611200
0.82155865 -1.0919163 0.23964964 4286741760
0.8232162 -1.0940447 0.2401219 4286741760
0.82609057 -1.0977879 0.24066429 4286741760
0.82545996 -1.0968801 0.23990434 4286741760
0.82686526 -1.0986742 0.23945111 4286741760
0.8303768 -1.1032629 0.23931824 4286741760
0.8335197 -1.1073623 0.23878784 4286741760
0.83951145 -1.1152409 0.23877333 4286741760
0.83143449 -1.1044567 0.23449501 4286741760
0.83717966 -1.1120082 0.23383348 4286741760
0.83112401 -1.1039072 0.22961402 4286741760
0.82741982 -1.0989262 0.22580515 4286741760
0.81692314 -1.0849382 0.21993555 4286611200
0.84339374 -1.1199743 0.22366761 4286872320
0.85011035 -1.1288126 0.22178082 4286872320
0.85347611 -1.1332068 0.21872081 4286872320
0.856861 -1.1376265 0.21538073 4286872320
0.8396101 -1.1146877 0.20669223 4286741760
0.82980639 -1.1016245 0.19973718 4286741760
0.86610806 -1.1493146 0.17233819 4286872320
0.87256777 -1.1578083 0.1672034 4287002880
0.86848098 -1.1523266 0.15984887 4286872320
0.84334195 -1.1189524 0.1486778 4286741760
0.86028427 -1.1413354 0.14479563 4286872320
0.86697894 -1.1501397 0.13884291 4286872320
0.8650468 -1.1475151 0.13131985 4286872320
0.84375882 -1.119251 0.12091897 4286741760
0.86271542 -1.1442977 0.11614791 4286872320
0.87138265 -1.1557133 0.10962742 4286872320
0.87039489 -1.1543405 0.10170788 4286872320
0.86028332 -1.1408846 0.092714354 4286872320
0.88715905 -1.1764125 0.087433636 4287002880
0.88883114 -1.1785613 0.079320133 4287002880
0.8885482 -1.1781213 0.070932597 4287002880
0.72671598 -0.96377844 0.051166914 4286088960
0.77109218 -1.0224792 0.046885796 4286350080
0.69208384 -0.91782147 0.035434403 4285958400
0.72978365 -0.96767986 0.0302673 4286088960
0.64605951 -0.85679412 0.020524507 4285697280
0.67877614 -0.90005416 0.014907672 4285827840
0.70234913 -0.9312067 0.0085259862 4285958400
0.66917551 -0.8872481 0.0015577354 4285827840
0.69336593 -0.91921508 -0.0052092639 4285958400
0.67889088 -0.90000796 -0.01176574 4285827840
0.68969995 -0.91426247 -0.018719062 4285827840
0.67512947 -0.8949315 -0.024921911 4285827840
0.69078314 -0.91559505 -0.032230973 4285958400
0.71056759 -0.94172186 -0.040043052 4285958400
0.67169476 -0.89023906 -0.044315297 4285827840
0.63233644 -0.83811957 -0.047759339 4285566720
0.69265479 -0.91786861 -0.058889784 4285958400
0.67439485 -0.89366281 -0.063667625 4285827840
0.65067101 -0.86223221 -0.067469895 4285697280
0.61914688 -0.82048774 -0.069881678 4285436160
0.72066528 -0.95471126 -0.087869309 4286088960
0.68491226 -0.90737319 -0.089620203 4285827840
0.65574473 -0.86874926 -0.091561697 4285697280
0.66489834 -0.88080502 -0.098576948 4285697280
-3.6447484 4.8179522 0.57099015 4278190335
0.70116878 -0.92866355 -0.1157047 4285958400
0.66300046 -0.87814605 -0.11478849 4285697280
0.62548393 -0.8284958 -0.11325302 4285566720
-3.6380351 4.8079805 0.68623877 4278190335
-3.6362829 4.8053885 0.71315581 4278190335
0.67897284 -0.89905792 -0.13822959 4285827840
0.66140896 -0.87579018 -0.13933173 4285697280
0.63637185 -0.84264755 -0.13841051 4285566720
0.60795236 -0.80503821 -0.1362415 4285436160
-3.6275096 4.7923975 0.83487439 4278190335
0.6314677 -0.8360185 -0.14934522 4285566720
0.63714933 -0.84347659 -0.15438898 4285566720
0.65954572 -0.87301916 -0.16345991 4285697280
0.64058203 -0.84791142 -0.16212961 4285697280
0.65164644 -0.86247826 -0.16816118 4285697280
0.76047993 -1.0062039 -0.19976331 4286350080
0.80846381 -1.0695295 -0.21588431 4286611200
0.9357186 -1.2375576 -0.25362951 4287264000
1.0100247 -1.3356279 -0.27753618 4287786240
1.0007944 -1.3233546 -0.27843285 4287655680
1.0558851 -1.3960294 -0.29702774 4288047360
1.0473019 -1.3846074 -0.29752785 4287916800
1.0530322 -1.3920875 -0.30173662 4288047360
1.0498724 -1.3878274 -0.30305725 4288047360
1.0467483 -1.3836145 -0.30402395 4287916800
1.0436605 -1.3794496 -0.30463776 4287916800
1.0406095 -1.3753333 -0.30489999 4287916800
1.0405682 -1.3751901 -0.3056851 4287916800
1.0381858 -1.3719561 -0.30542597 4287916800
1.04357 -1.3789734 -0.30709359 4287916800
1.0495868 -1.386824 -0.30858845 4288047360
1.0496953 -1.3868757 -0.30798662 4288047360
1.0551937 -1.39404 -0.30860129 4288047360
1.055377 -1.3941889 -0.30729836 4288047360
0.98597181 -1.3025167 -0.28550416 4287655680
0.99513721 -1.3145218 -0.28620538 4287655680
0.90653783 -1.1975434 -0.25866535 4287133440
0.81285352 -1.0738724 -0.2298245 4286611200
0.72001594 -0.95133489 -0.20147601 4286088960
0.66843611 -0.88323408 -0.18486898 4285827840
0.67067254 -0.88612282 -0.18307573 4285827840
0.64769489 -0.85575724 -0.17427877 4285697280
0.63962913 -0.84506083 -0.16941299 4285697280
0.68516874 -0.9050532 -0.17836289 4285958400
0.69147408 -0.91330355 -0.17667103 4285958400
0.69481063 -0.91763818 -0.17397292 4285958400
0.69517261 -0.91805029 -0.17031419 4285958400
0.70092779 -0.92557198 -0.16774805 4285958400
0.68156165 -0.89997739 -0.15906841 4285827840
0.68194091 -0.90041268 -0.15492602 4285827840
0.6997003 -0.92375481 -0.15443775 4285958400
0.70249593 -0.9273724 -0.15034363 4285958400
0.66570812 -0.87882555 -0.13785364 4285827840
0.70647335 -0.93247879 -0.14121985 4285958400
0.7038725 -0.92898375 -0.13549466 4285958400
0.6668427 -0.88012791 -0.12329714 4285827840
0.71668482 -0.94572681 -0.12690859 4286088960
0.69061095 -0.91130918 -0.11676484 4285958400
0.69398993 -0.91569281 -0.11165158 4285958400
0.7232545 -0.95417053 -0.11030786 4286088960
0.71217376 -0.93950593 -0.10254291 4285958400
0.68057609 -0.89782369 -0.092081681 4285827840
0.67546701 -0.89102894 -0.085423969 4285827840
0.7131713 -0.94060946 -0.083797328 4285958400
0.70200473 -0.92583662 -0.076101154 4285958400
0.67873555 -0.89513224 -0.067326494 4285827840
0.71099782 -0.93753678 -0.063907094 4285958400
0.67904168 -0.89540076 -0.054642342 4285827840
0.70843887 -0.93402767 -0.050286159 4285958400
0.67720002 -0.89284217 -0.041585144 4285827840
0.71183604 -0.93835789 -0.036862321 4285958400
0.70049703 -0.92336547 -0.029489622 4285958400
0.67885685 -0.89482039 -0.021971 4285827840
0.69347739 -0.91399002 -0.01568009 4285958400
0.7151522 -0.94243771 -0.0091816252 4285958400
0.73293269 -0.96575779 -0.0022391311 4286088960
0.74265742 -0.97847742 0.0049991407 4286219520
0.71361434 -0.94020134 0.011791596 4285958400
0.73884314 -0.97331291 0.019410899 4286088960
0.89662629 -1.1807503 0.032223314 4287002880
0.89753997 -1.1818627 0.040946409 4287002880
0.89821237 -1.182658 0.049626976 4287002880
0.87126911 -1.1471421 0.056483403 4286872320
0.87952483 -1.1579102 0.065366708 4286872320
0.87932855 -1.1575652 0.073627867 4286872320
0.88413155 -1.1637924 0.082266048 4287002880
0.85513401 -1.1255888 0.08745832 4286741760
0.86193126 -1.1344386 0.095993683 4286872320
0.87010121 -1.1450917 0.10470898 4286872320
0.87586319 -1.1525786 0.11314256 4286872320
0.85244656 -1.1217216 0.11754128 4286741760
0.86816883 -1.1422973 0.12711689 4286872320
0.87323928 -1.1488746 0.13517207 4286872320
0.88391572 -1.1628165 0.14407027 4287002880
0.88009965 -1.1577177 0.15050861 4287002880
0.85317427 -1.1222637 0.15259667 4286872320
0.86627632 -1.1393911 0.16153866 4286872320
0.87128985 -1.1458927 0.16893105 4286872320
0.8694309 -1.1433679 0.17482714 4286872320
0.86905599 -1.1427927 0.18080623 4286872320
0.84683424 -1.1135304 0.18189543 4286741760
0.85270154 -1.1211542 0.18868148 4286872320
0.86071497 -1.1315948 0.19581302 4286872320
0.86032784 -1.1310056 0.20086183 4286872320
0.85265231 -1.1208491 0.2039369 4286872320
0.85232079 -1.1203345 0.2084832 4286872320
0.84159732 -1.1061803 0.21019708 4286741760
0.83827013 -1.1017357 0.2134387 4286741760
0.84120286 -1.1055075 0.21801956 4286741760
0.84090447 -1.105039 0.2215241 4286741760
0.84660912 -1.1124479 0.22636913 4286741760
0.84036714 -1.1041811 0.22776434 4286741760
0.84027845 -1.1039889 0.23053373 4286741760
0.83966482 -1.1031084 0.2328877 4286741760
0.83544546 -1.0974983 0.23395833 4286741760
0.83575916 -1.0978355 0.23601004 4286741760
0.83279002 -1.0938672 0.23685481 4286741760
0.83343565 -1.0946407 0.23844162 4286741760
0.82477939 -1.0832154 0.23708332 4286741760
0.83010381 -1.0901259 0.23944753 4286741760
0.83088994 -1.091085 0.24023013 4286741760
0.83089525 -1.0910205 0.24050514 4286741760
0.83495468 -1.0962719 0.24166714 4286741760
0.83546162 -1.0968654 0.24151877 4286741760
0.83806604 -1.100209 0.24168874 4286741760
0.84221774 -1.1055809 0.2420132 4286741760
0.8457576 -1.1101506 0.24186848 4286741760
0.84578985 -1.1101224 0.24043413 4286741760
0.84001756 -1.1024871 0.23708345 4286741760
0.8432402 -1.1066414 0.2359907 4286741760
0.84364635 -1.1071047 0.23382668 4286741760
0.83455122 -1.0951179 0.22878915 4286741760
0.83680397 -1.0980022 0.22660688 4286741760
0.83687699 -1.0980304 0.22356394 4286741760
0.8499068 -1.1150343 0.22366077 4286872320
0.85952419 -1.1275662 0.22250959 4286872320
0.86591536 -1.1358705 0.22019733 4286872320
0.86887676 -1.1396813 0.21671703 4286872320
0.84609246 -1.1097697 0.20668542 4286741760
0.84787828 -1.1120427 0.20250882 4286741760
0.87580532 -1.148187 0.17292444 4286872320
0.87930089 -1.1526973 0.16719632 4287002880
0.87819904 -1.1511889 0.16039115 4287002880
0.84984922 -1.1140122 0.14867097 4286741760
0.86994171 -1.1402491 0.14529143 4286872320
0.87668908 -1.1490161 0.1393145 4286872320
0.87716168 -1.1495697 0.13212982 4286872320
0.85268754 -1.1174748 0.12125503 4286741760
0.87239611 -1.1432039 0.11654375 4286872320
0.87507641 -1.1466473 0.1092438 4286872320
0.87992126 -1.1529229 0.10202581 4286872320
0.86954832 -1.1392863 0.09298753 4286872320
0.89331144 -1.170314 0.087359339 4287002880
0.87007612 -1.1398503 0.077054948 4286872320
0.74297768 -0.97351336 0.058907174 4286219520
0.71726018 -0.93981713 0.050115209 4285958400
0.74663031 -0.97818375 0.045056541 4286219520
0.70595139 -0.92492133 0.035858646 4285958400
0.69570601 -0.91147006 0.028641917 4285958400
0.67169094 -0.88001138 0.02116207 4285697280
0.71316487 -0.93420249 0.015527247 4285958400
0.70028877 -0.91731268 0.0084326379 4285958400
0.66685647 -0.87354457 0.0015373945 4285697280
0.7296828 -0.95564699 -0.0054545309 4286088960
0.71509576 -0.93652183 -0.012312125 4285958400
0.71488684 -0.93619716 -0.019264577 4285958400
0.67224866 -0.88040209 -0.024629345 4285697280
0.75137526 -0.98379529 -0.03480646 4286219520
0.70935446 -0.92881066 -0.039673496 4285958400
0.70614165 -0.92455971 -0.046241671 4285958400
0.67098397 -0.87855494 -0.050300684 4285697280
0.72589785 -0.95027906 -0.061252866 4286088960
0.7109645 -0.93070954 -0.066615142 4285958400
0.67733085 -0.88670343 -0.069704056 4285827840
-3.6799426 4.8073745 0.41242021 4278190335
0.73954159 -0.96789634 -0.089487635 4286088960
0.71000797 -0.92925245 -0.092199355 4285958400
0.69997638 -0.91609341 -0.096995443 4285958400
0.64761424 -0.8476311 -0.095286153 4285697280
-3.6727557 4.7966399 0.57101953 4278190335
0.70337045 -0.92037243 -0.11518653 4285958400
0.70922005 -0.92796135 -0.12185394 4285958400
0.67985582 -0.88955307 -0.12215646 4285827840
-3.6659846 4.7867064 0.68626809 4278190335
-3.6642175 4.7841244 0.71318507 4278190335
0.71316695 -0.93290359 -0.14408255 4285958400
0.70148504 -0.91759425 -0.14664413 4285958400
0.71421856 -0.93416876 -0.15414605 4286088960
0.70341045 -0.92000163 -0.15641396 4285958400
-3.655369 4.7711835 0.8349036 4278190335
0.83685011 -1.0941117 -0.19636425 4286741760
0.83405942 -1.0904038 -0.20051576 4286741760
0.91586864 -1.197136 -0.22519393 4287133440
0.9329083 -1.2193075 -0.23423949 4287264000
0.97578943 -1.2752064 -0.24980067 4287525120
0.99522763 -1.3005005 -0.25938004 4287655680
1.006866 -1.3156111 -0.26677111 4287655680
1.0263225 -1.3409227 -0.27605423 4287786240
1.0373905 -1.3552841 -0.28288442 4287916800
1.0430802 -1.3626251 -0.28798336 4287916800
1.0398003 -1.3582611 -0.29028437 4287916800
1.1031542 -1.440836 -0.31100211 4288177920
1.0999262 -1.4365345 -0.31276926 4288177920
1.1027282 -1.4400996 -0.31588501 4288177920
1.1055659 -1.4437101 -0.31865498 4288308480
1.1054443 -1.4434597 -0.32020712 4288308480
1.1023653 -1.4393516 -0.32052717 4288177920
1.102321 -1.4392014 -0.32135245 4288177920
1.1023161 -1.4391018 -0.32181492 4288177920
1.1023505 -1.4390532 -0.32191417 4288177920
1.0994285 -1.435149 -0.32077655 4288177920
1.1055341 -1.4430155 -0.32189447 4288308480
1.0972962 -1.4321797 -0.31846869 4288177920
1.0944891 -1.428425 -0.31625876 4288177920
1.0947163 -1.4286257 -0.31456062 4288177920
1.0859848 -1.417148 -0.30994159 4288177920
1.0748848 -1.4025841 -0.30432984 4288047360
1.0578117 -1.3802365 -0.29674545 4287916800
1.04136 -1.3587013 -0.28908461 4287916800
1.0183218 -1.3285853 -0.27938589 4287786240
0.98448139 -1.2843965 -0.26659909 4287525120
0.96446091 -1.2582209 -0.25744322 4287394560
0.88968724 -1.1607096 -0.23377812 4287002880
0.88709348 -1.1572495 -0.22911952 4287002880
0.83418053 -1.0882368 -0.21147773 4286741760
0.77799326 -1.0149683 -0.19330241 4286350080
0.7759884 -1.0122852 -0.1886525 4286350080
0.79327941 -1.0347342 -0.18838944 4286480640
0.76778132 -1.0014526 -0.17781354 4286350080
0.76820803 -1.0019367 -0.17318378 4286350080
0.73103386 -0.95345736 -0.16012503 4286088960
0.73144895 -0.95392919 -0.1553489 4286088960
0.77253741 -1.0073571 -0.15874591 4286350080
0.76148748 -0.99289823 -0.15105624 4286219520
0.76494539 -0.99732751 -0.14612845 4286350080
0.73311186 -0.95581681 -0.13451619 4286088960
0.72443283 -0.94445014 -0.12730904 4286088960
0.70179671 -0.91491956 -0.11775741 4285958400
0.75753361 -0.9873895 -0.12094913 4286219520
0.74015635 -0.9647032 -0.1120315 4286088960
0.73203135 -0.95405942 -0.10460504 4286088960
0.74714047 -0.97364777 -0.10032383 4286219520
0.74748915 -0.97402918 -0.093819626 4286219520
0.72454476 -0.94410747 -0.084491558 4286088960
0.76881355 -1.0016239 -0.082718626 4286350080
0.72774661 -0.94813156 -0.071647748 4286088960
0.76635766 -0.99828017 -0.06836953 4286219520
0.7696622 -1.0025033 -0.061479419 4286350080
0.74310422 -0.96789068 -0.052355189 4286088960
0.74940342 -0.97600937 -0.045685545 4286219520
0.73783416 -0.96089315 -0.037927359 4286088960
0.68265808 -0.88908315 -0.028520832 4285827840
0.70599514 -0.91935605 -0.022686047 4285958400
0.6829313 -0.8893047 -0.015325766 4285827840
0.70600015 -0.91922438 -0.0089970715 4285958400
0.74386054 -0.96836513 -0.0022625879 4286088960
0.73230535 -0.95327431 0.0048907143 4286088960
0.71536285 -0.93118465 0.01172608 4285958400
0.77942067 -1.0143565 0.020303642 4286350080
0.72511518 -0.9437167 0.02590658 4286088960
0.75901842 -0.98769581 0.034401599 4286219520
0.78901201 -1.026589 0.043292861 4286350080
0.88392067 -1.1498069 0.056859061 4286872320
0.89614236 -1.1655967 0.066085026 4287002880
0.88680291 -1.1533786 0.073682234 4287002880
0.8908996 -1.1586132 0.082258955 4287002880
0.86411566 -1.1237426 0.087697648 4286872320
0.87400734 -1.1365042 0.096589915 4286872320
0.87676048 -1.1399947 0.10470201 4286872320
0.87952423 -1.1434987 0.11274701 4286872320
0.86201042 -1.1206757 0.11794902 4286872320
0.87136489 -1.132737 0.12661079 4286872320
0.88599658 -1.1516473 0.1360954 4287002880
0.89371467 -1.1615809 0.14455284 4287002880
0.89229596 -1.1596544 0.15142596 4287002880
0.86273474 -1.1212039 0.15312669 4286872320
0.87290227 -1.134317 0.16153173 4286872320
0.87795359 -1.1407894 0.16892408 4286872320
0.88319659 -1.1475098 0.17623618 4287002880
0.87327886 -1.1345592 0.18030049 4286872320
0.85976982 -1.1169512 0.18326163 4286872320
0.86224705 -1.1200848 0.18933715 4286872320
0.86427122 -1.1226305 0.19512525 4286872320
0.86992788 -1.1298877 0.20155339 4286872320
0.85917038 -1.1158552 0.20393008 4286872320
0.85883582 -1.1153425 0.20847639 4286872320
0.84803003 -1.101251 0.21019034 4286741760
0.84809953 -1.101264 0.21429439 4286741760
0.8506484 -1.1044922 0.21878661 4286741760
0.84733057 -1.1001137 0.22151738 4286741760
0.84704894 -1.0996727 0.22476679 4286741760
0.85281569 -1.1070729 0.22937442 4286741760
0.8466984 -1.0990674 0.23052701 4286741760
0.84909177 -1.1020949 0.23370785 4286741760
0.85025966 -1.1035339 0.2362887 4286741760
0.83913249 -1.0890385 0.23516186 4286741760
0.83915108 -1.0889895 0.23684815 4286741760
0.83739322 -1.086639 0.23775311 4286741760
0.84272933 -1.0934812 0.2403913 4286741760
0.83644313 -1.0852641 0.2394409 4286741760
0.83964235 -1.0893377 0.24091242 4286741760
0.84566617 -1.0970703 0.24291253 4286741760
0.84132969 -1.0913817 0.24166046 4286741760
0.84424794 -1.0950912 0.24220103 4286741760
0.84145385 -1.0914018 0.24082285 4286741760
0.85165745 -1.1045474 0.24286272 4286741760
0.84920228 -1.1012975 0.24100941 4286741760
0.85224539 -1.1051688 0.24042736 4286741760
0.85245365 -1.1053691 0.23875977 4286741760
0.84967554 -1.1017027 0.23598397 4286741760
0.85008442 -1.1021636 0.23381995 4286741760
0.84393477 -1.0941337 0.22960059 4286741760
0.84620541 -1.097006 0.2274086 4286741760
0.84024483 -1.0892227 0.22275949 4286741760
0.85639089 -1.1100566 0.22365399 4286872320
0.87212127 -1.1303502 0.22405031 4286872320
0.87252063 -1.1307991 0.22019042 4286872320
0.87308586 -1.1314628 0.21611312 4286872320
0.85557038 -1.1087281 0.20740981 4286741760
0.85434508 -1.1070766 0.20250206 4286741760
0.88551879 -1.1469852 0.1735107 4287002880
0.89208031 -1.1554067 0.16833253 4287002880
0.88793325 -1.1499767 0.16093345 4287002880
0.85936898 -1.1129677 0.14919053 4286741760
0.8796156 -1.139089 0.14578727 4286872320
0.88641554 -1.1478182 0.13978611 4287002880
0.88689291 -1.1483709 0.13257669 4287002880
0.86025816 -1.1138661 0.12139899 4286741760
0.88773859 -1.1493354 0.11768541 4287002880
0.88951582 -1.1515689 0.11019612 4287002880
0.8901279 -1.1522961 0.10242024 4287002880
0.75400984 -0.97626323 0.080067419 4286219520
0.7542451 -0.97651315 0.073253021 4286219520
0.74678481 -0.96681577 0.065680228 4286088960
0.78124171 -1.0112996 0.061452225 4286350080
0.79059041 -1.0233268 0.054785743 4286350080
0.77293432 -1.0004516 0.046276983 4286350080
0.76699448 -0.99272019 0.038636681 4286219520
0.73777819 -0.9549104 0.030124538 4286088960
0.65011013 -0.84157366 0.02033202 4285566720
0.69698995 -0.90210205 0.015061938 4285827840
0.73268157 -0.94816798 0.0087417029 4286088960
0.67967296 -0.87962979 0.0015473397 4285827840
0.7381236 -0.95509464 -0.0054825027 4286088960
0.89661556 -1.1597886 -0.015371122 4287002880
0.99394095 -1.285447 -0.026651541 4287525120
0.93895066 -1.2143455 -0.034204978 4287264000
0.94112092 -1.2170819 -0.043306466 4287264000
0.96117318 -1.2429137 -0.053399596 4287264000
0.98175043 -1.2694205 -0.06385126 4287394560
0.91062641 -1.1774999 -0.067787908 4287002880
0.95200419 -1.2308679 -0.079755411 4287264000
0.99270314 -1.2833532 -0.092341743 4287525120
0.96140963 -1.2428759 -0.098217778 4287394560
0.91875517 -1.1877345 -0.10215674 4287133440
0.85061508 -1.0996957 -0.10215991 4286741760
0.8625074 -1.1149871 -0.11116436 4286741760
0.92624229 -1.197201 -0.12738451 4287133440
0.89678782 -1.1591129 -0.13095075 4287002880
0.86872494 -1.122825 -0.13409401 4286872320
0.97811979 -1.263957 -0.15896112 4287394560
1.0245777 -1.3238453 -0.17469041 4287655680
1.0210041 -1.3191581 -0.18204235 4287655680
0.97386181 -1.258247 -0.18104245 4287394560
0.93057102 -1.2023125 -0.17988023 4287133440
0.97579879 -1.260602 -0.19562465 4287394560
0.99841529 -1.2897104 -0.2071017 4287525120
1.0392331 -1.3422979 -0.22255179 4287786240
1.0180397 -1.3148782 -0.22461689 4287655680
1.0129161 -1.3081919 -0.22980371 4287655680
1.0355402 -1.3372992 -0.24112584 4287786240
1.0296086 -1.3295692 -0.24563143 4287786240
1.0406632 -1.3437487 -0.25393441 4287786240
1.0547523 -1.3618399 -0.26282144 4287916800
1.0718751 -1.3838406 -0.27232039 4288047360
1.0799257 -1.3941393 -0.27932525 4288047360
1.0970683 -1.4161603 -0.28847066 4288177920
1.1051517 -1.4264971 -0.29501021 4288177920
1.1108387 -1.4337424 -0.30062425 4288177920
1.1159471 -1.4402405 -0.30577347 4288308480
1.1247097 -1.4514481 -0.31161407 4288308480
1.0625992 -1.3712918 -0.29732874 4287916800
1.0708325 -1.381819 -0.30221713 4288047360
1.0790969 -1.3923848 -0.30680078 4288047360
1.0735068 -1.3850921 -0.30709952 4288047360
1.0733883 -1.3848516 -0.30859536 4288047360
1.0787402 -1.3916602 -0.3113094 4288047360
1.0786965 -1.3915145 -0.31211093 4288047360
1.0762764 -1.3883066 -0.31186101 4288047360
1.0763094 -1.3882593 -0.31195715 4288047360
1.0733625 -1.3843721 -0.31082767 4288047360
1.0674344 -1.3766444 -0.308478 4288047360
1.1269796 -1.4532591 -0.32462397 4288308480
1.1181146 -1.4417439 -0.32065725 4288308480
1.1153256 -1.4380556 -0.31807476 4288308480
1.1010921 -1.4196278 -0.31189349 4288177920
1.0929314 -1.4090225 -0.30711529 4288177920
1.0848002 -1.3984565 -0.30202916 4288047360
1.0730681 -1.3832544 -0.295647 4288047360
1.0589387 -1.3649672 -0.28834313 4287916800
1.0942752 -1.4103692 -0.29408711 4288177920
1.0886774 -1.4030653 -0.2883963 4288047360
1.07462 -1.3848721 -0.28021502 4288047360
