# .PCD v0.7 - Point Cloud Data file format
VERSION 0.7
FIELDS x y z rgba
SIZE 4 4 4 4
TYPE F F F U
COUNT 1 1 1 1
WIDTH 1129
HEIGHT 1
VIEWPOINT 0 0 0 1 0 0 0
POINTS 1129
DATA ascii
3.1191268 1.264043 -0.58396482 4293530880
3.1276495 1.2676111 -0.5816052 4293661440
3.1193364 1.264356 -0.57543755 4293530880
3.1264665 1.2673604 -0.57144803 4293661440
3.1160707 1.2632604 -0.56359756 4293530880
3.1220956 1.265817 -0.55806893 4293530880
3.1072676 1.2599189 -0.5481869 4293530880
3.1083822 1.2604845 -0.54051405 4293530880
3.0935566 1.2545857 -0.52948213 4293400320
3.0798142 1.2491252 -0.51810545 4293400320
3.0976889 1.2564882 -0.51143551 4293400320
3.1052768 1.2596797 -0.50239879 4293530880
3.1302114 1.269909 -0.49548042 4293530880
3.1188464 1.2654124 -0.48220447 4293530880
3.1026473 1.2589536 -0.46773568 4293400320
3.0921142 1.2547927 -0.45369408 4293400320
3.1011314 1.2585654 -0.44201112 4293400320
3.1149764 1.2642982 -0.43041828 4293530880
3.1266022 1.2691313 -0.41792062 4293530880
3.1004519 1.2586299 -0.39997298 4293400320
3.0906999 1.2547842 -0.38386095 4293400320
3.1221042 1.2676482 -0.37232268 4293530880
3.1273856 1.269907 -0.3570717 4293530880
3.1316464 1.2717518 -0.34125799 4293530880
3.0772426 1.2497712 -0.3189404 4293269760
3.0997486 1.2590251 -0.30440846 4293400320
3.1026258 1.2603072 -0.28747436 4293400320
3.1067564 1.2620989 -0.27030048 4293400320
3.0677395 1.2463608 -0.24927635 4293269760
3.1033478 1.2609414 -0.23405915 4293400320
3.1112053 1.2642479 -0.21623848 4293400320
3.113234 1.2651861 -0.19771777 4293400320
3.1220522 1.2688841 -0.17934699 4293400320
3.0972903 1.2589335 -0.15895011 4293400320
3.1218836 1.269044 -0.14091286 4293400320
3.1241376 1.2700747 -0.12154809 4293400320
3.0965333 1.2589658 -0.10104877 4293400320
3.1173041 1.267525 -0.082060531 4293400320
3.1312773 1.2733212 -0.062584646 4293400320
3.1352041 1.2750328 -0.04272642 4293530880
3.1243017 1.2707133 -0.02266404 4293400320
3.132668 1.2742307 -0.0027325924 4293400320
3.1444864 1.2791531 0.017328128 4293530880
3.1120207 1.2660602 0.036995046 4293400320
3.1397338 1.2774497 0.057307318 4293530880
3.1600292 1.2858229 0.077728041 4293530880
3.1669319 1.2887475 0.09790834 4293530880
3.1124609 1.2666951 0.11578721 4293400320
3.154206 1.2838 0.13703907 4293530880
3.1607804 1.2865915 0.15691645 4293530880
3.1548734 1.2843027 0.17600903 4293530880
3.0407622 1.2379611 0.18814373 4293139200
3.1688626 1.2902296 0.21513735 4293661440
3.1721067 1.2916666 0.23421048 4293661440
3.1549687 1.2848036 0.25144225 4293530880
3.0453303 1.2402669 0.26029363 4293139200
3.185853 1.2976141 0.29040727 4293661440
3.1795831 1.2951767 0.30758473 4293661440
3.1736894 1.2928922 0.32439283 4293661440
3.1252158 1.2732596 0.33619854 4293530880
2.9941916 1.2199882 0.33780485 4293008640
3.1891208 1.2995291 0.3761211 4293792000
3.1690245 1.2914562 0.38955671 4293661440
3.1464069 1.2823544 0.4020378 4293661440
3.1171145 1.27053 0.41296858 4293530880
3.0476174 1.2423148 0.41765478 4293269760
3.1856899 1.2987146 0.45060828 4293792000
3.182477 1.2975215 0.46366328 4293792000
3.1743522 1.2943252 0.47543111 4293792000
3.1461475 1.2829401 0.48350856 4293661440
3.142225 1.2814558 0.49464259 4293661440
3.0730608 1.2533619 0.49468139 4293400320
3.1660602 1.2914082 0.52032602 4293661440
3.1644754 1.2908778 0.5301379 4293661440
3.1652114 1.291294 0.53972626 4293792000
3.1597588 1.2891853 0.54762447 4293661440
3.1522195 1.2862248 0.55449378 4293661440
3.151994 1.2862482 0.56198782 4293661440
3.1513753 1.2861112 0.56875837 4293661440
3.1387856 1.2810884 0.57268161 4293661440
3.1298289 1.2775474 0.5765608 4293661440
3.1381686 1.2810664 0.58295161 4293661440
3.1502531 1.2861151 0.58938694 4293661440
3.1264365 1.2765064 0.58840686 4293661440
3.1259604 1.2764266 0.59110463 4293661440
3.1210322 1.2745286 0.59226537 4293661440
3.1207724 1.274537 0.59361529 4293661440
3.1206222 1.27459 0.59429067 4293661440
3.140156 1.2826836 0.59801871 4293661440
3.135668 1.2809652 0.59647244 4293661440
3.1384432 1.2822139 0.59560901 4293661440
3.1350856 1.2809572 0.59288543 4293661440
3.1425202 1.2841101 0.59150463 4293661440
3.1516953 1.2879748 0.58974308 4293661440
3.1513782 1.2879606 0.58550668 4293661440
3.1580226 1.2907921 0.58187062 4293792000
3.1587627 1.2912103 0.57645684 4293792000
3.170738 1.2962219 0.57239771 4293792000
3.1669083 1.2947723 0.56480491 4293792000
3.1706846 1.2964325 0.55791277 4293792000
3.1590478 1.2917902 0.54768366 4293661440
3.14889 1.287752 0.5371365 4293661440
3.1413457 1.2847819 0.52646655 4293661440
3.1606836 1.2928069 0.51965725 4293661440
3.1662543 1.2952015 0.50990766 4293661440
3.1690826 1.2964747 0.4991037 4293792000
3.1236765 1.2786386 0.40746593 4293530880
3.1399269 1.2854056 0.39459944 4293530880
3.1713209 1.2983738 0.3829625 4293661440
3.1590803 1.2934784 0.36553636 4293661440
3.1353555 1.2838793 0.34655908 4293530880
3.1293876 1.2815503 0.32931411 4293530880
3.1460426 1.2884862 0.31402647 4293530880
3.1474361 1.2891725 0.29677069 4293530880
3.1150963 1.2760406 0.27618146 4293400320
3.1164396 1.2767051 0.25844926 4293400320
3.1383383 1.2857915 0.24200301 4293530880
3.1401699 1.2866571 0.22360609 4293530880
3.1096756 1.2742765 0.2028345 4293400320
3.1304603 1.2829084 0.18524294 4293530880
3.1460679 1.28942 0.16692194 4293530880
3.154309 1.2929134 0.14788213 4293530880
3.0999553 1.2707483 0.12603447 4293400320
3.1290503 1.2827898 0.10759866 4293530880
3.1310582 1.283728 0.087919526 4293530880
3.1375189 1.2864919 0.068216346 4293530880
3.1001315 1.2712755 0.047682587 4293400320
3.1180725 1.2787471 0.028071292 4293400320
3.112844 1.2767171 0.0081396028 4293400320
3.0759852 1.2617126 -0.01161512 4293269760
3.0904319 1.2677517 -0.031408273 4293269760
3.1092644 1.2755913 -0.051424995 4293400320
3.1154222 1.278232 -0.071336366 4293400320
3.0830445 1.2650608 -0.090122961 4293269760
3.1048322 1.2741148 -0.1103283 4293400320
3.1163902 1.2789721 -0.13026109 4293400320
3.1346176 1.2865678 -0.15051793 4293530880
3.0801454 1.2643235 -0.16689867 4293269760
3.1015284 1.2732145 -0.18700367 4293400320
3.1241109 1.2825996 -0.20724526 4293530880
3.1193919 1.2807767 -0.22555879 4293400320
3.0975807 1.271935 -0.24223405 4293400320
3.1303408 1.285502 -0.26297414 4293530880
3.1381335 1.2888173 -0.28156382 4293530880
3.1365776 1.2882936 -0.29904169 4293530880
3.1307225 1.2860036 -0.31573978 4293530880
3.1116095 1.2782668 -0.33061719 4293400320
3.1229999 1.2830607 -0.34832716 4293530880
3.1207471 1.2822497 -0.36417782 4293530880
3.1201596 1.282123 -0.37980339 4293530880
3.108665 1.2775137 -0.3936187 4293530880
3.131814 1.2871419 -0.41143426 4293530880
3.1423013 1.2915676 -0.42728347 4293661440
3.1427948 1.2918857 -0.44134375 4293661440
3.1437082 1.2923766 -0.45497143 4293661440
3.1337004 1.2883775 -0.46646667 4293530880
3.104738 1.276584 -0.47445533 4293530880
3.1119118 1.2796481 -0.48733914 4293530880
3.1173811 1.2820116 -0.49944723 4293530880
3.1134725 1.2805185 -0.50948822 4293530880
3.1240621 1.2849886 -0.5213387 4293530880
3.1251621 1.2855558 -0.53104424 4293530880
3.1220534 1.2843918 -0.53941762 4293530880
3.1264763 1.2863262 -0.54847252 4293661440
3.1142423 1.2814071 -0.55395275 4293530880
3.1214404 1.2844836 -0.56223381 4293661440
3.1154253 1.2821229 -0.56748611 4293530880
3.1190946 1.2837474 -0.57383692 4293661440
3.1105325 1.2803378 -0.57726216 4293530880
3.0927694 1.2731398 -0.57826811 4293530880
3.0921659 1.273005 -0.58178192 4293530880
3.0890739 1.2718456 -0.58414388 4293530880
3.0750184 1.2661716 -0.58373624 4293400320
3.0792863 1.268042 -0.58611554 4293400320
3.0791082 1.2680818 -0.58696443 4293400320
3.0870936 1.2714839 -0.58868247 4293530880
3.0825799 1.2697381 -0.58732867 4293530880
3.0943081 1.2746828 -0.58837789 4293530880
3.1241555 1.287093 -0.59216088 4293661440
3.1171432 1.2843187 -0.58825213 4293661440
3.1208191 1.2859479 -0.58567441 4293661440
3.1247668 1.2876893 -0.58245438 4293661440
3.1169307 1.2845747 -0.57636464 4293530880
3.1190295 1.2855544 -0.57144803 4293661440
3.1132169 1.283273 -0.5644241 4293530880
3.1122556 1.2829912 -0.55763674 4293530880
3.1111429 1.2826469 -0.55017966 4293530880
3.1076946 1.2813394 -0.5416835 4293530880
3.09076 1.2744707 -0.53026539 4293530880
3.0852726 1.2723213 -0.52026188 4293400320
3.0866604 1.2730072 -0.51083052 4293400320
3.1024563 1.2796358 -0.50314009 4293530880
3.1273327 1.2900113 -0.49620605 4293530880
3.1196566 1.2869595 -0.48348084 4293530880
3.0974162 1.2778986 -0.46806154 4293530880
3.0764277 1.2693524 -0.45246989 4293400320
3.0937462 1.2766119 -0.44201112 4293400320
3.1121418 1.2843171 -0.43105325 4293530880
3.1191549 1.287326 -0.41792062 4293530880
3.0884771 1.2747782 -0.39937955 4293400320
3.097111 1.2784559 -0.38557577 4293400320
3.1100719 1.2839203 -0.37177354 4293530880
3.1291256 1.2919012 -0.35812372 4293530880
3.1266158 1.29098 -0.34152362 4293530880
3.0653086 1.265779 -0.31846246 4293269760
3.089922 1.2760564 -0.3041684 4293400320
3.1014543 1.280933 -0.28805244 4293400320
3.1000848 1.2804813 -0.27036449 4293400320
3.0650342 1.2661165 -0.2496517 4293269760
3.0959487 1.2790006 -0.23405915 4293400320
3.1000328 1.2808019 -0.21597694 4293400320
3.1011968 1.2813969 -0.1974241 4293400320
3.1146064 1.2870523 -0.17934699 4293400320
3.0982113 1.2803912 -0.1593775 4293400320
3.1144369 1.2872113 -0.14091286 4293400320
3.1129909 1.2867281 -0.12140401 4293400320
3.0891457 1.2769855 -0.10104877 4293400320
3.105247 1.2837558 -0.081938639 4293400320
3.1284254 1.2934531 -0.062677205 4293530880
3.1281178 1.2934411 -0.042731825 4293530880
3.1235366 1.2916616 -0.022712696 4293400320
3.1374269 1.2975211 -0.0027432914 4293530880
3.1451824 1.3008442 0.017373435 4293530880
3.1216922 1.2912434 0.037198823 4293400320
3.154412 1.3048936 0.057713013 4293530880
3.1583507 1.3066392 0.077872694 4293530880
3.1676824 1.3106164 0.098165959 4293661440
3.1096454 1.2867181 0.11595939 4293400320
3.1559055 1.3059759 0.13744114 4293530880
3.157846 1.3068951 0.15714611 4293661440
3.1473372 1.3026618 0.17600903 4293530880
3.0381103 1.2575654 0.1884298 4293139200
3.161227 1.3086433 0.21513294 4293661440
3.1682146 1.3116527 0.23448338 4293661440
3.1566441 1.3069785 0.25217837 4293661440
2.9628057 1.2268306 0.25384665 4292878080
3.1744914 1.3146017 0.29006487 4293661440
3.1848662 1.3190151 0.30883399 4293792000
3.1798995 1.3170753 0.32580641 4293661440
3.1177444 1.2914462 0.33619854 4293530880
2.9962218 1.2412188 0.33884397 4293008640
3.1686378 1.3127607 0.37460107 4293661440
3.1568568 1.3079962 0.38899118 4293661440
3.1471391 1.3040856 0.40309536 4293661440
3.1004899 1.2848696 0.41175085 4293400320
3.0485759 1.2634681 0.41878784 4293269760
3.1817331 1.3187717 0.45112777 4293792000
3.1657085 1.3122463 0.46232629 4293661440
3.1667573 1.3127977 0.47543111 4293792000
3.1431923 1.3031443 0.48421299 4293661440
3.1347058 1.2997413 0.49464259 4293661440
3.0574834 1.2678353 0.49335459 4293400320
3.1667013 1.3132408 0.52167994 4293792000
3.1660287 1.3130785 0.53167075 4293792000
3.155798 1.3089515 0.53941238 4293661440
3.1558423 1.3090861 0.54825824 4293792000
3.1629055 1.3121325 0.5577088 4293792000
3.1572051 1.309884 0.56426811 4293792000
3.1483836 1.30634 0.5695824 4293661440
3.1312685 1.2993538 0.57268161 4293661440
3.1359897 1.3014284 0.57908267 4293661440
3.1479461 1.3065063 0.58617198 4293661440
3.1472566 1.3063359 0.5902403 4293661440
3.1098475 1.290923 0.58669031 4293530880
3.1275678 1.2983941 0.59282905 4293661440
3.127198 1.2983557 0.59486085 4293661440
3.1269369 1.2983625 0.59621668 4293661440
3.1085956 1.2908614 0.59342259 4293530880
3.140815 1.3043563 0.5995813 4293661440
3.1408849 1.3045011 0.59890044 4293661440
3.132879 1.3012913 0.59598178 4293661440
3.1275694 1.2992011 0.59288543 4293661440
3.148632 1.3080666 0.59407943 4293792000
3.1523271 1.3097178 0.59127915 4293792000
3.1529217 1.310081 0.58720165 4293792000
3.1586413 1.3125739 0.58338374 4293792000
3.164844 1.315268 0.57895535 4293792000
3.1627312 1.3145065 0.57232511 4293792000
3.1684217 1.3169883 0.56643367 4293792000
3.1630776 1.3148836 0.55791277 4293792000
3.1560266 1.3120688 0.54847586 4293792000
3.1458943 1.3079723 0.53791624 4293661440
3.1429315 1.3068563 0.52799946 4293661440
3.1485336 1.3093017 0.51890504 4293661440
3.1677868 1.3174248 0.51138192 4293792000
3.1651299 1.3164365 0.49968067 4293792000
3.1207569 1.2987233 0.4080652 4293530880
3.1286368 1.3021179 0.39412728 4293530880
3.1591148 1.3149191 0.38240716 4293661440
3.1606703 1.315683 0.36660111 4293661440
3.1241486 1.3005954 0.34615204 4293530880
3.1172738 1.2978482 0.32882947 4293530880
3.1430783 1.3087077 0.31448638 4293530880
3.1490684 1.3113179 0.29763991 4293661440
3.1122091 1.2960839 0.27659029 4293530880
3.1218343 1.3002074 0.25952047 4293530880
3.1382248 1.3071495 0.2425774 4293530880
3.1372259 1.3068491 0.22393483 4293530880
3.0975916 1.2904532 0.20253326 4293400320
3.1282756 1.3033514 0.18555987 4293530880
3.1431119 1.3096486 0.16716711 4293530880
3.1504116 1.3128064 0.14805548 4293530880
3.1137862 1.297659 0.12690203 4293400320
3.1246631 1.3023071 0.10770689 4293530880
3.1272817 1.3035139 0.088025235 4293530880
3.1253562 1.3028265 0.068115786 4293530880
3.0972867 1.2912397 0.047753733 4293400320
3.1068125 1.2953256 0.02803739 4293400320
3.1136594 1.2982951 0.0081613762 4293400320
3.0768886 1.2830764 -0.011646562 4293269760
3.0959141 1.2911242 -0.031539902 4293400320
3.1063938 1.2956092 -0.051501494 4293400320
3.1125357 1.2982857 -0.071442261 4293400320
3.0719314 1.2814623 -0.090014823 4293269760
3.1003461 1.29343 -0.1104348 4293400320
3.1171856 1.3005701 -0.13060884 4293400320
3.1279104 1.3051602 -0.15055846 4293530880
3.0773354 1.2841706 -0.16714899 4293269760
3.1032722 1.2951084 -0.18756057 4293400320
3.1211908 1.3027018 -0.20755152 4293530880
3.1146424 1.3000835 -0.22575924 4293530880
3.0935218 1.2913817 -0.24250092 4293400320
3.1273983 1.3056387 -0.26336154 4293530880
3.1343145 1.3086418 -0.2819005 4293530880
3.1336148 1.3084651 -0.29948094 4293530880
3.1273773 1.3059762 -0.31616443 4293530880
3.1011326 1.2951308 -0.33030018 4293400320
3.1246502 1.3050678 -0.34935337 4293530880
3.1168931 1.3019429 -0.3646071 4293530880
3.1208892 1.3037273 -0.38081035 4293530880
3.1057515 1.2975181 -0.3942003 4293530880
3.1303041 1.3078912 -0.41222998 4293530880
3.1347232 1.3098533 -0.42728347 4293661440
3.1397896 1.3120862 -0.44198775 4293661440
3.1361251 1.3106706 -0.45497143 4293661440
3.1389372 1.3119617 -0.46837607 4293661440
3.107672 1.2990086 -0.47605219 4293530880
3.1065543 1.2986561 -0.48767677 4293530880
3.1165674 1.3029569 -0.50052464 4293530880
3.1232913 1.3058833 -0.51233131 4293661440
3.1210816 1.3050746 -0.52210134 4293661440
3.1266539 1.30752 -0.53258324 4293661440
3.1244674 1.306721 -0.54114091 4293661440
3.1225715 1.3060434 -0.54911309 4293661440
3.1203783 1.3052412 -0.55638748 4293661440
3.1275537 1.3083582 -0.5646984 4293661440
3.1160901 1.3036774 -0.56898105 4293661440
3.1070151 1.2999955 -0.57299834 4293530880
3.1030202 1.2984387 -0.57726216 4293530880
3.0816634 1.2896158 -0.57758665 4293530880
3.0937848 1.2948025 -0.58349597 4293530880
3.0861547 1.2917231 -0.5850051 4293530880
3.0721321 1.2859674 -0.58460069 4293400320
3.0809307 1.2897642 -0.5878489 4293530880
3.085294 1.2917047 -0.58956826 4293530880
3.0832667 1.2909697 -0.58937705 4293530880
3.0796716 1.2895782 -0.58819622 4293530880
3.1036415 1.2997299 -0.59158254 4293530880
3.1038978 1.2999519 -0.58974683 4293530880
3.1186938 1.3062638 -0.58997101 4293661440
3.116909 1.3056313 -0.58635825 4293661440
3.12061 1.3072969 -0.58308947 4293661440
3.1139393 1.3046173 -0.57720727 4293661440
3.1123929 1.3040844 -0.57161444 4293661440
3.1147835 1.3052011 -0.56607723 4293661440
3.1129167 1.3045338 -0.55910754 4293661440
3.1118088 1.3041844 -0.55163181 4293530880
3.1047292 1.301332 -0.54247892 4293530880
3.1005888 1.299711 -0.53324175 4293530880
3.0823634 1.2921852 -0.52103204 4293530880
3.0965121 1.2982309 -0.513704 4293530880
3.1053002 1.3020301 -0.50482297 4293530880
3.124326 1.3101228 -0.49693167 4293661440
3.1137111 1.3057868 -0.48373029 4293530880
3.0981381 1.2993704 -0.46930668 4293530880
3.0735488 1.2891711 -0.45314348 4293400320
3.0862558 1.294615 -0.44201112 4293400320
3.1100302 1.3047026 -0.4318063 4293530880
3.1024504 1.3016375 -0.41669148 4293530880
3.0809975 1.2927507 -0.39937955 4293400320
3.0850296 1.2945566 -0.38500416 4293400320
3.1025386 1.3020184 -0.37177354 4293530880
3.1077912 1.3043375 -0.35654572 4293530880
3.1107845 1.3057088 -0.34061956 4293530880
3.0652277 1.2867002 -0.31922749 4293269760
3.0940502 1.2989135 -0.30531457 4293400320
3.0923231 1.2983027 -0.287902 4293400320
3.1017621 1.3023802 -0.27116796 4293400320
3.0677156 1.2881981 -0.25047719 4293269760
3.0945117 1.2995646 -0.23451898 4293400320
3.106319 1.304638 -0.21694079 4293400320
3.1062865 1.3047391 -0.19822869 4293400320
3.1249416 1.3126904 -0.18037947 4293530880
3.0969231 1.3010352 -0.15969847 4293400320
3.0976732 1.3014648 -0.14049508 4293400320
3.1091266 1.3063917 -0.12154809 4293400320
3.0816534 1.2949619 -0.10104877 4293400320
3.1115394 1.3076355 -0.082304306 4293400320
3.1162276 1.309721 -0.062584646 4293400320
3.125138 1.3135815 -0.042794939 4293530880
3.1030524 1.304413 -0.022618623 4293400320
3.128957 1.315418 -0.0027425401 4293530880
3.1403186 1.3203106 0.017388765 4293530880
3.1187251 1.311347 0.037253875 4293530880
3.1513643 1.3251876 0.057797536 4293530880
3.1599 1.3288938 0.078100465 4293661440
3.1634381 1.3304988 0.098272987 4293661440
3.1067021 1.3067511 0.11613157 4293400320
3.148243 1.3243407 0.13744114 4293530880
3.1547821 1.327208 0.15737578 4293661440
3.1553547 1.3275656 0.17688693 4293661440
3.0390139 1.2787294 0.18894471 4293139200
3.1581483 1.3289746 0.21544671 4293661440
3.1605189 1.330089 0.23448338 4293661440
3.1443796 1.3234131 0.25181031 4293530880
3.0343468 1.2772145 0.26060927 4293139200
3.1750441 1.3365541 0.29082197 4293661440
3.1817172 1.3394808 0.30928013 4293792000
3.1584089 1.329785 0.32439283 4293661440
3.1311188 1.3184109 0.33846334 4293530880
2.9843562 1.2567244 0.3383244 4293008640
3.1700971 1.3350579 0.37568682 4293792000
3.1665804 1.3336941 0.39114019 4293661440
3.1440639 1.3243268 0.40368292 4293661440
3.1020985 1.3067651 0.41296858 4293530880
3.041163 1.2812084 0.41878784 4293269760
3.1612034 1.331897 0.44930956 4293661440
3.1671419 1.3345163 0.46366328 4293792000
3.1672699 1.3346875 0.47666746 4293792000
3.1355464 1.3214351 0.48421299 4293661440
3.1316392 1.3199043 0.49536377 4293661440
3.0536904 1.287164 0.49394429 4293400320
3.1763051 1.3389648 0.52453834 4293792000
3.1583247 1.3315021 0.53167075 4293792000
3.1572199 1.3311532 0.54097193 4293792000
3.1572597 1.3312868 0.54984266 4293792000
3.1588447 1.332072 0.55835181 4293792000
3.1417861 1.3249947 0.56288254 4293661440
3.1488984 1.3281107 0.57106578 4293792000
3.1454494 1.3267723 0.57667911 4293792000
3.1283541 1.3196772 0.57908267 4293661440
3.1357405 1.3229092 0.58532453 4293661440
3.1164696 1.3148944 0.58589327 4293661440
3.1204269 1.3166796 0.59012336 4293661440
3.1199501 1.3165939 0.59282905 4293661440
3.1195805 1.3165534 0.59486085 4293661440
3.1147826 1.3146439 0.59534955 4293661440
3.1191678 1.3166102 0.59689504 4293661440
3.1100535 1.3128781 0.59515905 4293661440
3.1286948 1.3208631 0.59803325 4293661440
3.1252441 1.319522 0.59598178 4293661440
3.1371882 1.3246812 0.59616178 4293661440
3.1409574 1.326389 0.59407943 4293792000
3.1491814 1.3299783 0.59213251 4293792000
3.1579456 1.3337966 0.58957458 4293792000
3.1467583 1.329188 0.58260942 4293792000
3.1616688 1.3356034 0.57978815 4293792000
3.1550188 1.3329109 0.57232511 4293792000
3.1561506 1.3335059 0.56561929 4293792000
3.1599088 1.3352108 0.55871654 4293792000
3.1565142 1.3338933 0.54990184 4293792000
3.1555076 1.3335847 0.54087943 4293792000
3.1389048 1.3266844 0.52861261 4293661440
3.1454048 1.329548 0.51965725 4293661440
3.1682565 1.3393247 0.51270878 4293792000
3.1590443 1.3355473 0.49993986 4293792000
3.1131372 1.3168834 0.4080652 4293530880
3.1338046 1.325742 0.39574462 4293661440
3.1530101 1.3339835 0.38260251 4293661440
3.1529512 1.3340755 0.36660111 4293661440
3.133925 1.3261411 0.34808543 4293530880
3.1179085 1.3194792 0.32970181 4293530880
3.1436534 1.3304907 0.31531417 4293661440
3.1367879 1.3277012 0.2972053 4293530880
3.1046052 1.3141943 0.27659029 4293530880
3.1142061 1.3183738 0.25952047 4293530880
3.1314096 1.3257728 0.24264356 4293530880
3.1295586 1.3251051 0.22393483 4293530880
3.0991404 1.3123404 0.20313102 4293400320
3.1298234 1.3254491 0.18610659 4293530880
3.1529675 1.3353671 0.16810222 4293661440
3.1497419 1.3341178 0.14838679 4293661440
3.106173 1.3157786 0.12690203 4293400320
3.1262257 1.3243887 0.1080249 4293530880
3.1196339 1.3217119 0.088025235 4293530880
3.1269183 1.3249139 0.068316907 4293530880
3.090909 1.3097709 0.047772247 4293400320
3.1038165 1.3153554 0.028079035 4293400320
3.1060424 1.3164139 0.0081613762 4293400320
3.069361 1.3009812 -0.011646562 4293269760
3.0754499 1.303676 -0.031408273 4293269760
3.0987928 1.3136858 -0.051501494 4293400320
3.1003165 1.3144467 -0.071336366 4293400320
3.0680945 1.3008991 -0.090122961 4293269760
3.0989769 1.3141084 -0.11065686 4293400320
3.1111732 1.3193955 -0.13067681 4293400320
3.1202531 1.3233619 -0.15055846 4293530880
3.0789959 1.3059781 -0.16764963 4293400320
3.1085422 1.3186255 -0.18834025 4293400320
3.1074867 1.318293 -0.20714746 4293400320
3.1070149 1.318208 -0.22575924 4293530880
3.0859454 1.3093833 -0.24250092 4293400320
3.1151493 1.3218901 -0.26297414 4293530880
3.1229029 1.325296 -0.28156382 4293530880
3.129606 1.3282567 -0.29983234 4293530880
3.1197155 1.3241746 -0.31616443 4293530880
3.0935342 1.3131768 -0.33030018 4293400320
3.1132667 1.3216684 -0.34893566 4293530880
3.1229823 1.3259087 -0.36621684 4293530880
3.1223872 1.3257718 -0.38192919 4293530880
3.1063669 1.3190848 -0.39524719 4293530880
3.1180623 1.3241667 -0.41162688 4293530880
3.1270385 1.3280946 -0.42728347 4293661440
3.1412194 1.3342339 -0.44327578 4293661440
3.1412075 1.3343453 -0.45682883 4293661440
3.1310403 1.3301426 -0.46834618 4293661440
3.1000509 1.3170925 -0.47605219 4293530880
3.1080439 1.3206037 -0.48911017 4293530880
3.1125648 1.3226401 -0.50111091 4293530880
3.1201799 1.3259916 -0.51307952 4293661440
3.1179726 1.3251693 -0.52286398 4293661440
3.1235287 1.3276466 -0.53335941 4293661440
3.116801 1.3249027 -0.54114091 4293661440
3.1239932 1.3280758 -0.55071449 4293661440
3.1208935 1.3268738 -0.55784833 4293661440
3.115339 1.3246279 -0.56387687 4293661440
3.1084416 1.3218104 -0.56898105 4293661440
3.1039243 1.3200046 -0.57383692 4293661440
3.0990305 1.3180383 -0.57793868 4293530880
3.0867922 1.3129479 -0.57997179 4293530880
3.0861886 1.3128057 -0.58349597 4293530880
3.0785766 1.3096819 -0.5850051 4293530880
3.0736508 1.3077004 -0.58632958 4293530880
3.073364 1.3076924 -0.5878489 4293530880
3.0938876 1.3165398 -0.59266609 4293530880
3.0802238 1.3108398 -0.59024525 4293530880
3.0757308 1.3090419 -0.58889019 4293530880
3.0964632 1.3179805 -0.59166789 4293530880
3.1180089 1.3272669 -0.59388715 4293661440
3.1110303 1.3244117 -0.58997101 4293661440
3.1092491 1.3237689 -0.58635825 4293661440
3.1140838 1.3259428 -0.58330357 4293661440
3.1189821 1.3281442 -0.57956648 4293661440
3.1183491 1.3279903 -0.57411963 4293661440
3.1152925 1.3268044 -0.56756502 4293661440
3.1188784 1.3284472 -0.5615589 4293661440
3.1041577 1.3222923 -0.55163181 4293530880
3.1052692 1.3228811 -0.54391074 4293530880
3.094146 1.3182575 -0.5334456 4293530880
3.0856874 1.3147682 -0.5228799 4293530880
3.0806322 1.3127285 -0.51232976 4293530880
3.1149473 1.3274666 -0.50764006 4293661440
3.1173306 1.328598 -0.49704179 4293661440
3.1060505 1.3239058 -0.48373029 4293530880
3.0950704 1.3193406 -0.46999842 4293530880
3.0705431 1.3089993 -0.45381707 4293400320
3.0877805 1.3164624 -0.44332045 4293530880
3.1023757 1.3228002 -0.4318063 4293530880
3.1039429 1.3235836 -0.41792062 4293530880
3.0779803 1.3126268 -0.39997298 4293400320
3.072866 1.31056 -0.38443255 4293400320
3.0903289 1.3181225 -0.3712244 4293400320
3.1138597 1.3282748 -0.35812372 4293530880
3.1159365 1.3292764 -0.34202591 4293530880
3.0668349 1.3084433 -0.32018337 4293400320
3.0946739 1.3204355 -0.30613008 4293400320
3.0975358 1.3217716 -0.2890994 4293400320
3.0924742 1.3197266 -0.27102357 4293400320
3.0693297 1.3099636 -0.25122789 4293400320
3.091475 1.3195299 -0.2348675 4293400320
3.0993617 1.3230112 -0.21698955 4293400320
3.1044173 1.3252846 -0.19859879 4293400320
3.1085818 1.3271779 -0.17987841 4293530880
3.0846972 1.3170952 -0.15946102 4293400320
3.0900381 1.3194903 -0.14049508 4293400320
3.1088181 1.3276252 -0.12183636 4293530880
3.0786524 1.3148572 -0.10119985 4293400320
3.0992713 1.3237784 -0.082182415 4293400320
3.1177385 1.3317821 -0.062769763 4293530880
3.1174316 1.3317668 -0.042794939 4293530880
3.1098912 1.3286611 -0.022724515 4293400320
3.1266928 1.3359555 -0.0027473315 4293530880
3.1325729 1.3385843 0.017388765 4293530880
3.127569 1.3365623 0.037451901 4293530880
3.1427352 1.3431603 0.057781819 4293530880
3.1545396 1.3483225 0.078160815 4293661440
3.1567914 1.3494023 0.098309077 4293661440
3.1073065 1.328365 0.1164415 4293400320
3.1495967 1.3465608 0.13784041 4293661440
3.1469958 1.3455659 0.15737578 4293661440
3.1429751 1.3439636 0.17662892 4293661440
3.0406916 1.3003392 0.18951684 4293269760
3.1503518 1.347352 0.21544671 4293661440
3.1490467 1.346911 0.23421048 4293661440
3.1448681 1.3452405 0.25247282 4293661440
3.026854 1.2948716 0.26060927 4293139200
3.1717837 1.3569896 0.29124257 4293792000
3.1738589 1.3579954 0.30928013 4293792000
3.1643367 1.3540387 0.32580641 4293661440
3.1142361 1.3327161 0.33747199 4293530880
2.9852128 1.2776124 0.33925965 4293008640
3.1750596 1.3589811 0.37720683 4293792000
3.1633234 1.3540756 0.39170572 4293792000
3.1317301 1.3406682 0.40309536 4293661440
3.1026444 1.3283322 0.41406453 4293530880
3.0382066 1.3008574 0.41941732 4293269760
3.1625047 1.3541952 0.45060828 4293792000
3.163868 1.3548967 0.46433178 4293792000
3.1639929 1.3550677 0.47735435 4293792000
3.1359849 1.3431891 0.48548096 4293661440
3.1238961 1.3381275 0.49536377 4293661440
3.0506852 1.306881 0.49468139 4293400320
3.1602714 1.3539439 0.52318436 4293792000
3.1677716 1.357275 0.53458315 4293792000
3.1494107 1.3495252 0.54097193 4293792000
3.1539874 1.3516036 0.55063486 4293792000
3.1474016 1.3488983 0.5577088 4293792000
3.1507962 1.3504703 0.56589687 4293792000
3.1501725 1.3503202 0.57271391 4293792000
3.137666 1.345076 0.57667911 4293792000
3.1287663 1.3413771 0.58059579 4293661440
3.1451898 1.3485352 0.58854491 4293792000
3.1132836 1.334971 0.58674663 4293661440
3.1163242 1.3363906 0.59081 4293661440
3.120374 1.3382432 0.59438103 4293661440
3.1200035 1.3382004 0.59641814 4293661440
3.1242671 1.3401455 0.59864461 4293661440
3.111444 1.3347608 0.59689504 4293661440
3.1425989 1.3482426 0.60288018 4293792000
3.1128006 1.3355743 0.59647244 4293661440
3.1175034 1.337708 0.59598178 4293661440
3.1294172 1.3429365 0.59616178 4293661440
3.141324 1.3481631 0.59562433 4293792000
3.1504338 1.3521899 0.59383923 4293792000
3.154649 1.3541166 0.59042203 4293792000
3.1480191 1.3513877 0.58429068 4293792000
3.1619883 1.3575021 0.58128726 4293792000
3.151731 1.3532157 0.5731492 4293792000
3.1528609 1.3538181 0.56643367 4293792000
3.161145 1.3574929 0.56032407 4293792000
3.1577613 1.3561574 0.55148631 4293792000
3.1431463 1.3499976 0.54009962 4293792000
3.1311221 1.3449497 0.52861261 4293661440
3.1503222 1.3533142 0.52176344 4293792000
3.1603997 1.3577609 0.51270878 4293792000
3.1557553 1.355883 0.50066108 4293792000
3.118181 1.3404882 0.4097431 4293530880
3.1388822 1.3495044 0.39737201 4293661440
3.1488364 1.3539013 0.38304678 4293661440
3.1503854 1.3546845 0.36721426 4293661440
3.1224105 1.3427714 0.34766957 4293530880
3.1193113 1.3415546 0.33067104 4293530880
3.1358483 1.3487836 0.31531417 4293661440
3.1342692 1.3482212 0.29770589 4293661440
3.1014733 1.3342294 0.27699915 4293530880
3.1143391 1.33988 0.2601777 4293530880
3.1327949 1.3479369 0.24335532 4293530880
3.1324146 1.3478898 0.22469731 4293530880
3.1006107 1.3343201 0.20373349 4293400320
3.1319971 1.3479434 0.18669966 4293530880
3.1405466 1.3517399 0.16785705 4293661440
3.1373274 1.3504711 0.1481701 4293530880
3.0938649 1.3318778 0.12671407 4293400320
3.1092763 1.3386279 0.10770689 4293530880
3.1219158 1.3441859 0.088309102 4293530880
3.1199844 1.3434706 0.068335272 4293530880
3.0820305 1.3272424 0.047753733 4293400320
3.0915082 1.3314389 0.02803739 4293400320
3.1166887 1.3423996 0.0082097612 4293530880
3.0663211 1.3208199 -0.01166403 4293269760
3.0806594 1.3271108 -0.031539902 4293400320
3.0864949 1.3297396 -0.051424995 4293400320
3.1080282 1.3391324 -0.071692117 4293530880
3.0750718 1.3250474 -0.09055315 4293400320
3.0995286 1.3357012 -0.11095258 4293400320
3.1171982 1.3434318 -0.1312564 4293530880
3.125334 1.3470546 -0.15117975 4293530880
3.0746269 1.3253137 -0.16782932 4293400320
3.1129475 1.3419478 -0.18907765 4293530880
3.1135018 1.3423028 -0.20806624 4293530880
3.1130257 1.3422134 -0.22676036 4293530880
3.0865073 1.3308947 -0.24315028 4293400320
3.1202118 1.3455443 -0.26405883 4293530880
3.1114681 1.3418896 -0.28123298 4293530880
3.1230044 1.3469813 -0.29994667 4293530880
3.1101074 1.3415346 -0.31597748 4293530880
3.0904 1.3331491 -0.33078924 4293400320
3.1055136 1.3397845 -0.34893566 4293530880
3.1127856 1.3430377 -0.36593249 4293530880
3.1192851 1.3459584 -0.3825025 4293530880
3.0989888 1.337316 -0.39529309 4293530880
3.1230547 1.3478177 -0.41331559 4293661440
3.1244936 1.3485551 -0.42800209 4293661440
3.1309803 1.3514714 -0.44293454 4293661440
3.1428535 1.3567137 -0.45821002 4293661440
3.1237464 1.3485818 -0.46842247 4293661440
3.1050513 1.3406265 -0.4780114 4293530880
3.1130173 1.3441819 -0.49111694 4293661440
3.1138875 1.3446738 -0.50257665 4293661440
3.1190779 1.3470314 -0.51418018 4293661440
3.1274376 1.3507582 -0.52576202 4293661440
3.1157405 1.3458223 -0.53335941 4293661440
3.1217201 1.3485216 -0.54334986 4293661440
3.1207333 1.3482116 -0.55151516 4293661440
3.1176388 1.3469909 -0.55865991 4293661440
3.1120961 1.3447123 -0.5646984 4293661440
3.1006877 1.3398983 -0.56898105 4293661440
3.1007059 1.3400217 -0.57467556 4293661440
3.0958223 1.3380268 -0.57878441 4293661440
3.0836129 1.3328648 -0.58082366 4293530880
3.0875306 1.3346733 -0.58521003 4293530880
3.0870295 1.3345717 -0.58807898 4293530880
3.0741162 1.3291038 -0.58788562 4293530880
3.0702128 1.3275306 -0.58871561 4293530880
3.0816448 1.3325887 -0.59179813 4293530880
3.0815732 1.3326726 -0.59198171 4293530880
3.1021445 1.3416846 -0.59543407 4293661440
3.1018455 1.3416709 -0.59417993 4293661440
3.1183591 1.3489301 -0.59544075 4293661440
3.1068778 1.3440794 -0.59065861 4293661440
3.1150479 1.34773 -0.58892262 4293661440
3.11535 1.3479769 -0.58500195 4293661440
3.1157143 1.3482507 -0.58040911 4293661440
3.1150832 1.3480939 -0.57495469 4293661440
3.112035 1.3468908 -0.56839156 4293661440
3.114707 1.3481635 -0.56221259 4293661440
3.1099863 1.3462361 -0.55405205 4293661440
3.1020391 1.3429117 -0.54470623 4293661440
3.0900385 1.3378317 -0.53407222 4293530880
3.0816019 1.3342941 -0.52349603 4293530880
3.0856311 1.3361539 -0.51444703 4293530880
3.1002228 1.3425881 -0.50650662 4293530880
3.1095369 1.3467376 -0.49704179 4293661440
3.1028261 1.3439471 -0.48443937 4293530880
3.0918751 1.339319 -0.47069016 4293530880
3.0583184 1.3248973 -0.45314348 4293400320
3.0903878 1.3389055 -0.44480726 4293530880
3.0946162 1.3408529 -0.4318063 4293530880
3.0998211 1.3432237 -0.41841227 4293530880
3.079391 1.3344858 -0.40115985 4293400320
3.0651782 1.3284409 -0.38443255 4293400320
3.0978804 1.3427294 -0.37306497 4293530880
3.1060681 1.3463943 -0.35812372 4293530880
3.108139 1.3474079 -0.34202591 4293530880
3.0591595 1.3262891 -0.32018337 4293400320
3.0823598 1.3364625 -0.30567703 4293400320
3.0861259 1.3382106 -0.28875729 4293400320
3.0847328 1.3377216 -0.27102357 4293400320
3.059819 1.3270317 -0.25107801 4293400320
3.0837348 1.337519 -0.2348675 4293400320
3.0991459 1.3443191 -0.2175191 4293530880
3.1061776 1.3474851 -0.19921024 4293530880
3.1026173 1.3460565 -0.17998403 4293530880
3.0769713 1.3350449 -0.15946102 4293400320
3.0951297 1.3430392 -0.14107998 4293400320
3.1028605 1.3465095 -0.12190827 4293530880
3.0709395 1.3327718 -0.10119985 4293400320
3.0960913 1.343803 -0.082304306 4293400320
3.1181808 1.353507 -0.062936366 4293530880
3.1096196 1.349907 -0.042794939 4293530880
3.1050704 1.3480481 -0.022746293 4293530880
3.1225252 1.3557427 -0.0027505634 4293530880
3.1293073 1.3588041 0.017414287 4293530880
3.11606 1.3531682 0.03740786 4293530880
3.1394417 1.3634392 0.057866339 4293661440
3.158921 1.3720168 0.078466102 4293661440
3.1580443 1.3717541 0.098595314 4293661440
3.0949311 1.3444552 0.11626932 4293400320
3.1508622 1.3688697 0.13824248 4293661440
3.1453302 1.3665838 0.15768798 4293661440
3.1414917 1.3650333 0.17698948 4293661440
3.0376422 1.3200223 0.1898029 4293269760
3.1516016 1.3696617 0.21607426 4293661440
3.1414216 1.3653549 0.23423104 4293661440
3.1343133 1.3623824 0.25225842 4293661440
2.9628525 1.2879648 0.25574055 4293008640
3.1683929 1.3774325 0.2916632 4293792000
3.1704602 1.3784496 0.3097263 4293792000
3.1596551 1.3738698 0.326143 4293792000
3.1074719 1.3512957 0.33758643 4293530880
2.9868391 1.2989497 0.3402988 4293139200
3.168726 1.3781691 0.37740195 4293792000
3.1644919 1.3764458 0.39283678 4293792000
3.1375256 1.3648336 0.40485796 4293661440
3.0994034 1.348366 0.41467339 4293530880
3.0442212 1.3244733 0.42130575 4293400320
3.1581979 1.3741801 0.45112777 4293792000
3.1731861 1.3808202 0.46687207 4293792000
3.1605854 1.3754551 0.4780412 4293792000
3.1371837 1.3653882 0.48688984 4293661440
3.1205833 1.3582798 0.49608496 4293661440
3.0566225 1.3305541 0.49689278 4293400320
3.1604874 1.3758849 0.52453834 4293792000
3.1643403 1.3776804 0.53534961 4293792000
3.1587019 1.3753437 0.54393506 4293792000
3.1460593 1.3699565 0.55063486 4293792000
3.1566825 1.3747003 0.56076306 4293792000
3.1555386 1.3743201 0.5681771 4293792000
3.1512945 1.3725895 0.57436204 4293792000
3.129776 1.3633338 0.57667911 4293792000
3.1127646 1.3560399 0.57908267 4293661440
3.1246305 1.361326 0.58617198 4293661440
3.1090662 1.3546612 0.58742934 4293661440
3.1084852 1.3545243 0.59081 4293661440
3.1215541 1.3603357 0.59610546 4293661440
3.1166685 1.3583231 0.5972833 4293661440
3.1118922 1.3563578 0.59777749 4293661440
3.1072259 1.3544401 0.59758955 4293661440
3.1346905 1.3665291 0.60288018 4293792000
3.1266332 1.3631335 0.60063469 4293792000
3.1222963 1.3613595 0.59840423 4293661440
3.1296659 1.3646898 0.59771377 4293792000
3.1469615 1.3723491 0.59819919 4293792000
3.1461148 1.3720976 0.59452194 4293792000
3.1512229 1.3744432 0.59126955 4293792000
3.1442533 1.3715209 0.58506501 4293792000
3.1540256 1.3759015 0.58128726 4293792000
3.1392732 1.3695834 0.57232511 4293792000
3.1449196 1.3721644 0.56643367 4293792000
3.1531825 1.3758874 0.56032407 4293792000
3.1508238 1.374976 0.55166441 4293792000
3.1352274 1.3682873 0.54009962 4293792000
3.1232331 1.3631694 0.52861261 4293661440
3.1469142 1.3736231 0.52251565 4293792000
3.1524353 1.376151 0.51270878 4293792000
3.1478021 1.3742461 0.50066108 4293792000
3.1066792 1.357043 0.4092637 4293530880
3.1272464 1.3661442 0.39689988 4293661440
3.1575069 1.3794817 0.38507268 4293792000
3.1469948 1.3750068 0.36774662 4293661440
3.1099763 1.3589487 0.34716079 4293530880
3.1160023 1.3616984 0.33115566 4293530880
3.1370611 1.3710185 0.31623396 4293661440
3.1309252 1.3684541 0.2981405 4293661440
3.1000366 1.3550694 0.27757123 4293530880
3.1032007 1.3565686 0.25990304 4293530880
3.129458 1.3681642 0.24371119 4293661440
3.135848 1.3710752 0.22551282 4293661440
3.0919411 1.3519936 0.20367795 4293400320
3.1240907 1.3661683 0.18669966 4293530880
3.1408539 1.3736163 0.16829836 4293661440
3.1339827 1.3707286 0.14838679 4293661440
3.0859392 1.3498311 0.1267094 4293400320
3.1060028 1.3587234 0.10786589 4293530880
3.1140313 1.3623521 0.088309102 4293530880
3.1121042 1.3616254 0.068335272 4293530880
3.0742455 1.3451763 0.047753733 4293400320
3.0965238 1.3550404 0.028153999 4293400320
3.095073 1.3545214 0.0081734722 4293400320
3.0685711 1.3430381 -0.011702156 4293400320
3.0704482 1.3439745 -0.031514991 4293400320
3.0848858 1.3504096 -0.051528402 4293400320
3.0967858 1.3557347 -0.071613781 4293400320
3.062721 1.3409363 -0.090417981 4293400320
3.1008494 1.3577459 -0.11128113 4293530880
3.1047416 1.3595663 -0.13106321 4293530880
3.1128571 1.3632368 -0.15095785 4293530880
3.0796609 1.3488142 -0.16853023 4293400320
3.0913577 1.3540528 -0.18824229 4293400320
3.1010573 1.3584174 -0.20775998 4293530880
3.0960135 1.356324 -0.22609295 4293530880
3.0787008 1.3488548 -0.24315028 4293400320
3.099535 1.3580987 -0.26297414 4293530880
3.12094 1.3675945 -0.28280452 4293530880
3.1196654 1.3671529 -0.30038589 4293530880
3.1058862 1.3612307 -0.31634903 4293530880
3.0916953 1.3551269 -0.33176735 4293530880
3.1104095 1.363446 -0.3503724 4293530880
3.1094608 1.3631467 -0.36646909 4293530880
3.1113904 1.364109 -0.3825025 4293530880
3.0956926 1.3573428 -0.39587471 4293530880
3.1242404 1.3699769 -0.41452181 4293661440
3.1302133 1.3727133 -0.42987385 4293661440
3.1312268 1.3732749 -0.44409376 4293661440
3.1402628 1.3773556 -0.45899454 4293661440
3.1285372 1.3723298 -0.47033191 4293661440
3.1017215 1.3606833 -0.47871113 4293530880
3.1051331 1.3622962 -0.49111694 4293661440
3.1210821 1.3694104 -0.50501698 4293661440
3.1135714 1.3662316 -0.5145759 4293661440
3.1104648 1.364985 -0.52423674 4293661440
3.1160667 1.36756 -0.53477013 4293661440
3.1129768 1.3663206 -0.54320437 4293661440
3.1173446 1.3683546 -0.55231589 4293661440
3.1097381 1.3651321 -0.55865991 4293661440
3.0996928 1.3608385 -0.56387687 4293661440
3.1116984 1.3662258 -0.57245249 4293661440
3.1009698 1.3616315 -0.57618499 4293661440
3.0879741 1.356041 -0.57878441 4293661440
3.0757949 1.3508079 -0.58082366 4293530880
3.075192 1.3506583 -0.58435297 4293530880
3.0828092 1.3541194 -0.58876795 4293530880
3.0708294 1.3489723 -0.58875006 4293530880
3.0660331 1.3469803 -0.58940893 4293530880
3.0783367 1.352501 -0.59266609 4293530880
3.0782647 1.3525847 -0.59284991 4293530880
3.0852587 1.3557736 -0.59369904 4293661440
3.093976 1.3597201 -0.59417993 4293661440
3.1023314 1.3635085 -0.59388715 4293661440
3.1166751 1.3699296 -0.59402853 4293661440
3.1134682 1.3686366 -0.59012151 4293661440
3.1074436 1.3661047 -0.58500195 4293661440
3.1163771 1.3701489 -0.58200979 4293661440
3.1098869 1.3674121 -0.57545626 4293661440
3.1210163 1.3724227 -0.57148272 4293661440
3.1091878 1.3673378 -0.56264478 4293661440
3.106607 1.3663193 -0.5548588 4293661440
3.1031995 1.3649369 -0.54629713 4293661440
3.0945759 1.3612601 -0.53621817 4293661440
3.0782976 1.3542149 -0.52426618 4293530880
3.0750766 1.3529131 -0.51399285 4293530880
3.1014001 1.3646107 -0.50798929 4293661440
3.1076119 1.3674604 -0.49799913 4293661440
3.1090746 1.3682207 -0.48665127 4293661440
3.0856483 1.3580271 -0.47093877 4293530880
3.0605204 1.3470827 -0.45462492 4293400320
3.0743685 1.3532933 -0.44362888 4293530880
3.0867517 1.35886 -0.4318063 4293530880
3.0935402 1.3619645 -0.41862845 4293530880
3.0636587 1.3489237 -0.40012741 4293400320
3.0627625 1.348644 -0.38510856 4293400320
3.0936432 1.362358 -0.37350425 4293530880
3.1018114 1.3660712 -0.3585445 4293530880
3.1047885 1.367499 -0.34252816 4293530880
3.0595789 1.3477012 -0.32104367 4293400320
3.0708754 1.3527924 -0.30531457 4293400320
3.081924 1.3577751 -0.2890994 4293400320
3.0905688 1.3616996 -0.27222878 4293530880
3.0648108 1.3504657 -0.25212899 4293400320
3.0872123 1.3604524 -0.23573205 4293400320
3.086695 1.3603402 -0.21719782 4293400320
3.1061203 1.3690177 -0.19971474 4293530880
3.1056988 1.3689485 -0.18062241 4293530880
3.07974 1.3576218 -0.16001174 4293400320
3.0908611 1.3626401 -0.14124487 4293400320
3.1005628 1.3670336 -0.12212884 4293530880
3.0647657 1.3513657 -0.10125414 4293400320
3.0882094 1.3618188 -0.082304306 4293400320
3.1056681 1.369634 -0.062843807 4293530880
3.109936 1.3716331 -0.042908546 4293530880
3.085964 1.361176 -0.02266404 4293400320
3.1109138 1.3722978 -0.0027473315 4293530880
3.125912 1.3790311 0.017439809 4293530880
3.1117826 1.3729146 0.037451901 4293530880
3.1396778 1.3853397 0.058018476 4293661440
3.1545324 1.3920125 0.078557216 4293661440
3.1540594 1.3919222 0.098722421 4293661440
3.1007602 1.3685172 0.11678587 4293530880
3.1419835 1.3868289 0.13820511 4293661440
3.1501091 1.3905336 0.15833104 4293661440
3.1334853 1.3833131 0.17698948 4293661440
2.9598515 1.3067716 0.18541484 4293008640
3.1517851 1.3916284 0.21663906 4293661440
3.1504788 1.3911699 0.23550671 4293661440
3.1400068 1.3866637 0.2533626 4293661440
3.0297985 1.3381081 0.26218754 4293269760
3.173075 1.4015051 0.2928409 4293792000
3.1714861 1.4009224 0.31061864 4293792000
3.1561503 1.3942667 0.3266142 4293792000
3.1040971 1.3713882 0.3380821 4293530880
2.9792204 1.3163296 0.3402988 4293139200
3.1688261 1.4002234 0.37837911 4293792000
3.1518748 1.3928514 0.39227125 4293792000
3.1331537 1.384696 0.40532801 4293661440
3.0914948 1.366401 0.41467339 4293530880
3.0400822 1.3437914 0.42180932 4293400320
3.1637411 1.3985705 0.45307586 4293792000
3.1650872 1.3992844 0.46687207 4293792000
3.1483459 1.3920013 0.47740853 4293792000
3.1337028 1.3856447 0.48759428 4293792000
3.1171417 1.3784389 0.49680617 4293661440
3.0524368 1.3499403 0.49748245 4293400320
3.1524177 1.3942752 0.52453834 4293792000
3.1517413 1.3940945 0.53458315 4293792000
3.1551518 1.3957216 0.54471481 4293792000
3.1461508 1.391858 0.55206084 4293792000
3.1441066 1.3910717 0.55995929 4293792000
3.1474781 1.3926816 0.5681771 4293792000
3.1342244 1.386935 0.57271391 4293792000
3.1253865 1.3831415 0.57734537 4293792000
3.1129239 1.3777431 0.58059579 4293661440
3.1292627 1.3850921 0.58854491 4293792000
3.1011209 1.3727523 0.58742934 4293661440
3.109549 1.3766 0.59252656 4293661440
3.1045685 1.3745117 0.59438103 4293661440
3.1132045 1.3784522 0.59814847 4293661440
3.1084394 1.3764591 0.59864461 4293661440
3.1082864 1.3765081 0.59932578 4293661440
3.0956368 1.3710226 0.59689534 4293661440
3.118638 1.3813268 0.60063469 4293792000
3.123317 1.3835166 0.60013455 4293792000
3.1180594 1.3813049 0.59702402 4293792000
3.134409 1.3886654 0.59734088 4293792000
3.1425714 1.3923999 0.5953753 4293792000
3.1431618 1.3927796 0.59126955 4293792000
3.1452217 1.3938105 0.58674628 4293792000
3.1414483 1.3922565 0.58045441 4293792000
3.1447663 1.3938452 0.57479733 4293792000
3.1449897 1.3940624 0.56789958 4293792000
3.1406012 1.3922352 0.5595203 4293792000
3.1382463 1.3913091 0.55087221 4293792000
3.1315193 1.3884447 0.54084522 4293792000
3.1242714 1.3853486 0.53014547 4293661440
3.1469917 1.3955413 0.52386963 4293792000
3.1488848 1.3964993 0.51344591 4293792000
3.1524057 1.3981793 0.50268042 4293792000
3.1077235 1.3791157 0.41045287 4293661440
3.1320236 1.390017 0.39852726 4293661440
3.1510139 1.3985636 0.38526803 4293792000
3.1434746 1.3953356 0.36827898 4293661440
3.1147354 1.3826959 0.3485854 4293661440
3.1125641 1.3818491 0.3316403 4293661440
3.1335704 1.3912928 0.31669384 4293661440
3.1274517 1.3886937 0.2985751 4293661440
3.1093957 1.3807932 0.27912483 4293530880
3.1125579 1.3823146 0.26135686 4293530880
3.1251442 1.3880218 0.24400088 4293661440
3.1278067 1.389322 0.22551282 4293661440
3.0967827 1.3756582 0.2045214 4293530880
3.1160779 1.3843467 0.18669966 4293530880
3.1291463 1.3902702 0.16810222 4293661440
3.1259432 1.3889647 0.14838679 4293661440
3.0781357 1.3678378 0.12671407 4293400320
3.1062541 1.3804498 0.1081521 4293530880
3.1060412 1.3804719 0.088309102 4293530880
3.1115065 1.383018 0.068497926 4293530880
3.0745792 1.3667202 0.047881797 4293400320
3.0849216 1.3714336 0.028120682 4293400320
3.0892766 1.3734859 0.0081791589 4293400320
3.0579498 1.3596731 -0.011691662 4293400320
3.082078 1.3705174 -0.031715784 4293400320
3.086647 1.3726653 -0.05169053 4293400320
3.0924885 1.3753794 -0.071698494 4293530880
3.0594232 1.3607888 -0.09055315 4293400320
3.0974522 1.37782 -0.11144542 4293530880
3.1095495 1.3833183 -0.13160416 4293530880
3.1268473 1.391131 -0.15202679 4293661440
3.0635378 1.36308 -0.16807964 4293400320
3.0834162 1.3720407 -0.18824229 4293400320
3.1012974 1.3801141 -0.20831124 4293530880
3.0971744 1.3783959 -0.22676036 4293530880
3.0662336 1.3647412 -0.24278952 4293400320
3.100678 1.3801886 -0.26374891 4293530880
3.108367 1.3837281 -0.28239095 4293530880
3.1116471 1.3853055 -0.30038589 4293530880
3.1069987 1.383353 -0.31727788 4293530880
3.0919299 1.3767601 -0.33264765 4293530880
3.1069565 1.383568 -0.35088554 4293530880
3.1096401 1.3848802 -0.36743492 4293661440
3.0997589 1.3805963 -0.38205495 4293530880
3.0823801 1.372972 -0.39518854 4293530880
3.1183369 1.3891056 -0.41480535 4293661440
3.1227033 1.3911681 -0.4299483 4293661440
3.1298354 1.3944633 -0.44504118 4293661440
3.1276581 1.3936111 -0.45833117 4293661440
3.1295376 1.3945663 -0.47169578 4293661440
3.1015096 1.3821934 -0.47991318 4293661440
3.1085734 1.3854585 -0.49292943 4293661440
3.1094365 1.3859603 -0.50443071 4293661440
3.1182017 1.3899846 -0.51667076 4293661440
3.1188905 1.3904091 -0.52701324 4293661440
3.1125574 1.3877029 -0.53554636 4293661440
3.1139824 1.3884556 -0.54478222 4293661440
3.1048117 1.3844836 -0.55151516 4293661440
3.1201415 1.3914368 -0.56197572 4293792000
3.1043239 1.3844998 -0.56617713 4293661440
3.1081886 1.3863405 -0.57328302 4293661440
3.0974855 1.3816833 -0.57702363 4293661440
3.0800211 1.374009 -0.57878441 4293661440
3.0759716 1.3723185 -0.58235699 4293530880
3.0798666 1.3741722 -0.58675265 4293661440
3.058814 1.3648943 -0.58569413 4293530880
3.067415 1.3688477 -0.58961451 4293530880
3.0671268 1.3688346 -0.59114236 4293530880
3.0704045 1.3704131 -0.59266609 4293530880
3.0703321 1.3704964 -0.59284991 4293530880
3.0863004 1.3777404 -0.59543407 4293661440
3.1030889 1.3853518 -0.59746993 4293661440
3.1024294 1.3851743 -0.59544075 4293661440
3.0955029 1.3821983 -0.59151804 4293661440
3.1099396 1.3887619 -0.5909763 4293661440
3.1030309 1.3857936 -0.58568126 4293661440
3.1038413 1.3862725 -0.58116716 4293661440
3.1144705 1.3911371 -0.57779443 4293661440
3.108465 1.3885719 -0.57065612 4293661440
3.1146798 1.3914654 -0.56509614 4293661440
3.1090906 1.3890857 -0.55673844 4293661440
3.1056948 1.3876855 -0.54815048 4293661440
3.0992165 1.3849077 -0.53841126 4293661440
3.0775752 1.3753531 -0.52549899 4293530880
3.0716543 1.3728229 -0.51474899 4293530880
3.0995336 1.3853998 -0.50899702 4293661440
3.1122379 1.3911955 -0.50003088 4293661440
3.1010504 1.3863115 -0.48665127 4293661440
3.0903416 1.3816408 -0.47287562 4293530880
3.0661888 1.370958 -0.45664573 4293530880
3.0807283 1.377575 -0.44569722 4293530880
3.0930517 1.3832022 -0.43380761 4293530880
3.0946119 1.3840166 -0.41985756 4293530880
3.0648117 1.3708044 -0.40131429 4293400320
3.0548532 1.3664654 -0.38510856 4293400320
3.0820241 1.3787355 -0.37306497 4293530880
3.0983384 1.3861505 -0.35907051 4293530880
3.0967686 1.3855649 -0.34252816 4293530880
3.047132 1.3634713 -0.32056573 4293400320
3.0711229 1.3743221 -0.30613008 4293400320
3.073961 1.375708 -0.2890994 4293400320
3.0780339 1.3776468 -0.27182704 4293530880
3.0568907 1.3682989 -0.25212899 4293400320
3.0792336 1.3784161 -0.23573205 4293400320
3.0923793 1.3844173 -0.21816167 4293530880
3.0935357 1.3850517 -0.19942106 4293530880
3.1067843 1.3911005 -0.18115383 4293530880
3.06722 1.3735008 -0.15977429 4293400320
3.0874288 1.3826668 -0.14145377 4293530880
3.0879853 1.3830324 -0.12194876 4293530880
3.0662374 1.3734077 -0.10156541 4293400320
3.080915 1.3800983 -0.082322806 4293400320
3.0939858 1.38607 -0.062769763 4293530880
3.1064544 1.3917731 -0.042971663 4293530880
3.0953197 1.3869011 -0.02279171 4293530880
3.1156416 1.3961242 -0.0027586434 4293530880
3.1178243 1.3972199 0.017439809 4293530880
3.100081 1.3893853 0.03740786 4293530880
3.1233416 1.3999281 0.057866339 4293661440
3.1381581 1.4066875 0.07835222 4293661440
3.1495447 1.4119104 0.098836914 4293661440
3.0953295 1.387723 0.11688386 4293530880
3.1292915 1.4030672 0.13800406 4293661440
