# .PCD v0.7 - Point Cloud Data file format
VERSION 0.7
FIELDS x y z rgba
SIZE 4 4 4 4
TYPE F F F U
COUNT 1 1 1 1
WIDTH 1129
HEIGHT 1
VIEWPOINT 0 0 0 1 0 0 0
POINTS 1129
DATA ascii
2.8611057 2.2026677 0.17697547 4294183680
2.8712428 2.2106271 0.15689273 4294314240
2.221664 1.7108874 0.10512506 4291572480
1.8335024 1.4122703 0.073234051 4289875200
1.8546437 1.4286444 0.060412854 4290005760
2.4243126 1.8672446 0.061180171 4292355840
2.8387234 2.1863911 0.050633624 4294183680
2.8514824 2.1963716 0.029613955 4294183680
2.8543868 2.1987662 0.0083397953 4294183680
2.8261704 2.1771996 -0.012853405 4294053120
2.8453329 2.1921124 -0.034171898 4294183680
2.8506055 2.196331 -0.055473492 4294183680
2.8482993 2.1947134 -0.076593138 4294183680
2.8367338 2.1859641 -0.097282119 4294183680
2.8713431 2.2127793 -0.11960936 4294314240
2.8825467 2.2215688 -0.14117609 4294314240
2.8687913 2.2111325 -0.16135724 4294314240
2.8464892 2.1941099 -0.18062589 4294183680
2.8724232 2.2142489 -0.20277289 4294314240
2.8750243 2.2164121 -0.2232632 4294314240
2.8542373 2.2005532 -0.24157512 4294183680
2.8573425 2.2031038 -0.26151702 4294314240
2.8947842 2.2321172 -0.28458294 4294444800
2.8970947 2.2340572 -0.30416372 4294444800
2.8938224 2.2316942 -0.32282123 4294444800
2.814425 2.17065 -0.33212143 4294053120
2.8811219 2.2222211 -0.35816264 4294444800
2.8969047 2.2345467 -0.37801272 4294444800
2.8879709 2.2278168 -0.39427027 4294444800
2.8627806 2.2085507 -0.40767404 4294314240
2.7703564 2.1374364 -0.41039404 4293922560
2.8282018 2.1821957 -0.43466067 4294183680
2.7953138 2.1569846 -0.44466949 4294053120
2.7345138 2.1102414 -0.44925484 4293792000
2.6961231 2.0807767 -0.45649943 4293661440
2.7241912 2.1025729 -0.47440085 4293792000
2.5509424 1.9690673 -0.45611045 4293008640
2.4595118 1.898665 -0.45069361 4292616960
2.334527 1.8023639 -0.43769625 4292094720
2.2840669 1.7635529 -0.43741125 4291833600
2.2255013 1.7184812 -0.43465307 4291703040
2.2096317 1.7063521 -0.43943775 4291572480
2.2047665 1.7027136 -0.44582778 4291572480
2.1441784 1.6560665 -0.44025749 4291311360
2.150382 1.6609671 -0.4476912 4291311360
2.1535139 1.6634969 -0.45399466 4291311360
2.1124463 1.6319057 -0.45038521 4291180800
2.1149297 1.6339322 -0.4554244 4291180800
2.1260576 1.6426328 -0.46181723 4291180800
2.1325672 1.6477685 -0.4667027 4291311360
2.1399236 1.6535581 -0.47124937 4291311360
2.1434505 1.6563909 -0.4744184 4291311360
2.0703716 1.6000626 -0.46005613 4291050240
2.0701554 1.6000004 -0.46124709 4291050240
2.1466765 1.6592083 -0.4789831 4291311360
2.131016 1.6472194 -0.47565982 4291311360
2.1279016 1.6449203 -0.47457346 4291311360
2.1240826 1.6420763 -0.47277725 4291180800
2.1055279 1.6278467 -0.46717003 4291180800
2.0979562 1.6221009 -0.46346837 4291180800
2.1463537 1.6596 -0.47150981 4291311360
2.1467261 1.6599932 -0.46841413 4291311360
2.1432681 1.657426 -0.46394354 4291311360
2.2041423 1.7045755 -0.47271222 4291572480
2.2156558 1.713581 -0.47022119 4291572480
2.2319226 1.7262611 -0.46812433 4291703040
2.2970386 1.7767015 -0.47549012 4291964160
2.3618896 1.8269426 -0.48188108 4292225280
2.4901361 1.9261986 -0.50001991 4292747520
2.5247309 1.953063 -0.49828553 4293008640
2.5226488 1.951573 -0.48864248 4292878080
2.566427 1.9855422 -0.48714149 4293139200
2.6720634 2.067347 -0.49619776 4293530880
2.749177 2.1271048 -0.49863583 4293922560
2.8100996 2.1743481 -0.49696726 4294183680
2.841253 2.1985734 -0.48905715 4294314240
2.8465531 2.202805 -0.47597811 4294314240
2.8525877 2.2076049 -0.46242669 4294314240
2.8725333 2.2231655 -0.45046821 4294444800
2.850786 2.2064748 -0.43149158 4294314240
2.8521924 2.2076943 -0.41563904 4294314240
2.8609886 2.2146304 -0.4003374 4294314240
2.8682172 2.2203546 -0.38427645 4294314240
2.8606355 2.2146192 -0.3658115 4294314240
2.8269138 2.1886554 -0.34386235 4294183680
2.8395278 2.1985455 -0.32728511 4294183680
2.8505495 2.2072041 -0.31001142 4294314240
2.8396182 2.198873 -0.29001588 4294183680
2.8166726 2.1812418 -0.2687048 4294053120
2.8330281 2.1940289 -0.25087997 4294183680
2.843822 2.202512 -0.23210301 4294183680
2.8274751 2.1899853 -0.21090457 4294183680
2.7541533 2.1333487 -0.18587705 4293792000
2.8262255 2.1892719 -0.17042454 4294183680
2.8308353 2.1929681 -0.15018521 4294183680
2.8156674 2.1813505 -0.1288157 4294053120
2.8053918 2.1735196 -0.1077152 4294053120
2.8294578 2.1922817 -0.087705731 4294183680
2.8357964 2.1973171 -0.066830762 4294183680
2.7046802 2.0958965 -0.043604981 4293530880
1.9517953 1.5128859 -0.017052254 4290397440
1.8034362 1.3980582 -0.0023030713 4289744640
1.9249126 1.4922367 0.011993429 4290266880
2.584779 2.0034974 0.03563517 4293139200
2.8415208 2.202513 0.060437199 4294183680
2.8551462 2.2131965 0.081971869 4294183680
2.8245749 2.1896377 0.10201624 4294053120
2.6630275 2.0645905 0.11577974 4293400320
2.8393769 2.2013607 0.14427504 4294183680
2.8427958 2.2041378 0.1651127 4294183680
2.7875245 2.1614316 0.18197989 4293922560
2.5952358 2.0125289 0.18791284 4293139200
2.8318763 2.196058 0.22507212 4294183680
2.828733 2.1937494 0.24453847 4294183680
2.77948 2.1556985 0.25938493 4293922560
2.5880024 2.0073905 0.25901967 4293139200
2.8499949 2.2106168 0.30427492 4294314240
2.842665 2.2050636 0.32210267 4294183680
2.7983596 2.1708415 0.33504906 4294053120
2.6318934 2.041894 0.33165285 4293400320
2.5380177 1.9692202 0.3354232 4292878080
2.833719 2.1986458 0.39155632 4294183680
2.8161848 2.185178 0.40560758 4294183680
2.7331259 2.1208899 0.40918684 4293792000
2.6981614 2.0938973 0.41884869 4293661440
2.5591764 1.9862173 0.41094592 4293008640
2.8323603 2.198247 0.46947837 4294183680
2.816432 2.1860225 0.48086298 4294183680
2.7945366 2.1691678 0.49049985 4294053120
2.7470467 2.1324542 0.4947629 4293922560
2.708353 2.1025612 0.49966058 4293792000
2.6309237 2.0426087 0.49634612 4293400320
2.8099649 2.1816673 0.54125571 4294183680
2.8110778 2.1826646 0.55197012 4294183680
2.8070989 2.1797111 0.56103987 4294183680
2.7952073 2.1706161 0.56782794 4294183680
2.7957642 2.1711829 0.57645249 4294183680
2.7857711 2.1635609 0.5822075 4294053120
2.7995987 2.1744301 0.59227455 4294183680
2.7540069 2.1391721 0.58900893 4293922560
2.764102 2.1471441 0.59688652 4294053120
2.774276 2.155179 0.60412478 4294053120
2.7736375 2.15482 0.60832042 4294053120
2.7102997 2.1057739 0.59796649 4293792000
2.7176359 2.1116052 0.60243493 4293792000
2.7133946 2.1084468 0.60363555 4293792000
2.7170265 2.1114035 0.60587972 4293792000
2.7129755 2.1083934 0.60570115 4293792000
2.7717817 2.1542089 0.61884904 4294053120
2.7609231 2.1459141 0.61571705 4294053120
2.7688277 2.1521952 0.61604762 4294053120
2.7426043 2.1319628 0.6080777 4293922560
2.7805543 2.1615894 0.61360872 4294053120
2.7692964 2.1529846 0.60753512 4294053120
2.7826152 2.1634774 0.60613829 4294053120
2.7784181 2.1603596 0.60020399 4294053120
2.7819891 2.1632795 0.59524846 4294053120
2.7963712 2.1746027 0.59187287 4294183680
2.7983861 2.1763153 0.58515221 4294183680
2.8015738 2.1789401 0.57798344 4294183680
2.7994444 2.1774325 0.56904507 4294183680
2.793855 2.1732349 0.55876964 4294183680
2.7903636 2.1706688 0.54829949 4294053120
2.8078372 2.1844039 0.54126608 4294183680
2.8125939 2.1882527 0.5310744 4294183680
2.807162 2.1841793 0.5183531 4294183680
2.7775509 2.1621227 0.42477348 4294053120
2.7934997 2.1746836 0.41157478 4294053120
2.8121562 2.1893535 0.39811713 4294183680
2.8170824 2.1933415 0.38213226 4294183680
2.7943728 2.1758232 0.36207777 4294053120
2.7838738 2.1678061 0.34340706 4294053120
2.7985151 2.1793556 0.32743183 4294053120
2.796227 2.1777294 0.30903277 4294053120
2.7838361 2.1682389 0.28927097 4294053120
2.7814701 2.1665516 0.27033094 4293922560
2.7990713 2.1804097 0.2529327 4294053120
2.7994902 2.1808918 0.23357832 4294053120
2.7792382 2.165278 0.21237895 4293922560
2.7985058 2.1804373 0.19397849 4294053120
2.8139892 2.192652 0.17485502 4294053120
2.8089659 2.1888969 0.15418792 4294053120
2.1777558 1.6974095 0.10351548 4291311360
1.8402221 1.4346101 0.07384745 4289875200
1.8044896 1.4068774 0.059040986 4289744640
2.4751475 1.9294618 0.062770605 4292616960
2.787365 2.1728544 0.049947012 4293922560
2.8047171 2.1865313 0.029265421 4294053120
2.8147063 2.1944728 0.0082677528 4294053120
2.7724192 2.1616769 -0.012662807 4293922560
2.7946522 2.1791596 -0.033711318 4294053120
2.7999039 2.1834097 -0.054729808 4294053120
2.8015549 2.1848538 -0.07567282 4294053120
2.7900465 2.1760399 -0.096110113 4293922560
2.8134704 2.1944568 -0.11772775 4294053120
2.8277853 2.2057748 -0.13911906 4294183680
2.8219807 2.2014074 -0.1594393 4294183680
2.7990007 2.1836472 -0.17841354 4294053120
2.8142552 2.195699 -0.1995659 4294053120
2.8187611 2.1993699 -0.21988463 4294183680
2.8036008 2.1877036 -0.23836227 4294053120
2.8177168 2.1988699 -0.25905365 4294183680
2.843658 2.2192612 -0.28082138 4294314240
2.8377259 2.2147918 -0.29928112 4294183680
2.8324733 2.2108517 -0.31741056 4294183680
2.7195387 2.1228995 -0.32239112 4293792000
2.8378332 2.2153473 -0.35437655 4294314240
2.8352129 2.2134595 -0.37164143 4294183680
2.8419414 2.2188661 -0.38974229 4294314240
2.8191895 2.201267 -0.40328339 4294183680
2.7124422 2.1181104 -0.40363911 4293792000
2.6034446 2.0331855 -0.40198907 4293269760
2.5093496 1.9598805 -0.40106833 4292878080
2.4387541 1.9049093 -0.40256712 4292616960
2.4620686 1.9232428 -0.41882724 4292616960
2.5174582 1.9666206 -0.44044468 4292878080
2.3475523 1.8340975 -0.42170992 4292225280
2.2636528 1.7687125 -0.41674793 4291833600
2.1689513 1.6948831 -0.40855303 4291441920
2.2067347 1.7245059 -0.42453817 4291572480
2.1979015 1.7177254 -0.43120843 4291572480
2.2037904 1.7224419 -0.44025305 4291572480
2.1989446 1.7187741 -0.44665661 4291572480
2.1941528 1.7151474 -0.45252508 4291572480
2.1833177 1.7067987 -0.45658112 4291572480
2.1697302 1.6962982 -0.45946741 4291441920
2.1321948 1.6670851 -0.45663539 4291311360
2.0797379 1.6262085 -0.44988257 4291050240
2.0939283 1.6374054 -0.45690477 4291180800
2.0973077 1.640155 -0.46107334 4291180800
2.1038592 1.6453834 -0.46541446 4291180800
2.1190162 1.657338 -0.47113764 4291311360
2.1218245 1.6596417 -0.47359017 4291311360
2.1184983 1.6571503 -0.47412315 4291311360
2.1214545 1.6595689 -0.47550327 4291311360
2.102761 1.6450626 -0.47148466 4291180800
2.0841427 1.6306125 -0.46693307 4291050240
2.0772357 1.625317 -0.46445948 4291050240
2.1322417 1.6684316 -0.47521883 4291311360
2.170011 1.6980729 -0.48151377 4291441920
2.1792173 1.7053804 -0.48087385 4291572480
2.1825802 1.7081184 -0.47836941 4291572480
2.2037725 1.7248012 -0.47916439 4291572480
2.2081773 1.7283549 -0.47571313 4291703040
2.1988876 1.7211964 -0.46877652 4291572480
2.2004342 1.7225136 -0.46361735 4291572480
2.1922281 1.7162007 -0.45588875 4291572480
2.1926968 1.7166739 -0.44945335 4291572480
2.2985241 1.7995805 -0.46370468 4291964160
2.3181055 1.8150129 -0.45965216 4292094720
2.3676262 1.8538746 -0.46074501 4292355840
2.3577456 1.8462554 -0.44963062 4292225280
2.4182651 1.8937308 -0.45118701 4292486400
2.5341361 1.9845324 -0.46178219 4293008640
2.6507609 2.0759346 -0.47095773 4293530880
2.7831266 2.1796689 -0.48123285 4294053120
2.8122051 2.2025623 -0.47236744 4294183680
2.8135355 2.2037354 -0.45816597 4294183680
2.8211722 2.2098458 -0.44442546 4294183680
2.7886264 2.1844957 -0.42400604 4294053120
2.7724082 2.171927 -0.40585864 4294053120
2.7998927 2.1935763 -0.39357275 4294183680
2.8266993 2.2146974 -0.38043275 4294183680
2.8213587 2.2106454 -0.36242548 4294183680
2.7733729 2.1731944 -0.33888435 4293922560
2.7828314 2.1807299 -0.3222101 4294053120
2.7960682 2.1912251 -0.30546948 4294053120
2.7890921 2.1858885 -0.28615007 4294053120
2.7662349 2.1681106 -0.2650924 4293922560
2.7911499 2.1877551 -0.24829192 4294053120
2.796375 2.1919758 -0.22926621 4294053120
2.7894406 2.1866698 -0.20900895 4294053120
2.7149498 2.1284306 -0.18406045 4293661440
2.7835431 2.1823018 -0.16861019 4294053120
2.7881243 2.1860178 -0.14858782 4294053120
2.7651522 2.1681414 -0.12707773 4293922560
2.7580628 2.1627104 -0.10637638 4293922560
2.7859485 2.1846905 -0.08674524 4294053120
2.7891066 2.1872919 -0.066025265 4294053120
2.6507115 2.0789368 -0.04292769 4293400320
1.9658315 1.5421836 -0.017237242 4290528000
1.8290988 1.4350824 -0.002327126 4289875200
1.8366365 1.4410745 0.011479182 4289875200
2.5203366 1.9771978 0.034904275 4292878080
2.7874548 2.1867518 0.059561346 4294053120
2.797909 2.1950753 0.080698237 4294053120
2.7914917 2.1901693 0.10128901 4294053120
2.5872505 2.0301278 0.11299663 4293139200
2.7771533 2.1791768 0.14175962 4293922560
2.7844253 2.1850061 0.16246367 4294053120
2.7523417 2.1599679 0.18050994 4293922560
2.5159078 1.9746363 0.18299815 4292878080
2.7955613 2.1941209 0.22320686 4294053120
2.7959743 2.1945722 0.24281721 4294053120
2.748287 2.1572878 0.25765204 4293922560
2.5841658 2.0286484 0.25982708 4293139200
2.8018744 2.1995847 0.30050832 4294053120
2.7976825 2.1964242 0.31845871 4294053120
2.7825825 2.1847036 0.33469057 4294053120
2.6476309 2.0789278 0.33517227 4293400320
2.5356069 1.9911332 0.33664474 4293008640
2.7703009 2.1754496 0.38454497 4294053120
2.7443848 2.155237 0.39707416 4293922560
2.7221634 2.137922 0.40941611 4293792000
2.6109619 2.0507574 0.40716404 4293269760
2.5632262 2.0134053 0.41348636 4293139200
2.3885026 1.8763534 0.39768192 4292355840
2.4118922 1.8948296 0.41364676 4292486400
2.3611181 1.855077 0.41628906 4292225280
2.3895648 1.8775257 0.43232146 4292355840
2.4388754 1.9163616 0.45198646 4292616960
2.5150812 1.9763235 0.47665849 4293008640
2.2015491 1.7302065 0.42596158 4291572480
2.189908 1.7211691 0.43192697 4291572480
2.1907253 1.7219167 0.43981317 4291572480
2.2029836 1.7316517 0.44953346 4291572480
2.2184646 1.74392 0.4594799 4291703040
2.2326753 1.755192 0.46871844 4291703040
2.2342978 1.7565761 0.4748137 4291703040
2.2374656 1.7591748 0.48069724 4291833600
2.2592881 1.7764322 0.4900831 4291833600
2.2509465 1.7699893 0.49238235 4291833600
2.281024 1.7937375 0.50254554 4291964160
2.2767005 1.7904534 0.50458145 4291964160
2.2577405 1.7756658 0.50275671 4291833600
2.2651908 1.7816353 0.50621217 4291964160
2.2943976 1.8047078 0.51395959 4292094720
2.2567158 1.775202 0.50612217 4291833600
2.2566597 1.775273 0.50612247 4291833600
2.2381024 1.7607983 0.50138348 4291833600
2.227365 1.7524707 0.49781954 4291703040
2.2159178 1.7435842 0.4935281 4291703040
2.1898422 1.7231939 0.48543578 4291572480
2.1800199 1.7155831 0.48041937 4291572480
2.1770103 1.7133296 0.47636053 4291572480
2.1502874 1.6924254 0.46660784 4291441920
2.1298959 1.6764989 0.45777574 4291311360
2.1317868 1.6780984 0.45323896 4291311360
2.1213088 1.6699682 0.44556656 4291311360
2.1254935 1.6733731 0.4404729 4291311360
2.1340032 1.6801813 0.43572751 4291311360
2.1606412 1.701255 0.43406773 4291441920
2.1914439 1.7256089 0.43254805 4291572480
2.2144523 1.7438329 0.42879644 4291703040
2.2191408 1.7476422 0.42089814 4291703040
2.2511473 1.7729528 0.41754875 4291833600
2.6868708 2.1168365 0.41278881 4293661440
2.7266309 2.148294 0.40356657 4293792000
2.7592769 2.1741538 0.39242566 4293922560
2.7605989 2.175348 0.37619063 4293922560
2.7383609 2.1579862 0.35645029 4293922560
2.7357078 2.1560485 0.33901718 4293792000
2.759768 2.1751542 0.32438466 4293922560
2.7467992 2.1650915 0.30496645 4293922560
2.7304118 2.1523345 0.28502432 4293792000
2.7398624 2.1599336 0.26751369 4293792000
2.7453909 2.1644435 0.2492234 4293922560
2.7525413 2.1702325 0.23071915 4293922560
2.7245641 2.1483393 0.20915927 4293792000
2.7479992 2.1669626 0.19135548 4293922560
2.7675924 2.1825604 0.17276584 4293922560
2.7631764 2.1792359 0.15237531 4293922560
2.1272409 1.6780864 0.10157733 4291180800
1.773243 1.3991314 0.071476758 4289614080
1.8111751 1.4291379 0.059543613 4289875200
2.5491538 2.0111115 0.064973734 4293008640
2.7498677 2.169523 0.049507804 4293922560
2.7656214 2.182102 0.028996328 4293922560
2.765244 2.1819608 0.0081640165 4293922560
2.7381866 2.1607776 -0.012556524 4293792000
2.7471266 2.167984 -0.033285629 4293792000
2.7662108 2.1831934 -0.054311641 4293922560
2.7624154 2.180356 -0.074951619 4293922560
2.743968 2.1659589 -0.09495201 4293792000
2.7679536 2.1850383 -0.11634979 4293922560
2.782038 2.1963079 -0.13749169 4294053120
2.7839179 2.1979485 -0.15800391 4294053120
2.7529905 2.1736996 -0.17628178 4293922560
2.7680466 2.1857374 -0.19718567 4293922560
2.7699254 2.187376 -0.21706323 4293922560
2.7432523 2.1664786 -0.23430187 4293922560
2.7587457 2.178863 -0.25479573 4293922560
2.779803 2.195641 -0.27577642 4294053120
2.7918618 2.2053173 -0.29579151 4294053120
2.7964725 2.2091138 -0.31480789 4294053120
2.710012 2.1410015 -0.32272243 4293792000
2.7881351 2.2028427 -0.34976619 4294053120
2.7993956 2.2118907 -0.36862436 4294183680
2.8075316 2.2184718 -0.38678387 4294183680
2.7717822 2.1903923 -0.39831951 4294053120
2.7146273 2.1454008 -0.40580088 4293792000
2.5405333 2.0080292 -0.39408186 4293008640
2.4671276 1.9501801 -0.39613 4292747520
2.3824811 1.883442 -0.39508983 4292355840
2.3424234 1.8519235 -0.40033436 4292225280
2.35695 1.8635298 -0.41430166 4292225280
2.1801286 1.7239341 -0.39348686 4291572480
2.1826477 1.7260435 -0.40370014 4291572480
2.2076957 1.7459575 -0.41772863 4291703040
2.2122052 1.7496412 -0.42752799 4291703040
2.2196085 1.7556123 -0.43744254 4291703040
2.2074442 1.746116 -0.44299206 4291703040
2.2126169 1.7503237 -0.45147711 4291703040
2.2055812 1.7448796 -0.45695159 4291703040
2.2120016 1.7500733 -0.46467635 4291703040
2.1815004 1.7260739 -0.46406195 4291572480
2.1718326 1.7185446 -0.46722746 4291572480
2.1584392 1.7080678 -0.46899849 4291441920
2.1134944 1.672637 -0.46326923 4291311360
2.0653017 1.6346321 -0.45612541 4291050240
2.075691 1.6429571 -0.46129316 4291050240
2.0753295 1.6427791 -0.46355256 4291050240
2.0827639 1.6487676 -0.46701366 4291180800
2.0933588 1.6572565 -0.47064847 4291180800
2.0823994 1.6486937 -0.46890017 4291180800
2.0715151 1.6401885 -0.46661538 4291050240
2.122256 1.6804433 -0.47762424 4291311360
2.1558361 1.707123 -0.48419592 4291441920
2.1725733 1.7204772 -0.48639944 4291572480
2.1894598 1.7339507 -0.48803911 4291572480
2.1963263 1.7394953 -0.48685479 4291572480
2.2009594 1.7432723 -0.48459256 4291703040
2.2075267 1.7485803 -0.48217151 4291703040
2.205797 1.7473207 -0.47737226 4291703040
2.2028234 1.7450757 -0.47175908 4291703040
2.2097394 1.7506597 -0.46770051 4291703040
2.2104633 1.7513413 -0.46177235 4291703040
2.1976562 1.7413087 -0.45252541 4291572480
2.1620221 1.7131988 -0.43821895 4291441920
2.2439725 1.7782004 -0.44701701 4291833600
2.2487757 1.7821127 -0.4396652 4291833600
2.3217287 1.8399998 -0.44479948 4292094720
2.3949537 1.8981087 -0.44888797 4292486400
2.4895544 1.9731561 -0.45574734 4292878080
2.5714028 2.0381103 -0.45897344 4293269760
2.7342658 2.1672506 -0.47496003 4293922560
2.7619658 2.1893253 -0.46606386 4294053120
2.7768168 2.2012222 -0.45426318 4294053120
2.7811339 2.2047739 -0.44013104 4294053120
2.759064 2.1874168 -0.42143527 4294053120
2.7526953 2.1824996 -0.40481779 4293922560
2.774771 2.2001226 -0.39182854 4294053120
2.7836328 2.2072752 -0.3763583 4294053120
2.7792134 2.203902 -0.35865185 4294053120
2.727808 2.1632869 -0.33484936 4293792000
2.7403622 2.1733644 -0.31875056 4293922560
2.7496791 2.1808767 -0.30178249 4293922560
2.7489009 2.1803865 -0.28332117 4293922560
2.7273123 2.163398 -0.26256159 4293792000
2.7532818 2.1841133 -0.24604622 4293922560
2.7533503 2.184294 -0.22677462 4293922560
2.7557037 2.1862864 -0.20742568 4293922560
2.7505519 2.1823273 -0.18730789 4293922560
2.7369702 2.1716826 -0.16654958 4293792000
2.7524815 2.1841092 -0.14735781 4293922560
2.7531929 2.184799 -0.12709877 4293922560
2.7406206 2.174953 -0.10617982 4293792000
2.7523866 2.1844106 -0.086087994 4293922560
2.7628803 2.1928604 -0.065696806 4293922560
2.7149658 2.1549759 -0.044140656 4293792000
2.0516477 1.6288606 -0.0180337 4290919680
1.7831017 1.4158928 -0.0022836814 4289744640
1.8587582 1.4760026 0.01168899 4290005760
2.5433002 2.0192573 0.035403706 4293008640
2.7580845 2.18981 0.059214208 4293922560
2.7590411 2.1906948 0.079951078 4293922560
2.760273 2.1917982 0.1006266 4293922560
2.6140177 2.0758469 0.11471123 4293269760
2.7279813 2.1664202 0.13989712 4293792000
2.7291377 2.1674626 0.15997662 4293792000
2.7265737 2.1655524 0.1796543 4293792000
2.5536816 2.0284281 0.18662252 4293008640
2.6626492 2.1150534 0.2135679 4293530880
2.6254282 2.0856249 0.22904512 4293400320
2.6624258 2.1151211 0.25075454 4293530880
2.519212 2.001528 0.25446755 4292878080
2.2260516 1.7688532 0.2397833 4291703040
2.1551344 1.7126395 0.24637498 4291311360
2.1261656 1.6897334 0.25684226 4291311360
2.1485476 1.7076082 0.27319223 4291311360
2.2093105 1.7559701 0.2946451 4291572480
2.0308988 1.6143595 0.28313383 4290789120
2.0203948 1.6061108 0.2936002 4290789120
2.0308795 1.6145347 0.30679023 4290919680
2.060101 1.6378453 0.3226929 4291050240
2.0927663 1.6638951 0.3391121 4291180800
1.9862659 1.5793751 0.33220187 4290658560
1.9872563 1.5802566 0.34235862 4290658560
1.9966463 1.5878129 0.35362613 4290789120
2.0026689 1.5926944 0.3639684 4290789120
2.0058994 1.5953579 0.37343064 4290789120
2.0304508 1.6149675 0.3865557 4290919680
1.9502273 1.5513016 0.37906325 4290528000
1.9511057 1.5520943 0.38659143 4290528000
1.9564097 1.5564057 0.39457431 4290528000
1.9605869 1.559822 0.40190741 4290658560
1.9667512 1.5648187 0.40921634 4290658560
1.9730375 1.5699136 0.4161135 4290658560
1.976217 1.5725391 0.42189837 4290658560
1.982525 1.5776531 0.42788401 4290658560
1.9935166 1.5864924 0.43442044 4290789120
1.9968498 1.5892428 0.43880987 4290789120
2.0033295 1.5944964 0.44339505 4290789120
2.006788 1.5973481 0.44680786 4290789120
2.006458 1.5971872 0.44885838 4290789120
2.006197 1.5970813 0.45039824 4290789120
2.0021522 1.5939658 0.45055827 4290789120
1.9981782 1.5909066 0.450203 4290789120
1.9950457 1.5885168 0.44950849 4290789120
1.9835063 1.5794381 0.44639516 4290789120
1.9797428 1.576546 0.44451404 4290658560
1.9729644 1.5712547 0.44144219 4290658560
1.95469 1.5568142 0.43530461 4290658560
1.9511126 1.5540694 0.43195552 4290528000
1.9375077 1.5433433 0.42590642 4290528000
1.9453279 1.5496702 0.42407826 4290528000
1.9295336 1.5372003 0.41662392 4290528000
1.9358017 1.542293 0.41346794 4290528000
1.9304105 1.5381039 0.4073388 4290528000
1.9344714 1.5414405 0.40273434 4290528000
1.9274291 1.535937 0.39536044 4290528000
1.9314749 1.5392624 0.38981277 4290528000
1.9350027 1.5421762 0.38368452 4290528000
1.9477394 1.552425 0.37888077 4290528000
1.9423333 1.5482252 0.37008396 4290528000
1.9537137 1.5573959 0.36403668 4290528000
1.9677213 1.5692539 0.30363575 4290658560
1.9913832 1.5882206 0.29603589 4290658560
2.0331855 1.621648 0.29042673 4290919680
2.0567079 1.6405103 0.28149515 4290919680
2.0833106 1.6618308 0.27236804 4291050240
2.1107268 1.683803 0.26270929 4291180800
2.1611352 1.7241083 0.25512937 4291441920
2.2530408 1.7975042 0.25124854 4291833600
2.3265705 1.8562591 0.24394685 4292094720
2.4090059 1.9221238 0.23626268 4292486400
2.4827802 1.9810911 0.22640075 4292747520
2.5987153 2.0736904 0.21882376 4293269760
2.5884662 2.0656638 0.19962308 4293269760
2.5971243 2.072717 0.18167555 4293269760
2.6583893 2.1217341 0.16671295 4293530880
2.7212999 2.172071 0.15076825 4293792000
2.1057079 1.6811152 0.1010217 4291180800
1.7650588 1.4094505 0.071484521 4289614080
1.8353544 1.4656403 0.060636025 4290005760
2.5759671 2.0567226 0.065981209 4293139200
2.7386222 2.1866713 0.049546257 4293922560
2.753293 2.1985362 0.029013101 4293922560
2.7606866 2.2045944 0.0082022622 4293922560
2.727592 2.1783366 -0.012553485 4293792000
2.744694 2.1921442 -0.033395957 4293922560
2.746052 2.1933851 -0.054155514 4293922560
2.7601025 2.2047596 -0.075221553 4293922560
2.7297804 2.1807077 -0.094887547 4293792000
2.7513723 2.1981041 -0.11617809 4293922560
2.7627604 2.2073548 -0.13716178 4293922560
2.7660029 2.2101018 -0.15770453 4294053120
2.7292936 2.1809418 -0.17556609 4293792000
2.7532167 2.2002046 -0.19702762 4293922560
2.7608187 2.2064333 -0.21734028 4294053120
2.7521279 2.1996481 -0.23613247 4293922560
2.7419338 2.1916604 -0.25440726 4293922560
2.7707822 2.2148638 -0.27614385 4294053120
2.781148 2.2233026 -0.29601106 4294053120
2.782867 2.2248335 -0.31471831 4294053120
2.7392564 2.1901414 -0.32769415 4293922560
2.7638805 2.2099741 -0.34832436 4294053120
2.775671 2.2195528 -0.36718822 4294053120
2.7804592 2.2235355 -0.38482475 4294183680
2.7698364 2.2152004 -0.3998723 4294053120
2.7132356 2.1701097 -0.40746048 4293792000
2.5337164 2.0267475 -0.39483666 4293008640
2.4530134 1.9623675 -0.39568323 4292747520
2.3636014 1.8910149 -0.39377221 4292355840
2.3651731 1.8924026 -0.4060761 4292355840
2.3352196 1.8685808 -0.4123829 4292225280
2.2363164 1.7896156 -0.40546408 4291833600
2.1648242 1.7325617 -0.40225789 4291441920
2.2146528 1.7725341 -0.42097476 4291703040
2.2178049 1.7751763 -0.43058506 4291703040
2.2098086 1.7689006 -0.43752512 4291703040
2.2110505 1.7700142 -0.44576192 4291703040
2.2008483 1.7619716 -0.45115399 4291703040
2.1999438 1.7613667 -0.45789039 4291703040
2.1945286 1.7571521 -0.46314245 4291703040
2.1894991 1.753245 -0.4679105 4291572480
2.1822336 1.7475477 -0.47162828 4291572480
2.1572788 1.7276924 -0.47091201 4291441920
2.0998652 1.6818553 -0.46241462 4291311360
2.1139765 1.6932613 -0.46900755 4291311360
2.0553143 1.6464157 -0.4588854 4291050240
2.0626462 1.6523926 -0.46285474 4291050240
2.0654325 1.6547312 -0.46527633 4291050240
2.0652149 1.6546644 -0.46648088 4291050240
2.058151 1.6491156 -0.4655942 4291050240
2.1093524 1.6902201 -0.47731522 4291311360
2.0939786 1.6780177 -0.47345266 4291180800
2.1427774 1.7172045 -0.48349413 4291441920
2.1616242 1.7324077 -0.48619074 4291572480
2.1781712 1.7457706 -0.48777297 4291572480
2.194535 1.7589879 -0.48870766 4291703040
2.1930048 1.7578731 -0.48507738 4291703040
2.1988492 1.762665 -0.48250088 4291703040
2.1978195 1.7619504 -0.47784883 4291703040
2.1923141 1.7576493 -0.47168422 4291703040
2.2114387 1.7730813 -0.47022352 4291703040
2.2109919 1.772833 -0.46401814 4291703040
2.2040141 1.7673507 -0.45592996 4291703040
2.2141979 1.7756201 -0.45084506 4291703040
2.2297182 1.788167 -0.44623739 4291833600
2.2344968 1.7921057 -0.43889952 4291833600
2.3109682 1.8535079 -0.44478932 4292094720
2.3907897 1.9176025 -0.45018077 4292486400
2.4829226 1.9915736 -0.45663702 4292878080
2.5729611 2.063874 -0.46137384 4293269760
2.7149069 2.1777976 -0.47378382 4293922560
2.7474973 2.2040572 -0.46577004 4294053120
2.7566254 2.2115076 -0.45305067 4294053120
2.7649591 2.2183213 -0.43959829 4294053120
2.7442179 2.2018199 -0.42110866 4294053120
2.7303329 2.1908147 -0.40339068 4293922560
2.7511384 2.2076297 -0.39029253 4294053120
2.7651627 2.2190075 -0.37559244 4294053120
2.7591851 2.2143428 -0.35771629 4294053120
2.7246451 2.1867661 -0.33600456 4293922560
2.7375989 2.1972849 -0.31989789 4293922560
2.743726 2.2023282 -0.30251831 4293922560
2.7430377 2.2019038 -0.28402033 4293922560
2.7146602 2.1792634 -0.26254964 4293792000
2.7443988 2.2032509 -0.24638231 4293922560
2.7488883 2.2069805 -0.22744802 4293922560
2.7500479 2.2080386 -0.20795085 4293922560
2.7482963 2.2067599 -0.18801184 4293922560
2.7375829 2.1982887 -0.16734794 4293922560
2.742048 2.2019987 -0.147471 4293922560
2.7534218 2.2112544 -0.12768659 4293922560
2.7279003 2.1908953 -0.1061678 4293792000
2.7494254 2.2082999 -0.086381912 4293922560
2.7639928 2.2201209 -0.066014305 4294053120
2.7232947 2.1875741 -0.044465665 4293792000
2.1055756 1.6917449 -0.018565588 4291180800
1.7412905 1.3993475 -0.0022442474 4289614080
1.7802289 1.4306941 0.011233045 4289744640
2.5463037 2.045948 0.03562545 4293008640
2.2827556 1.8344191 0.049154054 4291964160
2.2355976 1.7966512 0.064994127 4291703040
2.2159395 1.7809656 0.081067495 4291703040
2.2499897 1.808417 0.099137947 4291833600
2.0114567 1.6169194 0.10351342 4290789120
1.9950111 1.6038016 0.11736998 4290658560
1.9665062 1.5809947 0.1300579 4290528000
2.0093892 1.6155374 0.14744504 4290789120
1.9296322 1.5515511 0.15538503 4290397440
1.9220523 1.5455503 0.16836068 4290397440
1.9076303 1.5340513 0.18039782 4290266880
1.9316223 1.5534194 0.19594288 4290397440
1.9229566 1.5465455 0.20805986 4290397440
1.9277389 1.5504788 0.22137924 4290397440
1.9171966 1.5420961 0.23265514 4290397440
1.8789552 1.5114493 0.23999532 4290266880
1.8324898 1.4741884 0.24548452 4290005760
1.9140532 1.53984 0.26808202 4290397440
1.8988378 1.5276988 0.27721605 4290266880
1.8890098 1.5198876 0.28668115 4290266880
1.8701123 1.5047839 0.294285 4290136320
1.854164 1.4920501 0.3018308 4290136320
1.8994037 1.5285155 0.31915671 4290397440
1.9014378 1.5302422 0.32910347 4290397440
1.9028611 1.5314784 0.33858892 4290397440
1.8891912 1.5205765 0.34494558 4290266880
1.8778206 1.5115228 0.35121554 4290266880
1.8679723 1.5036926 0.35727724 4290266880
1.8904003 1.5218245 0.36915532 4290266880
1.891861 1.523092 0.37660834 4290397440
1.8912321 1.522679 0.38321519 4290397440
1.8780185 1.5121415 0.38678271 4290266880
1.8864802 1.5190425 0.39435169 4290266880
1.8869067 1.5194794 0.39981088 4290266880
1.8817112 1.5153928 0.40360212 4290266880
1.8742013 1.5094434 0.40639648 4290266880
1.8844023 1.5177472 0.41256341 4290266880
1.8735369 1.5090975 0.41363668 4290266880
1.8769419 1.511933 0.41736421 4290266880
1.8591365 1.4976962 0.41586754 4290266880
1.865736 1.5031036 0.41932884 4290266880
1.8624239 1.5005329 0.42007506 4290266880
1.8653142 1.5029556 0.42172751 4290266880
1.8652012 1.5029609 0.42220786 4290266880
1.8795108 1.5145794 0.42545915 4290266880
1.8718588 1.5085156 0.42324054 4290266880
1.8823041 1.5170248 0.42461568 4290266880
1.8824425 1.517235 0.42316175 4290266880
1.8680794 1.5057663 0.41796616 4290266880
1.8802527 1.5156698 0.41821986 4290266880
1.8828273 1.5178435 0.41582865 4290266880
1.8743535 1.5111176 0.41052207 4290266880
1.8830259 1.5182043 0.40849075 4290266880
1.8864546 1.5210676 0.40481931 4290266880
1.8770081 1.513558 0.39792919 4290266880
1.8776222 1.5141543 0.3927334 4290266880
1.8720663 1.5097789 0.38580638 4290266880
1.8712634 1.5092337 0.37943271 4290266880
1.8683759 1.5070087 0.37221083 4290266880
1.8866043 1.5218029 0.36871037 4290266880
1.8863298 1.5216851 0.36110002 4290266880
1.8961469 1.5297027 0.35496819 4290397440
1.8648762 1.5051655 0.28910896 4290136320
1.8770438 1.5150837 0.28033856 4290266880
1.9020865 1.5353881 0.27296326 4290397440
1.897851 1.532079 0.26095518 4290266880
1.8653086 1.5059351 0.24498442 4290136320
1.8800713 1.5179503 0.23506953 4290266880
1.8867828 1.523472 0.22374912 4290266880
1.8822409 1.5199146 0.21083064 4290266880
1.8575802 1.5001231 0.19561635 4290136320
1.8731725 1.5128115 0.18449238 4290136320
1.8862513 1.5234735 0.17272037 4290266880
1.8933681 1.5293254 0.1600707 4290266880
1.8771514 1.5163448 0.14533262 4290136320
1.9021918 1.536665 0.13357422 4290266880
1.919086 1.5504121 0.12079236 4290397440
1.9638516 1.5866621 0.10918786 4290528000
1.841042 1.4876229 0.088685557 4290005760
1.6953663 1.3701069 0.068973549 4289352960
1.8151153 1.4668998 0.060253393 4289875200
2.578717 2.083642 0.066376083 4293269760
2.737114 2.2117116 0.049765717 4293922560
2.7435465 2.2170649 0.029058814 4293922560
2.7539198 2.2256019 0.0082340352 4294053120
2.721853 2.1998582 -0.012572269 4293792000
2.7318733 2.2081099 -0.033383895 4293922560
2.7402241 2.215014 -0.054280475 4293922560
2.7507067 2.2236414 -0.075304367 4293922560
2.7240248 2.2022409 -0.09511818 4293922560
2.7449851 2.2193353 -0.11643875 4293922560
2.757201 2.2293653 -0.13751435 4294053120
2.7585266 2.2305951 -0.15800306 4294053120
2.7253542 2.203943 -0.1761214 4293922560
2.7501926 2.2241764 -0.19772053 4294053120
2.7534187 2.2269421 -0.2177619 4294053120
2.7560935 2.2292621 -0.23756631 4294053120
2.7326057 2.2104313 -0.25471944 4293922560
2.7673564 2.2386839 -0.2770828 4294053120
2.7751877 2.2451744 -0.29674974 4294183680
2.7771685 2.2469344 -0.31553471 4294183680
2.7440357 2.2202988 -0.32979047 4294053120
2.7571497 2.2310605 -0.34909442 4294053120
2.7619851 2.2351279 -0.36708239 4294053120
2.7675164 2.2397585 -0.38482091 4294183680
2.748316 2.2243836 -0.39862046 4294053120
2.7163517 2.1986804 -0.40982816 4293922560
2.5616653 2.0736878 -0.40104243 4293269760
2.4747052 2.0034738 -0.40103501 4292878080
2.3964853 1.9403217 -0.40109932 4292486400
2.376451 1.9242442 -0.40991101 4292486400
2.3273726 1.8846598 -0.41291788 4292225280
2.2520201 1.8238059 -0.41020983 4291964160
2.1770015 1.7632138 -0.40640309 4291572480
2.1833549 1.7684766 -0.41697678 4291572480
2.1955082 1.7784348 -0.42825642 4291703040
2.1994641 1.7817578 -0.43751541 4291703040
2.1891825 1.7735546 -0.44342467 4291703040
2.1936142 1.7772622 -0.45177516 4291703040
2.1896434 1.7741666 -0.45788071 4291703040
2.1804185 1.7668157 -0.46232158 4291703040
2.1792462 1.7659842 -0.46790087 4291572480
2.1643507 1.7540386 -0.46995834 4291572480
2.1570165 1.7482147 -0.47305602 4291572480
2.1309118 1.7271864 -0.47142988 4291441920
2.0895259 1.6937771 -0.46576262 4291311360
2.1036363 1.7053182 -0.47184566 4291311360
2.0415018 1.6550933 -0.4602631 4291050240
2.0450416 1.6580688 -0.46284783 4291050240
2.0448253 1.6580011 -0.46404612 4291050240
2.1064286 1.7080238 -0.47871977 4291311360
2.0918167 1.6962932 -0.47557026 4291311360
2.1326597 1.7295002 -0.48443487 4291441920
2.144573 1.7392654 -0.48616236 4291441920
2.1514933 1.7449849 -0.48618123 4291572480
2.1679621 1.758444 -0.48776338 4291572480
2.1877737 1.7746137 -0.48948503 4291703040
2.182725 1.7706326 -0.48506773 4291703040
2.1885412 1.7754586 -0.4824912 4291703040
2.187516 1.774738 -0.47783914 4291703040
2.1896966 1.7766162 -0.47332695 4291703040
2.1937089 1.7799796 -0.46864474 4291703040
2.193737 1.7801121 -0.46255937 4291703040
2.1741476 1.7643356 -0.45187008 4291572480
2.2260604 1.8065442 -0.45537603 4291833600
2.2415161 1.8191894 -0.4506923 4291964160
2.2834222 1.8532894 -0.45058626 4292094720
2.3437898 1.9023678 -0.45320314 4292355840
2.4241431 1.967664 -0.45858318 4292747520
2.5186098 2.0444169 -0.46535349 4293139200
2.6267066 2.1322362 -0.47319481 4293530880
2.7018421 2.1933234 -0.47371423 4293922560
2.7272959 2.2141066 -0.464515 4294053120
2.7366939 2.221864 -0.45188522 4294053120
2.745755 2.2293482 -0.43859273 4294053120
2.7236319 2.2115264 -0.41991049 4293922560
2.7175212 2.2066975 -0.40337864 4293922560
2.7459462 2.229897 -0.3913779 4294053120
2.7570517 2.2390416 -0.37624267 4294053120
2.7471042 2.2310979 -0.35781699 4294053120
2.7188127 2.208262 -0.33685216 4293922560
2.7301588 2.2176015 -0.32051927 4293922560
2.7465503 2.2310376 -0.30424103 4294053120
2.7402813 2.2260768 -0.28505802 4294053120
2.7163935 2.2068098 -0.26394019 4293922560
2.7384839 2.2248745 -0.24699688 4293922560
2.7362652 2.223201 -0.22745942 4293922560
2.7437849 2.2294357 -0.20844209 4294053120
2.7431543 2.2290516 -0.18853121 4293922560
2.7433355 2.2293267 -0.16847377 4293922560
2.7408035 2.2273979 -0.14808445 4293922560
2.7464931 2.232147 -0.12795264 4294053120
2.7255599 2.2152703 -0.10656263 4293922560
2.7481499 2.2337482 -0.08673434 4294053120
2.754889 2.2393508 -0.066094309 4294053120
2.7182617 2.2097204 -0.044579141 4293922560
2.1084638 1.7143812 -0.018665729 4291180800
1.7649395 1.4353473 -0.0022665898 4289744640
1.703553 1.3855466 0.010784891 4289483520
1.7461921 1.4202762 0.024376201 4289614080
1.8758603 1.5257378 0.040494401 4290136320
1.8872353 1.5350698 0.055051599 4290266880
1.8866003 1.5346414 0.069277167 4290266880
1.8696604 1.52096 0.082692944 4290136320
1.8786427 1.5283484 0.097112961 4290266880
1.8791678 1.528863 0.11105947 4290266880
1.8780358 1.5280304 0.12478299 4290266880
1.8295186 1.4886727 0.13485028 4290005760
1.8793776 1.529297 0.15205228 4290266880
1.8843335 1.5334147 0.1658387 4290266880
1.8642594 1.5171797 0.17713037 4290136320
1.8227646 1.4835236 0.18576178 4290005760
1.8938141 1.5413905 0.20587955 4290266880
1.8982059 1.5450518 0.21902254 4290397440
1.8823011 1.5322055 0.22950377 4290266880
1.8533041 1.5087087 0.23784314 4290136320
1.7721729 1.4428011 0.23852521 4289744640
1.8797076 1.5303639 0.26452041 4290266880
1.8788292 1.529739 0.27559841 4290266880
1.8731549 1.5252125 0.28562638 4290266880
1.8522435 1.5082881 0.2928583 4290136320
1.8281001 1.4887322 0.29900089 4290005760
1.8726089 1.5250387 0.31614834 4290266880
1.8709985 1.5238189 0.32537207 4290266880
1.8694183 1.5226238 0.33421674 4290266880
1.8630234 1.5175102 0.3417829 4290266880
1.8540188 1.5102723 0.3484107 4290136320
1.8398812 1.4988556 0.35357523 4290136320
1.8574824 1.5132741 0.3644489 4290266880
1.8637578 1.5184743 0.37277561 4290266880
1.864109 1.5188527 0.37951303 4290266880
1.8635752 1.5185108 0.38563204 4290266880
1.8607662 1.5163168 0.39082387 4290266880
1.8601198 1.5158837 0.396007 4290266880
1.8590029 1.5150678 0.40062571 4290266880
1.8615372 1.5172256 0.40556902 4290266880
1.8503009 1.5081689 0.40702105 4290266880
1.8528705 1.5103559 0.41101775 4290266880
1.8497627 1.5079193 0.41327456 4290266880
1.8493954 1.507715 0.41565534 4290266880
1.8452719 1.5044512 0.41670045 4290136320
1.8450308 1.5043501 0.41813007 4290136320
1.8524888 1.5105222 0.42081907 4290266880
1.8485587 1.5074166 0.42042992 4290266880
1.844694 1.5043643 0.41956162 4290136320
1.8512063 1.509768 0.42056072 4290266880
1.8482351 1.5074443 0.4189114 4290266880
1.8552423 1.5132529 0.41902965 4290266880
1.8523215 1.510971 0.41641146 4290266880
1.8530568 1.511669 0.41413018 4290266880
1.8609723 1.5182207 0.41295636 4290266880
1.8557808 1.5140886 0.40838757 4290266880
1.8559711 1.5143439 0.40453616 4290266880
1.8552935 1.5138918 0.40002531 4290266880
1.8563704 1.5148708 0.39542624 4290266880
1.8584321 1.5166531 0.39056906 4290266880
1.8535743 1.5127933 0.38381332 4290266880
1.8394358 1.5013648 0.37475285 4290136320
1.8410258 1.5027628 0.36850706 4290136320
1.8598371 1.5182079 0.36520851 4290266880
1.8687661 1.5255944 0.35944113 4290266880
1.8651882 1.5227796 0.35083377 4290266880
1.8275875 1.4927696 0.28467578 4290005760
1.8521723 1.5129387 0.27794182 4290136320
1.8742822 1.5310909 0.27025437 4290266880
1.868445 1.5264329 0.25813553 4290266880
1.8377228 1.5014597 0.2425113 4290136320
1.847967 1.5099282 0.23215568 4290136320
1.8671522 1.5256982 0.22247811 4290266880
1.8511781 1.5127622 0.20833907 4290136320
1.827347 1.493409 0.19334947 4290005760
1.8351575 1.4998926 0.18160793 4290005760
1.8554622 1.5165811 0.17071089 4290136320
1.8613867 1.5215271 0.15811689 4290136320
1.835297 1.5003246 0.142767 4290005760
1.8625302 1.5226768 0.13141088 4290136320
1.8587132 1.5196666 0.1175433 4290136320
1.8561949 1.517717 0.10367592 4290136320
1.7541828 1.4344774 0.084889002 4289744640
1.6314013 1.3342555 0.06667649 4289091840
1.7956984 1.468606 0.0598967 4289875200
2.5704017 2.1018057 0.066488415 4293269760
2.7280502 2.2307963 0.049849328 4293922560
2.7421944 2.2425156 0.029197026 4294053120
2.7456455 2.2454963 0.0082614785 4294053120
2.7128589 2.2188551 -0.012577338 4293922560
2.7297983 2.232861 -0.033502381 4293922560
2.7333932 2.2359591 -0.054388784 4293922560
2.7404742 2.2419078 -0.075367793 4294053120
2.7095556 2.2167859 -0.095050775 4293922560
2.737072 2.2394447 -0.11664125 4293922560
2.7568903 2.255811 -0.13813663 4294053120
2.7605062 2.2589285 -0.15885155 4294053120
2.716594 2.2231729 -0.17637631 4293922560
2.7327962 2.2365832 -0.19739254 4293922560
2.7326357 2.2366104 -0.2171353 4293922560
2.7363369 2.2397964 -0.23697406 4294053120
2.7077765 2.2165885 -0.2535961 4293922560
2.7401791 2.2432566 -0.27565771 4294053120
2.7431288 2.2458282 -0.29470941 4294053120
2.7423337 2.2453353 -0.31305236 4294053120
2.6871057 2.2002962 -0.3244853 4293792000
2.7209091 2.2281163 -0.34613895 4293922560
2.7302842 2.2359455 -0.36458832 4294053120
2.7313957 2.2370114 -0.38159958 4294053120
2.7065485 2.2168274 -0.39442658 4293922560
2.6321373 2.1560645 -0.39902315 4293661440
2.6547608 2.1747363 -0.41754431 4293661440
2.6180639 2.1448405 -0.42621502 4293530880
2.5786641 2.1127269 -0.43355629 4293400320
2.5270061 2.0705709 -0.4378778 4293139200
2.4420493 2.0011387 -0.43526229 4292747520
2.2520795 1.8456914 -0.41215804 4291964160
2.1705189 1.7790154 -0.40710983 4291572480
2.1768396 1.7843138 -0.41769964 4291703040
2.1851084 1.7912085 -0.42824674 4291703040
2.1817012 1.7885386 -0.43604136 4291703040
2.1880481 1.793859 -0.44529057 4291703040
2.180166 1.7875217 -0.45113465 4291703040
2.1823227 1.7894088 -0.45851129 4291703040
2.1700869 1.7795018 -0.46231195 4291703040
2.1651046 1.7755373 -0.46707013 4291572480
2.1502802 1.7635059 -0.46911862 4291572480
2.1437435 1.7582651 -0.47237593 4291572480
2.1208119 1.7395848 -0.4714205 4291441920
2.0758109 1.7028114 -0.46490192 4291180800
2.0868068 1.7119367 -0.47029442 4291311360
2.0356321 1.6700945 -0.46111494 4291050240
2.0353456 1.669968 -0.4628388 4291050240
2.0275137 1.6636544 -0.46230447 4291050240
2.0926328 1.7171576 -0.4778429 4291311360
2.0818973 1.7084644 -0.47556102 4291311360
2.1225462 1.7419087 -0.48442546 4291441920
2.1382101 1.754866 -0.48701829 4291572480
2.1547823 1.7685697 -0.48922864 4291572480
2.1546328 1.7685586 -0.48706657 4291572480
2.1586523 1.7719671 -0.48527074 4291572480
2.1723709 1.7833321 -0.4850581 4291703040
2.1804357 1.7900596 -0.48298472 4291703040
2.1847603 1.7937192 -0.4794988 4291703040
2.175796 1.7864752 -0.47255629 4291703040
2.1681237 1.78029 -0.46538463 4291572480
2.1692083 1.7812895 -0.45956504 4291703040
2.1230927 1.743554 -0.44337258 4291441920
2.2261851 1.8282676 -0.45755821 4291833600
2.2568464 1.8535438 -0.45591682 4291964160
2.3799162 1.9546708 -0.47180924 4292616960
2.485332 2.0413184 -0.48278832 4293008640
2.5847073 2.1230175 -0.49120814 4293400320
2.6421361 2.1702905 -0.49044099 4293661440
2.6694093 2.1928113 -0.48314896 4293792000
2.6657124 2.1899066 -0.46960524 4293792000
2.6926179 2.2121286 -0.46079174 4293922560
2.704448 2.2219737 -0.4486855 4293922560
2.7019513 2.2200544 -0.43365303 4293922560
2.6851001 2.2063465 -0.41594154 4293792000
2.6772754 2.2000499 -0.39929795 4293792000
2.7024322 2.2208405 -0.38701156 4293922560
2.7106445 2.2277157 -0.37167332 4293922560
2.729502 2.2433355 -0.3572101 4294053120
2.681886 2.2043507 -0.3338584 4293792000
2.6953573 2.2155457 -0.31793854 4293922560
2.7047489 2.2233896 -0.30103722 4293922560
2.7080672 2.2262447 -0.28304526 4293922560
2.6868355 2.2089276 -0.26230732 4293792000
2.7148402 2.2320666 -0.24602424 4293922560
2.7232645 2.2391176 -0.22744732 4293922560
2.7222953 2.2384496 -0.20778716 4293922560
2.6422338 2.1727793 -0.18247424 4293661440
2.722163 2.2385974 -0.16796182 4293922560
2.7439842 2.2566612 -0.14894786 4294053120
2.7481079 2.26018 -0.12862332 4294053120
2.7207139 2.2377899 -0.10686706 4293922560
2.7420371 2.2554471 -0.086940877 4294053120
2.7465229 2.2592635 -0.066195011 4294053120
2.7012331 2.222156 -0.044500448 4293792000
2.1042533 1.7314303 -0.018706402 4291180800
1.6653868 1.3706608 -0.0021728356 4289352960
1.7024007 1.4011762 0.010839081 4289483520
1.6395204 1.3495454 0.02297141 4289222400
1.8484573 1.5214548 0.040096279 4290136320
1.8708645 1.5399706 0.054841105 4290266880
1.8613195 1.5322076 0.068679273 4290136320
1.8422289 1.5165919 0.081872299 4290136320
1.8602419 1.531496 0.096627273 4290136320
1.8612087 1.532379 0.11052997 4290136320
1.8540589 1.5265845 0.12378341 4290136320
1.8045024 1.4858998 0.13364638 4290005760
1.8540468 1.5267497 0.15072462 4290136320
1.8624539 1.5337551 0.16470236 4290136320
1.8551682 1.527848 0.17711782 4290136320
1.8093504 1.490231 0.18528369 4290005760
1.8699816 1.5402155 0.2042664 4290266880
1.869997 1.5403172 0.2168044 4290266880
1.8694006 1.5399156 0.22902881 4290266880
1.8521508 1.5258063 0.23884198 4290136320
1.7568228 1.4474241 0.23759711 4289744640
1.8618195 1.5339437 0.26326349 4290266880
1.8578542 1.530769 0.27383202 4290266880
1.8439627 1.5194217 0.28252557 4290136320
1.8254094 1.5042349 0.29000217 4290136320
1.8086706 1.4905407 0.29724532 4290005760
1.8479238 1.5229523 0.31348005 4290136320
1.8533562 1.5275164 0.32385385 4290266880
1.8499755 1.5248231 0.33233082 4290266880
1.8456743 1.5213715 0.34022817 4290136320
1.8306726 1.5091064 0.34567684 4290136320
1.8196627 1.5001281 0.35137081 4290136320
1.8375243 1.5149322 0.36226621 4290136320
1.8444484 1.520728 0.37068707 4290266880
1.835138 1.5131499 0.37541005 4290136320
1.8412704 1.5182947 0.38284802 4290136320
1.8446369 1.5211614 0.38929927 4290266880
1.8356402 1.5138414 0.39267397 4290136320
1.8388118 1.5165482 0.39817971 4290136320
1.8309826 1.5101899 0.40082926 4290136320
1.8169668 1.4987323 0.40160906 4290136320
1.8202904 1.5015652 0.40573123 4290136320
1.8101019 1.4932611 0.40635666 4290136320
1.8165834 1.4986976 0.41024321 4290136320
1.8162832 1.4985446 0.41212606 4290136320
1.805406 1.4896721 0.41111642 4290005760
1.8128309 1.4958884 0.41378945 4290136320
1.8157593 1.4983983 0.41495559 4290136320
1.812673 1.4959493 0.41426101 4290136320
1.8126898 1.4960593 0.41379014 4290136320
1.8263302 1.5074048 0.41593799 4290136320
1.8188757 1.5013545 0.41279113 4290136320
1.8287466 1.5095935 0.41308963 4290136320
1.8324411 1.5127394 0.41149357 4290136320
1.832759 1.5131007 0.40865237 4290136320
1.8373325 1.5169731 0.40627399 4290136320
1.8384817 1.5180212 0.40265319 4290136320
1.8334194 1.5139451 0.39721176 4290136320
1.8333288 1.5139709 0.39239797 4290136320
1.8354179 1.5157956 0.38758934 4290136320
1.83156 1.5127134 0.38108093 4290136320
1.8161794 1.5001216 0.37179634 4290136320
1.8139448 1.4983784 0.3648344 4290136320
1.8316661 1.5131066 0.36140832 4290136320
1.8409573 1.5208784 0.35579732 4290136320
1.8448882 1.5242268 0.34868735 4290266880
1.8134286 1.4989209 0.2838335 4290005760
1.8344418 1.5163801 0.27660939 4290136320
1.8545998 1.5331355 0.26870665 4290266880
1.8441852 1.5246394 0.25601271 4290136320
1.8172055 1.5024579 0.24096118 4290005760
1.8263605 1.5101262 0.23054878 4290136320
1.846714 1.5270483 0.22110549 4290136320
1.8305376 1.5137893 0.20701127 4290136320
1.807088 1.4945186 0.19212984 4290005760
1.8156247 1.5016783 0.18054371 4290005760
1.8317853 1.5151399 0.16934688 4290136320
1.8294678 1.5133314 0.15615487 4290005760
1.8065207 1.4944711 0.14120682 4290005760
1.8382866 1.5208352 0.1303279 4290136320
1.8411558 1.5233146 0.1169984 4290136320
1.8441781 1.5259212 0.10350706 4290136320
1.6717973 1.3835055 0.081277102 4289352960
1.6128136 1.3348324 0.066237368 4289091840
1.6779902 1.3888227 0.0562144 4289352960
2.4656539 2.0402982 0.064076513 4292878080
2.7135246 2.2454405 0.049833927 4293922560
2.7409549 2.2682872 0.029338786 4294053120
2.7433019 2.2703898 0.00830865 4294053120
2.7075884 2.2410088 -0.012599443 4293922560
2.7176068 2.2494557 -0.033500765 4293922560
2.7217717 2.2530613 -0.054405402 4293922560
2.638485 2.1843112 -0.072921336 4293661440
2.6483755 2.1926501 -0.093351409 4293661440
2.6757276 2.2154393 -0.11457547 4293792000
2.6887536 2.2263763 -0.13537239 4293792000
2.6866171 2.224766 -0.15534686 4293792000
2.6557996 2.1994164 -0.17325945 4293661440
2.6914022 2.2290416 -0.19533323 4293792000
2.6997411 2.2361021 -0.21554668 4293922560
2.6795003 2.2195036 -0.23316845 4293792000
2.6818633 2.2216165 -0.25236914 4293792000
2.7094464 2.2446108 -0.27387026 4293922560
2.7136664 2.2482629 -0.29293939 4293922560
2.6970501 2.2346609 -0.30936193 4293922560
2.5790906 2.13713 -0.31295872 4293400320
2.6786633 2.2197456 -0.34240153 4293792000
2.6894624 2.2288451 -0.36086217 4293922560
2.6911988 2.2304387 -0.3777898 4293922560
2.6503179 2.1967289 -0.38809335 4293792000
2.5868726 2.1443214 -0.39404836 4293400320
2.6791828 2.220948 -0.42338884 4293922560
2.6700783 2.2135577 -0.43674037 4293792000
2.6264639 2.1775711 -0.44368508 4293661440
2.5919809 2.1491461 -0.45125824 4293530880
2.4852679 2.0608582 -0.44506547 4293008640
2.2123165 1.8347838 -0.40683323 4291833600
2.1524963 1.7853279 -0.4056676 4291572480
2.1642385 1.7951822 -0.4172731 4291572480
2.1575131 1.789729 -0.42487332 4291572480
2.1659937 1.7968801 -0.43497995 4291703040
2.1732955 1.8030548 -0.4444111 4291703040
2.1690102 1.7996228 -0.45097905 4291703040
2.1605179 1.7927017 -0.45611268 4291703040
2.156183 1.7892267 -0.46155518 4291572480
2.1441035 1.7793281 -0.46476388 4291572480
2.1341109 1.7711587 -0.46782792 4291572480
2.1229558 1.7620238 -0.47004536 4291441920
2.1174672 1.7575871 -0.47293264 4291441920
