# .PCD v0.7 - Point Cloud Data file format
VERSION 0.7
FIELDS x y z rgba
SIZE 4 4 4 4
TYPE F F F U
COUNT 1 1 1 1
WIDTH 1101
HEIGHT 1
VIEWPOINT 0 0 0 1 0 0 0
POINTS 1101
DATA ascii
1.5456223 -1.3294623 -0.22005965 4288961280
1.5376731 -1.3225408 -0.22835517 4288961280
1.5190406 -1.3064321 -0.23464896 4288830720
1.534704 -1.3198193 -0.24595702 4288961280
1.5377113 -1.3223215 -0.25506788 4288961280
1.5439179 -1.3275745 -0.26447254 4288961280
1.541539 -1.3254446 -0.27212879 4288961280
1.5382198 -1.3225067 -0.27928156 4288961280
1.5178605 -1.3049195 -0.28290826 4288830720
1.5267164 -1.3124496 -0.29160058 4288830720
1.5258337 -1.3116075 -0.29813686 4288830720
1.5328588 -1.3175626 -0.30590227 4288961280
1.5406559 -1.3241802 -0.31353065 4288961280
1.5367222 -1.3207153 -0.31842726 4288961280
1.532922 -1.3173656 -0.32295665 4288961280
1.5357083 -1.3196762 -0.32849631 4288961280
1.5346882 -1.3187158 -0.33284742 4288961280
1.5249008 -1.3102224 -0.33488128 4288961280
1.5239818 -1.3093497 -0.33844468 4288961280
1.5260769 -1.3110664 -0.34228593 4288961280
1.5213122 -1.3068899 -0.34418508 4288830720
1.5175841 -1.3036044 -0.34590152 4288830720
1.5092031 -1.2963227 -0.34613523 4288830720
1.5164919 -1.3025006 -0.34955457 4288830720
1.5126231 -1.2990952 -0.34999806 4288830720
1.5162787 -1.3021519 -0.35177168 4288830720
1.5125158 -1.2988379 -0.35141322 4288830720
1.5132136 -1.2993546 -0.35167831 4288830720
1.5167345 -1.3022951 -0.35218686 4288830720
1.5265168 -1.310611 -0.35373148 4288961280
1.525539 -1.3096882 -0.35236472 4288961280
1.5337777 -1.3166775 -0.35270682 4288961280
1.5301801 -1.3135056 -0.34991094 4288961280
1.5312456 -1.3143368 -0.34777567 4288961280
1.5394852 -1.3213252 -0.34684736 4288961280
1.5322194 -1.3150053 -0.34202158 4288961280
1.5344356 -1.3168237 -0.33892441 4288961280
1.541026 -1.3223953 -0.33637735 4288961280
1.5376627 -1.3194255 -0.33126 4288961280
1.5240394 -1.3076525 -0.32360068 4288830720
1.5123293 -1.2975225 -0.31605527 4288830720
1.510251 -1.295657 -0.3102051 4288830720
1.5041995 -1.2903833 -0.30321273 4288830720
1.5194905 -1.3034179 -0.30013588 4288830720
1.5388283 -1.3199219 -0.2973702 4288961280
1.5426209 -1.3230909 -0.29116133 4288961280
1.5255789 -1.308391 -0.28075191 4288830720
1.5054737 -1.2910661 -0.26963949 4288830720
1.5105859 -1.2953678 -0.26281127 4288830720
1.524837 -1.3075054 -0.25717434 4288830720
1.5324494 -1.3139491 -0.25001055 4288830720
1.5208616 -1.3039308 -0.23945791 4288830720
1.514356 -1.2982706 -0.22954173 4288830720
1.5245711 -1.3069448 -0.22188048 4288830720
1.5319798 -1.3132126 -0.21345639 4288830720
1.5291948 -1.3107419 -0.203347 4288830720
1.5031734 -1.2883558 -0.1901098 4288700160
1.5109444 -1.2949339 -0.1810544 4288830720
1.5208694 -1.3033571 -0.17193915 4288830720
1.5232805 -1.3053405 -0.16170201 4288830720
1.4964145 -1.2822368 -0.14835194 4288700160
1.524317 -1.3060626 -0.14025939 4288830720
1.5234722 -1.3052558 -0.12917636 4288830720
1.522392 -1.3042474 -0.11794715 4288830720
1.5123144 -1.2955314 -0.10597558 4288700160
1.5113019 -1.2945818 -0.094606869 4288700160
1.5086933 -1.2922651 -0.083063491 4288700160
1.5053053 -1.289281 -0.071433276 4288700160
1.4784244 -1.2661773 -0.058843058 4288569600
1.5111707 -1.2941402 -0.048516814 4288700160
1.5124103 -1.2951193 -0.036865681 4288700160
1.5195225 -1.301127 -0.025253814 4288830720
1.5211256 -1.3024168 -0.013456166 4288830720
1.5268826 -1.307263 -0.0016241302 4288830720
1.5310438 -1.3107423 0.010287906 4288830720
1.5323426 -1.3117707 0.022211462 4288830720
1.5465008 -1.3238069 0.034416791 4288961280
1.644259 -1.4073985 0.049310863 4289352960
1.7794498 -1.5230178 0.067071073 4289875200
1.7029443 -1.4574445 0.077233978 4289614080
1.844932 -1.5788625 0.097716682 4290266880
1.8397036 -1.5742881 0.11133682 4290266880
1.7098241 -1.4630535 0.11627974 4289614080
1.529907 -1.3090196 0.11538642 4288830720
1.8350756 -1.5700283 0.15185584 4290136320
1.8595389 -1.590857 0.1673446 4290266880
1.8437213 -1.5772246 0.1790891 4290266880
1.7391561 -1.4876789 0.18116786 4289744640
1.8834385 -1.610996 0.20923264 4290397440
1.8940024 -1.6199288 0.22328222 4290528000
1.8834482 -1.6107994 0.23459691 4290397440
1.84439 -1.5772951 0.24177597 4290266880
1.7010957 -1.4546592 0.23385265 4289614080
1.8835244 -1.6105572 0.27066875 4290397440
1.8870409 -1.6134615 0.28263065 4290397440
1.8760055 -1.6039239 0.29205304 4290397440
1.8523996 -1.5836411 0.29899049 4290266880
1.7958024 -1.5351576 0.29981732 4290005760
1.8743109 -1.6021694 0.32296932 4290397440
1.8580204 -1.5881432 0.32975748 4290397440
1.8344871 -1.5679283 0.33468533 4290266880
1.7810529 -1.5221616 0.3334066 4290005760
1.7915162 -1.5310065 0.34350258 4290005760
1.7944736 -1.5334363 0.35182717 4290136320
1.6704344 -1.4273499 0.33435389 4289483520
1.6667358 -1.424099 0.34006134 4289483520
1.6047219 -1.3710257 0.33323976 4289222400
1.6116283 -1.3768387 0.34014392 4289222400
1.6148146 -1.3794731 0.34590322 4289352960
1.6067859 -1.3725271 0.34884626 4289222400
1.6100546 -1.3752317 0.35382259 4289222400
1.6021198 -1.3683672 0.35591528 4289222400
1.591238 -1.3589866 0.35689667 4289222400
1.58041 -1.3496531 0.35743052 4289091840
1.4921868 -1.2742305 0.33988085 4288700160
1.4844766 -1.2675657 0.34012035 4288700160
1.4843092 -1.2673422 0.34167978 4288700160
1.4737061 -1.258209 0.34042835 4288700160
1.477387 -1.2612714 0.34207138 4288700160
1.5645311 -1.3355829 0.36266384 4289091840
1.4953908 -1.2764791 0.34662774 4288830720
1.5863935 -1.3540736 0.36728153 4289222400
1.5136087 -1.2918656 0.34959984 4288830720
1.5979959 -1.3638034 0.36778197 4289222400
1.6124998 -1.3760942 0.36936519 4289352960
1.6128223 -1.3762819 0.36725196 4289352960
1.6094494 -1.3733162 0.36387348 4289222400
1.6136249 -1.3767915 0.3617748 4289352960
1.5998496 -1.3649511 0.35525182 4289222400
1.6676751 -1.4227277 0.36630183 4289483520
1.6682643 -1.4231397 0.36199346 4289483520
1.6801617 -1.4331979 0.35968307 4289614080
1.7131443 -1.4612395 0.36133161 4289744640
1.7863098 -1.5235496 0.37068516 4290005760
1.8280678 -1.5590658 0.37269315 4290266880
1.8658365 -1.5911756 0.37316111 4290397440
1.8718938 -1.5962396 0.36668786 4290397440
1.8741137 -1.5980309 0.35900918 4290397440
1.852893 -1.5792875 0.29391167 4290266880
1.8724446 -1.5958506 0.2861343 4290397440
1.8860772 -1.607367 0.27693787 4290397440
1.8691436 -1.5928345 0.26296759 4290397440
1.8417896 -1.5694242 0.24751578 4290266880
1.8544781 -1.5801358 0.23726183 4290266880
1.8523139 -1.5781912 0.22477822 4290266880
1.6852161 -1.4357307 0.19317032 4289483520
1.6070157 -1.3690203 0.17319953 4289222400
1.8180592 -1.5487101 0.18327825 4290136320
1.8522086 -1.5776999 0.17361212 4290266880
1.8450847 -1.5715317 0.15969771 4290266880
1.8119678 -1.5432266 0.14365208 4290136320
1.6784174 -1.4293927 0.12071214 4289483520
1.5578406 -1.3266213 0.10045432 4288961280
1.5372801 -1.309029 0.087588586 4288830720
1.5232232 -1.2969767 0.075259842 4288830720
1.534386 -1.3063984 0.064117655 4288830720
1.5353932 -1.3071728 0.052389622 4288830720
1.532997 -1.3050495 0.040500242 4288830720
1.5227108 -1.2962104 0.028457329 4288830720
1.5211176 -1.2947718 0.016638678 4288830720
1.5023801 -1.2787411 0.0047729653 4288700160
1.5019515 -1.2782949 -0.0068903416 4288700160
1.5089461 -1.2841662 -0.018630598 4288700160
1.5211138 -1.2944388 -0.030562527 4288830720
1.5306123 -1.3024391 -0.042574842 4288830720
1.5085822 -1.2836114 -0.053567477 4288700160
1.5302891 -1.3019983 -0.066051334 4288830720
1.5355399 -1.3063827 -0.077958979 4288830720
1.5388167 -1.309087 -0.089746088 4288830720
1.516261 -1.2898165 -0.099784561 4288700160
1.5251002 -1.2972533 -0.11167688 4288830720
1.5370073 -1.3072982 -0.12382473 4288830720
1.5408643 -1.3104954 -0.13530391 4288830720
1.5291293 -1.3004318 -0.14520971 4288830720
1.5439464 -1.3129493 -0.15749812 4288830720
1.5556495 -1.3228173 -0.16948128 4288961280
1.5583811 -1.3250557 -0.18040004 4288961280
1.5489485 -1.3169516 -0.18966702 4288961280
1.5460556 -1.3144082 -0.19944279 4288961280
1.5519989 -1.3193771 -0.21015632 4288961280
1.5571294 -1.3236543 -0.22059624 4288961280
1.5508063 -1.3181953 -0.22916108 4288961280
1.5304103 -1.3007759 -0.23523057 4288830720
1.5529573 -1.3198557 -0.24764574 4288961280
1.5521936 -1.3191227 -0.25619096 4288961280
1.5629616 -1.3281891 -0.2664046 4288961280
1.5635859 -1.3286351 -0.27464956 4288961280
1.5561579 -1.3222392 -0.28113496 4288961280
1.5289421 -1.2990316 -0.28355825 4288830720
1.5416849 -1.3097749 -0.29299706 4288961280
1.544758 -1.3123021 -0.30033544 4288961280
1.547097 -1.3142055 -0.30721042 4288961280
1.5521109 -1.3183807 -0.3142933 4288961280
1.5443908 -1.3117397 -0.31842726 4288961280
1.5435818 -1.3109691 -0.32358778 4288961280
1.5471328 -1.3139013 -0.32929701 4288961280
1.5453539 -1.3123069 -0.33349669 4288961280
1.5467947 -1.3134468 -0.33800304 4288961280
1.5428599 -1.3100222 -0.34093627 4288961280
1.5366956 -1.3047051 -0.34295681 4288961280
1.5386024 -1.3062408 -0.34636912 4288961280
1.532369 -1.300866 -0.34753799 4288961280
1.5354313 -1.3033826 -0.35040304 4288961280
1.5270588 -1.296193 -0.35024357 4288830720
1.5269245 -1.2959964 -0.35155407 4288830720
1.5305976 -1.2990313 -0.35333171 4288961280
1.5268153 -1.2957387 -0.35297552 4288830720
1.5320215 -1.3000742 -0.35428295 4288961280
1.5393146 -1.30618 -0.35565683 4288961280
1.5378817 -1.304881 -0.3545973 4288961280
1.5368991 -1.3039641 -0.35322782 4288961280
1.5376669 -1.3045325 -0.35184738 4288961280
1.5445689 -1.3103046 -0.35144955 4288961280
1.5531559 -1.3175054 -0.35100254 4288961280
1.5471574 -1.3123335 -0.34684736 4288961280
1.5466222 -1.3117958 -0.34352469 4288961280
1.5498705 -1.3144673 -0.34063628 4288961280
1.5487044 -1.3133945 -0.33637735 4288961280
1.545324 -1.3104444 -0.33126 4288961280
1.5391622 -1.305136 -0.32519162 4288961280
1.5266432 -1.294438 -0.31746513 4288830720
1.5215424 -1.290031 -0.31097525 4288830720
1.5184779 -1.2873508 -0.30457386 4288830720
1.5383741 -1.3041354 -0.30235988 4288961280
1.5495112 -1.3134931 -0.29795069 4288961280
1.5472828 -1.3115206 -0.29059404 4288961280
1.5369534 -1.3026822 -0.28144366 4288830720
1.523553 -1.2912421 -0.27152556 4288830720
1.5327464 -1.2989509 -0.26534554 4288830720
1.5468068 -1.3107831 -0.25958729 4288961280
1.5476501 -1.3114142 -0.25123969 4288961280
1.527406 -1.2941778 -0.23929703 4288830720
1.5170808 -1.2853472 -0.22881572 4288830720
1.5427769 -1.3070352 -0.22341803 4288830720
1.5500618 -1.3131232 -0.21490617 4288961280
1.5443972 -1.3082411 -0.20435153 4288830720
1.5182496 -1.2860099 -0.19106567 4288830720
1.5321956 -1.2977399 -0.18269178 4288830720
1.5390813 -1.303489 -0.17313655 4288830720
1.5346631 -1.2996643 -0.16210373 4288830720
1.5190794 -1.2863849 -0.14985332 4288700160
1.5319005 -1.2971594 -0.14025939 4288830720
1.5422786 -1.3058641 -0.13012365 4288830720
1.5399231 -1.3037865 -0.11871482 4288830720
1.5350796 -1.299603 -0.10703843 4288830720
1.5264425 -1.2922086 -0.095081754 4288830720
1.530686 -1.2957182 -0.083857268 4288830720
1.5321804 -1.2969006 -0.072348826 4288830720
1.5127959 -1.2804112 -0.059913147 4288700160
1.5210351 -1.2873027 -0.048591886 4288700160
1.5306152 -1.2953281 -0.037124842 4288830720
1.5316546 -1.2961252 -0.025329508 4288830720
1.5253094 -1.2906736 -0.013426427 4288830720
1.53467 -1.2985115 -0.0016243384 4288830720
1.5462885 -1.3082588 0.01033895 4288830720
1.5447385 -1.3068641 0.022280399 4288830720
1.5620508 -1.3214263 0.034590926 4288961280
1.6508375 -1.3964469 0.049263317 4289352960
1.7921089 -1.5158522 0.067214191 4290005760
1.7259051 -1.4597607 0.077888273 4289614080
1.8609657 -1.5738939 0.098078556 4290266880
1.856472 -1.5699935 0.11179615 4290266880
1.7431252 -1.4740436 0.11795838 4289744640
1.5893476 -1.3439186 0.11927688 4289091840
1.8441918 -1.5593101 0.15185584 4290136320
1.8756328 -1.5857933 0.1679586 4290397440
1.8508102 -1.5647067 0.17888911 4290266880
1.7660654 -1.4929669 0.18306178 4289875200
1.8886616 -1.5965035 0.20877601 4290397440
1.9083977 -1.6130838 0.22386749 4290528000
1.8795013 -1.5885577 0.23294851 4290397440
1.8167807 -1.5354483 0.23698001 4290136320
1.7133402 -1.4479336 0.23437223 4289614080
1.8882219 -1.5956233 0.27000323 4290397440
1.8831143 -1.5912058 0.28064924 4290397440
1.8646679 -1.5755184 0.28885409 4290266880
1.8453165 -1.5590684 0.29637602 4290266880
1.7541722 -1.4819682 0.29142049 4289875200
1.8866999 -1.5938293 0.32349849 4290397440
1.8542023 -1.5662764 0.32745469 4290266880
1.8417218 -1.5556347 0.334346 4290266880
1.8050181 -1.5245353 0.33622432 4290136320
1.7499826 -1.4779577 0.33388227 4289875200
1.7597778 -1.4861355 0.34332117 4289875200
1.6824987 -1.4207827 0.3351061 4289483520
1.6208717 -1.3686546 0.32907125 4289222400
1.6240034 -1.3712115 0.33557904 4289352960
1.6233948 -1.3706105 0.34093615 4289352960
1.6228243 -1.3700414 0.34590322 4289352960
1.6260642 -1.3726891 0.35128939 4289352960
1.6142712 -1.3626468 0.35299852 4289222400
1.5223866 -1.2850028 0.3365334 4288830720
1.5915956 -1.3433346 0.3552154 4289222400
1.496089 -1.2626448 0.33669069 4288700160
1.4852781 -1.253441 0.33663809 4288700160
1.4775312 -1.2468238 0.33685893 4288700160
1.4773642 -1.2466034 0.3384034 4288700160
1.4810117 -1.2496015 0.34042835 4288700160
1.4809467 -1.249467 0.34120426 4288700160
1.4952353 -1.2614419 0.34489134 4288700160
1.5693166 -1.3238555 0.3619695 4289091840
1.5761887 -1.3295679 0.36311927 4289091840
1.5876343 -1.3391373 0.36488935 4289091840
1.52131 -1.2831123 0.34840605 4288830720
1.6167244 -1.3635004 0.36850691 4289222400
1.6208134 -1.3668618 0.36725196 4289352960
1.6211903 -1.3670925 0.36472097 4289352960
1.621619 -1.3673669 0.3617748 4289352960
1.6220977 -1.3676833 0.35841656 4289352960
1.6226246 -1.3680403 0.35464981 4289352960
1.6802992 -1.4165757 0.36280784 4289483520
1.7065945 -1.4386522 0.36354116 4289614080
1.7359725 -1.4633244 0.36434206 4289744640
1.7510651 -1.4759526 0.36158073 4289875200
1.7775422 -1.4981743 0.36060667 4290005760
1.8582753 -1.5661191 0.3698177 4290266880
1.8801383 -1.5844438 0.36648831 4290397440
1.889348 -1.5921036 0.36014444 4290397440
1.8583285 -1.5653727 0.29332635 4290266880
1.8855397 -1.5881929 0.28671998 4290397440
1.8956103 -1.5965737 0.27696979 4290397440
1.8726482 -1.5771333 0.26216528 4290397440
1.8623018 -1.5683197 0.24904118 4290266880
1.8669727 -1.572153 0.23768455 4290266880
1.8629652 -1.5686783 0.22495705 4290266880
1.7370549 -1.4625645 0.1981307 4289744640
1.7026203 -1.4334798 0.18259782 4289614080
1.8453323 -1.5535337 0.18510841 4290136320
1.8648322 -1.5698498 0.17393041 4290266880
1.8648711 -1.5697826 0.16061027 4290266880
1.8285398 -1.5391021 0.14424597 4290136320
1.6900507 -1.4224435 0.1209437 4289483520
1.5824258 -1.3317753 0.10153015 4288961280
1.553498 -1.3073462 0.088068962 4288830720
1.5477091 -1.3023915 0.076084428 4288830720
1.5547129 -1.3082017 0.064637534 4288830720
1.5518121 -1.3056777 0.052678615 4288830720
1.5439969 -1.2990191 0.040578637 4288830720
1.5340413 -1.2905608 0.028515732 4288830720
1.5416254 -1.2968584 0.016766828 4288830720
1.5470692 -1.301355 0.0048766579 4288830720
1.5175489 -1.2764418 -0.0069422992 4288700160
1.5240337 -1.2818146 -0.018739836 4288700160
1.528608 -1.2855799 -0.030578388 4288830720
1.5363505 -1.292009 -0.042541474 4288830720
1.5262682 -1.2834485 -0.053946782 4288700160
1.5414544 -1.2961359 -0.066224806 4288830720
1.5461622 -1.3000116 -0.07813175 4288830720
1.5568703 -1.3089315 -0.090372823 4288961280
1.5413648 -1.2958126 -0.10095862 4288830720
1.5471314 -1.3005775 -0.11275455 4288830720
1.556036 -1.3079796 -0.12476353 4288961280
1.565788 -1.3160931 -0.13683933 4288961280
1.5473466 -1.3005096 -0.14624037 4288830720
1.5553629 -1.3071637 -0.1579064 4288961280
1.5739881 -1.3227324 -0.17066059 4288961280
1.5724598 -1.3213638 -0.18115976 4288961280
1.5605503 -1.3112724 -0.19017325 4288961280
1.5574737 -1.3086038 -0.19995332 4288961280
1.5702984 -1.319295 -0.21161471 4288961280
1.5706819 -1.3195331 -0.22144832 4288961280
1.5718617 -1.3204401 -0.2311568 4288961280
1.5495454 -1.3016102 -0.23702684 4288961280
1.5605968 -1.3108097 -0.24766684 4288961280
1.5740982 -1.3220657 -0.25855562 4288961280
1.577288 -1.3246603 -0.26755136 4289091840
1.5705706 -1.3189346 -0.27454653 4288961280
1.5706391 -1.3189081 -0.28238234 4288961280
1.544044 -1.2964927 -0.28497678 4288961280
1.5560874 -1.3065219 -0.29430583 4288961280
1.555384 -1.305848 -0.30093986 4288961280
1.5622765 -1.311551 -0.30872431 4288961280
1.5618147 -1.3110796 -0.31472781 4288961280
1.5656562 -1.3142207 -0.32124868 4288961280
1.5645194 -1.3131826 -0.32638785 4288961280
1.5681199 -1.3161206 -0.33214572 4289091840
1.5627784 -1.311554 -0.33562082 4288961280
1.5615746 -1.3104601 -0.33957615 4288961280
1.5534647 -1.303571 -0.34161207 4288961280
1.5480241 -1.2989228 -0.34380564 4288961280
1.549939 -1.3004466 -0.34722394 4288961280
1.5580169 -1.3071408 -0.35163483 4288961280
1.5399574 -1.291907 -0.34972399 4288961280
1.5503346 -1.3005296 -0.35384867 4288961280
1.5382004 -1.2902683 -0.35242248 4288961280
1.5425693 -1.2938504 -0.35435683 4288961280
1.5425409 -1.293744 -0.35486859 4288961280
1.5395486 -1.291152 -0.35428259 4288961280
1.5431042 -1.2940513 -0.35478747 4288961280
1.5582762 -1.3066912 -0.35753971 4288961280
1.5474683 -1.2975454 -0.35391325 4288961280
1.5567094 -1.3052108 -0.35445663 4288961280
1.5559314 -1.3044752 -0.35229591 4288961280
1.5597198 -1.307568 -0.35075277 4288961280
1.5567546 -1.3049989 -0.34728107 4288961280
1.5604459 -1.3080097 -0.34488729 4288961280
1.5612621 -1.3086104 -0.34144726 4288961280
1.5600913 -1.3075455 -0.33717704 4288961280
1.5566953 -1.3046161 -0.33204749 4288961280
1.5535313 -1.3018813 -0.32660237 4288961280
1.5485235 -1.2976019 -0.32041863 4288961280
1.5352556 -1.2864019 -0.3122201 4288830720
1.5359672 -1.286916 -0.30654991 4288830720
1.5497181 -1.2983544 -0.30307257 4288961280
1.5675715 -1.3132281 -0.29991981 4288961280
1.561709 -1.3082334 -0.29183769 4288961280
1.5520915 -1.3000939 -0.28279269 4288961280
1.5336179 -1.2845377 -0.27194813 4288830720
1.5440708 -1.2932104 -0.26596212 4288830720
1.558202 -1.3049624 -0.26018193 4288961280
1.5620946 -1.3081388 -0.25230354 4288961280
1.5389798 -1.2886996 -0.2398891 4288830720
1.542807 -1.291822 -0.23151395 4288830720
1.5610176 -1.3069868 -0.22490771 4288961280
1.5614809 -1.3072912 -0.21538249 4288961280
1.562656 -1.3081915 -0.20570636 4288961280
1.5287521 -1.2797269 -0.19139594 4288830720
1.5435311 -1.2920159 -0.18309055 4288830720
1.5504519 -1.2977262 -0.17350802 4288830720
1.5528926 -1.2996861 -0.1631707 4288830720
1.5316117 -1.2817932 -0.15029348 4288830720
1.5542214 -1.3006321 -0.14154752 4288830720
1.5567302 -1.3026484 -0.13063937 4288830720
1.5513024 -1.2980237 -0.11894473 4288830720
1.556774 -1.3025188 -0.10795614 4288830720
1.5418597 -1.2899581 -0.095507517 4288830720
1.5450869 -1.2925754 -0.084165916 4288830720
1.5373588 -1.2860283 -0.072171077 4288830720
1.5277251 -1.2778879 -0.060140498 4288700160
1.5435969 -1.2910817 -0.049001638 4288830720
1.5451163 -1.2922701 -0.037222285 4288830720
1.5316414 -1.2809184 -0.025134033 4288830720
1.5374058 -1.2856572 -0.01339413 4288830720
1.557773 -1.3026061 -0.0015662932 4288830720
1.5684384 -1.3114407 0.010511521 4288961280
1.5595462 -1.3039223 0.022460032 4288830720
1.5815217 -1.3222114 0.034928624 4288961280
1.6593682 -1.3872055 0.049357962 4289352960
1.7676631 -1.477644 0.066061281 4289744640
1.7565916 -1.4682951 0.078973524 4289744640
1.8172961 -1.5189397 0.095400147 4290005760
1.8075253 -1.5106766 0.10840756 4290005760
1.7766538 -1.4847802 0.11972921 4289875200
1.705631 -1.4253343 0.12746406 4289483520
1.8195782 -1.5204587 0.14918844 4290005760
1.826844 -1.5264326 0.16288196 4290136320
1.7965766 -1.5010468 0.1728885 4290005760
1.8076 -1.5101603 0.18654142 4290005760
1.8677579 -1.5603197 0.20554873 4290266880
1.8814968 -1.5716968 0.21972567 4290397440
1.8565764 -1.5507807 0.22907305 4290266880
1.7900003 -1.4950749 0.23243204 4289875200
1.7476714 -1.4596268 0.23798341 4289744640
1.8863659 -1.5753617 0.26850832 4290397440
1.884782 -1.5739384 0.2796123 4290397440
1.8754244 -1.5660242 0.28918597 4290266880
1.8327146 -1.5302627 0.29299542 4290136320
1.7916828 -1.4959068 0.29627591 4290005760
1.8879364 -1.57617 0.3222093 4290397440
1.871749 -1.5625559 0.32901618 4290266880
1.8177361 -1.5173684 0.3284528 4290136320
1.7699852 -1.4774137 0.32815722 4289875200
1.7843623 -1.4893193 0.338846 4290005760
1.7903966 -1.4942603 0.34765366 4290005760
1.6438888 -1.3718977 0.32587427 4289352960
1.6432055 -1.3712399 0.33203098 4289352960
1.6463464 -1.3737732 0.33858684 4289352960
1.6419387 -1.3700078 0.34319609 4289352960
1.6527293 -1.3789232 0.35060409 4289352960
1.6370374 -1.3657436 0.35197663 4289352960
1.5484157 -1.2917261 0.33698273 4288961280
1.5260367 -1.2729757 0.33572808 4288830720
1.5112842 -1.260589 0.33567616 4288830720
1.4965848 -1.2482483 0.33518627 4288700160
1.4887491 -1.2416335 0.33580258 4288700160
1.4885306 -1.2413721 0.3377319 4288700160
1.4739889 -1.2291664 0.33600065 4288569600
1.4738729 -1.228991 0.33714896 4288569600
1.4738081 -1.2288586 0.33791414 4288569600
1.4775771 -1.2319225 0.33916342 4288569600
1.480642 -1.234399 0.33985472 4288569600
1.5619495 -1.3021011 0.35808453 4288961280
1.5209736 -1.267861 0.34786072 4288830720
1.6024085 -1.3356587 0.36518234 4289222400
1.6102421 -1.3421026 0.36522859 4289222400
1.6325144 -1.360579 0.36808434 4289352960
1.6397078 -1.3664869 0.36706892 4289352960
1.6401414 -1.366761 0.36409965 4289352960
1.636838 -1.363921 0.35988286 4289352960
1.6267608 -1.3554375 0.35378918 4289222400
1.6417375 -1.3678288 0.35271794 4289352960
1.7217543 -1.434404 0.36494094 4289744640
1.7406578 -1.45006 0.36349818 4289744640
1.7747961 -1.4784045 0.36464292 4289875200
1.7968533 -1.4966826 0.36269075 4290005760
1.8526771 -1.5430824 0.36684352 4290266880
1.881348 -1.566862 0.36486819 4290397440
1.8978708 -1.5805218 0.35993218 4290397440
1.8678457 -1.5547695 0.29338545 4290266880
1.8715365 -1.5577424 0.28319886 4290266880
1.8763517 -1.5616504 0.27281654 4290266880
1.8632164 -1.550619 0.25957203 4290266880
1.8429958 -1.533693 0.24525838 4290136320
1.8294017 -1.5222831 0.23176812 4290136320
1.82933 -1.5221261 0.21982251 4290136320
1.7922562 -1.4911829 0.20343593 4289875200
1.7659122 -1.4691705 0.18846947 4289744640
1.7639916 -1.4674788 0.17609525 4289744640
1.7424994 -1.4495065 0.16173886 4289744640
1.7236562 -1.4337401 0.14773677 4289614080
1.7097201 -1.4220573 0.13422912 4289483520
1.6193202 -1.3467811 0.11533195 4289091840
1.5976999 -1.3287147 0.10202667 4289091840
1.5678135 -1.3037767 0.088464811 4288961280
1.5593814 -1.2966818 0.076303624 4288830720
1.571038 -1.3062911 0.065018691 4288961280
1.5460438 -1.2854267 0.05224904 4288830720
1.5574645 -1.2948395 0.040756855 4288830720
1.5092821 -1.2547016 0.027943294 4288700160
1.5549781 -1.2926072 0.016856434 4288830720
1.5505081 -1.2888091 0.0048918915 4288830720
1.5329247 -1.2741119 -0.0069491332 4288700160
1.5438774 -1.2831334 -0.018860377 4288830720
1.5497559 -1.2879368 -0.03081792 4288830720
1.556239 -1.293242 -0.042848293 4288830720
1.5362556 -1.2765541 -0.054000456 4288830720
1.5528675 -1.2902753 -0.066353731 4288830720
1.5635451 -1.2990643 -0.078587413 4288830720
1.5759243 -1.3092657 -0.090993971 4288961280
1.548933 -1.2867594 -0.10092048 4288830720
1.5583699 -1.2945162 -0.11297951 4288830720
1.5598366 -1.2956519 -0.12441728 4288830720
1.5720961 -1.3057514 -0.13667846 4288961280
1.5608805 -1.2963532 -0.14675754 4288830720
1.5706683 -1.3043989 -0.15863928 4288961280
1.5817147 -1.3134887 -0.17061789 4288961280
1.5864946 -1.3173736 -0.18184069 4288961280
1.5862112 -1.3170543 -0.19231278 4288961280
1.5720097 -1.305179 -0.20079058 4288961280
1.5741791 -1.3068967 -0.21105832 4288961280
1.5822157 -1.3134847 -0.22194158 4288961280
1.5816019 -1.3128912 -0.23141006 4288961280
1.5643646 -1.2984996 -0.2380826 4288961280
1.5720744 -1.3048156 -0.24822772 4288961280
1.5886937 -1.3185253 -0.25963655 4289091840
1.5888429 -1.3185649 -0.26815382 4289091840
1.5965823 -1.324903 -0.27768978 4289091840
1.5887885 -1.3183511 -0.28421077 4289091840
1.5587478 -1.2933412 -0.28624776 4288961280
1.5606742 -1.2948568 -0.29369509 4288961280
1.5735054 -1.3054191 -0.30292344 4288961280
1.5737441 -1.3055336 -0.30943736 4288961280
1.5732778 -1.3050634 -0.31545672 4288961280
1.5809379 -1.3113338 -0.32276881 4289091840
1.5816185 -1.3118144 -0.32831419 4289091840
1.5758088 -1.3069122 -0.33211684 4289091840
1.5780358 -1.3086755 -0.33721694 4289091840
1.5798602 -1.3101048 -0.34185141 4289091840
1.5682456 -1.3003902 -0.34315741 4288961280
1.5673201 -1.2995397 -0.34637272 4288961280
1.5643638 -1.2970055 -0.34872797 4288961280
1.5618589 -1.2948459 -0.35076711 4288961280
1.5543294 -1.2885212 -0.35125342 4288961280
1.5655141 -1.2977103 -0.35556039 4288961280
1.5653752 -1.2975122 -0.35689217 4288961280
1.5577079 -1.2910744 -0.35608503 4288961280
1.5576783 -1.2909672 -0.35660219 4288961280
1.5611959 -1.2937998 -0.35751399 4288961280
1.563485 -1.295614 -0.35772556 4288961280
1.5659055 -1.2975367 -0.35754666 4288961280
1.5711693 -1.3018152 -0.35759348 4288961280
1.5711564 -1.3017213 -0.35601714 4288961280
1.5771095 -1.3065698 -0.35536894 4289091840
1.571147 -1.3015469 -0.35162234 4288961280
1.5787945 -1.3077986 -0.3505069 4289091840
1.5794698 -1.3082744 -0.34742007 4289091840
1.5757354 -1.3050977 -0.34296629 4289091840
1.5819625 -1.3101715 -0.34027496 4289091840
1.5747836 -1.3041425 -0.3343097 4288961280
1.5649301 -1.2958996 -0.32744002 4288961280
1.5581781 -1.2902257 -0.32089338 4288961280
1.5565139 -1.2887653 -0.31505287 4288961280
1.5541353 -1.2867137 -0.30872035 4288961280
1.5677614 -1.2979121 -0.3051675 4288961280
1.575233 -1.3040142 -0.29998159 4288961280
1.5798497 -1.3077524 -0.29385778 4288961280
1.5627275 -1.2934964 -0.28341505 4288961280
1.5542721 -1.2864155 -0.27434298 4288961280
1.5613434 -1.2921855 -0.26770636 4288961280
1.5717603 -1.3007234 -0.26125091 4288961280
1.5726162 -1.3013484 -0.25285304 4288961280
1.5541469 -1.2859827 -0.24116327 4288830720
1.5516011 -1.283794 -0.23179297 4288830720
1.5692098 -1.2982806 -0.22508498 4288961280
1.5801576 -1.3072546 -0.21699949 4288961280
1.5739225 -1.3020129 -0.20628583 4288961280
1.5510159 -1.2829816 -0.19334488 4288830720
1.5628517 -1.2926893 -0.18459089 4288961280
1.5578244 -1.2884487 -0.1735983 4288830720
1.5587374 -1.2891214 -0.16310465 4288830720
1.5462315 -1.2786969 -0.1511087 4288830720
1.5598726 -1.2898952 -0.14149384 4288830720
1.5633932 -1.2927238 -0.13068618 4288830720
1.5649048 -1.2938908 -0.11953273 4288830720
1.5682567 -1.2965794 -0.10835506 4288961280
1.5551463 -1.2856579 -0.095994987 4288830720
1.5517337 -1.2827547 -0.084251948 4288830720
1.5627927 -1.291814 -0.073146522 4288830720
1.5351839 -1.2689111 -0.060278099 4288700160
1.5453904 -1.2772657 -0.048960742 4288830720
1.5339829 -1.2677562 -0.036915861 4288700160
1.5178165 -1.2543154 -0.024927666 4288700160
1.5626209 -1.2912588 -0.013694914 4288830720
1.5826674 -1.3077403 -0.0017341491 4288961280
1.5759493 -1.302106 0.010359382 4288961280
1.5808799 -1.3060963 0.022503948 4288961280
1.5938026 -1.3166885 0.03487397 4288961280
1.6859814 -1.3927511 0.049741339 4289352960
1.7986448 -1.4857247 0.066716366 4289875200
1.76517 -1.4579804 0.078800343 4289744640
1.8712316 -1.5454854 0.097570397 4290266880
1.8658084 -1.5409077 0.11117617 4290266880
1.8460474 -1.5244901 0.12362018 4290136320
1.7139614 -1.4153212 0.12729669 4289483520
1.9061905 -1.5739557 0.1553449 4290397440
1.8967041 -1.5660225 0.16810542 4290397440
1.8767573 -1.5494542 0.17954655 4290266880
1.8056661 -1.4906658 0.18526436 4290005760
1.9317496 -1.5946518 0.21137591 4290528000
1.9317732 -1.5945693 0.22432081 4290528000
1.9232541 -1.5874357 0.23597009 4290528000
1.8460925 -1.5236497 0.23838355 4290136320
1.7562071 -1.4493711 0.23782723 4289744640
1.9292834 -1.5921065 0.27311417 4290528000
1.9349787 -1.5967044 0.28549856 4290528000
1.9225473 -1.5863447 0.29485083 4290528000
1.8982035 -1.5661577 0.3018356 4290397440
1.8552967 -1.5306585 0.30515718 4290266880
1.9154998 -1.5802262 0.3251774 4290528000
1.8770653 -1.5484198 0.32820749 4290266880
1.8712183 -1.5434977 0.33633918 4290266880
1.8333848 -1.5121934 0.33813319 4290136320
1.7778043 -1.4662563 0.33584249 4289875200
1.7808217 -1.4686509 0.34400168 4289875200
1.695156 -1.3979126 0.33430263 4289483520
1.6875887 -1.3915832 0.33924654 4289483520
1.6284674 -1.342746 0.33319578 4289222400
1.6316652 -1.3452965 0.33931041 4289222400
1.6310904 -1.3447366 0.3442573 4289222400
1.6267501 -1.3410723 0.3479965 4289222400
1.6118006 -1.3286631 0.34901094 4289222400
1.6007091 -1.3194356 0.35038987 4289091840
1.5889099 -1.3096259 0.35115495 4289091840
1.5703201 -1.2942208 0.34995073 4288961280
1.5593914 -1.2851313 0.34999368 4288961280
1.55536 -1.2817268 0.35115302 4288961280
1.5445402 -1.2727292 0.35035235 4288830720
1.5482178 -1.2756779 0.35242161 4288961280
1.5481484 -1.275539 0.3532283 4288961280
1.5511737 -1.2779498 0.35432816 4288961280
1.5588143 -1.2841624 0.35606804 4288961280
1.5665107 -1.2904202 0.35740155 4288961280
1.5811052 -1.3023591 0.35988048 4289091840
1.5995597 -1.3174757 0.36279404 4289091840
1.6104701 -1.326377 0.36354569 4289222400
1.6290444 -1.341589 0.36556605 4289222400
1.6294217 -1.3418138 0.36305067 4289222400
1.6298511 -1.3420815 0.36012211 4289222400
1.6265248 -1.3392568 0.35595047 4289222400
1.6308589 -1.3427393 0.35303807 4289222400
1.6898543 -1.3912232 0.36138374 4289483520
1.7087823 -1.4067161 0.36053321 4289614080
1.7346283 -1.4279019 0.36059061 4289744640
1.7757885 -1.4616904 0.36319694 4289875200
1.8055779 -1.4861155 0.36281458 4290005760
1.8811138 -1.5481876 0.37081248 4290397440
1.9209397 -1.5808637 0.37089673 4290528000
1.9264543 -1.5853006 0.36374751 4290528000
1.9139479 -1.5744126 0.29918516 4290397440
1.9284247 -1.5862195 0.29040724 4290528000
1.9361411 -1.5924647 0.2801587 4290528000
1.9228078 -1.5813968 0.26658767 4290528000
1.8942941 -1.5578462 0.2508738 4290397440
1.9079496 -1.5689758 0.24055727 4290397440
1.9126867 -1.5727707 0.22873329 4290397440
1.8944281 -1.5576571 0.21399775 4290397440
1.8210126 -1.4971967 0.19341324 4290005760
1.8522477 -1.5227801 0.18401322 4290136320
1.8979931 -1.5602885 0.1753203 4290397440
1.8977071 -1.5599536 0.16186742 4290397440
1.8718214 -1.5385765 0.14624268 4290266880
1.751274 -1.4393982 0.12412342 4289744640
1.6203929 -1.3317398 0.10297102 4289091840
1.5871717 -1.304353 0.08911851 4288961280
1.5707484 -1.2907735 0.076481484 4288830720
1.5823416 -1.300217 0.065161869 4288961280
1.5857387 -1.3029249 0.053322181 4288961280
1.5861137 -1.3031497 0.041295409 4288961280
1.5657361 -1.286325 0.028836781 4288830720
1.570719 -1.290336 0.016931929 4288830720
1.573698 -1.2927005 0.0049269958 4288961280
1.547186 -1.270841 -0.006994877 4288830720
1.5570856 -1.2788905 -0.01894605 4288830720
1.5599341 -1.2811481 -0.030887827 4288830720
1.5693743 -1.2888186 -0.043019794 4288830720
1.5607677 -1.2816684 -0.054616619 4288830720
1.571308 -1.2902412 -0.066838123 4288830720
1.5776473 -1.2953637 -0.078935094 4288961280
1.58246 -1.299232 -0.090952985 4288961280
1.5703484 -1.2892056 -0.10184539 4288830720
1.5658629 -1.2854407 -0.1129991 4288830720
1.5802495 -1.2971679 -0.1254625 4288961280
1.5837368 -1.2999471 -0.13705224 4288961280
1.5758947 -1.2934275 -0.14748107 4288961280
1.5893335 -1.3043739 -0.15977772 4288961280
1.6030153 -1.3155183 -0.17210996 4289091840
1.6049541 -1.3170251 -0.18309835 4289091840
1.5900455 -1.3047074 -0.19187731 4288961280
1.5824728 -1.2984104 -0.20118201 4288961280
1.5932781 -1.3071924 -0.21261929 4288961280
1.5928921 -1.306792 -0.22239253 4288961280
1.5999562 -1.3125032 -0.23299803 4289091840
1.5826304 -1.298207 -0.23973233 4288961280
1.591139 -1.3051028 -0.2500582 4288961280
1.5963246 -1.3092723 -0.25965765 4289091840
1.6041417 -1.3155994 -0.26946265 4289091840
1.6004179 -1.3124614 -0.27704698 4289091840
1.5925879 -1.3059567 -0.28354886 4289091840
1.5700611 -1.2874017 -0.28696665 4288961280
1.5788823 -1.2945518 -0.29572055 4288961280
1.5917698 -1.3050349 -0.30499372 4289091840
1.5851228 -1.2995019 -0.31020314 4288961280
1.5989771 -1.3107759 -0.31909493 4289091840
1.5964386 -1.3086112 -0.32439262 4289091840
1.5968478 -1.3088626 -0.32990739 4289091840
1.5896351 -1.3028672 -0.33344492 4289091840
1.5917816 -1.3045429 -0.33854312 4289091840
1.5867394 -1.3003272 -0.3417125 4289091840
1.587213 -1.300632 -0.34566042 4289091840
1.5855173 -1.2991592 -0.3487311 4289091840
1.5810291 -1.2953985 -0.35076895 4289091840
1.5753847 -1.2906913 -0.35212311 4288961280
1.5805397 -1.2948316 -0.35547757 4289091840
1.5727251 -1.288347 -0.35549781 4288961280
1.5759337 -1.2908927 -0.35758775 4288961280
1.5728005 -1.2882438 -0.35782099 4288961280
1.5762793 -1.2910104 -0.3591387 4288961280
1.5724951 -1.2878286 -0.35838187 4288961280
1.5801384 -1.2940053 -0.35980788 4289091840
1.5882217 -1.3005414 -0.36090738 4289091840
1.5859007 -1.2985575 -0.359218 4289091840
1.5821217 -1.2953802 -0.35678363 4289091840
1.5839144 -1.296765 -0.35519004 4289091840
1.5929413 -1.3040718 -0.35478786 4289091840
1.5883876 -1.3002605 -0.35094133 4289091840
1.5901505 -1.3016202 -0.348086 4289091840
1.5930142 -1.3038807 -0.34505644 4289091840
1.5895492 -1.3009611 -0.34025738 4289091840
1.5892092 -1.3005996 -0.3357425 4289091840
1.5800749 -1.2930412 -0.3290098 4288961280
1.5732934 -1.2874092 -0.32243699 4288961280
1.5601538 -1.2765753 -0.31425792 4288961280
1.5647011 -1.2802141 -0.30930927 4288961280
1.5829325 -1.2950476 -0.30662134 4288961280
1.5973355 -1.3067473 -0.30270809 4289091840
1.5981505 -1.3073304 -0.29581031 4289091840
1.5757859 -1.2889528 -0.28438517 4288961280
1.5617228 -1.2773677 -0.27430677 4288961280
1.5795715 -1.2918837 -0.26950112 4288961280
1.5869724 -1.2978535 -0.26248041 4288961280
1.587836 -1.2984766 -0.25403976 4288961280
1.5800432 -1.292021 -0.24396798 4288961280
1.5698038 -1.2835659 -0.23334795 4288961280
1.5827171 -1.2940416 -0.22589166 4288961280
1.5915787 -1.3012035 -0.21747546 4288961280
1.5968696 -1.3054454 -0.20824328 4288961280
1.5661536 -1.2802529 -0.19424817 4288830720
1.5772783 -1.2892641 -0.18535171 4288961280
1.5770571 -1.2890007 -0.17484713 4288961280
1.5787542 -1.290305 -0.16435342 4288961280
1.5560011 -1.2716275 -0.15127963 4288830720
1.5690147 -1.2821805 -0.14158376 4288830720
1.5758845 -1.287712 -0.13103981 4288961280
1.5894771 -1.2987357 -0.12076639 4288961280
1.5867752 -1.2964448 -0.1090462 4288961280
1.5827757 -1.2930943 -0.097167894 4288961280
1.5845815 -1.2944865 -0.085557148 4288961280
1.5840236 -1.2939478 -0.07371752 4288961280
1.5698792 -1.2823113 -0.061276779 4288830720
1.6063062 -1.3119816 -0.050575614 4289091840
1.6149808 -1.3189821 -0.038605988 4289091840
1.5739895 -1.2854214 -0.025654105 4288830720
1.5996113 -1.3062621 -0.013877348 4288961280
1.5973026 -1.3042932 -0.0016662442 4288961280
1.5934503 -1.3010641 0.010500615 4288961280
1.5996735 -1.3060616 0.022739979 4288961280
1.6108112 -1.3150707 0.035156272 4289091840
1.7362416 -1.4173815 0.051064726 4289614080
1.8740826 -1.52981 0.069275111 4290136320
1.7844468 -1.4565471 0.079369038 4289744640
1.9183791 -1.5657682 0.09964668 4290397440
1.8797011 -1.5341012 0.11156306 4290266880
1.7450542 -1.424119 0.11638652 4289614080
1.7719351 -1.4459634 0.13106272 4289744640
1.9431771 -1.5856014 0.15770017 4290528000
1.9528081 -1.593358 0.17234901 4290528000
1.9390935 -1.5820663 0.18472087 4290528000
1.868899 -1.5246983 0.19092917 4290136320
1.9628732 -1.6012623 0.21385266 4290658560
1.9731156 -1.6095145 0.22812404 4290658560
1.9697685 -1.6066812 0.24061865 4290658560
1.9342141 -1.5775793 0.24866286 4290528000
1.824989 -1.488398 0.2460483 4290005760
1.9619271 -1.5999773 0.27650106 4290658560
1.9637371 -1.6013507 0.28844893 4290658560
1.9459549 -1.5867482 0.29710406 4290528000
1.9171439 -1.5631552 0.30347723 4290397440
1.9082675 -1.5558178 0.31245443 4290397440
1.9284824 -1.5721984 0.32590055 4290528000
1.8997294 -1.548658 0.33066347 4290397440
1.880146 -1.5325954 0.33640656 4290266880
1.8344575 -1.4952567 0.33678788 4290136320
1.8451155 -1.5038475 0.3469643 4290136320
1.8481206 -1.5062001 0.35536534 4290136320
1.6963449 -1.3824157 0.33299994 4289483520
1.6956384 -1.3817513 0.33929494 4289483520
1.6293433 -1.3276432 0.33183616 4289222400
1.6287313 -1.3270594 0.33713353 4289222400
1.6205056 -1.3202724 0.34043768 4289222400
1.619975 -1.3197556 0.34493724 4289222400
1.6049583 -1.307438 0.3459115 4289091840
1.5823504 -1.2889383 0.34475541 4288961280
1.5674438 -1.2767138 0.34479159 4288961280
1.5594696 -1.2701372 0.34590483 4288961280
1.548492 -1.2611154 0.34591618 4288830720
1.5406245 -1.2546275 0.34619042 4288830720
1.5373937 -1.2519162 0.34708792 4288830720
1.5403262 -1.2542237 0.34896961 4288830720
1.5402572 -1.254087 0.34976497 4288830720
1.5478792 -1.2602121 0.35189918 4288830720
1.5479188 -1.2601634 0.35189936 4288830720
1.5556507 -1.2663767 0.35323396 4288961280
1.5703132 -1.2782307 0.35571864 4288961280
1.5812138 -1.2870212 0.35691816 4288961280
1.6074533 -1.3082947 0.36112577 4289091840
1.611594 -1.3115805 0.35991305 4289091840
1.6264908 -1.3236194 0.36065307 4289222400
1.6192734 -1.3176613 0.35605848 4289222400
1.6235741 -1.3210762 0.35358614 4289222400
1.6820141 -1.36854 0.36234626 4289483520
1.6940863 -1.378274 0.36052758 4289483520
1.7169312 -1.3967704 0.36048684 4289614080
1.7467302 -1.4209214 0.36133161 4289744640
1.7804255 -1.4482388 0.36236051 4289875200
1.862775 -1.5151265 0.37246779 4290266880
1.8977537 -1.5434781 0.37224799 4290397440
1.9339362 -1.5728052 0.37155899 4290528000
1.9476944 -1.5838926 0.36593273 4290528000
1.9381344 -1.5754653 0.30152595 4290528000
1.9516175 -1.5863236 0.29250312 4290528000
1.9601613 -1.593166 0.28228647 4290658560
1.9459875 -1.5815444 0.26851931 4290528000
1.9252769 -1.5646119 0.25376546 4290397440
1.9376156 -1.5745382 0.24313685 4290528000
1.9456563 -1.5809708 0.23157054 4290528000
1.9205233 -1.5604484 0.21591483 4290397440
1.7156123 -1.3938663 0.18135284 4289483520
1.7836431 -1.4490455 0.1763559 4289744640
1.9153363 -1.5559342 0.17608194 4290397440
1.9260684 -1.5645521 0.16350624 4290397440
1.8954632 -1.5395925 0.14738645 4290266880
1.8065361 -1.4672672 0.12743212 4289875200
1.6471658 -1.3377409 0.10417531 4289222400
1.5923415 -1.2931324 0.088984244 4288961280
1.5795723 -1.2826803 0.076545946 4288961280
1.5892725 -1.2904744 0.065136559 4288961280
1.5931331 -1.2935261 0.0533165 4288961280
1.5848652 -1.2867305 0.041067023 4288961280
1.5753297 -1.2789066 0.028875746 4288830720
1.5782101 -1.2811629 0.016931929 4288830720
1.5734389 -1.2772076 0.0049028033 4288830720
1.5527692 -1.2603484 -0.006986802 4288830720
1.5608283 -1.2668086 -0.018901464 4288830720
1.5646363 -1.2698177 -0.03083392 4288830720
1.5724201 -1.2760528 -0.042898759 4288830720
1.5644759 -1.2695245 -0.054486625 4288830720
1.5788403 -1.2810985 -0.066839889 4288830720
1.5872924 -1.287874 -0.0790409 4288961280
1.5963758 -1.2951608 -0.091317542 4288961280
1.5710008 -1.2744919 -0.1014044 4288830720
1.5861348 -1.2866868 -0.11391908 4288961280
1.5931338 -1.2922815 -0.12588552 4288961280
1.6071717 -1.3035847 -0.13842063 4289091840
1.5845809 -1.2851787 -0.14759071 4288961280
1.6004504 -1.2979664 -0.16013233 4288961280
1.6154661 -1.31006 -0.17262433 4289091840
1.6125457 -1.3076078 -0.18309216 4289091840
1.6091604 -1.3047788 -0.19326332 4289091840
1.5988826 -1.2963618 -0.20230454 4288961280
1.6089621 -1.3044504 -0.21369444 4289091840
1.6096741 -1.3049439 -0.22367026 4289091840
1.608736 -1.3040997 -0.23316617 4289091840
1.5896261 -1.2885257 -0.23965077 4288961280
1.5981433 -1.2953465 -0.24996868 4288961280
1.612573 -1.3069582 -0.26105759 4289091840
1.622764 -1.3151333 -0.27129909 4289091840
1.6178082 -1.3110328 -0.27873039 4289091840
1.6091841 -1.3039603 -0.28514621 4289091840
1.5918787 -1.2898544 -0.28957587 4288961280
1.5973616 -1.2942139 -0.29776427 4289091840
1.5964398 -1.2933841 -0.30443949 4289091840
1.6074623 -1.3022305 -0.31308478 4289091840
1.604682 -1.2998946 -0.31871659 4289091840
1.6113853 -1.305241 -0.32587895 4289091840
1.6074753 -1.30199 -0.3305302 4289091840
1.6026436 -1.2979933 -0.33458164 4289091840
1.6054205 -1.3001587 -0.33982697 4289091840
1.5992124 -1.2950479 -0.34276789 4289091840
1.6020899 -1.2972949 -0.34724832 4289091840
1.5927314 -1.2896339 -0.34865928 4289091840
1.5946677 -1.2911187 -0.35211992 4289091840
1.5883058 -1.2858852 -0.35333058 4289091840
1.5875932 -1.2852257 -0.35537377 4288961280
1.5912255 -1.2880836 -0.35797721 4289091840
1.5789119 -1.2780336 -0.35656789 4288961280
1.5833416 -1.2815369 -0.35851434 4288961280
1.5909659 -1.2876252 -0.36076948 4289091840
1.5983442 -1.2935137 -0.3625493 4289091840
1.5838802 -1.2817258 -0.35895333 4288961280
1.5992723 -1.2940984 -0.36169901 4289091840
1.5959654 -1.2913395 -0.35978746 4289091840
1.5967507 -1.2918921 -0.35837913 4289091840
1.593067 -1.2888288 -0.35555258 4289091840
1.5979928 -1.2927308 -0.35422942 4289091840
1.5995427 -1.2939016 -0.3517344 4289091840
1.6066672 -1.2995811 -0.35003811 4289091840
1.6051129 -1.2982405 -0.3460328 4289091840
1.5990345 -1.2932411 -0.34066916 4289091840
1.6017296 -1.2953377 -0.33678749 4289091840
1.5877795 -1.2839736 -0.32905084 4288961280
1.5822314 -1.2794048 -0.32273561 4288961280
1.5777724 -1.2757171 -0.31630424 4288961280
1.5703565 -1.2696395 -0.30895969 4288961280
1.5868038 -1.2828547 -0.30591825 4288961280
1.6058595 -1.2981769 -0.30288497 4289091840
1.5989801 -1.2925324 -0.29456496 4289091840
1.5832688 -1.2797501 -0.28438517 4288961280
1.5678711 -1.2672228 -0.27408522 4288830720
1.5769753 -1.2744993 -0.26778674 4288961280
1.5993046 -1.2924626 -0.26327017 4288961280
1.596315 -1.2899636 -0.25418958 4288961280
1.5756848 -1.2732108 -0.24214549 4288961280
1.5772556 -1.2743981 -0.23334795 4288961280
1.6018268 -1.2941681 -0.22753905 4288961280
1.5991328 -1.2919085 -0.21747546 4288961280
1.6005785 -1.2929934 -0.20774101 4288961280
1.5658426 -1.2648515 -0.19329229 4288830720
1.5799119 -1.2761343 -0.18478432 4288961280
1.5882161 -1.2827593 -0.17525272 4288961280
1.5852666 -1.2802948 -0.16425204 4288961280
1.5726452 -1.2700199 -0.15217584 4288830720
1.5786593 -1.2747947 -0.14178143 4288830720
1.5825422 -1.2778481 -0.1309721 4288961280
1.5915071 -1.2850044 -0.12034975 4288961280
1.5790354 -1.2748526 -0.10800203 4288830720
1.5690552 -1.2667136 -0.095870875 4288830720
1.57727 -1.2732636 -0.08476039 4288830720
1.5795169 -1.2749954 -0.073160835 4288830720
1.5619169 -1.2607077 -0.060678259 4288830720
1.571468 -1.2683352 -0.049245205 4288830720
1.5697757 -1.266888 -0.037348282 4288830720
1.5775338 -1.2730674 -0.025590546 4288830720
1.5753326 -1.2712094 -0.013602235 4288830720
1.5937146 -1.28596 -0.0016546575 4288961280
1.5919746 -1.2844733 0.010441396 4288961280
1.5927954 -1.2850529 0.022535387 4288961280
1.6145549 -1.3025246 0.035071749 4289091840
1.7747587 -1.4316752 0.051951345 4289744640
1.9220271 -1.5503751 0.070712268 4290397440
1.8486761 -1.4911118 0.081838042 4290005760
1.9535214 -1.5755769 0.10099355 4290528000
1.9015843 -1.5335894 0.11232962 4290266880
1.6839607 -1.357993 0.11178229 4289352960
1.7539058 -1.4143078 0.12911747 4289614080
1.9553313 -1.5766311 0.15793838 4290528000
1.9773595 -1.5942905 0.17369309 4290658560
1.9637156 -1.5831881 0.18618454 4290528000
1.881631 -1.5169121 0.19132374 4290266880
1.9826411 -1.5982406 0.21498817 4290658560
1.9899501 -1.6040293 0.228986 4290658560
1.9904169 -1.6043025 0.24199504 4290658560
1.9533249 -1.5743046 0.24993631 4290528000
1.8375018 -1.4808604 0.24656788 4290005760
1.9852086 -1.5997959 0.27846387 4290658560
1.9809719 -1.596279 0.28960949 4290658560
1.9705541 -1.5877823 0.29944232 4290658560
1.9545972 -1.5748236 0.30794829 4290528000
1.9172996 -1.5446736 0.31245443 4290397440
1.944559 -1.5665343 0.3270694 4290528000
1.9156657 -1.5431588 0.33186677 4290397440
1.8929003 -1.5247221 0.33709344 4290266880
1.8469932 -1.4876485 0.33749232 4290136320
1.8422859 -1.4837615 0.34480074 4290136320
1.8491614 -1.4892032 0.3538911 4290136320
1.7082202 -1.3756093 0.33375216 4289483520
1.6890364 -1.3600732 0.33638251 4289483520
1.6293571 -1.3119329 0.33027664 4289222400
1.6248993 -1.3082594 0.33475688 4289222400
1.621251 -1.3052381 0.33899093 4289091840
1.6130341 -1.2985394 0.34184262 4289091840
1.5941088 -1.2832214 0.34195596 4289091840
1.5790796 -1.2710415 0.3424235 4288961280
1.5641047 -1.2589068 0.34243783 4288961280
1.5484169 -1.2462 0.34183696 4288830720
1.5450665 -1.2434236 0.34352678 4288830720
1.5371629 -1.2369834 0.34378725 4288830720
1.5369873 -1.2367625 0.3453635 4288830720
1.544538 -1.2427584 0.34827748 4288830720
1.5444683 -1.2426224 0.34907126 4288830720
1.5444528 -1.24253 0.34946844 4288830720
1.5444918 -1.2424815 0.34946862 4288830720
1.5476549 -1.2449459 0.34976545 4288830720
1.5631521 -1.2573311 0.35243103 4288961280
1.5779396 -1.2691439 0.35450399 4288961280
1.6004624 -1.2871764 0.35786432 4289091840
1.6076906 -1.2929064 0.35735297 4289091840
1.6226547 -1.3048567 0.35811061 4289222400
1.6230818 -1.3051161 0.35521784 4289222400
1.6166431 -1.2998551 0.3504214 4289091840
1.6938024 -1.3618071 0.36317033 4289483520
1.6982429 -1.3652894 0.35971317 4289483520
1.7211937 -1.3836515 0.35968307 4289614080
1.7511313 -1.4076275 0.36053941 4289744640
1.788833 -1.4378412 0.36236051 4289875200
1.8715708 -1.5042479 0.37246779 4290266880
1.9067141 -1.5323952 0.37224799 4290397440
1.943067 -1.5615109 0.37155899 4290528000
1.9534644 -1.5697657 0.36529225 4290528000
1.9434104 -1.561038 0.30092669 4290528000
1.96126 -1.5752742 0.29256776 4290528000
1.980258 -1.5904311 0.28384137 4290658560
1.973775 -1.5851223 0.27107465 4290658560
1.9459949 -1.5627117 0.25529182 4290528000
1.9576212 -1.571947 0.2444938 4290528000
1.9587165 -1.5727253 0.23203044 4290528000
1.9295821 -1.5492325 0.21591483 4290397440
1.7038827 -1.3679338 0.17926741 4289483520
1.8138258 -1.4561062 0.17849834 4289875200
1.9467071 -1.5626801 0.17812592 4290528000
1.9515933 -1.5665016 0.16489547 4290528000
1.9242549 -1.5444584 0.14892299 4290397440
1.8512186 -1.4857417 0.12997118 4290005760
1.6609604 -1.3329595 0.10455479 4289222400
1.5948168 -1.2797954 0.088704377 4288961280
1.572045 -1.2614404 0.075823724 4288830720
1.5946712 -1.2795138 0.065051183 4288961280
1.5908045 -1.2763292 0.052988805 4288961280
1.5874797 -1.2735796 0.040941797 4288961280
1.5693671 -1.2589674 0.028631512 4288830720
1.571979 -1.2609817 0.016785972 4288830720
1.578773 -1.26635 0.0048963511 4288830720
1.5514638 -1.244365 -0.0069481884 4288700160
1.5681826 -1.2576934 -0.018901464 4288830720
1.5718069 -1.260519 -0.030829975 4288830720
1.573311 -1.261644 -0.042721793 4288830720
1.5692838 -1.2583336 -0.054397814 4288830720
1.585126 -1.2709548 -0.066791371 4288830720
1.5935842 -1.2776544 -0.078982182 4288961280
1.5935943 -1.2775803 -0.090731092 4288961280
1.5774713 -1.264573 -0.10134476 4288830720
1.58463 -1.2702301 -0.11327755 4288830720
1.5952572 -1.2786664 -0.1254625 4288961280
1.5967138 -1.2797517 -0.13687542 4288961280
1.5830762 -1.2687395 -0.14675955 4288830720
1.6044245 -1.285766 -0.15977772 4288961280
1.611236 -1.2911415 -0.17136556 4288961280
1.6201915 -1.2982343 -0.18309835 4289091840
1.6121335 -1.2916945 -0.19271326 4289091840
1.6023247 -1.2837527 -0.20179027 4288961280
1.6122832 -1.2916481 -0.21313241 4289091840
1.6118908 -1.2912506 -0.22292911 4289091840
1.6130862 -1.2921251 -0.2327016 4289091840
1.5976499 -1.2796777 -0.23973233 4288961280
1.6062382 -1.286474 -0.2500582 4288961280
1.6230886 -1.2998861 -0.26152945 4289091840
1.6232327 -1.2999178 -0.27010667 4289091840
1.6194707 -1.2968216 -0.27771035 4289091840
1.6223899 -1.2990755 -0.2861402 4289091840
1.5846808 -1.2687995 -0.28691691 4288961280
1.6046755 -1.2847259 -0.29772732 4289091840
1.6039482 -1.284061 -0.30443949 4289091840
1.6032448 -1.2834152 -0.31080168 4289091840
1.6066253 -1.2860384 -0.31760898 4289091840
1.6074481 -1.2866143 -0.32356122 4289091840
1.6081357 -1.2870817 -0.32911849 4289091840
1.6085619 -1.2873398 -0.33424562 4289091840
1.6107265 -1.2889892 -0.33935469 4289091840
1.6094851 -1.2879128 -0.34335554 4289091840
1.6022605 -1.2820492 -0.34566042 4289091840
1.6043966 -1.2836756 -0.34956971 4289091840
1.6075599 -1.2861239 -0.35330606 4289091840
