# .PCD v0.7 - Point Cloud Data file format
VERSION 0.7
FIELDS x y z rgba
SIZE 4 4 4 4
TYPE F F F U
COUNT 1 1 1 1
WIDTH 1096
HEIGHT 1
VIEWPOINT 0 0 0 1 0 0 0
POINTS 1096
DATA ascii
1.4095832 -1.5207282 0.34860983 4289091840
1.4092528 -1.520277 0.35189381 4289091840
1.4183551 -1.5299842 0.35713977 4289222400
1.4147586 -1.5260154 0.35878089 4289222400
1.4179142 -1.5293175 0.36171171 4289222400
1.3457891 -1.4515638 0.3449266 4288830720
1.4143119 -1.525247 0.36376813 4289222400
1.4209635 -1.5323122 0.36632997 4289222400
1.4243132 -1.5358216 0.36761415 4289222400
1.4243613 -1.5357767 0.36761433 4289222400
1.4144039 -1.5249621 0.36460197 4289222400
1.4145513 -1.5250244 0.36376899 4289222400
1.4147477 -1.5251397 0.36252052 4289222400
1.4056034 -1.5152024 0.35846275 4289091840
1.405894 -1.5154195 0.35640138 4289091840
1.4476281 -1.5602306 0.36435452 4289352960
1.4386249 -1.5504448 0.35905042 4289222400
1.4681821 -1.5821469 0.36290061 4289483520
1.4629406 -1.5764078 0.3576659 4289352960
1.4465679 -1.5586946 0.34935427 4289352960
1.4368553 -1.5481479 0.342325 4289222400
1.4087255 -1.5177927 0.33063924 4289091840
1.3522664 -1.4569716 0.31223211 4288830720
1.2687639 -1.3670733 0.28777099 4288439040
1.158379 -1.2482767 0.25769502 4287786240
0.91568464 -0.98721689 0.19946203 4286611200
0.90334505 -0.97388554 0.19239175 4286611200
0.88012975 -0.94853157 0.15497422 4286480640
0.87723011 -0.9453544 0.14875506 4286480640
0.9041127 -0.97418451 0.14726673 4286611200
0.89443833 -0.96372575 0.1395341 4286480640
0.89830041 -0.96781403 0.13380046 4286480640
0.86282575 -0.92963481 0.12227336 4286350080
0.94612634 -1.019075 0.12712769 4286741760
1.006601 -1.0839808 0.127698 4287002880
1.0107088 -1.0883242 0.12047078 4287002880
1.0309033 -1.1099476 0.11484475 4287133440
1.0652665 -1.1467873 0.11024647 4287394560
1.0600108 -1.1410686 0.10118216 4287264000
1.0585091 -1.1393825 0.092420526 4287264000
1.0731375 -1.1550193 0.084863923 4287394560
1.075739 -1.1577387 0.076116063 4287394560
1.0807389 -1.1630331 0.067391701 4287394560
1.1969484 -1.2877361 0.064552367 4287916800
1.2274936 -1.3204484 0.055744305 4288177920
1.2339222 -1.3272651 0.045454532 4288177920
1.1857231 -1.2754369 0.033438586 4287916800
1.2381939 -1.3316798 0.024232177 4288177920
1.2421863 -1.3358796 0.013540111 4288177920
1.2427064 -1.3363519 0.0027537837 4288177920
1.2207055 -1.3126535 -0.0079110097 4288047360
1.2338367 -1.3266611 -0.018701423 4288177920
1.2410084 -1.3342717 -0.029561378 4288177920
1.2424462 -1.3357288 -0.040331442 4288177920
1.2396884 -1.3326838 -0.050913863 4288177920
1.2568223 -1.3509811 -0.062371239 4288308480
1.2556435 -1.3496294 -0.073000193 4288308480
1.2555654 -1.3494589 -0.083603986 4288308480
1.2505283 -1.3439689 -0.093748227 4288177920
1.2599672 -1.354007 -0.10490448 4288308480
1.2554632 -1.3490891 -0.11483674 4288308480
1.2568769 -1.3505186 -0.12515724 4288308480
1.2036583 -1.2933592 -0.1295232 4288047360
1.1296031 -1.2138631 -0.13051254 4287655680
1.104582 -1.1869553 -0.13621242 4287525120
1.0976605 -1.179458 -0.14373547 4287525120
1.0799879 -1.1604347 -0.1495173 4287394560
1.1411148 -1.2258929 -0.16629593 4287655680
1.2221864 -1.3127236 -0.1868104 4288177920
1.2520216 -1.3446208 -0.20011419 4288308480
1.2518352 -1.3443351 -0.20862751 4288308480
1.2293109 -1.3201073 -0.21305262 4288177920
1.2650493 -1.358325 -0.22737409 4288308480
1.2610484 -1.3539504 -0.23453441 4288308480
1.2682281 -1.3615576 -0.24352133 4288308480
1.2650998 -1.3581185 -0.25028864 4288308480
1.2616701 -1.354357 -0.25667739 4288308480
1.2474985 -1.3390874 -0.26050436 4288308480
1.2487743 -1.3403686 -0.26718011 4288308480
1.2482162 -1.3396853 -0.27316549 4288308480
1.2552744 -1.3471607 -0.28053042 4288308480
1.2578379 -1.3498206 -0.28661838 4288308480
1.2544447 -1.3461006 -0.2910234 4288308480
1.2576488 -1.3494465 -0.29661801 4288308480
1.2568312 -1.3484851 -0.30093607 4288308480
1.253863 -1.3452209 -0.30438179 4288308480
1.2557056 -1.3471087 -0.30863577 4288308480
1.2537192 -1.3448964 -0.31159535 4288308480
1.2476814 -1.3383468 -0.31317055 4288308480
1.2501734 -1.3409301 -0.31650671 4288308480
1.2405398 -1.3305324 -0.31640369 4288308480
1.2339613 -1.3234065 -0.31668103 4288177920
1.2338185 -1.3231701 -0.31822526 4288177920
1.2404417 -1.3301752 -0.32114428 4288308480
1.2217492 -1.310086 -0.31715178 4288177920
1.2370081 -1.326333 -0.32156509 4288308480
1.2303145 -1.3190867 -0.31992215 4288177920
1.2401416 -1.3295189 -0.3221845 4288308480
1.2429386 -1.3324282 -0.32224771 4288308480
1.2474744 -1.3371972 -0.32237956 4288308480
1.2476293 -1.337279 -0.32100397 4288308480
1.2463222 -1.3357967 -0.31888187 4288308480
1.2460445 -1.335416 -0.31665409 4288308480
1.247691 -1.3370936 -0.31454322 4288308480
1.2450823 -1.3342196 -0.31100148 4288308480
1.2479774 -1.3372325 -0.30846828 4288308480
1.243239 -1.3320816 -0.30370471 4288308480
1.2397321 -1.3282481 -0.29891545 4288308480
1.236865 -1.3250995 -0.29395688 4288177920
1.2355505 -1.3236114 -0.28904316 4288177920
1.2181128 -1.3048853 -0.28011474 4288177920
1.211226 -1.2974412 -0.27338204 4288047360
1.224854 -1.3119293 -0.2709181 4288177920
1.2431582 -1.3314142 -0.26902795 4288308480
1.2438054 -1.3320231 -0.262936 4288308480
1.2358487 -1.3234361 -0.2547735 4288177920
1.2211378 -1.3076314 -0.24505909 4288177920
1.2098563 -1.2954938 -0.23589951 4288047360
1.2121273 -1.2978404 -0.22915789 4288047360
1.1692264 -1.2519176 -0.21390623 4287916800
1.0924692 -1.1698253 -0.19299924 4287525120
1.0637397 -1.1390573 -0.18099433 4287394560
1.0648975 -1.1402239 -0.17402796 4287394560
1.0976589 -1.1751523 -0.17177348 4287525120
1.150594 -1.2316266 -0.1718708 4287786240
1.204591 -1.2892283 -0.17117348 4288047360
1.2071787 -1.2919126 -0.16261239 4288047360
1.2215403 -1.3071716 -0.15532473 4288047360
1.2134999 -1.298504 -0.14498933 4288047360
1.1935751 -1.2771461 -0.13330252 4287916800
1.2011356 -1.2851408 -0.1246184 4288047360
1.2064714 -1.290759 -0.11546862 4288047360
1.201692 -1.2855763 -0.10522995 4288047360
1.1654103 -1.2467613 -0.092478111 4287786240
1.1287186 -1.2075136 -0.080199018 4287655680
1.1092402 -1.1866457 -0.069515042 4287525120
1.0541667 -1.1277848 -0.057179082 4287264000
0.99879611 -1.0686142 -0.045703568 4287002880
1.0418441 -1.114494 -0.038719017 4287133440
1.0476351 -1.1206058 -0.029916622 4287264000
1.0359935 -1.1081131 -0.020647902 4287133440
1.0413668 -1.1137789 -0.011741688 4287133440
1.0618885 -1.1356078 -0.0027630057 4287264000
1.0653325 -1.1392128 0.0064582718 4287264000
1.0388989 -1.1109402 0.01527415 4287133440
1.0747083 -1.1490752 0.025100924 4287394560
1.0848408 -1.1598135 0.034681104 4287394560
1.0851092 -1.1600286 0.043990672 4287394560
1.0743403 -1.1484704 0.052708324 4287394560
1.0577447 -1.130699 0.060846142 4287264000
1.0540198 -1.1266567 0.069490515 4287264000
1.0433509 -1.1152093 0.077476427 4287133440
1.0471389 -1.1191802 0.086398207 4287264000
1.0104254 -1.0799627 0.091597475 4287002880
0.90535468 -0.9678635 0.089325786 4286480640
0.90089065 -0.96304429 0.096045151 4286480640
0.86942732 -0.92944098 0.099486165 4286350080
0.9432078 -1.0080383 0.11522503 4286741760
0.9264645 -0.99012768 0.12018307 4286611200
0.90631342 -0.96858698 0.12428772 4286480640
0.8868472 -0.94777882 0.12805687 4286480640
0.88570809 -0.9465062 0.13418578 4286480640
0.89209801 -0.95325762 0.14134303 4286480640
0.87535667 -0.93535799 0.14460008 4286350080
0.88790375 -0.94867027 0.15251029 4286480640
0.85141832 -0.90973514 0.15166175 4286219520
0.888592 -0.94928616 0.16377978 4286480640
0.89606333 -0.95718729 0.17050263 4286480640
0.97437173 -1.0405527 0.19102068 4286872320
1.0792443 -1.1522057 0.21756072 4287394560
1.1505762 -1.2281173 0.23803867 4287786240
1.2150813 -1.2967479 0.25753179 4288047360
1.255602 -1.3398247 0.27216148 4288308480
1.3663561 -1.4576951 0.30240873 4288830720
1.3946326 -1.487717 0.31466803 4288961280
1.4299315 -1.5252134 0.32841203 4289222400
1.4517144 -1.5483128 0.33889389 4289352960
1.4162802 -1.510488 0.33557773 4289091840
1.4158283 -1.5099127 0.34003735 4289091840
1.4248692 -1.5194434 0.34640601 4289222400
1.4217919 -1.5160725 0.3494412 4289091840
1.4376583 -1.5328671 0.35675424 4289222400
1.4339905 -1.5288671 0.35883042 4289222400
1.4303696 -1.5249175 0.36048329 4289222400
1.3577368 -1.4475206 0.34420094 4288830720
1.3575931 -1.4472768 0.34578729 4288830720
1.3608685 -1.4506716 0.34784085 4288830720
1.3574457 -1.4469384 0.34777346 4288830720
1.3608159 -1.4504333 0.34903646 4288830720
1.4299089 -1.5238527 0.36675051 4289222400
1.4300071 -1.5238613 0.36633191 4289222400
1.4301555 -1.5239232 0.365495 4289222400
1.4269799 -1.5204489 0.36338127 4289222400
1.4211527 -1.5141548 0.36017495 4289091840
1.418071 -1.5107814 0.35725328 4289091840
1.4082828 -1.5002757 0.35224468 4289091840
1.4503318 -1.5448986 0.35972208 4289352960
1.437934 -1.531617 0.3532117 4289222400
1.3863757 -1.4766963 0.33683348 4288961280
1.3418366 -1.4292456 0.32203749 4288700160
1.2868997 -1.370746 0.30467921 4288439040
1.2755687 -1.3586128 0.29751223 4288439040
1.2375422 -1.3181018 0.28395417 4288177920
1.1781977 -1.2549349 0.26555717 4287916800
1.0716643 -1.1416178 0.23690985 4287394560
0.88888299 -0.94727373 0.19241408 4286480640
0.85678291 -0.91309762 0.18133041 4286350080
0.92677075 -0.98707342 0.16218433 4286611200
0.91613865 -0.97571594 0.15439755 4286611200
0.93911934 -1.000064 0.15202735 4286741760
0.93689793 -0.99764049 0.14526178 4286741760
0.88755339 -0.94516861 0.13137306 4286480640
0.88187152 -0.9390738 0.12420115 4286350080
0.92289621 -0.98257959 0.12322616 4286611200
1.0121777 -1.0773228 0.12760812 4287002880
1.0204464 -1.0860335 0.12087774 4287133440
1.0373501 -1.103911 0.11484579 4287133440
1.0657969 -1.1340414 0.10961477 4287264000
1.040858 -1.1074934 0.098727755 4287133440
1.0527736 -1.1200711 0.091344744 4287264000
1.0735822 -1.1420867 0.084370151 4287394560
1.0724082 -1.1407673 0.075405814 4287264000
1.0400256 -1.1063253 0.064430363 4287133440
1.060806 -1.1283077 0.056797124 4287264000
1.0686815 -1.1365925 0.048163168 4287264000
1.0640579 -1.1316134 0.038879536 4287264000
0.93387496 -0.9934085 0.026055476 4286611200
1.0531375 -1.1198813 0.020396819 4287264000
1.0523753 -1.1190006 0.011309589 4287264000
1.028194 -1.0932757 0.0021594905 4287133440
1.0385088 -1.1041471 -0.0067821029 4287133440
1.0421731 -1.107963 -0.015798407 4287133440
1.0446303 -1.1104978 -0.024833849 4287133440
1.0201619 -1.0844756 -0.033031475 4287002880
1.0567185 -1.1231748 -0.043233085 4287264000
1.0616683 -1.1283516 -0.052470591 4287264000
1.060207 -1.1267295 -0.061369523 4287264000
0.99836498 -1.0610852 -0.066217944 4287002880
1.0740261 -1.1412362 -0.080125444 4287394560
1.0848781 -1.1526678 -0.089875564 4287394560
1.1026278 -1.1714102 -0.10032955 4287525120
1.087512 -1.1553118 -0.10773115 4287394560
1.1000236 -1.1684995 -0.11771056 4287525120
1.1068292 -1.1756376 -0.1271086 4287525120
1.0995567 -1.1678545 -0.13475956 4287525120
1.0878501 -1.1553733 -0.14157908 4287394560
1.0545392 -1.1199999 -0.14511336 4287264000
1.099709 -1.1677912 -0.15930438 4287525120
1.1310378 -1.2009112 -0.17187783 4287655680
1.142331 -1.2127993 -0.18153441 4287655680
1.1536139 -1.2246751 -0.19114344 4287786240
1.0816103 -1.1483191 -0.18640988 4287394560
1.1551632 -1.2261595 -0.20642398 4287786240
1.1614103 -1.2326981 -0.21474539 4287786240
1.1604511 -1.2316034 -0.22153299 4287786240
1.1716776 -1.2434145 -0.23044702 4287916800
1.176109 -1.2480282 -0.23786044 4287916800
1.1476935 -1.2178578 -0.2382635 4287786240
1.1484578 -1.2185895 -0.24428137 4287786240
1.147944 -1.2179679 -0.24975264 4287786240
1.1554557 -1.2258433 -0.25671065 4287786240
1.1629227 -1.2336706 -0.26343295 4287786240
1.1645191 -1.2352821 -0.26856846 4287786240
1.1676102 -1.2384756 -0.27375779 4287916800
1.1762122 -1.247502 -0.27996212 4287916800
1.1755865 -1.2467606 -0.28368476 4287916800
1.1742125 -1.2452272 -0.28689402 4287916800
1.1772869 -1.248402 -0.29085881 4287916800
1.1739473 -1.244789 -0.29290846 4287916800
1.1718569 -1.2424983 -0.29491639 4287916800
1.1690404 -1.2394396 -0.29639027 4287916800
1.1516305 -1.2209414 -0.29380107 4287786240
1.1575861 -1.227165 -0.2967889 4287786240
1.1547852 -1.2241247 -0.29719949 4287786240
1.1513484 -1.220412 -0.29709589 4287786240
1.1479523 -1.216743 -0.29665303 4287786240
1.1412144 -1.2095398 -0.29500237 4287786240
1.1558075 -1.2248975 -0.29849738 4287786240
1.1612251 -1.2305499 -0.29927766 4287786240
1.1544168 -1.223273 -0.29657301 4287786240
1.1603637 -1.2294848 -0.2967867 4287786240
1.1517146 -1.2202625 -0.2929416 4287786240
1.1570716 -1.22585 -0.29230827 4287786240
1.1461614 -1.2142389 -0.28725448 4287786240
1.1376383 -1.2051528 -0.2825053 4287655680
1.1369593 -1.2043598 -0.27939093 4287655680
1.1326771 -1.1997582 -0.2750859 4287655680
1.1244873 -1.1910272 -0.26955652 4287655680
1.1222304 -1.1885676 -0.26516703 4287655680
1.1229179 -1.1892201 -0.26117116 4287655680
1.1134573 -1.1791486 -0.25456044 4287525120
1.1051824 -1.1703312 -0.24800119 4287525120
1.1084965 -1.1737603 -0.24376893 4287525120
1.1131154 -1.1785675 -0.23950863 4287525120
1.1256627 -1.1917503 -0.23659121 4287655680
1.1108829 -1.1760627 -0.22770213 4287525120
1.0981722 -1.1625627 -0.21912478 4287525120
1.0921906 -1.1561724 -0.21174082 4287394560
1.0922734 -1.1561881 -0.20532328 4287394560
1.0935384 -1.1574527 -0.19888952 4287394560
1.0682039 -1.1306255 -0.18757166 4287264000
1.0551025 -1.1167201 -0.17842726 4287264000
1.0556794 -1.1172603 -0.17146774 4287264000
1.076733 -1.1394218 -0.16747916 4287394560
1.0828592 -1.1458195 -0.16081017 4287394560
1.0629367 -1.1247153 -0.15021846 4287264000
1.0466728 -1.1074762 -0.14023934 4287264000
1.0651481 -1.126911 -0.13471462 4287264000
1.0625225 -1.12407 -0.12627387 4287264000
1.0437001 -1.1041336 -0.11595047 4287133440
1.0383016 -1.0983678 -0.10717139 4287133440
1.0666274 -1.1281947 -0.10154874 4287264000
1.06703 -1.1285499 -0.092950635 4287264000
1.0484744 -1.1088998 -0.082764275 4287133440
1.0367908 -1.0965033 -0.07327579 4287133440
1.0488145 -1.1091223 -0.065364935 4287133440
1.0479186 -1.1081088 -0.05649662 4287133440
1.0138751 -1.0721252 -0.04609992 4287002880
1.0387347 -1.0982842 -0.038370188 4287133440
1.0464146 -1.106318 -0.029701017 4287133440
1.0449326 -1.1046867 -0.020694885 4287133440
1.0285691 -1.0873597 -0.011536185 4287133440
1.0483942 -1.1082017 -0.0027213637 4287133440
1.0601778 -1.1205605 0.0063819708 4287264000
1.0565856 -1.1167035 0.015445496 4287264000
1.0542616 -1.1141844 0.024458587 4287264000
1.0558028 -1.115741 0.033527989 4287264000
1.0616281 -1.1218143 0.042759858 4287264000
1.0693806 -1.1299186 0.052136932 4287264000
1.0451427 -1.1042972 0.059742555 4287133440
1.0629034 -1.1229516 0.069645941 4287264000
1.0525776 -1.1119983 0.077681579 4287264000
1.0639467 -1.1239132 0.087248757 4287264000
1.0156645 -1.0729568 0.091504969 4287002880
0.93363822 -0.98644447 0.091558948 4286611200
0.88726157 -0.93751109 0.094001181 4286350080
0.89997029 -0.95084524 0.10235733 4286480640
0.92299503 -0.97504759 0.11205136 4286611200
0.90958679 -0.96086025 0.11725844 4286480640
0.95262575 -1.0061451 0.12984852 4286741760
1.0214504 -1.0785897 0.14662951 4287133440
0.89468372 -0.94498307 0.13471164 4286480640
0.92438316 -0.97620916 0.14556442 4286611200
0.88768494 -0.93749452 0.14573526 4286480640
0.97346056 -1.0277786 0.16619897 4286872320
0.88341224 -0.93287879 0.15639894 4286350080
0.86131328 -0.90954852 0.15776542 4286350080
1.0610234 -1.119795 0.20068672 4287264000
1.1909245 -1.2565084 0.23208204 4287916800
1.2636752 -1.3330305 0.25320363 4288308480
1.2975427 -1.3686049 0.26681426 4288439040
1.2451042 -1.3133138 0.26227394 4288177920
1.2470336 -1.3152634 0.26863837 4288177920
1.3775464 -1.4525659 0.3030096 4288830720
1.4162065 -1.4931685 0.31757095 4289091840
1.4517182 -1.5304524 0.3313657 4289222400
1.4675089 -1.546976 0.34047407 4289352960
1.4250532 -1.5021998 0.33557919 4289091840
1.4341142 -1.5116413 0.34231102 4289222400
1.4370919 -1.5146803 0.34722868 4289222400
1.4435049 -1.5213333 0.35259652 4289222400
1.4329777 -1.5101622 0.35340464 4289222400
1.3733616 -1.4473482 0.34154058 4288830720
1.3663352 -1.4398658 0.34222251 4288830720
1.3661439 -1.4395746 0.34420231 4288830720
1.3659987 -1.4393317 0.34578869 4288830720
1.3659004 -1.4391379 0.34697995 4288830720
1.369243 -1.4425629 0.34863913 4288830720
1.3658465 -1.4389005 0.34817261 4288830720
1.3658917 -1.4388574 0.34817278 4288830720
1.3693788 -1.4424337 0.34863961 4288830720
1.4424007 -1.5191227 0.36635876 4289222400
1.4358108 -1.5120983 0.36338276 4289222400
1.4394535 -1.5158327 0.36257157 4289222400
1.4302416 -1.5060527 0.35810524 4289091840
1.4203932 -1.495605 0.35309073 4289091840
1.4694976 -1.5471255 0.36223689 4289352960
1.4468298 -1.5232023 0.35321316 4289222400
1.4112712 -1.4857339 0.34077671 4289091840
1.3698633 -1.4421228 0.32674569 4288830720
1.3016654 -1.3703647 0.30628231 4288439040
1.2926697 -1.3608249 0.29964951 4288439040
1.3105766 -1.3795538 0.29887205 4288569600
1.2846009 -1.3521743 0.28777358 4288439040
1.2221769 -1.2865059 0.26854464 4288047360
1.0597292 -1.1157677 0.22801821 4287264000
0.92764503 -0.97694701 0.19513474 4286611200
1.020884 -1.0744485 0.17758079 4287133440
0.89508635 -0.94229662 0.14991553 4286480640
0.92847604 -0.97729206 0.14937665 4286611200
0.91937333 -0.96767324 0.14166231 4286611200
0.93289685 -0.98180771 0.13725053 4286611200
0.90380239 -0.95120454 0.12651438 4286480640
0.88095784 -0.92716527 0.11688741 4286350080
1.0218707 -1.0750024 0.12804088 4287002880
1.0363797 -1.0901605 0.12201543 4287133440
1.0504627 -1.1048696 0.11558665 4287133440
1.0565009 -1.1111349 0.10798657 4287264000
1.0418063 -1.0956446 0.098209701 4287133440
1.0508969 -1.1051123 0.090619631 4287133440
1.0550033 -1.1093495 0.082391687 4287264000
1.0516081 -1.1057165 0.073478609 4287133440
1.0437634 -1.097416 0.064264722 4287133440
1.0495881 -1.1034554 0.055844329 4287133440
1.0558881 -1.1099923 0.047286328 4287264000
1.0521749 -1.1060265 0.038201321 4287133440
1.0348787 -1.087816 0.028752435 4287133440
1.0443205 -1.0976474 0.020094855 4287133440
1.0388362 -1.091826 0.011085683 4287133440
1.0405662 -1.0935696 0.0021765926 4287133440
1.0262544 -1.0784937 -0.006670834 4287002880
1.0326607 -1.0851408 -0.015566656 4287133440
1.0374901 -1.0901339 -0.024520054 4287133440
1.0462064 -1.0992007 -0.033653047 4287133440
1.0425696 -1.095318 -0.042404674 4287133440
1.0500443 -1.1030822 -0.051588502 4287133440
1.0600153 -1.1134615 -0.06098542 4287264000
1.0537735 -1.1068486 -0.069427259 4287133440
1.0548679 -1.1079241 -0.07823021 4287264000
1.0624119 -1.1157582 -0.087493859 4287264000
1.063849 -1.1171923 -0.096238308 4287264000
1.0453504 -1.0977389 -0.10295394 4287133440
1.0551872 -1.1079741 -0.11225712 4287264000
1.0696955 -1.1231018 -0.12212247 4287264000
1.0739396 -1.1274756 -0.13083653 4287264000
1.0715685 -1.1249197 -0.13862194 4287264000
1.0260869 -1.0772099 -0.14036007 4287133440
1.0713392 -1.1245353 -0.1542704 4287264000
1.0764494 -1.1298149 -0.16262725 4287394560
1.0770904 -1.1304138 -0.17017396 4287394560
1.0584748 -1.1108484 -0.17438559 4287264000
1.0192611 -1.0697179 -0.17464633 4287002880
1.0818272 -1.1351562 -0.19219936 4287394560
1.0863392 -1.1398075 -0.1997008 4287394560
1.0916376 -1.1452813 -0.20718198 4287394560
1.0837412 -1.1369423 -0.21192448 4287394560
1.0718224 -1.1243939 -0.21553442 4287264000
1.0683841 -1.1207234 -0.22051452 4287264000
1.0673474 -1.119567 -0.22571504 4287264000
1.076436 -1.1290072 -0.23282953 4287394560
1.0808182 -1.1335211 -0.23872949 4287394560
1.0819548 -1.1346384 -0.24366841 4287394560
1.0740467 -1.1262918 -0.24627322 4287394560
1.0708059 -1.1228294 -0.2496168 4287394560
1.0754135 -1.1275786 -0.25449941 4287394560
1.0712893 -1.1231927 -0.25703418 4287394560
1.0669552 -1.1185877 -0.25919592 4287264000
1.0515199 -1.1023715 -0.25831786 4287264000
1.0493234 -1.1000044 -0.26033226 4287264000
1.0620383 -1.1132329 -0.26575071 4287264000
1.0479053 -1.0983821 -0.26417154 4287264000
1.0080023 -1.0565847 -0.2557278 4287002880
1.0078849 -1.0563953 -0.25697425 4287002880
1.0112054 -1.0598006 -0.25879756 4287002880
1.0145607 -1.0632421 -0.26033387 4287133440
1.0043386 -1.0524882 -0.25809637 4287002880
1.0440983 -1.093987 -0.26834634 4287264000
1.040756 -1.0904245 -0.26725554 4287264000
1.0520663 -1.1021785 -0.2695953 4287264000
1.0446076 -1.0943134 -0.26683158 4287264000
1.0626363 -1.1130873 -0.27022666 4287264000
1.0702593 -1.1209843 -0.27064136 4287394560
1.0756284 -1.1265248 -0.27015403 4287394560
1.072301 -1.1229775 -0.26717553 4287394560
1.0693165 -1.1197889 -0.26398596 4287394560
1.0709984 -1.1214762 -0.26164073 4287394560
1.0757252 -1.1263446 -0.25971627 4287394560
1.0698893 -1.1201776 -0.25495762 4287394560
1.0694019 -1.1195986 -0.25119475 4287264000
1.0578083 -1.1074189 -0.2445901 4287264000
1.0508748 -1.100108 -0.23884805 4287264000
1.0408612 -1.0895811 -0.23220542 4287133440
1.0466212 -1.095529 -0.22881767 4287264000
1.0582328 -1.107587 -0.22636317 4287264000
1.0797621 -1.1299999 -0.22560301 4287394560
1.058937 -1.1081848 -0.21577975 4287264000
1.0488188 -1.0975519 -0.20804745 4287264000
1.0441295 -1.0925881 -0.20123421 4287133440
1.0549095 -1.1037745 -0.19712582 4287264000
1.0690277 -1.1184444 -0.19326966 4287264000
1.0572085 -1.1060379 -0.18452096 4287264000
1.0439498 -1.0921304 -0.17547701 4287133440
1.0467228 -1.0949571 -0.16898653 4287133440
1.0654248 -1.114408 -0.16472174 4287264000
1.0678737 -1.116895 -0.15763266 4287264000
1.0469643 -1.0950066 -0.14707479 4287133440
1.0427107 -1.0905006 -0.13886254 4287133440
1.0544996 -1.1027341 -0.13256584 4287264000
1.0568827 -1.1051525 -0.12484492 4287264000
1.0352124 -1.0824765 -0.11431572 4287133440
1.0390568 -1.0864205 -0.10659765 4287133440
1.0511501 -1.0989685 -0.099479236 4287133440
1.0550004 -1.1029172 -0.091353871 4287133440
1.0499543 -1.0975863 -0.082377531 4287133440
1.0358393 -1.0827976 -0.072765701 4287133440
1.0358115 -1.0827022 -0.064172715 4287133440
1.0360811 -1.0829167 -0.055528622 4287133440
1.0267833 -1.0731549 -0.04639627 4287002880
1.016453 -1.0623177 -0.037335344 4287002880
1.0265989 -1.0728309 -0.028976023 4287002880
1.0333587 -1.0798125 -0.020350629 4287133440
1.0406694 -1.0873677 -0.011596118 4287133440
1.0481673 -1.095117 -0.0027069082 4287133440
1.0454221 -1.0921881 0.006244116 4287133440
1.0554966 -1.1026218 0.015332469 4287133440
1.0538442 -1.100832 0.024297245 4287133440
1.0554298 -1.1024169 0.033309318 4287133440
1.0598661 -1.1069722 0.042425562 4287264000
1.0748565 -1.122525 0.052084878 4287264000
1.0510404 -1.0976402 0.059714098 4287133440
1.0606483 -1.1075834 0.069071583 4287264000
1.0659516 -1.1130404 0.078192912 4287264000
1.0688761 -1.1160189 0.087118961 4287264000
1.0263942 -1.0716957 0.091910683 4287002880
0.96631396 -1.0090463 0.094198041 4286741760
0.91895294 -0.95965302 0.096777342 4286480640
0.94208604 -0.98368794 0.10650999 4286611200
0.95143348 -0.99336249 0.11480926 4286741760
0.93172437 -0.97277611 0.1193871 4286611200
0.96536487 -1.0077475 0.13078612 4286741760
0.98747456 -1.0307078 0.14087698 4286872320
0.92015189 -0.96054691 0.13770935 4286611200
0.8866117 -0.92556727 0.13875297 4286350080
0.91928583 -0.95952672 0.15001231 4286611200
0.89613998 -0.93537217 0.1520444 4286480640
0.89496362 -0.93408984 0.15748091 4286480640
0.8713941 -0.90949875 0.15864128 4286350080
1.1559424 -1.2056087 0.21732797 4287655680
1.2816328 -1.3363483 0.24825391 4288308480
1.345907 -1.4031557 0.26805153 4288700160
1.3878155 -1.4466802 0.28365305 4288830720
1.3608682 -1.41855 0.28493068 4288700160
1.2807183 -1.3350655 0.27421999 4288308480
1.418869 -1.4787204 0.31020465 4289091840
1.4447393 -1.5055435 0.32200107 4289222400
1.4606071 -1.5219573 0.33136722 4289222400
1.427429 -1.4873492 0.32915676 4289091840
1.4371984 -1.4974185 0.33638155 4289091840
1.4428937 -1.503249 0.34231251 4289222400
1.4493074 -1.5098259 0.34805137 4289222400
1.4489232 -1.5093322 0.35176808 4289222400
1.4519986 -1.512436 0.35591945 4289222400
1.3783514 -1.4357589 0.34069738 4288830720
1.3781129 -1.4354211 0.34307444 4288830720
1.3779197 -1.4351302 0.34505916 4288830720
1.3777727 -1.4348876 0.34664944 4288830720
1.3810873 -1.4382434 0.34870598 4288830720
1.3810353 -1.4380991 0.34950483 4288830720
1.3776176 -1.4344562 0.34903929 4288830720
1.3776625 -1.4344128 0.34903947 4288830720
1.3777562 -1.4344199 0.34864107 4288830720
1.381313 -1.4380261 0.34870678 4288830720
1.4514235 -1.5107948 0.36510295 4289222400
1.4448414 -1.5038598 0.36171767 4289222400
1.4417219 -1.5005234 0.35878715 4289222400
1.425662 -1.4837424 0.3522476 4289091840
1.4198943 -1.4776562 0.34787941 4289091840
1.46867 -1.5282347 0.35636857 4289352960
1.4301617 -1.488135 0.34324184 4289091840
1.4008223 -1.4575646 0.33210316 4288961280
1.332901 -1.3869237 0.31172982 4288569600
1.3231745 -1.3767335 0.30486062 4288569600
1.3843666 -1.4401972 0.31379011 4288830720
1.3651168 -1.420115 0.30396259 4288700160
1.3033541 -1.3558893 0.28465247 4288439040
1.092283 -1.1366373 0.23359974 4287394560
0.99304444 -1.0335271 0.20763475 4286872320
0.93820387 -0.97618479 0.16218626 4286611200
0.93709004 -0.97496641 0.15600874 4286611200
0.90099305 -0.93744534 0.14406541 4286480640
0.97467422 -1.0138412 0.14928779 4286872320
0.93163937 -0.96912372 0.1362316 4286611200
1.0254257 -1.066367 0.14270939 4287002880
1.099499 -1.1431466 0.1450797 4287394560
1.0297425 -1.0707086 0.12824534 4287002880
1.0427109 -1.0840924 0.12201652 4287133440
1.056036 -1.0978442 0.1154952 4287133440
1.0758157 -1.1182891 0.10929912 4287264000
1.0481695 -1.0895448 0.098210797 4287133440
1.058301 -1.0999817 0.090705633 4287133440
1.0564169 -1.0979573 0.0820003 4287133440
1.0555496 -1.0969874 0.073306382 4287133440
1.0497881 -1.0909431 0.064244308 4287133440
1.0561384 -1.0974568 0.055852987 4287133440
1.0529134 -1.0940429 0.046863545 4287133440
1.0564514 -1.0976402 0.038123868 4287133440
1.0514711 -1.092407 0.029042631 4287133440
1.0427279 -1.0832741 0.019939305 4287133440
1.0400515 -1.0804304 0.011029566 4287133440
1.0417702 -1.0821422 0.0021640533 4287133440
1.0305742 -1.0704699 -0.0066583487 4287002880
1.0262476 -1.0659175 -0.01538277 4287002880
1.0305214 -1.0702775 -0.024214782 4287002880
1.041664 -1.0817537 -0.033309504 4287133440
1.0448691 -1.0850048 -0.042241991 4287133440
1.0447177 -1.0847782 -0.051022183 4287133440
1.0527444 -1.0930234 -0.060207915 4287133440
1.0599262 -1.1003925 -0.06940826 4287133440
1.041867 -1.0816162 -0.076810151 4287133440
1.0485219 -1.0884392 -0.085839875 4287133440
1.0589404 -1.0991592 -0.095220692 4287133440
1.0654576 -1.1058379 -0.1042866 4287264000
1.0594008 -1.0994948 -0.11202276 4287264000
1.0674955 -1.107806 -0.12113819 4287264000
1.0738581 -1.1143228 -0.13003771 4287264000
1.0806468 -1.1212797 -0.13894594 4287264000
1.0749624 -1.1153229 -0.14611752 4287264000
1.0657053 -1.1056685 -0.15253805 4287264000
1.0780561 -1.1183823 -0.16188608 4287264000
1.0794426 -1.1197459 -0.16951467 4287264000
1.0707421 -1.1106693 -0.17533167 4287264000
1.0579292 -1.0973377 -0.18014278 4287264000
1.0759921 -1.11596 -0.19001439 4287264000
1.0851183 -1.1253325 -0.19827379 4287394560
1.0924973 -1.1328958 -0.20609325 4287394560
1.0790132 -1.118872 -0.20973107 4287264000
1.079356 -1.1191552 -0.21573271 4287394560
1.0611646 -1.1002643 -0.21770974 4287264000
1.0660275 -1.1052247 -0.22407702 4287264000
1.0732625 -1.1126381 -0.23074549 4287264000
1.0757232 -1.1151125 -0.23617546 4287264000
1.0802631 -1.1197371 -0.24182124 4287394560
1.0711361 -1.1102268 -0.24412695 4287264000
1.0721738 -1.1112294 -0.24842654 4287264000
1.0742817 -1.1133386 -0.25269905 4287264000
1.0695 -1.1083236 -0.25505877 4287264000
1.068545 -1.1072661 -0.25801474 4287264000
1.0658925 -1.1044536 -0.26025447 4287264000
1.063905 -1.1023289 -0.26234275 4287264000
1.0562187 -1.0943136 -0.26270652 4287264000
1.0433468 -1.0809391 -0.26144096 4287133440
1.0276295 -1.0646253 -0.2591137 4287133440
1.0439465 -1.0814226 -0.26452431 4287133440
1.0404361 -1.0777265 -0.26464114 4287133440
1.0342233 -1.0712382 -0.26375782 4287133440
1.0342103 -1.0711573 -0.26413769 4287133440
1.0429424 -1.0801128 -0.26643458 4287133440
1.0522532 -1.0896652 -0.26856688 4287264000
1.055766 -1.093226 -0.26890868 4287264000
1.0569324 -1.0943624 -0.26833948 4287264000
1.0710495 -1.1088771 -0.27071577 4287264000
1.0753177 -1.1132166 -0.27027646 4287394560
1.0731366 -1.1108941 -0.26790649 4287264000
1.0765574 -1.1143578 -0.26661536 4287394560
1.0732377 -1.1108596 -0.26335353 4287264000
1.0719851 -1.1094968 -0.26030299 4287264000
1.0747519 -1.1122848 -0.25791904 4287264000
1.0743238 -1.1117734 -0.25446773 4287264000
1.0678917 -1.1050631 -0.24933065 4287264000
1.0621668 -1.0990837 -0.24411438 4287264000
1.0531734 -1.0897307 -0.23792671 4287264000
1.0440423 -1.0802368 -0.23150948 4287133440
1.0507461 -1.0870898 -0.22833233 4287133440
1.0644975 -1.1012164 -0.22632633 4287264000
1.074693 -1.1116712 -0.22319691 4287264000
1.0621705 -1.0986784 -0.21513285 4287264000
1.0493525 -1.0853822 -0.2069001 4287133440
1.0499268 -1.0859077 -0.20112844 4287133440
1.0570101 -1.0931497 -0.196328 4287264000
1.0657064 -1.102055 -0.19151303 4287264000
1.0566223 -1.0926145 -0.18330987 4287264000
1.0522493 -1.0880356 -0.17580096 4287133440
1.049365 -1.0849931 -0.16839212 4287133440
1.0618123 -1.0977662 -0.16317931 4287264000
1.0651442 -1.1011353 -0.15628688 4287264000
1.047858 -1.0832381 -0.14631496 4287133440
1.044626 -1.079838 -0.1382802 4287133440
1.0486023 -1.0838724 -0.13103734 4287133440
1.0528564 -1.0881927 -0.1236256 4287133440
1.0398455 -1.0747093 -0.11413436 4287133440
1.0465388 -1.0815449 -0.10671515 4287133440
1.0611486 -1.0965416 -0.099815533 4287133440
1.0580732 -1.0933036 -0.09106829 4287133440
1.0522228 -1.0872053 -0.082059123 4287133440
1.0419489 -1.0765476 -0.072752208 4287133440
1.0448827 -1.0795056 -0.064341046 4287133440
1.0451541 -1.0797192 -0.055673912 4287133440
1.0366757 -1.0709145 -0.046557095 4287002880
1.032369 -1.0664103 -0.037683669 4287002880
1.0432738 -1.0775828 -0.029261298 4287133440
1.0404787 -1.0746365 -0.02036562 4287133440
1.0433605 -1.0775399 -0.011557026 4287133440
1.0482595 -1.0825216 -0.0026933046 4287133440
1.0603012 -1.0948615 0.0063006827 4287133440
1.0584182 -1.0928544 0.015281435 4287133440
1.0637197 -1.098249 0.024379989 4287133440
1.0745968 -1.1093858 0.033717319 4287264000
1.0635099 -1.097898 0.042314511 4287133440
1.0826004 -1.1174933 0.052145571 4287264000
1.0690478 -1.1034669 0.060377497 4287264000
1.077767 -1.1123786 0.069769144 4287264000
1.0689369 -1.1032172 0.077938929 4287264000
1.0816177 -1.1162071 0.087629803 4287264000
1.0924159 -1.1272569 0.097258709 4287394560
1.2032609 -1.2413125 0.11668681 4287916800
1.1694329 -1.2064095 0.12251833 4287655680
1.1277627 -1.1634374 0.12680607 4287525120
1.1516627 -1.1879685 0.13820769 4287655680
1.121343 -1.1566862 0.142887 4287525120
1.1042112 -1.1389818 0.14874181 4287394560
1.0276499 -1.060114 0.14573719 4287002880
1.0255432 -1.0578806 0.15259102 4287002880
0.94810528 -0.97812545 0.14750169 4286611200
0.93449736 -0.96406233 0.15157971 4286611200
0.94443047 -0.97422355 0.15928574 4286611200
0.93868643 -0.96825349 0.1641911 4286611200
0.86333615 -0.89067119 0.15622473 4286219520
1.0905814 -1.1243981 0.20379211 4287394560
1.192353 -1.2290212 0.22955519 4287916800
1.2249322 -1.2624574 0.24247172 4288047360
1.2574909 -1.2958683 0.25545168 4288177920
1.263557 -1.302027 0.2629514 4288177920
1.3032025 -1.3427197 0.27735841 4288439040
1.4309034 -1.4739618 0.31095552 4289091840
1.4534832 -1.4970895 0.32200262 4289222400
1.4728899 -1.5169516 0.33214569 4289222400
1.4298708 -1.4726255 0.32773745 4289091840
1.4390126 -1.4819328 0.33478129 4289091840
1.4516242 -1.4948059 0.34231406 4289222400
1.4546371 -1.49781 0.34723172 4289222400
1.4611272 -1.5043881 0.35259959 4289222400
1.4504703 -1.4933404 0.35340768 4289222400
1.3866899 -1.427693 0.34069887 4288830720
1.3830132 -1.4238253 0.3422254 4288830720
1.3862543 -1.4270669 0.34506062 4288830720
1.386106 -1.426825 0.34665093 4288830720
1.3894401 -1.4301615 0.34870744 4288830720
1.3859524 -1.4264883 0.34864202 4288830720
1.3859483 -1.4263946 0.34904078 4288830720
1.389428 -1.4298798 0.34990621 4288830720
1.3860867 -1.4263575 0.34864253 4288830720
1.3862289 -1.4264139 0.34784597 4288830720
1.4567617 -1.4987726 0.36424515 4289222400
1.4535753 -1.4954053 0.36171919 4289222400
1.4476867 -1.4892631 0.35810828 4289091840
1.4342791 -1.4753999 0.35224912 4289091840
1.4839795 -1.5263441 0.36140221 4289352960
1.4747936 -1.5168152 0.35570616 4289222400
1.4353632 -1.476233 0.34242216 4289091840
1.4127297 -1.4529017 0.3329162 4288961280
1.3044523 -1.3416474 0.30324164 4288439040
1.2729269 -1.309199 0.29151714 4288308480
1.2369442 -1.2721792 0.27867508 4288047360
1.2236073 -1.2584088 0.27080142 4288047360
1.2084244 -1.2427454 0.26232317 4287916800
1.0013015 -1.0300927 0.21284132 4286872320
0.9554801 -0.9830029 0.19857325 4286741760
1.1771164 -1.2099587 0.20232929 4287786240
1.1881627 -1.221212 0.19669119 4287786240
1.2186419 -1.2523962 0.19378446 4287916800
1.2789949 -1.314216 0.19481467 4288308480
1.3286554 -1.3650619 0.19325031 4288439040
1.3241084 -1.3603114 0.18326417 4288439040
1.2625892 -1.2971405 0.16564877 4288177920
1.0456988 -1.0746648 0.1294553 4287133440
1.046223 -1.0751334 0.12169288 4287133440
1.0624117 -1.0916616 0.11549634 4287133440
1.0947611 -1.1247551 0.11056225 4287394560
1.0642523 -1.0934081 0.099124312 4287133440
1.0646892 -1.0937856 0.090706773 4287133440
1.0697664 -1.0989194 0.082542375 4287264000
1.071686 -1.1008161 0.073985904 4287264000
1.0550098 -1.083655 0.064177163 4287133440
1.0687933 -1.0977103 0.056187242 4287264000
1.0662482 -1.0950315 0.047176894 4287133440
1.0663173 -1.095032 0.03825197 4287133440
1.0578154 -1.0862507 0.029043762 4287133440
1.0490192 -1.0771689 0.019940425 4287133440
1.0526128 -1.080781 0.011100432 4287133440
1.0515478 -1.0796205 0.0021743726 4287133440
1.0402839 -1.0680134 -0.0066776057 4287002880
1.035931 -1.0634861 -0.015431575 4287002880
1.0437225 -1.0713977 -0.024372464 4287133440
1.0513898 -1.079181 -0.033415645 4287133440
1.0499525 -1.0776396 -0.042192709 4287133440
1.0595762 -1.0874246 -0.051430836 4287133440
1.0564526 -1.0841565 -0.060058489 4287133440
1.0698073 -1.09776 -0.069631904 4287264000
1.0519334 -1.0793903 -0.077083655 4287133440
1.0583318 -1.0858711 -0.086120091 4287133440
1.0722989 -1.1000987 -0.095837854 4287264000
1.0718803 -1.0995997 -0.10428546 4287264000
1.066254 -1.0937703 -0.11207038 4287264000
1.0786285 -1.106365 -0.12166344 4287264000
1.086446 -1.1142942 -0.13076794 4287264000
1.0785578 -1.1061505 -0.13785222 4287264000
1.0749811 -1.1024196 -0.14524883 4287264000
1.0733403 -1.1006701 -0.1527085 4287264000
1.0785886 -1.1059693 -0.16099976 4287264000
1.0848904 -1.1123455 -0.16934957 4287264000
1.0828443 -1.1101811 -0.17624545 4287264000
1.0617712 -1.0885538 -0.17971538 4287264000
1.0839776 -1.1111982 -0.19027586 4287264000
1.0857056 -1.1128947 -0.19719739 4287264000
1.0911216 -1.1183627 -0.20460726 4287394560
1.0897181 -1.116856 -0.21053876 4287394560
1.0818771 -1.1087664 -0.21494463 4287264000
1.0785954 -1.10534 -0.21994962 4287264000
1.0711788 -1.0976862 -0.22381207 4287264000
1.0741563 -1.1006606 -0.22955956 4287264000
1.0787064 -1.1052423 -0.23541519 4287264000
1.0779645 -1.1044135 -0.23986985 4287264000
1.0785555 -1.1049474 -0.24434476 4287264000
1.0822271 -1.1086302 -0.24925071 4287394560
1.0836996 -1.1100649 -0.25338498 4287394560
1.0778911 -1.104058 -0.25551873 4287264000
1.0814422 -1.1076171 -0.25955898 4287394560
1.0725569 -1.0984672 -0.26031354 4287264000
1.0752854 -1.1011859 -0.26355663 4287264000
1.0738897 -1.0996901 -0.26549113 4287264000
1.0688595 -1.0944812 -0.26621056 4287264000
1.0728929 -1.0985329 -0.26886585 4287264000
1.0627038 -1.0880549 -0.26765242 4287264000
1.0695051 -1.0949337 -0.27038285 4287264000
1.0694536 -1.0948123 -0.27107954 4287264000
1.0563507 -1.0813603 -0.26816094 4287264000
1.0691921 -1.0944074 -0.27148494 4287264000
1.0712606 -1.0964513 -0.27176893 4287264000
1.0737314 -1.0989056 -0.27183625 4287264000
1.0743524 -1.0994707 -0.27111888 4287264000
1.0743867 -1.0994371 -0.26993805 4287264000
1.0856048 -1.1108218 -0.27122608 4287394560
1.0811218 -1.1061754 -0.26828408 4287394560
1.0816083 -1.106603 -0.2662656 4287394560
1.0834191 -1.1083823 -0.26425821 4287394560
1.0862015 -1.1111534 -0.26216993 4287394560
1.0875667 -1.1124775 -0.25942731 4287394560
1.0741671 -1.0987327 -0.25291583 4287264000
1.0730439 -1.0975181 -0.24903683 4287264000
1.0700486 -1.094393 -0.24445394 4287264000
1.0624101 -1.0865307 -0.23857553 4287264000
1.0613502 -1.0853817 -0.23392941 4287264000
1.0572015 -1.0810815 -0.22836156 4287133440
1.0686389 -1.0926833 -0.22585081 4287264000
1.0795869 -1.1037843 -0.22287454 4287264000
1.069761 -1.0936927 -0.21537401 4287264000
1.0656607 -1.0894425 -0.20885028 4287264000
1.0599973 -1.0835987 -0.20184045 4287133440
1.0605818 -1.0841279 -0.19581658 4287133440
1.0721073 -1.0958152 -0.19151188 4287264000
1.0629684 -1.0864278 -0.18330872 4287264000
1.0553852 -1.0786282 -0.17527391 4287133440
1.0556669 -1.078849 -0.16839097 4287133440
1.0647069 -1.0879996 -0.16264929 4287264000
1.0750229 -1.0984502 -0.15679087 4287264000
1.0541495 -1.0771028 -0.14631383 4287133440
1.0543846 -1.0772761 -0.138735 4287133440
1.0548975 -1.0777327 -0.13103621 4287133440
1.0623716 -1.0852847 -0.12399486 4287133440
1.0488807 -1.0714679 -0.11443582 4287133440
1.0528204 -1.0754173 -0.10671402 4287133440
1.0675173 -1.0903287 -0.099814378 4287133440
1.064423 -1.0871086 -0.091067143 4287133440
1.0613348 -1.0838953 -0.082272865 4287133440
1.0482013 -1.070447 -0.072751075 4287133440
1.0546514 -1.0769529 -0.064551689 4287133440
1.051425 -1.0735998 -0.05567278 4287133440
1.0393944 -1.0612782 -0.046401996 4287002880
1.0518686 -1.0739201 -0.038156733 4287133440
1.0530343 -1.0750418 -0.029355617 4287133440
1.049522 -1.0713985 -0.020417299 4287133440
1.0566244 -1.0785663 -0.011628877 4287133440
1.0678583 -1.0899411 -0.002718518 4287133440
1.070163 -1.0922213 0.0063244612 4287133440
1.0752746 -1.0973593 0.015439062 4287264000
1.0764034 -1.0984415 0.024528071 4287264000
1.0775368 -1.0995282 0.033607494 4287264000
1.0831949 -1.1052212 0.042848527 4287264000
1.0925921 -1.1147202 0.052316036 4287264000
1.0789574 -1.1007721 0.060576808 4287264000
1.0826439 -1.1044571 0.069667734 4287264000
1.0788435 -1.1005212 0.078195214 4287264000
1.0915986 -1.1134357 0.087914154 4287264000
1.1611146 -1.1841153 0.10278437 4287655680
1.4165097 -1.4439478 0.13661945 4288830720
1.4837484 -1.5122811 0.15462646 4289222400
1.4476149 -1.4754211 0.16190642 4289091840
1.4026251 -1.4295546 0.16740024 4288830720
1.3607905 -1.3869038 0.17243899 4288569600
1.357134 -1.3830986 0.1817981 4288569600
1.3690397 -1.395125 0.19310015 4288700160
1.3538767 -1.3796151 0.20034084 4288569600
1.2594175 -1.2834501 0.19486183 4288177920
1.1951615 -1.2180165 0.19278274 4287786240
1.067122 -1.087721 0.17894074 4287264000
1.0296631 -1.0495594 0.1790559 4287002880
0.9459247 -0.96434033 0.17017265 4286611200
1.0593548 -1.0796217 0.19677204 4287133440
1.0723131 -1.0927306 0.20519447 4287264000
1.0856971 -1.1062709 0.21360852 4287264000
1.1317098 -1.1529816 0.22851288 4287525120
1.1774297 -1.1993887 0.2435579 4287786240
1.3038534 -1.327828 0.27584687 4288439040
1.4394636 -1.465589 0.31095707 4289091840
1.5019469 -1.5290064 0.33076662 4289352960
1.4816997 -1.5083333 0.33214727 4289222400
1.4977754 -1.524577 0.34126812 4289352960
1.4476191 -1.4735126 0.33478287 4289091840
1.4540762 -1.4799824 0.34085488 4289091840
1.4633356 -1.4892986 0.3472333 4289222400
1.4629467 -1.4888105 0.35094121 4289222400
1.4626008 -1.4883662 0.35424703 4289222400
1.4623001 -1.4879678 0.35714728 4289222400
1.3878255 -1.4122211 0.34137642 4288830720
1.3841738 -1.4084233 0.34249589 4288830720
1.3874807 -1.4116942 0.34493372 4288830720
1.3942901 -1.4185215 0.34784666 4288830720
1.3942366 -1.4183782 0.34864354 4288830720
1.3907766 -1.4147756 0.34817702 4288830720
1.4650168 -1.4900742 0.36675662 4289222400
1.4651153 -1.4900805 0.36633801 4289222400
1.468721 -1.4936477 0.36636341 4289222400
1.458553 -1.4832304 0.36252803 4289222400
1.4588028 -1.4833905 0.36086535 4289222400
1.4459622 -1.4702621 0.35555834 4289091840
1.4428474 -1.4670074 0.35225067 4289091840
1.483157 -1.5078293 0.35905805 4289222400
1.4766814 -1.5011615 0.35404781 4289222400
1.4905849 -1.5151767 0.35349029 4289352960
1.4114712 -1.4347954 0.33064544 4288961280
1.2931697 -1.3146583 0.29883331 4288308480
1.2000195 -1.2200569 0.27318087 4287916800
1.1235679 -1.1424103 0.25161573 4287525120
1.0907785 -1.109071 0.23995428 4287394560
1.0858495 -1.1040001 0.23429856 4287264000
1.071905 -1.0897843 0.22650863 4287264000
1.0015402 -1.0183395 0.20691855 4286872320
1.4271518 -1.4494655 0.24390571 4288961280
1.4325466 -1.4548424 0.23579532 4288961280
1.5107956 -1.5340791 0.23888411 4289352960
1.5586007 -1.5824431 0.23606005 4289614080
1.5643736 -1.5881935 0.22624016 4289614080
1.5666162 -1.5903648 0.21560155 4289614080
1.3854176 -1.4066087 0.18071781 4288700160
1.0652345 -1.0820169 0.13109705 4287133440
1.0587672 -1.0753933 0.12242474 4287133440
1.0760511 -1.0928391 0.116289 4287264000
1.106261 -1.1233803 0.111064 4287394560
1.0706021 -1.0871775 0.099125475 4287133440
1.0710412 -1.0875525 0.090707935 4287133440
1.0789541 -1.0954992 0.082759924 4287264000
1.0815873 -1.0980963 0.074229367 4287264000
1.0683221 -1.0845883 0.064605929 4287133440
1.0723599 -1.0886085 0.056040358 4287133440
1.0726075 -1.0887892 0.047178064 4287133440
1.0797005 -1.0959027 0.038507078 4287264000
1.0725563 -1.0885971 0.029279398 4287133440
1.0623008 -1.0781419 0.020078084 4287133440
1.0624027 -1.0781758 0.01114034 4287133440
1.0676554 -1.0834248 0.0022012957 4287133440
1.0464865 -1.0619227 -0.0066764648 4287002880
1.0494314 -1.0648357 -0.015534466 4287133440
1.0527555 -1.0681322 -0.024434833 4287133440
1.0646836 -1.0801376 -0.03363207 4287133440
1.0590212 -1.0743368 -0.042302005 4287133440
1.0623794 -1.0776664 -0.051262505 4287133440
1.0662607 -1.0815251 -0.060253419 4287133440
1.0796937 -1.0950496 -0.069855511 4287264000
1.0652223 -1.0803351 -0.077588923 4287133440
1.0681474 -1.0832255 -0.08640027 4287133440
1.078688 -1.0938208 -0.095836677 4287264000
1.0845791 -1.0997107 -0.10489015 4287264000
1.0756421 -1.0905987 -0.1123841 4287264000
1.0815499 -1.0965049 -0.12127199 4287264000
1.0894148 -1.1043901 -0.13035031 4287264000
1.0912851 -1.1062111 -0.13864687 4287264000
1.0848839 -1.0996659 -0.14571495 4287264000
1.0762345 -1.0908478 -0.15221539 4287264000
1.0850121 -1.0996544 -0.16099857 4287264000
1.0913509 -1.1059939 -0.16934837 4287264000
1.0927858 -1.1073738 -0.17680655 4287264000
1.0715854 -1.0858678 -0.1802987 4287264000
1.0904316 -1.104852 -0.19027467 4287264000
1.0968748 -1.1112951 -0.19804165 4287394560
1.101104 -1.1154993 -0.20525295 4287394560
1.096205 -1.110476 -0.21053755 4287394560
1.0877619 -1.1018711 -0.21483429 4287264000
1.0815337 -1.0955061 -0.21924584 4287264000
1.0845147 -1.098449 -0.22525002 4287264000
1.0840278 -1.0978869 -0.23029409 4287264000
1.0816487 -1.0954131 -0.23466296 4287264000
1.0913305 -1.1051261 -0.24139966 4287394560
1.0910478 -1.1047703 -0.24570574 4287394560
1.0854402 -1.0990347 -0.24851404 4287264000
1.0923977 -1.1059936 -0.2539047 4287394560
1.0899976 -1.1034992 -0.25685373 4287394560
1.089326 -1.1027507 -0.25990245 4287394560
1.0876617 -1.1009998 -0.26240861 4287394560
1.0814455 -1.0946518 -0.26349816 4287264000
1.0883821 -1.1015881 -0.26747367 4287394560
1.0828513 -1.0959332 -0.26809189 4287264000
1.0750538 -1.0879903 -0.26781777 4287264000
1.0749273 -1.0877939 -0.26912332 4287264000
1.0755913 -1.0883958 -0.27031323 4287264000
1.0720742 -1.0847764 -0.27014023 4287264000
1.0747713 -1.087431 -0.2712107 4287264000
1.0796548 -1.0922925 -0.27251604 4287264000
1.0834789 -1.0960841 -0.27323705 4287264000
1.0840657 -1.0966074 -0.27282554 4287264000
1.0909407 -1.1034776 -0.27366668 4287394560
1.0855421 -1.0979602 -0.27112329 4287264000
1.0901762 -1.102568 -0.2707597 4287394560
1.0917449 -1.1040821 -0.26931432 4287394560
1.0908597 -1.1031199 -0.26695266 4287394560
1.0933268 -1.1055403 -0.26509491 4287394560
1.0898784 -1.1019924 -0.26150522 4287394560
1.0940282 -1.1061102 -0.25942609 4287394560
1.0887077 -1.1006742 -0.25481626 4287394560
1.0856736 -1.097545 -0.25047261 4287264000
1.0729284 -1.0846214 -0.24366665 4287264000
1.0652429 -1.0768024 -0.23780134 4287264000
1.0676543 -1.0791676 -0.23392823 4287264000
1.0634805 -1.0748917 -0.2283604 4287133440
1.0749854 -1.0864266 -0.22584963 4287264000
1.0887858 -1.1002749 -0.22344291 4287264000
1.0796001 -1.0909451 -0.21606743 4287264000
1.0684996 -1.0796859 -0.20817263 4287264000
1.066291 -1.0773926 -0.20183927 4287133440
1.0668784 -1.0779183 -0.1958154 4287133440
1.0819663 -1.0930607 -0.19212814 4287264000
1.0755718 -1.086548 -0.1843809 4287264000
1.0651481 -1.0759749 -0.17584723 4287133440
1.0619328 -1.0726681 -0.16838981 4287133440
1.0843337 -1.0951773 -0.16465783 4287264000
1.0750957 -1.0858006 -0.15588042 4287264000
1.0674165 -1.0779959 -0.1472743 4287133440
1.0676562 -1.078171 -0.13964571 4287133440
1.0646659 -1.0750921 -0.13146557 4287133440
1.0724825 -1.082901 -0.12443251 4287133440
1.0621283 -1.0724037 -0.11519112 4287133440
1.06258 -1.0727929 -0.10706425 4287133440
1.0703343 -1.0805379 -0.099489033 4287133440
1.0770664 -1.0872524 -0.09159977 4287264000
1.0781833 -1.0883106 -0.08307749 4287264000
1.057937 -1.0678539 -0.072990246 4287133440
1.0609059 -1.0707783 -0.064550526 4287133440
1.0611808 -1.0709895 -0.055854596 4287133440
1.0490794 -1.0587388 -0.046554815 4287002880
1.0552876 -1.0649246 -0.038055744 4287133440
1.062096 -1.071714 -0.02943081 4287133440
1.0592675 -1.0688009 -0.020482142 4287133440
1.0593644 -1.0688331 -0.011591219 4287133440
1.0741882 -1.0836893 -0.0027173359 4287133440
1.0812593 -1.0907404 0.0063561718 4287264000
1.0816474 -1.0910643 0.015440254 4287264000
1.0764399 -1.0857564 0.024382329 4287133440
1.0839223 -1.09322 0.033608686 4287264000
1.0931363 -1.1024252 0.042989954 4287264000
1.1025882 -1.1118685 0.052486539 4287264000
1.0977395 -1.1069217 0.061275084 4287264000
1.0888762 -1.0979365 0.069657244 4287264000
1.0852345 -1.0942055 0.078196406 4287264000
1.0991886 -1.108176 0.088005796 4287264000
1.1960523 -1.2055464 0.10526527 4287786240
1.484062 -1.4951726 0.14231092 4289222400
1.5852398 -1.5968462 0.1642572 4289614080
1.5775725 -1.5890369 0.17543632 4289614080
1.634963 -1.646656 0.19404048 4289875200
1.6307763 -1.6423446 0.20550396 4289875200
1.6262163 -1.6376584 0.21662754 4289875200
1.6108674 -1.6221244 0.22592871 4289744640
1.4799383 -1.4903837 0.21773466 4289222400
1.4509227 -1.4611205 0.22321557 4288961280
1.3247602 -1.3341978 0.21246007 4288439040
1.2859708 -1.2951225 0.21442382 4288177920
1.2222877 -1.231029 0.21134926 4287916800
1.1899523 -1.1984519 0.21287565 4287786240
1.1836085 -1.1920021 0.21858524 4287786240
1.1685156 -1.1767601 0.22230768 4287655680
1.1550298 -1.1631348 0.22592616 4287655680
1.178435 -1.1865823 0.23655637 4287786240
1.2659652 -1.2744608 0.26034644 4288177920
1.4018421 -1.4109048 0.29484788 4288830720
1.5096812 -1.5191624 0.32421765 4289352960
1.5247704 -1.5342273 0.33382255 4289483520
1.4967314 -1.505965 0.33354738 4289352960
1.4996625 -1.5088158 0.33969107 4289352960
1.5123761 -1.5214919 0.34771061 4289352960
1.466152 -1.4749708 0.34166804 4289091840
1.4622405 -1.4709505 0.34493551 4289091840
1.4681135 -1.4767569 0.35011289 4289222400
1.4747224 -1.4833014 0.35508645 4289222400
1.4674635 -1.47592 0.35630429 4289222400
1.4672079 -1.4755712 0.35878998 4289222400
1.4670005 -1.4752706 0.36086544 4289222400
1.4668424 -1.4750196 0.36252841 4289222400
1.4667345 -1.4748188 0.36377722 4289222400
1.473629 -1.4816473 0.36633912 4289222400
1.4736236 -1.4815488 0.36675808 4289222400
1.4771459 -1.484991 0.36762351 4289222400
1.4668165 -1.4745308 0.36461109 4289222400
1.4704423 -1.4780768 0.36464041 4289222400
1.4706433 -1.4781854 0.36338899 4289222400
1.4611578 -1.4685742 0.35932723 4289091840
1.4614567 -1.4687814 0.35726097 4289091840
1.5109942 -1.5183901 0.36672884 4289352960
