# .PCD v0.7 - Point Cloud Data file format
VERSION 0.7
FIELDS x y z rgba
SIZE 4 4 4 4
TYPE F F F U
COUNT 1 1 1 1
WIDTH 1129
HEIGHT 1
VIEWPOINT 0 0 0 1 0 0 0
POINTS 1129
DATA ascii
2.6106243 2.155164 -0.59166664 4293530880
2.6208007 2.1637013 -0.59697694 4293530880
2.620429 2.1635368 -0.59920096 4293530880
2.6201491 2.1634469 -0.60074687 4293530880
2.6199622 2.1634326 -0.60161316 4293530880
2.6092358 2.1547205 -0.59935695 4293530880
2.6016409 2.1485903 -0.59712112 4293530880
2.6460733 2.1853936 -0.60610789 4293661440
2.6542139 2.1922486 -0.60605049 4293661440
2.6612144 2.1981623 -0.60501337 4293792000
2.6708739 2.2062707 -0.60385668 4293792000
2.6826475 2.2161238 -0.60244489 4293792000
2.6782734 2.2126472 -0.59669697 4293792000
2.686285 2.219394 -0.59300619 4293792000
2.6894655 2.2221518 -0.58753765 4293792000
2.6917591 2.2241766 -0.58118188 4293792000
2.6861572 2.2196813 -0.57245964 4293792000
2.68911 2.2222486 -0.5649063 4293792000
2.6842949 2.2184002 -0.55507761 4293792000
2.6762922 2.2119181 -0.5439961 4293792000
2.665458 2.2030957 -0.53178418 4293661440
2.6689069 2.2060683 -0.52184004 4293661440
2.6908751 2.2243364 -0.51481473 4293792000
2.7086473 2.2391398 -0.50622994 4293922560
2.6934099 2.2266757 -0.49089441 4293792000
2.6770473 2.21328 -0.47494802 4293792000
2.6660714 2.2043321 -0.45955566 4293661440
2.6808422 2.2166543 -0.44806153 4293792000
2.6888368 2.2233784 -0.43481162 4293792000
2.6865871 2.2216375 -0.41938806 4293792000
2.668431 2.2067516 -0.4011313 4293661440
2.6808984 2.21717 -0.38706237 4293661440
2.6903255 2.2250762 -0.37199369 4293792000
2.6997337 2.2329671 -0.35639474 4293792000
2.6634932 2.2031293 -0.3345499 4293661440
2.6647608 2.2042899 -0.31727248 4293661440
2.6849518 2.221092 -0.30175757 4293661440
2.6899116 2.2253046 -0.28403255 4293661440
2.6626387 2.2028713 -0.26274869 4293661440
2.6816094 2.2186656 -0.24579881 4293661440
2.6917021 2.2271211 -0.22756366 4293661440
2.6935797 2.2287848 -0.20830247 4293661440
2.7003443 2.234489 -0.18913195 4293792000
2.6835632 2.2207239 -0.16818239 4293661440
2.6921327 2.2279203 -0.1487022 4293661440
2.7028723 2.2369115 -0.12903889 4293792000
2.6686201 2.2086952 -0.10726584 4293661440
2.6935604 2.2294307 -0.087830536 4293661440
2.7033737 2.2376566 -0.067544498 4293792000
2.7036588 2.2380023 -0.046872124 4293792000
2.6924849 2.2288694 -0.026035348 4293661440
2.7088356 2.2425044 -0.0054008756 4293792000
2.7150896 2.2477877 0.015431605 4293792000
2.7130523 2.2462127 0.03623122 4293792000
2.7196543 2.251785 0.057139196 4293792000
2.7398193 2.2685795 0.078471512 4293922560
2.7396123 2.2685199 0.099287577 4293922560
2.7013469 2.236969 0.11832782 4293792000
2.7227895 2.254823 0.13971926 4293792000
2.7385099 2.2679436 0.16094238 4293922560
2.7328961 2.2634103 0.180813 4293922560
2.6681118 2.2099066 0.19606157 4293661440
2.7309823 2.2620518 0.22044107 4293922560
2.7400646 2.2696826 0.24076267 4293922560
2.7332127 2.2641249 0.25943765 4293922560
2.695061 2.2326579 0.27454641 4293792000
2.7431154 2.2725515 0.29818565 4293922560
2.7523613 2.2803216 0.3176719 4294053120
2.7539129 2.281723 0.3359912 4294053120
2.727982 2.260371 0.35043103 4293922560
2.5993357 2.1539698 0.35032266 4293400320
2.7482336 2.2773743 0.38729039 4294053120
2.7480628 2.2773519 0.40375555 4294053120
2.7444792 2.2745042 0.41924471 4294053120
2.7012975 2.238863 0.4279542 4293792000
2.588634 2.1456733 0.42432269 4293400320
2.7452979 2.2755458 0.46452355 4294053120
2.7482357 2.2781022 0.47905672 4294053120
2.7447946 2.2753756 0.49193233 4294053120
2.7319376 2.2648499 0.50248384 4294053120
2.6985171 2.2372882 0.50847173 4293792000
2.6641388 2.208931 0.51339936 4293661440
2.7446778 2.2757835 0.54004061 4294053120
2.7428737 2.2744172 0.55019289 4294053120
2.7466457 2.2776723 0.56083417 4294053120
2.7321644 2.2658029 0.5670678 4294053120
2.7304003 2.264472 0.57522678 4294053120
2.7297504 2.2640657 0.58294469 4294053120
2.7191396 2.2554045 0.58782899 4293922560
2.7250996 2.2604783 0.59559333 4294053120
2.7069635 2.2455802 0.59737611 4293922560
2.717638 2.2545645 0.60479391 4294053120
2.7083111 2.2469695 0.60706121 4293922560
2.7115688 2.2498081 0.61142457 4293922560
2.7111237 2.2495782 0.61424017 4293922560
2.7031877 2.2431383 0.61463195 4293922560
2.717335 2.2550104 0.61931938 4294053120
2.7103455 2.2493572 0.61847156 4293922560
2.7064841 2.2462988 0.61760771 4293922560
2.7076228 2.2473876 0.61715734 4293922560
2.7115319 2.2507761 0.61660987 4293922560
2.7146595 2.2535179 0.6151557 4293922560
2.7073803 2.247628 0.61062789 4293922560
2.714385 2.2535887 0.60860044 4293922560
2.7281365 2.2651486 0.60733932 4294053120
2.7263548 2.2638233 0.60189301 4294053120
2.7365088 2.2724028 0.59835678 4294053120
2.7322659 2.2690375 0.59096456 4294053120
2.7374063 2.2734599 0.58490682 4294053120
2.730695 2.268048 0.57564324 4294053120
2.7252314 2.2636719 0.56600904 4294053120
2.7317991 2.2692828 0.55820918 4294053120
2.7237346 2.2627494 0.54678226 4294053120
2.7386558 2.2752976 0.53930491 4294053120
2.7388172 2.2755949 0.5282439 4294053120
2.7362235 2.2736058 0.51605427 4294053120
2.7022738 2.2464859 0.42174852 4293792000
2.7212539 2.2624223 0.40908301 4293922560
2.7425811 2.2803116 0.39607364 4294053120
2.7228422 2.2640836 0.37668815 4293922560
2.6957488 2.2417428 0.35615197 4293792000
2.7159193 2.2586753 0.34149411 4293922560
2.7241018 2.2656484 0.32476705 4293922560
2.7141023 2.2575116 0.30552569 4293922560
2.6896315 2.2373455 0.28454912 4293792000
2.7075691 2.2524292 0.26777905 4293792000
2.7130322 2.2571454 0.2493176 4293792000
2.7191482 2.2624052 0.23055772 4293922560
2.689543 2.2379663 0.20868735 4293792000
2.7250555 2.2676699 0.19158486 4293922560
2.7152295 2.2596762 0.17090133 4293792000
2.7175138 2.2617528 0.15084437 4293792000
2.6911216 2.2399795 0.12921172 4293661440
2.7091432 2.2551453 0.10962468 4293792000
2.7015891 2.2490387 0.088803872 4293792000
2.7034268 2.2507446 0.068234064 4293792000
2.6912673 2.2408054 0.047313388 4293661440
2.69926 2.2476323 0.026721731 4293792000
2.698576 2.2472401 0.0059557054 4293792000
2.6723335 2.225579 -0.014668333 4293661440
2.6874068 2.2382989 -0.035424605 4293661440
2.6927607 2.2429314 -0.056175131 4293792000
2.6960762 2.2458675 -0.076893136 4293792000
2.6728034 2.2266712 -0.096620455 4293661440
2.6921327 2.2429378 -0.11775923 4293792000
2.7070673 2.2555478 -0.13884176 4293792000
2.6981122 2.2482684 -0.15859748 4293792000
2.6755633 2.2296679 -0.1771514 4293661440
2.690237 2.2420619 -0.19792365 4293792000
2.6868103 2.2393827 -0.21723559 4293792000
2.6853962 2.2383792 -0.23644277 4293661440
2.6850722 2.2382832 -0.2554796 4293792000
2.7069194 2.2566557 -0.27650166 4293792000
2.7187719 2.2667038 -0.29643807 4293922560
2.7002633 2.2514579 -0.31269851 4293792000
2.6650229 2.2222683 -0.32632172 4293661440
2.6990731 2.2508113 -0.34806097 4293792000
2.7063363 2.2570355 -0.36623231 4293922560
2.6932654 2.2463136 -0.3812145 4293792000
2.6912527 2.2448058 -0.39724803 4293792000
2.6355937 2.1985817 -0.40458366 4293530880
2.7139161 2.264035 -0.43215615 4293922560
2.7134454 2.2638116 -0.44714785 4293922560
2.7095606 2.2607408 -0.46105409 4293922560
2.7036893 2.2560127 -0.47405457 4293922560
2.6957116 2.2495263 -0.48608291 4293922560
2.6872857 2.2426646 -0.49740255 4293792000
2.6878884 2.24333 -0.50979316 4293792000
2.6921022 2.2470067 -0.52231157 4293922560
2.6855271 2.241684 -0.53213441 4293792000
2.6837254 2.2403412 -0.54226196 4293792000
2.6872916 2.2434752 -0.55286014 4293922560
2.684499 2.2413037 -0.56152022 4293792000
2.6754034 2.2338722 -0.56817847 4293792000
2.6736891 2.2325971 -0.57571566 4293792000
2.6596732 2.221056 -0.57989746 4293792000
2.6566257 2.2186654 -0.58575451 4293792000
2.6395636 2.2045774 -0.58779895 4293661440
2.5992079 2.1710458 -0.58385992 4293530880
2.6023569 2.1738198 -0.58893991 4293530880
2.6161776 2.1855009 -0.59577435 4293530880
2.6194959 2.1884153 -0.59954762 4293661440
2.5543368 2.1341627 -0.58689922 4293269760
2.611284 2.1818449 -0.6015929 4293530880
2.6110969 2.1818297 -0.60246038 4293530880
2.6110029 2.1818907 -0.60264629 4293530880
2.6004205 2.1731925 -0.5997107 4293530880
2.6363237 2.2033117 -0.6067788 4293661440
2.6527395 2.2171586 -0.60862643 4293792000
2.6551704 2.2193263 -0.60654235 4293792000
2.6583517 2.2221196 -0.60391635 4293792000
2.6690149 2.2311618 -0.60226637 4293792000
2.6804688 2.2408645 -0.6000576 4293922560
2.6733131 2.2350209 -0.59298098 4293792000
2.6809587 2.2415411 -0.58849597 4293922560
2.6855721 2.2455275 -0.58263439 4293922560
2.6813593 2.2421386 -0.57418489 4293792000
2.6791513 2.2404237 -0.56552052 4293792000
2.6751177 2.2371814 -0.5558396 4293792000
2.6633639 2.2274866 -0.543971 4293792000
2.6525812 2.2186012 -0.5317592 4293661440
2.6598065 2.2247643 -0.52256024 4293792000
2.6847057 2.2456994 -0.51610255 4293792000
2.6879654 2.248548 -0.50477868 4293792000
2.6948309 2.2544105 -0.49351245 4293922560
2.6717124 2.2352068 -0.47627783 4293792000
2.6638346 2.2287416 -0.46137455 4293661440
2.6747341 2.2379737 -0.44918633 4293792000
2.682693 2.2447474 -0.43589959 4293792000
2.6774101 2.240449 -0.41996017 4293792000
2.6623909 2.228008 -0.40214214 4293661440
2.6748009 2.238502 -0.38803262 4293792000
2.6930308 2.2538636 -0.37415117 4293792000
2.6904976 2.2518613 -0.35687557 4293792000
2.6521401 2.2198966 -0.3347173 4293661440
2.6556294 2.2229283 -0.31769648 4293661440
2.6757901 2.2399049 -0.30216393 4293661440
2.6769044 2.2409501 -0.28400731 4293661440
2.6566458 2.2241161 -0.26340631 4293661440
2.6619854 2.2286949 -0.24516056 4293661440
2.6825109 2.2459781 -0.22786358 4293792000
2.6787486 2.2429421 -0.20813702 4293661440
2.687283 2.2501943 -0.18910661 4293792000
2.6744125 2.2395365 -0.16839853 4293661440
2.672214 2.237807 -0.14829394 4293661440
2.6859648 2.2494245 -0.12882955 4293792000
2.666441 2.233196 -0.10767472 4293661440
2.6784973 2.2433958 -0.087738611 4293661440
2.6971941 2.2591538 -0.067692742 4293792000
2.7022464 2.2634931 -0.047050707 4293792000
2.679456 2.2445278 -0.026010081 4293661440
2.7033954 2.2646761 -0.005391316 4293792000
2.7096179 2.2699959 0.015500349 4293792000
2.7037556 2.2651994 0.036307845 4293792000
2.7192521 2.2782836 0.057433132 4293922560
2.7247562 2.2830036 0.078445517 4293922560
2.7336316 2.2905464 0.099577792 4293922560
2.6913357 2.255244 0.11848781 4293792000
2.7192996 2.2787707 0.1402436 4293922560
2.7252524 2.2838678 0.16096808 4293922560
2.7239218 2.2828667 0.18112123 4293922560
2.6628478 2.2318318 0.19665098 4293661440
2.7246454 2.2836993 0.22102451 4293922560
2.7316165 2.2896521 0.2412134 4293922560
2.7293897 2.2879016 0.26036 4293922560
2.6656005 2.2345841 0.27289408 4293661440
2.7334254 2.291513 0.29860362 4293922560
2.7510927 2.3064296 0.3190951 4294053120
2.747443 2.3034897 0.33685824 4294053120
2.7147682 2.2762325 0.35045666 4293922560
2.5829318 2.1658895 0.34983137 4293400320
2.7349203 2.2933531 0.3873162 4294053120
2.7378557 2.2959323 0.40423945 4294053120
2.7243316 2.2847199 0.41821989 4293922560
2.7017865 2.2659469 0.43013892 4293922560
2.6450574 2.218524 0.43569535 4293661440
2.7425406 2.3003457 0.46634075 4294053120
2.7458868 2.3032742 0.48100209 4294053120
2.7352886 2.2945156 0.49264115 4294053120
2.7224913 2.2839136 0.50321007 4294053120
2.68923 2.2561562 0.5092144 4293922560
2.6550155 2.2275977 0.51415765 4293661440
2.7351618 2.2949166 0.54081476 4294053120
2.7363932 2.2960784 0.55159134 4294053120
2.73333 2.2936406 0.56085998 4294053120
2.7257283 2.2873974 0.56851256 4294053120
2.727751 2.2892258 0.57749224 4294053120
2.7202947 2.2831059 0.58378088 4294053120
2.7127566 2.2769177 0.58933097 4294053120
2.7097344 2.2745175 0.59514713 4294053120
2.7119639 2.2765236 0.60141814 4294053120
2.7033474 2.2694325 0.6045714 4293922560
2.7027249 2.269048 0.60878575 4293922560
2.7021904 2.2687385 0.61230451 4293922560
2.7047646 2.2710383 0.61581075 4294053120
2.7081847 2.274049 0.61879176 4294053120
2.7041519 2.2708077 0.61934495 4294053120
2.7039859 2.2708123 0.62005275 4294053120
2.7008967 2.2683647 0.61936176 4293922560
2.6971474 2.2653637 0.61779225 4293922560
2.7127092 2.2785718 0.61990845 4294053120
2.7061288 2.2731974 0.61623776 4294053120
2.712352 2.2785711 0.61475468 4294053120
2.708003 2.2750714 0.61015511 4294053120
2.7186801 2.2841873 0.60821116 4294053120
2.7274663 2.291718 0.60509855 4294053120
2.7270005 2.2914824 0.59921151 4294053120
2.7333543 2.2969747 0.59410721 4294053120
2.731672 2.2957201 0.58655369 4294053120
2.732554 2.2966199 0.57886869 4294053120
2.7150223 2.2820559 0.56666541 4294053120
2.7147505 2.2819879 0.55745894 4294053120
2.7195971 2.2862206 0.54864007 4294053120
2.7293055 2.294539 0.5401119 4294053120
2.7315755 2.2966104 0.52944344 4294053120
2.7327847 2.297792 0.51794565 4294053120
2.6927745 2.2652516 0.42234325 4293922560
2.7273505 2.2944872 0.41202459 4294053120
2.732831 2.2992673 0.39661849 4294053120
2.7116709 2.2816503 0.37700045 4293922560
2.6868775 2.2609766 0.35673881 4293792000
2.7065246 2.2776697 0.34200045 4293922560
2.7159252 2.2857494 0.32539916 4293922560
2.6999133 2.2724583 0.30543914 4293792000
2.6727386 2.2497766 0.28416947 4293792000
2.7058482 2.2778006 0.26894069 4293922560
2.7056768 2.2778325 0.24988168 4293922560
2.7059891 2.2782722 0.23058899 4293922560
2.6804473 2.2569597 0.20902309 4293792000
2.7099998 2.2820013 0.19148357 4293922560
2.7203624 2.2908993 0.17208517 4293922560
2.715759 2.2872045 0.15150845 4293922560
2.6879699 2.2639959 0.12971583 4293792000
2.6959605 2.2708991 0.10965021 4293792000
2.6960905 2.2711866 0.08908131 4293792000
2.7017436 2.2761238 0.068549611 4293792000
2.676367 2.2549388 0.047307055 4293661440
2.682297 2.2601089 0.026709395 4293792000
2.6923244 2.2687302 0.00599594 4293792000
2.6554997 2.2378993 -0.014621806 4293661440
2.6743231 2.2539275 -0.035399273 4293661440
2.6796501 2.2585912 -0.056149751 4293792000
2.6905951 2.2679873 -0.077087253 4293792000
2.6704915 2.2512314 -0.096984565 4293661440
2.6897235 2.2676091 -0.11820467 4293792000
2.6952562 2.2724483 -0.13888706 4293792000
2.6947031 2.2721601 -0.15914725 4293792000
2.6625304 2.245229 -0.17712617 4293661440
2.6809492 2.2609251 -0.19818059 4293792000
2.6824293 2.2623484 -0.21791799 4293792000
2.6700141 2.2520607 -0.23621404 4293661440
2.6719894 2.2539001 -0.25545427 4293792000
2.689918 2.269187 -0.27608487 4293792000
2.705523 2.282517 -0.29641244 4293922560
2.6977651 2.2761519 -0.31391373 4293922560
2.6453009 2.2320924 -0.32546812 4293661440
2.6808987 2.2622786 -0.3473852 4293792000
2.6893423 2.2695708 -0.36568981 4293792000
2.6839359 2.2651834 -0.38172951 4293792000
2.6743343 2.2572567 -0.39665937 4293792000
2.6295757 2.2196748 -0.40561259 4293530880
2.7037179 2.2823808 -0.43261611 4293922560
2.7002139 2.2795949 -0.44712222 4293922560
2.7039258 2.2828956 -0.46232423 4293922560
2.7015319 2.281044 -0.47597188 4293922560
2.6863489 2.2684007 -0.48674324 4293922560
2.6779613 2.2614887 -0.49808073 4293792000
2.6803393 2.2636595 -0.51082778 4293922560
2.6789689 2.2626665 -0.52228618 4293922560
2.6772683 2.2613933 -0.53307325 4293922560
2.6782763 2.2624054 -0.54378855 4293922560
2.6741793 2.2591074 -0.55283475 4293922560
2.6736534 2.2588222 -0.56196851 4293922560
2.6698887 2.2558019 -0.56976223 4293792000
2.6504583 2.2395535 -0.57348776 4293792000
2.6504598 2.2397094 -0.58069766 4293792000
2.6207044 2.2147367 -0.58064485 4293661440
2.6379752 2.2294719 -0.59030122 4293792000
2.5932951 2.1918886 -0.58536446 4293530880
2.6039534 2.2010374 -0.59216678 4293530880
2.607167 2.203898 -0.59661049 4293661440
2.5489974 2.1549075 -0.5862537 4293400320
2.5523958 2.1579194 -0.58930624 4293400320
2.5521216 2.1578279 -0.59082675 4293400320
2.5414076 2.1489148 -0.58923787 4293269760
2.5982506 2.1970799 -0.60262167 4293530880
2.5907278 2.1908622 -0.60038322 4293530880
2.5840487 2.1853561 -0.59764421 4293530880
2.6273918 2.2221205 -0.60574573 4293661440
2.6362972 2.2297838 -0.60516268 4293792000
2.6528885 2.243943 -0.60560846 4293792000
2.6597373 2.2498684 -0.60309416 4293792000
2.6703825 2.2590022 -0.60070938 4293922560
2.6707907 2.2594819 -0.59530455 4293922560
2.6716232 2.2603197 -0.58930099 4293922560
2.6694348 2.2586021 -0.58195227 4293922560
2.6720226 2.2609217 -0.57497007 4293922560
2.6640635 2.2543228 -0.56507248 4293792000
2.6620421 2.2527428 -0.55581427 4293792000
2.6609063 2.2519104 -0.54611295 4293792000
2.6509347 2.2436047 -0.53401411 4293792000
2.661149 2.2523685 -0.5253666 4293792000
2.6753571 2.2645104 -0.5168066 4293922560
2.6899376 2.2769675 -0.5076049 4293922560
2.6816547 2.2700858 -0.49348697 4293922560
2.6623647 2.2538915 -0.47691822 4293792000
2.6508083 2.2442367 -0.46134934 4293661440
2.6674421 2.2584288 -0.4501377 4293792000
2.6809363 2.2699656 -0.43772939 4293792000
2.6605256 2.252816 -0.41933757 4293792000
2.6531603 2.2467024 -0.40269241 4293661440
2.6617172 2.25406 -0.38800731 4293792000
2.6824408 2.2717135 -0.37448636 4293792000
2.6849301 2.2739372 -0.35786229 4293792000
2.6505618 2.2449675 -0.33613756 4293661440
2.6502378 2.2448077 -0.31858516 4293661440
2.6703026 2.2619042 -0.30300158 4293792000
2.6655943 2.258033 -0.28417265 4293792000
2.6445014 2.2402918 -0.26346642 4293661440
2.6565723 2.2506223 -0.2458401 4293661440
2.6769993 2.2680271 -0.22848848 4293792000
2.6780992 2.2690709 -0.20908488 4293792000
2.6847999 2.2748563 -0.18983597 4293792000
2.6613224 2.2550905 -0.16837323 4293661440
2.6698084 2.2623868 -0.14886433 4293661440
2.6842563 2.2747319 -0.12935597 4293792000
2.6533875 2.2487032 -0.10764948 4293661440
2.6730132 2.2654333 -0.087964758 4293792000
2.6916184 2.2813008 -0.067860037 4293792000
2.6919007 2.281651 -0.047075775 4293792000
2.6701517 2.2633412 -0.026022173 4293661440
2.6939731 2.2836289 -0.0053736242 4293792000
2.7039795 2.2922163 0.015569331 4293922560
2.697382 2.2867391 0.036425598 4293792000
2.707732 2.2956188 0.057496876 4293922560
2.7162557 2.3029521 0.078611061 4293922560
2.7278693 2.3129041 0.0998822 4293922560
2.6895909 2.2805851 0.11901828 4293792000
2.7077711 2.2961013 0.14036204 4293922560
2.7233346 2.309402 0.16167134 4293922560
2.7174349 2.3045163 0.18160452 4293922560
2.6642737 2.2595797 0.19774862 4293661440
2.7209275 2.3077047 0.22183441 4293922560
2.7317033 2.3169522 0.24243312 4294053120
2.7201457 2.307272 0.26078126 4293922560
2.6677485 2.2629755 0.27448222 4293792000
2.7358394 2.3208067 0.30036303 4294053120
2.7396705 2.324172 0.31936106 4294053120
2.7334452 2.3190126 0.33681872 4294053120
2.6956046 2.2870507 0.34972328 4293922560
2.5884795 2.1963451 0.3523314 4293400320
2.7369082 2.3223064 0.38953075 4294053120
2.7251329 2.3124428 0.40436894 4294053120
2.7291555 2.3159747 0.42104751 4294053120
2.6953542 2.2874331 0.43125355 4293922560
2.6283052 2.2306938 0.43509477 4293661440
2.7321186 2.318856 0.46688315 4294053120
2.7324224 2.3192382 0.48102811 4294053120
2.7286747 2.316185 0.49389654 4294053120
2.7166908 2.3061461 0.50463712 4294053120
2.7065837 2.2976992 0.51504642 4294053120
2.6495368 2.2494323 0.51564944 4293792000
2.7294509 2.3173544 0.54237026 4294183680
2.7314568 2.3191864 0.55333477 4294183680
2.7304676 2.3184788 0.56305861 4294183680
2.7236509 2.3128271 0.57090366 4294053120
2.7143683 2.3050835 0.57751811 4294053120
2.706948 2.2989204 0.58380663 4294053120
2.7069671 2.2990711 0.59099728 4294053120
2.6994452 2.2928231 0.59583604 4294053120
2.7061722 2.2986691 0.60311753 4294053120
2.6930861 2.2876997 0.60527194 4294053120
2.6962218 2.2904997 0.6103406 4294053120
2.6956878 2.2901862 0.61386818 4294053120
2.7027535 2.2963259 0.6184116 4294053120
2.7061546 2.299356 0.62140155 4294053120
2.7021394 2.2960908 0.62196058 4294053120
2.701973 2.2960944 0.62267137 4294053120
2.690639 2.2866161 0.6200788 4294053120
2.7030268 2.2972829 0.62221575 4294053120
2.6993887 2.2943418 0.6199342 4294053120
2.7062399 2.3003104 0.61932725 4294053120
2.6915221 2.2879603 0.61307144 4294053120
2.7059691 2.300384 0.61272955 4294053120
2.733861 2.3242321 0.61464643 4294183680
2.7178259 2.3107655 0.60596126 4294053120
2.7293963 2.3207526 0.60272145 4294183680
2.7171156 2.3104763 0.59351969 4294053120
2.725184 2.3174913 0.58807421 4294183680
2.7192931 2.3126457 0.57892966 4294053120
2.7129688 2.3074319 0.56905645 4294053120
2.7051742 2.3009691 0.55826068 4294053120
2.71032 2.3055055 0.54949385 4294053120
2.7196586 2.3136079 0.54088622 4294053120
2.7181501 2.3124907 0.52946937 4294053120
2.7261384 2.3194485 0.51926291 4294053120
2.6905441 2.2902734 0.42410272 4293922560
2.707062 2.3044951 0.41100767 4293922560
2.7245357 2.3195333 0.39739412 4294053120
2.7051497 2.3032153 0.37797758 4293922560
2.6876338 2.288487 0.35862669 4293922560
2.7035122 2.3021717 0.34333292 4293922560
2.7063558 2.3047671 0.32588103 4293922560
2.6944456 2.2948079 0.30635232 4293922560
2.6740091 2.277591 0.28573388 4293792000
2.6859283 2.2879114 0.26830748 4293792000
2.6941473 2.2950845 0.2500729 4293922560
2.7040033 2.3036525 0.23158377 4293922560
2.6786559 2.2822518 0.20994075 4293792000
2.7052941 2.3051097 0.19212145 4293922560
2.7118008 2.3108296 0.17241754 4293922560
2.7130389 2.3120644 0.15213026 4293922560
2.6815834 2.2854574 0.1300728 4293792000
2.6902959 2.2930565 0.10998616 4293792000
2.6872263 2.2906218 0.089253038 4293792000
2.6884391 2.2918346 0.068575285 4293792000
2.6649792 2.2720294 0.047364201 4293661440
2.6759369 2.2815433 0.026802946 4293792000
2.6866753 2.2908719 0.0060380502 4293792000
2.6500304 2.2598274 -0.014639173 4293661440
2.6573434 2.2662368 -0.035323005 4293661440
2.6732976 2.2800114 -0.056268878 4293792000
2.6773386 2.2836344 -0.077061675 4293792000
2.6507154 2.2611213 -0.096717343 4293661440
2.6776838 2.2842867 -0.11823278 4293792000
2.6850154 2.2907157 -0.13901906 4293792000
2.6852236 2.2910721 -0.15934734 4293792000
2.6570072 2.2671933 -0.17760915 4293661440
2.6745718 2.2823472 -0.1986632 4293792000
2.6825643 2.2893403 -0.21898332 4293792000
2.6697664 2.2786036 -0.23733711 4293792000
2.6694393 2.278501 -0.25644967 4293792000
2.687274 2.293889 -0.27715465 4293922560
2.6921823 2.2982526 -0.29638669 4293922560
2.6814306 2.2892568 -0.3135336 4293792000
2.6322551 2.247478 -0.32544297 4293661440
2.6714616 2.281101 -0.34785256 4293792000
2.6798604 2.2884409 -0.36618114 4293922560
2.6744778 2.2840209 -0.38224438 4293792000
2.6686995 2.2792618 -0.39776039 4293792000
2.6203797 2.2381935 -0.40617299 4293661440
2.6979282 2.3045509 -0.43380421 4293922560
2.6868906 2.2953007 -0.44709653 4293922560
2.7011416 2.307636 -0.46411237 4294053120
2.6851852 2.294184 -0.47541243 4293922560
2.6693246 2.2808104 -0.48603192 4293922560
2.6623323 2.2750063 -0.49760455 4293792000
2.670872 2.2824633 -0.51152271 4293922560
2.6633356 2.2761919 -0.52178872 4293792000
2.6670589 2.2795348 -0.53364933 4293922560
2.6725681 2.2844024 -0.54529589 4293922560
2.6644008 2.2775879 -0.55352056 4293922560
2.6634548 2.2769399 -0.56257719 4293922560
2.6627841 2.276526 -0.57104021 4293922560
2.6448708 2.26138 -0.57509327 4293792000
2.6411195 2.2583303 -0.58149773 4293792000
2.6410959 2.2584648 -0.58804029 4293792000
2.6249454 2.2448173 -0.59027612 4293792000
2.5879767 2.2133763 -0.58703876 4293530880
2.5948348 2.2193854 -0.59299761 4293661440
2.5368536 2.1699774 -0.58338147 4293400320
2.5476341 2.1793346 -0.58882445 4293400320
2.5397844 2.1727672 -0.58928192 4293400320
2.5395107 2.1726742 -0.59080243 4293400320
2.5430696 2.1758561 -0.5925262 4293400320
2.5996306 2.2243519 -0.60591042 4293661440
2.5928922 2.2187312 -0.60384357 4293661440
2.5817554 2.2093477 -0.60005438 4293530880
2.6256328 2.2470052 -0.60832131 4293792000
2.6307514 2.2515211 -0.60686398 4293792000
2.6577427 2.2747421 -0.60970426 4293922560
2.6570718 2.2743063 -0.60545707 4293922560
2.6587436 2.2758729 -0.60103726 4293922560
2.6641324 2.2806182 -0.59674525 4293922560
2.6617863 2.2787461 -0.59002304 4293922560
2.6711609 2.2868993 -0.58519614 4293922560
2.6625578 2.2796721 -0.57575512 4293922560
2.6583891 2.276237 -0.56664556 4293922560
2.6593812 2.277216 -0.55799258 4293922560
2.6525576 2.2715063 -0.54707986 4293792000
2.6454251 2.2655306 -0.53552759 4293792000
2.6412234 2.2620616 -0.52400005 4293792000
2.6676509 2.2848036 -0.51785415 4293922560
2.6766298 2.292614 -0.50757927 4293922560
2.6759105 2.2921233 -0.49485245 4293922560
2.6461811 2.2668004 -0.47635093 4293792000
2.6452227 2.2661016 -0.46264097 4293792000
2.6580098 2.2771692 -0.45075104 4293792000
2.6676695 2.2855594 -0.43770382 4293792000
2.6606662 2.2796838 -0.42141977 4293792000
2.6438022 2.2653644 -0.4032425 4293792000
2.6560926 2.2760055 -0.38908777 4293792000
2.6653869 2.2840817 -0.37393096 4293792000
2.6716397 2.2895534 -0.35783669 4293792000
2.6397114 2.2623281 -0.33640164 4293661440
2.6439908 2.2661078 -0.31939015 4293661440
2.6601093 2.2800272 -0.30332127 4293792000
2.6561818 2.2767782 -0.28455278 4293792000
2.6389806 2.2621586 -0.2641995 4293661440
2.6509938 2.2725618 -0.24651942 4293661440
2.6599541 2.2803502 -0.22813784 4293792000
2.6686275 2.2878933 -0.20935681 4293792000
2.6681366 2.2875857 -0.18957098 4293792000
2.6481419 2.2705679 -0.16834784 4293661440
2.667207 2.287014 -0.14943443 4293792000
2.6633723 2.2838402 -0.12896253 4293792000
2.6425238 2.2660873 -0.10771721 4293661440
2.6686151 2.2885559 -0.08823213 4293792000
2.6840918 2.3019302 -0.067981787 4293792000
2.6825273 2.3007014 -0.047119945 4293792000
2.6713486 2.2912326 -0.026138864 4293792000
2.6806252 2.2992947 -0.0053479089 4293792000
2.6936185 2.3105433 0.015612506 4293922560
2.691608 2.3089321 0.036553819 4293922560
2.6963215 2.3130848 0.05756541 4293922560
2.7161913 2.330231 0.079025529 4293922560
2.7143502 2.3287661 0.099908248 4293922560
2.6800542 2.2994769 0.11921233 4293792000
2.7011771 2.3176997 0.14074291 4293922560
2.7111983 2.3264055 0.16177851 4293922560
2.7067993 2.3227479 0.18182057 4293922560
2.6510661 2.2750711 0.19777405 4293661440
2.705431 2.3218038 0.22169614 4293922560
2.7181599 2.3328352 0.24245921 4294053120
2.7104442 2.3263342 0.26117149 4293922560
2.650737 2.2752414 0.27411693 4293792000
2.7277217 2.3413866 0.30098963 4294053120
2.7363591 2.3489134 0.32058951 4294053120
2.7304692 2.3439803 0.33815354 4294053120
2.6965868 2.3150339 0.35161814 4293922560
2.5831902 2.2178714 0.35338768 4293400320
2.7206252 2.3358951 0.3891699 4294053120
2.7263224 2.3409045 0.40658593 4294053120
2.7083776 2.3256295 0.41995212 4294053120
2.6723058 2.2947998 0.42972478 4293922560
2.6265595 2.2556658 0.43699694 4293661440
2.7260888 2.3411975 0.46820042 4294183680
2.7293947 2.3441601 0.48291543 4294183680
2.7188938 2.3352742 0.49460569 4294053120
2.7069666 2.3251643 0.50536376 4294053120
2.6931524 2.3134341 0.51507229 4294053120
2.6431427 2.2706342 0.51699477 4293792000
2.7159047 2.3332222 0.54239637 4294183680
2.7253985 2.3415031 0.55488622 4294183680
2.7206624 2.3375695 0.56386071 4294183680
2.7168739 2.33445 0.57234889 4294183680
2.7255969 2.3420739 0.58282155 4294183680
2.7039902 2.3236566 0.58610225 4294053120
2.6972694 2.3180208 0.59184343 4294053120
2.6964009 2.3174114 0.59815764 4294053120
2.692735 2.3144009 0.60314339 4294053120
2.7024965 2.3229234 0.61043936 4294053120
2.6828322 2.3061736 0.61036634 4294053120
2.689774 2.3122771 0.61560297 4294053120
2.6960554 2.3178151 0.61998266 4294053120
2.6927133 2.3150873 0.62142742 4294053120
2.6887171 2.311799 0.62198645 4294053120
2.6810799 2.3053827 0.62096852 4294053120
2.6847427 2.3086765 0.62183326 4294053120
2.7000563 2.3219833 0.62465906 4294053120
2.6897123 2.3132441 0.62082142 4294053120
2.6957815 2.3186107 0.62003988 4294053120
2.7100666 2.3310406 0.62039769 4294183680
2.7063525 2.3280025 0.6159001 4294183680
2.7098098 2.3311293 0.61231017 4294183680
2.7152374 2.3359518 0.60843182 4294183680
2.712091 2.333405 0.60191852 4294183680
2.7148294 2.3359182 0.59600663 4294183680
2.7153778 2.3365502 0.58891094 4294183680
2.7057743 2.3284538 0.57895571 4294053120
2.6994803 2.3232036 0.56908238 4294053120
2.6984646 2.3224926 0.55968338 4294053120
2.7032657 2.3267858 0.55082726 4294053120
2.7203767 2.3416686 0.54375637 4294183680
2.7128787 2.3353863 0.53110832 4294053120
2.71117 2.334084 0.51901931 4294053120
2.6809194 2.309154 0.42472395 4293922560
2.7041974 2.3293626 0.41265032 4294053120
2.718395 2.3417585 0.39850649 4294053120
2.7019277 2.327759 0.3794401 4294053120
2.6817966 2.3106039 0.35966244 4293922560
2.6941364 2.321404 0.34387913 4293922560
2.6946576 2.3220296 0.32612136 4293922560
2.6885812 2.3169746 0.30723977 4293922560
2.6720247 2.3028944 0.28697464 4293792000
2.682905 2.3124421 0.26937097 4293922560
2.693316 2.3215878 0.25127107 4293922560
2.6936281 2.3220363 0.2318753 4293922560
2.6683409 2.3004327 0.21020436 4293792000
2.6938212 2.3225632 0.19228995 4293922560
2.7002985 2.3283248 0.17257142 4293922560
2.7063959 2.33376 0.1525428 4293922560
2.6720099 2.3043115 0.13028266 4293792000
2.6824985 2.3135304 0.11024176 4293922560
2.6800494 2.3116012 0.089485608 4293792000
2.6828141 2.3141651 0.06879963 4293922560
2.6574891 2.2925169 0.047492713 4293792000
2.6663885 2.3003685 0.026866442 4293792000
2.6763806 2.3091636 0.0060705859 4293792000
2.6443956 2.2817676 -0.014656303 4293661440
2.6572371 2.2930193 -0.03547385 4293792000
2.6617548 2.2970953 -0.056281075 4293792000
2.6715622 2.305733 -0.077255398 4293792000
2.651654 2.2887437 -0.097211629 4293792000
2.6706924 2.3053441 -0.11848959 4293792000
2.6853998 2.3182108 -0.1397105 4293922560
2.6795943 2.3133836 -0.15978473 4293922560
2.6495368 2.2876327 -0.17797218 4293792000
2.6600254 2.2968602 -0.19854742 4293792000
2.6654058 2.301681 -0.21864754 4293792000
2.6640024 2.3006487 -0.23798648 4293792000
2.6656735 2.3022685 -0.25734633 4293792000
2.6800871 2.3148859 -0.27777362 4293922560
2.6841838 2.3186002 -0.29696208 4293922560
2.678607 2.3139639 -0.31474838 4293922560
2.6438735 2.2841566 -0.32849342 4293792000
2.6656623 2.3031416 -0.34881261 4293792000
2.6702499 2.3072774 -0.36667231 4293922560
2.6641388 2.302175 -0.38265097 4293792000
2.662147 2.3006284 -0.39874852 4293792000
2.611057 2.25668 -0.40673321 4293661440
2.6844594 2.3202429 -0.43377832 4293922560
2.6847382 2.3206558 -0.44895381 4293922560
2.6808362 2.3174572 -0.46290916 4293922560
2.6785271 2.3156331 -0.47658747 4293922560
2.6634905 2.3028121 -0.4873777 4293922560
2.6670165 2.3060262 -0.5009557 4293922560
2.6612766 2.3012335 -0.51221758 4293922560
2.6642525 2.3039706 -0.5245623 4293922560
2.6656401 2.3053346 -0.53601682 4293922560
2.6628973 2.3031282 -0.54602462 4293922560
2.6652892 2.3053579 -0.55645889 4293922560
2.6576178 2.2988892 -0.56413692 4293922560
2.653213 2.2952421 -0.57181907 4293922560
2.6421044 2.2857978 -0.57735074 4293792000
2.6353824 2.2801437 -0.58312285 4293792000
2.6316264 2.2770519 -0.58884919 4293792000
2.6222651 2.2691121 -0.59260941 4293792000
2.5787687 2.2316535 -0.58786333 4293530880
2.5885715 2.2402797 -0.59451276 4293661440
2.5880241 2.2399545 -0.59811008 4293661440
2.531173 2.190933 -0.58793497 4293400320
2.5946426 2.2459722 -0.60500592 4293661440
2.5268135 2.1874466 -0.59077805 4293400320
2.5978975 2.2490773 -0.6083135 4293661440
2.5940781 2.2459161 -0.60762936 4293661440
2.572479 2.2273715 -0.60207617 4293530880
2.6190214 2.2677796 -0.61174703 4293792000
2.6154799 2.2648561 -0.60898954 4293792000
2.6242969 2.2726247 -0.60839242 4293792000
2.6444488 2.2902021 -0.60967875 4293922560
2.6512313 2.2962103 -0.60713732 4293922560
2.6491692 2.2945633 -0.60185808 4293922560
2.6537857 2.2986956 -0.59739065 4293922560
2.655925 2.300683 -0.59165806 4293922560
2.655556 2.300498 -0.5846774 4293922560
2.6569207 2.3018126 -0.57739937 4293922560
2.6568761 2.3019066 -0.56914496 4293922560
2.6474142 2.2938464 -0.55824983 4293922560
2.6430168 2.2901688 -0.54782826 4293792000
2.6321847 2.2809181 -0.53550214 4293792000
2.6362238 2.2845426 -0.52561331 4293792000
2.6610286 2.306149 -0.51914138 4293922560
2.6737063 2.3172543 -0.5095495 4293922560
2.665509 2.310281 -0.49538311 4293922560
2.6396737 2.2880299 -0.4775447 4293792000
2.6358182 2.2848129 -0.46329027 4293792000
2.6464672 2.2941587 -0.45102638 4293792000
2.6573122 2.3036742 -0.43817282 4293922560
2.6473429 2.2951591 -0.42139417 4293792000
2.6343167 2.2839937 -0.40379244 4293792000
2.6427908 2.2914541 -0.38906223 4293792000
2.6557956 2.3028395 -0.3744351 4293792000
2.663825 2.3099151 -0.35856023 4293922560
2.6294985 2.2802882 -0.33676162 4293661440
2.6307466 2.2814853 -0.31936473 4293661440
2.6463346 2.295109 -0.30324417 4293792000
2.6516497 2.2998304 -0.28547198 4293792000
2.62868 2.2800379 -0.26446801 4293661440
2.640727 2.2905929 -0.24677575 4293792000
2.6534128 2.301702 -0.22869734 4293792000
2.6647935 2.3116806 -0.21008335 4293792000
2.6694348 2.3158176 -0.19059311 4293792000
2.6386449 2.2892394 -0.16856356 4293661440
2.6576147 2.3057973 -0.14962143 4293792000
2.6681454 2.3150396 -0.12981948 4293792000
2.6375837 2.2886548 -0.10803236 4293661440
2.6552391 2.3040745 -0.08820644 4293792000
2.6706376 2.3175387 -0.067955956 4293792000
2.6766346 2.3228512 -0.047227915 4293922560
2.6569738 2.3059142 -0.02610342 4293792000
2.6735349 2.3203883 -0.0053352471 4293792000
2.6828253 2.3285582 0.015654046 4293922560
2.6849113 2.3304801 0.036672026 4293922560
2.6895998 2.3346598 0.057736702 4293922560
2.7025712 2.3460248 0.079051681 4293922560
2.710614 2.3531153 0.10029884 4294053120
2.686784 2.3325577 0.12013798 4293922560
2.6971779 2.3416884 0.14126797 4293922560
2.7050314 2.3486164 0.16224951 4294053120
2.7012954 2.3454902 0.18239078 4294053120
2.6607461 2.3104227 0.19951987 4293792000
2.7024138 2.3466916 0.22259019 4294053120
2.7055049 2.3494899 0.24257317 4294053120
2.6930802 2.3388247 0.26083329 4293922560
2.6442144 2.2965341 0.2748459 4293792000
2.7197895 2.3622386 0.30165321 4294053120
2.7321823 2.3731134 0.32173944 4294183680
2.7289946 2.3704669 0.33969998 4294183680
2.6868126 2.3339732 0.35213605 4293922560
2.5702264 2.2328899 0.35341257 4293400320
2.7174819 2.3608363 0.39070562 4294183680
2.7163911 2.3600116 0.40717396 4294183680
2.7090328 2.3537462 0.4221966 4294053120
2.6701355 2.3200974 0.43156585 4293922560
2.5596626 2.224299 0.42804968 4293400320
2.7132454 2.3577764 0.46837184 4294183680
2.7198529 2.3636401 0.48368087 4294183680
2.7092781 2.3545842 0.49536893 4294183680
2.6963656 2.3434978 0.50595039 4294053120
2.6673231 2.3184023 0.51273489 4293922560
2.6298702 2.286 0.51702029 4293792000
2.7013559 2.3482199 0.54224002 4294053120
2.7137551 2.359122 0.55533034 4294183680
2.7107272 2.3566246 0.56466293 4294183680
2.703228 2.3502438 0.57237506 4294183680
2.7014742 2.3488548 0.58060777 4294183680
2.6941321 2.3426113 0.58693898 4294053120
2.6837194 2.3337004 0.59186941 4294053120
2.7007196 2.3486102 0.60216331 4294183680
2.6829271 2.3332875 0.60400629 4294053120
2.6889179 2.3386333 0.61046541 4294053120
2.6693516 2.321769 0.61039221 4294053120
2.6762576 2.3279128 0.61562896 4294053120
2.6862245 2.3367188 0.62086719 4294053120
2.6821542 2.3333251 0.62214255 4294053120
2.6752036 2.3274286 0.62201238 4294053120
2.6750371 2.3274302 0.62272316 4294053120
2.6712475 2.3242829 0.62185919 4294053120
2.6901996 2.3409104 0.62554848 4294183680
2.6836236 2.3353431 0.62257028 4294053120
2.689662 2.3407459 0.62178284 4294053120
2.6994145 2.3493805 0.62110746 4294183680
2.6856754 2.3375866 0.61431074 4294053120
2.7036204 2.3533502 0.61402386 4294183680
2.7011323 2.3513439 0.60835671 4294183680
2.7081144 2.3575764 0.60409826 4294183680
2.704896 2.3549371 0.5968532 4294183680
2.7090011 2.35867 0.59052294 4294183680
2.7061496 2.3563516 0.5819869 4294183680
2.6963298 2.347971 0.57131624 4294183680
2.6960671 2.3479068 0.56203759 4294053120
2.6956193 2.3476825 0.55207175 4294053120
2.7102544 2.3605859 0.54449826 4294183680
2.7075276 2.3583813 0.53276616 4294183680
2.7049911 2.3563426 0.52048045 4294183680
2.6812294 2.3367641 0.42694616 4294053120
2.7010694 2.3542175 0.41428331 4294053120
2.7122018 2.3640902 0.39963588 4294053120
2.6920707 2.3467331 0.37999481 4294053120
2.6720417 2.3294628 0.36019337 4293922560
2.6880727 2.3436055 0.3448669 4294053120
2.6973403 2.3518581 0.32812241 4294053120
2.6750383 2.3326061 0.30726576 4293922560
2.6624863 2.3218472 0.28742331 4293922560
2.6748035 2.3327594 0.26994264 4293922560
2.6872663 2.3438008 0.25200132 4293922560
2.6838171 2.3409758 0.23222631 4293922560
2.6661825 2.3257859 0.21112257 4293922560
2.687773 2.3447871 0.19285518 4293922560
2.6866899 2.3440254 0.17259751 4293922560
2.6889899 2.3462133 0.15235601 4293922560
2.6547756 2.3165643 0.13012429 4293792000
2.6659629 2.3265004 0.11014349 4293792000
2.6703057 2.3304698 0.089637615 4293922560
2.6768234 2.3363364 0.069019161 4293922560
2.652647 2.315433 0.047671437 4293792000
2.6529434 2.3158731 0.026892219 4293792000
2.665077 2.3266392 0.0061013107 4293792000
2.6340737 2.2997744 -0.014647719 4293661440
2.6458316 2.3102131 -0.03547506 4293792000
2.6540887 2.3175988 -0.056378048 4293792000
2.6543198 2.317982 -0.077119902 4293792000
2.6382773 2.3041637 -0.097185984 4293792000
2.6572187 2.3208747 -0.11846375 4293792000
2.668087 2.3305421 -0.13948756 4293922560
2.6698368 2.3322511 -0.15998445 4293922560
2.6429381 2.3089519 -0.17840388 4293792000
2.650362 2.3156126 -0.1988039 4293792000
2.6584938 2.322892 -0.21916109 4293792000
2.6505566 2.3161414 -0.23796071 4293792000
2.6427155 2.3094733 -0.25639838 4293792000
2.6603696 2.3250685 -0.27710301 4293922560
2.6652267 2.329489 -0.29633495 4293922560
2.6575813 2.3229899 -0.31383646 4293922560
2.6335235 2.3021531 -0.32884237 4293792000
2.6526492 2.3190355 -0.3488456 4293792000
2.6642563 2.3293514 -0.36768019 4293922560
2.6686523 2.3333681 -0.38521871 4293922560
2.6487017 2.3161118 -0.39872274 4293792000
2.6083384 2.2810152 -0.40834686 4293661440
2.6763937 2.3406575 -0.43464446 4294053120
2.6759233 2.34042 -0.44972563 4294053120
2.6672926 2.3330495 -0.4628832 4293922560
2.6677845 2.3336511 -0.47706041 4293922560
2.6470609 2.3157063 -0.48680544 4293922560
2.65451 2.3223865 -0.50111294 4293922560
2.6521468 2.3204885 -0.51302701 4293922560
2.6619573 2.3292327 -0.52674627 4293922560
2.6521676 2.3208392 -0.53599095 4293922560
2.6531572 2.3218694 -0.54676521 4293922560
2.6629698 2.3306143 -0.5587728 4294053120
2.6545882 2.3234475 -0.56633049 4293922560
2.6441822 2.3145077 -0.5727424 4293922560
2.6387768 2.3099396 -0.5795275 4293922560
2.6220574 2.2954731 -0.58309734 4293792000
2.614609 2.2891135 -0.58798945 4293792000
2.6052954 2.2811201 -0.59174174 4293792000
2.565727 2.2466538 -0.58783835 4293530880
2.5688064 2.2494979 -0.59294766 4293661440
2.5712276 2.2517653 -0.5972243 4293661440
2.5781817 2.2579987 -0.60186988 4293661440
2.5815175 2.261065 -0.60498077 4293661440
2.5775325 2.2577233 -0.60567153 4293661440
2.5847542 2.2641888 -0.60828835 4293661440
2.5772486 2.2577629 -0.60673231 4293661440
2.5594625 2.2423353 -0.60205126 4293530880
2.6057687 2.2830138 -0.61172163 4293792000
2.6181538 2.2939985 -0.61268634 4293792000
2.6242409 2.299469 -0.61144763 4293792000
2.6310651 2.3055842 -0.60965312 4293922560
2.6378124 2.3116317 -0.60711163 4293922560
2.6424332 2.3158166 -0.60335571 4293922560
2.6477687 2.3206267 -0.59904242 4293922560
2.6458173 2.3190544 -0.59237927 4293922560
2.6487904 2.3217938 -0.58612913 4293922560
2.6508918 2.3237689 -0.57899451 4293922560
2.6471364 2.3206129 -0.56991833 4293922560
2.6406946 2.3151016 -0.55964071 4293922560
2.6303117 2.3061364 -0.54794395 4293792000
2.6232576 2.3000855 -0.5363766 4293792000
2.6332855 2.3089993 -0.52767384 4293792000
2.6384714 2.3136706 -0.51733553 4293922560
2.6619141 2.3343389 -0.50985861 4293922560
2.657486 2.3305852 -0.49638033 4293922560
2.6419477 2.3170938 -0.48036331 4293922560
2.6261933 2.3034105 -0.4639231 4293792000
2.641113 2.3166094 -0.45237988 4293792000
2.648772 2.3234446 -0.43896276 4293922560
2.638675 2.3147159 -0.42212752 4293792000
2.6209688 2.2993152 -0.40376687 4293792000
2.6361253 2.312721 -0.39003173 4293792000
2.6490667 2.3241851 -0.37536281 4293922560
2.65152 2.3264549 -0.35869598 4293922560
2.6288927 2.3067341 -0.33837345 4293792000
2.6241519 2.3026941 -0.3201614 4293792000
2.6408591 2.3174598 -0.30413273 4293792000
2.6382091 2.3152518 -0.28544626 4293792000
2.6116064 2.2920384 -0.26406342 4293661440
2.6273401 2.3059504 -0.24675012 4293792000
2.6437123 2.3204229 -0.2289966 4293792000
2.6417937 2.3188546 -0.20930536 4293792000
2.6521468 2.3280492 -0.19029774 4293792000
2.6290202 2.3078775 -0.16877913 4293661440
2.6441388 2.3212521 -0.14959563 4293792000
2.6471031 2.3239655 -0.12942591 4293792000
2.6279647 2.3072886 -0.10816158 4293661440
2.6472969 2.3243611 -0.088365361 4293792000
2.6581078 2.3339591 -0.067956038 4293792000
2.6630585 2.3384159 -0.047201928 4293922560
2.644475 2.3222225 -0.026087342 4293792000
2.666738 2.3418705 -0.0053233006 4293922560
2.6767321 2.350754 0.015723651 4293922560
2.6785097 2.3524275 0.036796667 4293922560
2.6729484 2.3476605 0.057698198 4293922560
2.7031362 2.374269 0.079496473 4294053120
2.7043736 2.3754702 0.10060392 4294053120
2.6530831 2.3305655 0.11926403 4293792000
2.6815016 2.3556244 0.14118962 4293922560
2.6930726 2.3658965 0.16238222 4294053120
2.6950917 2.3677847 0.18292557 4294053120
2.6577463 2.3351145 0.20033623 4293922560
2.690685 2.3641484 0.22278073 4294053120
2.7012932 2.3735793 0.24345632 4294053120
2.6899023 2.3636949 0.26187956 4294053120
2.6345372 2.3151965 0.27526242 4293792000
2.7022383 2.3747635 0.30126277 4294053120
2.7220538 2.3922842 0.32220843 4294183680
2.7184613 2.3892498 0.34014165 4294183680
2.6864178 2.3612282 0.35390529 4294053120
2.5571754 2.2478328 0.35343754 4293400320
2.7138331 2.3855503 0.39219737 4294183680
2.705955 2.3787534 0.40770584 4294183680
2.6952751 2.3694949 0.42222294 4294053120
2.6670148 2.3447924 0.43328622 4293922560
2.5541151 2.245728 0.42932609 4293530880
2.7098932 2.3827124 0.47020602 4294183680
2.7164609 2.3886101 0.4855687 4294183680
2.7096543 2.3827577 0.49799123 4294183680
2.6938241 2.3689761 0.50807875 4294183680
2.6612058 2.340441 0.5141958 4293922560
2.6306257 2.313695 0.51983285 4293792000
2.7021565 2.3766899 0.54519439 4294183680
2.6999657 2.3748972 0.55535668 4294183680
2.7036302 2.378252 0.56608623 4294183680
2.704324 2.3789968 0.57555544 4294183680
2.6877558 2.3645682 0.58063644 4294183680
2.68785 2.3647876 0.58858657 4294183680
2.6804502 2.3584194 0.59419262 4294053120
2.6804404 2.3585491 0.60072273 4294183680
2.6870577 2.3645072 0.60804969 4294183680
2.6674981 2.3474491 0.60872465 4294053120
2.6772408 2.356158 0.61534631 4294053120
2.676708 2.3558326 0.61890239 4294053120
2.6762645 2.3555865 0.62175179 4294053120
2.6722136 2.352169 0.62303013 4294053120
2.6682556 2.348834 0.62359262 4294053120
2.6717861 2.3520875 0.62516958 4294053120
2.6680148 2.3489184 0.62430561 4294053120
2.6802142 2.3598013 0.62643814 4294183680
2.6803267 2.3600521 0.62500852 4294183680
2.6731355 2.353878 0.62114871 4294053120
2.6762753 2.3567948 0.6189602 4294053120
2.6794095 2.3597083 0.61603624 4294183680
2.6898756 2.369076 0.61405271 4294183680
2.6984894 2.3768156 0.61089385 4294183680
2.6972947 2.3759246 0.60478795 4294183680
2.7005639 2.3789637 0.59896976 4294183680
2.6952143 2.3744173 0.59054929 4294183680
2.6960807 2.3753438 0.58281332 4294183680
2.6890826 2.3693476 0.57272077 4294183680
2.680851 2.3622651 0.56175143 4294053120
2.6885724 2.3692305 0.55347091 4294183680
2.7068448 2.385489 0.54662055 4294183680
2.7041357 2.3832731 0.53484619 4294183680
2.6949315 2.3753376 0.52122432 4294183680
2.6638463 2.3490694 0.42637673 4293922560
2.6825311 2.3657098 0.41357377 4294053120
2.702112 2.3831432 0.4002139 4294183680
2.6820843 2.3656712 0.38054967 4294053120
2.6651433 2.3509178 0.36112854 4293922560
2.680788 2.3648865 0.34571922 4294053120
2.6910639 2.374125 0.32906106 4294053120
2.6716421 2.3571837 0.30847239 4293922560
2.6450136 2.3338864 0.28702638 4293792000
2.6672256 2.353651 0.27058232 4293922560
2.6810491 2.3660221 0.2527318 4294053120
2.6768706 2.3625197 0.2328375 4293922560
2.6488457 2.337986 0.21085104 4293792000
2.6815572 2.3670194 0.19342066 4294053120
2.6804805 2.3662536 0.17310661 4293922560
2.6790233 2.3651524 0.15259521 4293922560
2.6487298 2.3386114 0.13051863 4293792000
2.6565602 2.3457024 0.11034328 4293922560
2.6641812 2.3526103 0.089915916 4293922560
2.6622233 2.3510668 0.069020838 4293922560
2.6353657 2.327549 0.047629878 4293792000
2.6486681 2.3394713 0.027011752 4293792000
2.651479 2.3421357 0.0061272983 4293792000
2.6153824 2.3104563 -0.014592347 4293661440
2.6370904 2.3298008 -0.035513699 4293792000
2.6460571 2.3378997 -0.056470182 4293792000
2.6478934 2.3397038 -0.077302329 4293792000
2.6260939 2.3206382 -0.097207807 4293792000
2.644851 2.337383 -0.11849149 4293792000
2.6597829 2.3507524 -0.13974109 4293922560
2.647454 2.3400469 -0.15943098 4293792000
2.6220727 2.3178105 -0.17787777 4293792000
2.6397827 2.3336344 -0.19900079 4293792000
2.6432068 2.3368402 -0.21899331 4293792000
2.6422453 2.3361714 -0.23840638 4293792000
2.638453 2.3330011 -0.25727323 4293792000
2.6659043 2.3574369 -0.2790792 4293922560
2.6593053 2.3517864 -0.29716861 4293922560
2.6572459 2.3501463 -0.31538206 4293922560
2.6179466 2.3155928 -0.32855022 4293792000
2.6408494 2.3360119 -0.34905139 4293922560
2.6529927 2.3469229 -0.36798003 4293922560
2.6565399 2.3502357 -0.38541374 4293922560
2.6429045 2.3383574 -0.39986756 4293922560
2.5523174 2.2584407 -0.40160468 4293530880
2.663723 2.3571146 -0.43478283 4294053120
2.6710136 2.3637362 -0.45118028 4294053120
2.6655407 2.3590708 -0.46492937 4294053120
2.6567986 2.3515124 -0.47751087 4293922560
2.6402059 2.3370085 -0.48801371 4293922560
2.6486585 2.3446548 -0.50255162 4293922560
2.642292 2.3391924 -0.51372153 4293922560
2.6456056 2.3422916 -0.52617538 4293922560
2.6489713 2.3454363 -0.53807026 4293922560
2.6469896 2.3438494 -0.54827189 4293922560
2.6456513 2.3428304 -0.55796695 4293922560
2.6447074 2.3421593 -0.56709719 4293922560
2.6299922 2.3292997 -0.57257199 4293922560
2.618993 2.3197258 -0.57811469 4293922560
2.618983 2.319876 -0.58538222 4293922560
2.6123066 2.3141243 -0.5904665 4293792000
2.5993459 2.3028076 -0.59340078 4293792000
2.6060042 2.3088565 -0.60010844 4293792000
2.5659888 2.2735832 -0.59531802 4293661440
2.5654442 2.2732513 -0.59892052 4293661440
2.5686738 2.2762599 -0.60270959 4293661440
2.571991 2.2793453 -0.60582364 4293661440
2.5717113 2.2792447 -0.60738707 4293661440
2.5678372 2.2759593 -0.60739148 4293661440
2.564055 2.272754 -0.6067071 4293661440
2.5537305 2.263752 -0.60376859 4293661440
2.5997992 2.3047004 -0.61343509 4293792000
2.5962925 2.3017366 -0.6106723 4293792000
2.6050191 2.3096087 -0.61006767 4293792000
2.6175919 2.320888 -0.60962737 4293922560
2.634629 2.336123 -0.60947376 4293922560
2.6399651 2.3409905 -0.60586864 4293922560
2.6378968 2.3392966 -0.59985524 4293922560
2.6392777 2.3406579 -0.59393108 4293922560
2.6492493 2.3496311 -0.58922219 4294053120
2.6450005 2.3460014 -0.58065593 4294053120
2.6382306 2.3401356 -0.57089955 4293922560
2.6392126 2.3411391 -0.56218046 4293922560
2.6249652 2.3286419 -0.54962009 4293922560
2.6168439 2.321573 -0.53779489 4293792000
2.6213062 2.3256574 -0.52795291 4293922560
2.6466417 2.3482471 -0.52158362 4293922560
2.6566827 2.3572776 -0.51145136 4294053120
2.6489027 2.350507 -0.49729967 4293922560
2.6292405 2.3331988 -0.48048973 4293922560
2.616755 2.3222518 -0.4646115 4293792000
2.632251 2.336117 -0.45315894 4293922560
2.6416578 2.3445821 -0.44001335 4293922560
2.6378484 2.3413262 -0.42414361 4293922560
2.6115623 2.3181336 -0.40436524 4293792000
2.6243379 2.3295851 -0.39026284 4293792000
2.6384208 2.3421965 -0.37575507 4293922560
2.645148 2.3482835 -0.35965219 4293922560
2.6125262 2.319463 -0.33797437 4293792000
2.6165872 2.3231826 -0.32085827 4293792000
2.6338041 2.3385744 -0.30485794 4293792000
2.6319151 2.3370149 -0.28620744 4293792000
2.5960083 2.3052711 -0.26381391 4293661440
2.6193285 2.3260784 -0.2472403 4293792000
2.6368296 2.3417232 -0.22955228 4293792000
2.6400366 2.3446841 -0.21021903 4293792000
2.6456809 2.3498082 -0.19078688 4293922560
2.6208353 2.327872 -0.16909574 4293792000
2.6303532 2.3364332 -0.14955723 4293792000
2.6431696 2.3479226 -0.12987454 4293792000
2.6190581 2.3266339 -0.10832543 4293792000
2.6392117 2.3446364 -0.088524207 4293792000
2.6414766 2.3467605 -0.067852996 4293792000
