# .PCD v0.7 - Point Cloud Data file format
VERSION 0.7
FIELDS x y z rgba
SIZE 4 4 4 4
TYPE F F F U
COUNT 1 1 1 1
WIDTH 1129
HEIGHT 1
VIEWPOINT 0 0 0 1 0 0 0
POINTS 1129
DATA ascii
2.9186478 1.578651 -0.57577252 4293269760
2.9353836 1.5878223 -0.57516813 4293400320
2.9361436 1.5883527 -0.57073861 4293400320
2.9290166 1.5846161 -0.56412202 4293269760
2.9396837 1.5905064 -0.56026709 4293400320
2.9401345 1.5908698 -0.55379117 4293400320
2.9397154 1.5907624 -0.54650873 4293400320
2.9242599 1.5825177 -0.53584003 4293269760
2.9244509 1.5827399 -0.5274595 4293269760
2.9086359 1.5742987 -0.51563162 4293269760
2.9067371 1.5733892 -0.50573218 4293139200
2.9304352 1.5863357 -0.4996289 4293269760
2.9375463 1.5903045 -0.4900161 4293269760
2.9381101 1.5907291 -0.47872263 4293269760
2.93454 1.5889155 -0.46622208 4293269760
2.9135046 1.5776441 -0.45052034 4293139200
2.9054754 1.5734144 -0.43644345 4293139200
2.9395156 1.5919677 -0.42807165 4293269760
2.9453528 1.5952487 -0.41492602 4293269760
2.9118981 1.5772475 -0.39591491 4293139200
2.9041855 1.5731879 -0.38016298 4293139200
2.9252212 1.5847018 -0.3676784 4293269760
2.9427543 1.5943197 -0.35413995 4293269760
2.9475942 1.5970616 -0.33855954 4293269760
2.8966401 1.5695715 -0.31645423 4293139200
2.9161444 1.5802585 -0.30187017 4293139200
2.9311764 1.5885235 -0.28629005 4293269760
2.9206841 1.582956 -0.26787612 4293139200
2.8944676 1.5688648 -0.24794668 4293008640
2.9238546 1.5849119 -0.23248637 4293139200
2.9269047 1.5866843 -0.21447766 4293139200
2.9364433 1.5919746 -0.19663067 4293139200
2.9375334 1.592685 -0.17793617 4293269760
2.9180317 1.5822301 -0.15791935 4293139200
2.9237857 1.5854689 -0.13918583 4293139200
2.9294214 1.5886441 -0.1202208 4293139200
2.9093564 1.5778809 -0.10016596 4293139200
2.9246562 1.5862976 -0.08125075 4293139200
2.940228 1.5948633 -0.062049024 4293139200
2.9466114 1.5984455 -0.042439017 4293269760
2.9224629 1.5854646 -0.022462262 4293139200
2.9500005 1.6005239 -0.0028348912 4293269760
2.947716 1.5994043 0.016994696 4293269760
2.9393339 1.5949758 0.036699791 4293139200
2.9573402 1.6048669 0.056759909 4293269760
2.9760029 1.6151156 0.077017643 4293400320
2.9625635 1.6079423 0.096397437 4293269760
2.9268475 1.5886765 0.11462285 4293139200
2.9639535 1.608938 0.13558453 4293269760
2.9681194 1.61132 0.15516469 4293269760
2.9623325 1.608299 0.17404675 4293269760
2.8519135 1.5484667 0.18584746 4292878080
2.9769704 1.6164883 0.21287671 4293400320
2.982856 1.6198056 0.23198293 4293400320
2.9620442 1.6086245 0.24866848 4293269760
2.8553765 1.5508115 0.25709686 4292878080
2.9808326 1.6190705 0.28624627 4293400320
2.994323 1.6265199 0.30516055 4293400320
2.987905 1.6231551 0.32175258 4293400320
2.938925 1.5966667 0.33309257 4293269760
2.8077507 1.5255163 0.33374649 4292747520
2.9827898 1.6207404 0.37064815 4293400320
2.9889903 1.6242312 0.38713452 4293530880
2.9608283 1.6090482 0.3986271 4293400320
2.9268849 1.590721 0.40858302 4293269760
2.8575976 1.5531807 0.41264534 4293008640
3.0008783 1.6311798 0.44727126 4293530880
2.9735644 1.6164538 0.45650911 4293400320
2.9725618 1.6160297 0.46914336 4293400320
2.9637215 1.6113443 0.47996756 4293400320
2.9352152 1.5959653 0.48691222 4293269760
2.924674 1.5903528 0.49612978 4293269760
2.9735489 1.6170505 0.51499331 4293530880
2.9767013 1.618886 0.52553195 4293530880
2.9787507 1.6201218 0.53528893 4293530880
2.9680283 1.6144108 0.54210889 4293400320
2.9715323 1.6164378 0.55087954 4293530880
2.9609993 1.6108285 0.5563935 4293400320
2.9569433 1.6087425 0.56244379 4293400320
2.9484606 1.6042473 0.56697184 4293400320
2.9389584 1.599197 0.57060909 4293400320
2.940073 1.5999233 0.57562715 4293400320
2.9394164 1.5996855 0.57962781 4293400320
2.9509704 1.6060936 0.58537221 4293400320
2.9591591 1.6106709 0.58978611 4293400320
2.9358981 1.5981295 0.58723313 4293400320
2.9585364 1.6105729 0.59316778 4293400320
2.9497311 1.6058997 0.5921123 4293400320
2.9410305 1.6012826 0.59038216 4293400320
2.9376233 1.5995471 0.58902389 4293400320
2.9445653 1.6034471 0.58904856 4293400320
2.9558246 1.6096987 0.5892362 4293400320
2.9483991 1.6057749 0.58500874 4293400320
2.9484315 1.6059127 0.58158392 4293400320
2.9705236 1.6180665 0.58180016 4293530880
2.9543898 1.6093987 0.57384604 4293400320
2.964097 1.6148075 0.57025057 4293400320
2.9709234 1.6186475 0.56540507 4293530880
2.9662766 1.6162366 0.55771554 4293530880
2.9654346 1.6158985 0.55010712 4293400320
2.9595654 1.612821 0.54094732 4293400320
2.9499013 1.6076747 0.53051317 4293400320
2.950907 1.608343 0.52141124 4293400320
2.9641359 1.615674 0.51382172 4293400320
2.9737451 1.621033 0.50493652 4293530880
2.976758 1.6227967 0.49430761 4293530880
2.9301658 1.5978593 0.40291157 4293269760
2.9553964 1.6117383 0.39151353 4293400320
2.9736214 1.6217986 0.37852776 4293400320
2.9636641 1.6164888 0.3614904 4293400320
2.9331932 1.5999886 0.34176761 4293269760
2.9334092 1.6002259 0.32540575 4293269760
2.9582658 1.6139061 0.3112736 4293269760
2.9437606 1.6061128 0.29259834 4293269760
2.9174263 1.5918638 0.27266544 4293139200
2.9234791 1.5952855 0.25557923 4293139200
2.9342277 1.6012704 0.23852047 4293269760
2.9455101 1.6075478 0.22110763 4293269760
2.9156833 1.5913882 0.20048489 4293139200
2.9356341 1.6023972 0.18312676 4293269760
2.9546049 1.6128726 0.1652582 4293269760
2.9500642 1.6105142 0.14580184 4293269760
2.9177384 1.5929859 0.12505534 4293139200
2.9318902 1.6008319 0.10628352 4293139200
2.9323342 1.6011938 0.086802721 4293139200
2.9304717 1.6002963 0.067168742 4293139200
2.9101636 1.589325 0.047187448 4293139200
2.9199686 1.5947989 0.027713135 4293139200
2.9249573 1.5976428 0.0080630351 4293139200
2.8800213 1.5732157 -0.011464897 4293008640
2.904599 1.5867598 -0.031120593 4293139200
2.9203434 1.5954801 -0.050920099 4293139200
2.927752 1.599647 -0.070675507 4293139200
2.8942184 1.5814432 -0.089192703 4293008640
2.922528 1.5970312 -0.10948428 4293139200
2.9393482 1.6063427 -0.12952693 4293269760
2.9486635 1.6115537 -0.14927149 4293269760
2.9018779 1.586102 -0.1657718 4293139200
2.9236872 1.5981418 -0.1858476 4293139200
2.9329815 1.6033419 -0.20512615 4293269760
2.9334037 1.6036924 -0.22362331 4293269760
2.9123158 1.5922825 -0.24010894 4293139200
2.9440951 1.6097777 -0.26075485 4293269760
2.9555459 1.6161594 -0.27957875 4293269760
2.9508345 1.6137035 -0.29660836 4293269760
2.9350984 1.6052178 -0.31208444 4293269760
2.9225216 1.5984588 -0.32738942 4293269760
2.945545 1.6111715 -0.34637731 4293269760
2.946893 1.6120292 -0.36256808 4293269760
2.942951 1.6099929 -0.37769148 4293269760
2.9306257 1.6033698 -0.39123362 4293269760
2.9523573 1.6153798 -0.40893027 4293400320
2.9551282 1.6170166 -0.42366469 4293400320
2.9555969 1.6173936 -0.43760845 4293400320
2.9564638 1.6179887 -0.45112395 4293400320
2.9550893 1.6173571 -0.46378532 4293400320
2.925498 1.6012809 -0.4713628 4293269760
2.9315619 1.6047198 -0.48404983 4293269760
2.9387863 1.6087942 -0.49642831 4293400320
2.9344213 1.6065246 -0.50629342 4293269760
2.9284701 1.603386 -0.51526862 4293269760
2.9345391 1.6068287 -0.52576602 4293400320
2.9324567 1.6058081 -0.5342108 4293400320
2.9357843 1.6077503 -0.54302776 4293400320
2.9293725 1.6043586 -0.54940796 4293269760
2.9318695 1.6058459 -0.55681175 4293400320
2.9175127 1.5981015 -0.5603435 4293269760
2.9123449 1.5953897 -0.56494778 4293269760
2.8999021 1.5886919 -0.56745195 4293269760
2.8882396 1.5824208 -0.56940889 4293139200
2.8954399 1.5864838 -0.57441145 4293269760
2.8795431 1.5778912 -0.57415366 4293139200
2.883482 1.5801675 -0.57716638 4293139200
2.8788836 1.5777651 -0.57779533 4293139200
2.8873408 1.5825181 -0.58036804 4293139200
2.8897209 1.5839406 -0.58104217 4293269760
2.9015911 1.5905654 -0.58294207 4293269760
2.9133825 1.5971483 -0.58413666 4293269760
2.9213715 1.6016474 -0.58387506 4293269760
2.9103849 1.5957428 -0.57914203 4293269760
2.9242299 1.6034533 -0.57866722 4293269760
2.921895 1.6022925 -0.57430226 4293269760
2.9269729 1.6051966 -0.570719 4293400320
2.9198678 1.6014194 -0.56409955 4293269760
2.922719 1.6031026 -0.55875373 4293269760
2.938735 1.6120075 -0.55523342 4293400320
2.9262061 1.6052545 -0.54567039 4293269760
2.9194524 1.601669 -0.53660095 4293269760
2.9187784 1.6014184 -0.5280484 4293269760
2.8995488 1.5909864 -0.51559108 4293269760
2.8933227 1.5876883 -0.50493234 4293139200
2.9212792 1.6031487 -0.49958172 4293269760
2.9361739 1.6114428 -0.49127176 4293400320
2.9297361 1.6080292 -0.47880083 4293269760
2.92537 1.6057525 -0.46616533 4293269760
2.9043999 1.5943606 -0.45046082 4293139200
2.9062636 1.5955024 -0.43786782 4293139200
2.9216335 1.6040598 -0.42673537 4293269760
2.9404964 1.6145363 -0.41547102 4293269760
2.9106293 1.5982562 -0.39691126 4293139200
2.899461 1.5922421 -0.38065994 4293139200
2.9282732 1.6081841 -0.36913773 4293269760
2.937912 1.6135978 -0.35458431 4293269760
2.9383776 1.6139737 -0.33847484 4293269760
2.892741 1.589025 -0.31693339 4293139200
2.9113886 1.5993875 -0.30223379 4293139200
2.9176426 1.6029423 -0.28576979 4293139200
2.9159162 1.6021132 -0.2681829 4293139200
2.8854127 1.5854715 -0.24785005 4293008640
2.9068384 1.5973634 -0.23175894 4293139200
2.9177465 1.6034769 -0.21437503 4293139200
2.9316282 1.6112257 -0.19681905 4293269760
2.9327152 1.611943 -0.17809433 4293269760
2.9060607 1.5974115 -0.15765648 4293139200
2.9146328 1.6022426 -0.13907464 4293139200
2.9202497 1.6054498 -0.12010748 4293139200
2.8958666 1.5921634 -0.099900559 4293008640
2.9154968 1.6030755 -0.081134155 4293139200
2.9222577 1.6069125 -0.061745141 4293139200
2.933876 1.6134213 -0.042268068 4293269760
2.9161465 1.6037906 -0.022363285 4293139200
2.9363756 1.6150361 -0.0027077959 4293269760
2.938478 1.6163127 0.017118676 4293269760
2.9345014 1.6142455 0.036879342 4293269760
2.9480693 1.6218297 0.056885902 4293269760
2.9666722 1.6321852 0.077145018 4293400320
2.9655344 1.6316806 0.096925393 4293400320
2.9220462 1.6078724 0.11492098 4293139200
2.9502795 1.6235286 0.13551114 4293269760
2.9588079 1.6283429 0.15529247 4293269760
2.953038 1.6252884 0.17417406 4293269760
2.8385911 1.5624155 0.18568358 4292878080
2.9632559 1.6311547 0.21268991 4293400320
2.9778631 1.6393173 0.23245053 4293400320
2.9606082 1.6299397 0.24945569 4293400320
2.838552 1.5628587 0.25650582 4292878080
2.9793284 1.6404898 0.28712651 4293400320
2.9805572 1.6412884 0.30483663 4293400320
2.9785204 1.6402888 0.32187295 4293400320
2.9340513 1.6159195 0.33370489 4293269760
2.7989302 1.5416166 0.33385608 4292747520
2.9812548 1.6421609 0.37173957 4293530880
2.9682169 1.6351007 0.38576749 4293400320
2.955873 1.6284219 0.39932325 4293400320
2.9298573 1.6142095 0.41039258 4293269760
2.8529606 1.5719601 0.41337436 4293008640
2.9706039 1.6369023 0.44425583 4293400320
2.9728966 1.6382874 0.45794353 4293530880
2.9753621 1.6397679 0.47116059 4293530880
2.9578722 1.6302501 0.48062134 4293400320
2.9259868 1.6127962 0.48699796 4293269760
2.9154782 1.6071233 0.49621144 4293269760
2.9641991 1.6341015 0.51507229 4293530880
2.9595528 1.6316613 0.52422732 4293400320
2.965059 1.6348184 0.53457981 4293530880
2.9673412 1.6361984 0.54375935 4293530880
2.9570894 1.6306666 0.54999274 4293400320
2.9473679 1.6254265 0.55563569 4293400320
2.9476445 1.6256999 0.56249541 4293400320
2.9348712 1.6187754 0.56618553 4293400320
2.9383476 1.6208131 0.57233167 4293400320
2.9308274 1.616785 0.57566327 4293400320
2.9422512 1.6232076 0.58204812 4293400320
2.9416907 1.6230189 0.58539778 4293400320
2.9235747 1.6131436 0.58455193 4293400320
2.9266658 1.614969 0.58724749 4293400320
2.926409 1.6149473 0.58858591 4293400320
2.9404559 1.6228195 0.59211522 4293400320
2.9360938 1.6205325 0.59124738 4293400320
2.9361465 1.620682 0.59057593 4293400320
2.9439297 1.6250987 0.59076411 4293400320
2.9551544 1.6314162 0.5909397 4293530880
2.9348168 1.6203089 0.58412349 4293400320
2.9469249 1.6271145 0.58308685 4293400320
2.9646356 1.6370149 0.58243859 4293530880
2.9571826 1.6330208 0.57615429 4293530880
2.9504628 1.6294309 0.5693658 4293400320
2.9691648 1.639881 0.56679398 4293530880
2.9655881 1.6380271 0.5592798 4293530880
2.9517922 1.6305281 0.54923266 4293400320
2.9502614 1.6298034 0.54087055 4293400320
2.9406278 1.6246022 0.53043044 4293400320
2.9377894 1.6231545 0.52064168 4293400320
2.9590764 1.6350372 0.5144667 4293400320
2.9643962 1.6380982 0.50483459 4293530880
2.9630692 1.6374863 0.4934783 4293400320
2.916594 1.6122638 0.40231231 4293269760
2.9515667 1.6317174 0.39224067 4293400320
2.9686048 1.6412584 0.37908143 4293400320
2.9586804 1.6358927 0.36202022 4293400320
2.9283071 1.6192191 0.34227291 4293269760
2.9320076 1.6213856 0.32627362 4293269760
2.9489462 1.6308736 0.31126812 4293269760
2.9466908 1.6297473 0.29380876 4293269760
2.9169555 1.613421 0.27347562 4293139200
2.9236872 1.6172644 0.25639674 4293269760
2.9328365 1.6224457 0.23915128 4293269760
2.9362276 1.6244421 0.22109672 4293269760
2.9064941 1.6081115 0.20047297 4293139200
2.9284351 1.6203712 0.1832421 4293269760
2.9452915 1.6298192 0.16524377 4293269760
2.9486315 1.6317885 0.14617629 4293269760
2.9050426 1.6077853 0.12488844 4293139200
2.9270189 1.6200681 0.10642469 4293269760
2.9274611 1.6204331 0.086913593 4293269760
2.9334769 1.6238832 0.067430139 4293269760
2.900986 1.6060164 0.047166374 4293139200
2.9107592 1.6115465 0.027690882 4293139200
2.9201057 1.616841 0.0080517186 4293139200
2.883184 1.596516 -0.011537972 4293008640
2.8968322 1.6041925 -0.03116091 4293139200
2.9111297 1.6122296 -0.050946523 4293139200
2.9263854 1.6207986 -0.070893653 4293139200
2.8938298 1.6028862 -0.089491181 4293139200
2.9219861 1.6186019 -0.10983982 4293139200
2.937938 1.6275588 -0.12990497 4293269760
2.9393559 1.6284651 -0.14930257 4293269760
2.8942871 1.6036148 -0.16589308 4293139200
2.9188235 1.6173294 -0.18615831 4293139200
2.9272132 1.6220983 -0.20540413 4293269760
2.9241409 1.6205159 -0.2236568 4293269760
2.9051735 1.6101238 -0.24031262 4293139200
2.9301267 1.6240739 -0.2603744 4293269760
2.9505687 1.6355252 -0.28002733 4293400320
2.9493542 1.6349732 -0.2974343 4293400320
2.9301801 1.6244644 -0.31258413 4293269760
2.9211214 1.6195623 -0.32830498 4293269760
2.9362376 1.6280639 -0.34641278 4293269760
2.9375808 1.6289293 -0.36260352 4293269760
2.9258289 1.6225328 -0.37671968 4293269760
2.9221439 1.6206094 -0.39137307 4293269760
2.9430254 1.632311 -0.40896511 4293400320
2.9371102 1.6291509 -0.42245117 4293400320
2.9462531 1.6343434 -0.43764243 4293400320
2.9518061 1.637545 -0.45187524 4293400320
2.9374645 1.6297095 -0.46251413 4293400320
2.9205763 1.6204599 -0.47209415 4293269760
2.9222915 1.6215316 -0.48408061 4293269760
2.9279709 1.6248033 -0.49620041 4293400320
2.9280825 1.6249857 -0.50683153 4293400320
2.9313052 1.6268946 -0.51743168 4293400320
2.9209378 1.6212605 -0.52501613 4293269760
2.9231801 1.6226254 -0.53423584 4293400320
2.9178665 1.6197957 -0.5414499 4293269760
2.9235554 1.6230739 -0.55007929 4293400320
2.9139693 1.6178718 -0.55518913 4293269760
2.9117301 1.6167482 -0.56102657 4293269760
2.907439 1.614485 -0.56580323 4293269760
2.8864176 1.6029307 -0.56662107 4293269760
2.8825457 1.6008989 -0.57010323 4293269760
2.8862767 1.6030897 -0.5744223 4293269760
2.8790412 1.5991893 -0.57588482 4293139200
2.8700511 1.5943137 -0.57630843 4293139200
2.8783813 1.5990593 -0.57953292 4293139200
2.8892608 1.6052221 -0.58259976 4293269760
2.8848786 1.6029061 -0.58190984 4293269760
2.8967109 1.6095995 -0.58380651 4293269760
2.896837 1.6097887 -0.58265799 4293269760
2.9043753 1.6140972 -0.58231312 4293269760
2.9140878 1.6196147 -0.58170933 4293269760
2.9184172 1.622141 -0.57933718 4293400320
2.9212582 1.6238403 -0.57598388 4293400320
2.9133987 1.6195912 -0.56985682 4293269760
2.919241 1.622959 -0.56574708 4293400320
2.9298427 1.6289736 -0.56186897 4293400320
2.9173594 1.6221528 -0.55291694 4293269760
2.9212534 1.6244383 -0.54644543 4293400320
2.9136596 1.6203355 -0.53720266 4293269760
2.9040546 1.6151134 -0.52701592 4293269760
2.8990018 1.6124225 -0.51709068 4293269760
2.8971179 1.6114938 -0.50715709 4293269760
2.9097381 1.6186334 -0.49914175 4293269760
2.9311981 1.6306918 -0.4919467 4293400320
2.9282424 1.6291678 -0.48002335 4293400320
2.911777 1.620127 -0.46541688 4293269760
2.8908708 1.6086135 -0.4497278 4293139200
2.9013889 1.6145856 -0.43845969 4293269760
2.9210453 1.6256444 -0.427939 4293269760
2.9268448 1.6289924 -0.41478685 4293269760
2.9014075 1.6149542 -0.3968392 4293139200
2.8937461 1.6108088 -0.38104233 4293139200
2.9205215 1.6258336 -0.36925229 4293269760
2.9239483 1.6278616 -0.35393927 4293269760
2.9247189 1.6284109 -0.33788797 4293269760
2.8792238 1.603199 -0.31636935 4293139200
2.8978097 1.6136671 -0.30169129 4293139200
2.9083931 1.6196803 -0.28567731 4293139200
2.9110255 1.6212661 -0.26848939 4293139200
2.8841043 1.6063913 -0.24842875 4293139200
2.9054639 1.6184078 -0.23228614 4293139200
2.9128518 1.622643 -0.21459351 4293139200
2.9179692 1.6256138 -0.19642007 4293139200
2.915561 1.6243922 -0.17750859 4293139200
2.892478 1.6116507 -0.15731032 4293139200
2.9141123 1.623825 -0.13938087 4293139200
2.9153473 1.6246332 -0.12017407 4293139200
2.8866756 1.6087742 -0.099786393 4293008640
2.9062424 1.6197985 -0.081017546 4293139200
2.9228933 1.6291993 -0.061836425 4293269760
2.9269531 1.6315827 -0.042182222 4293269760
2.9250174 1.6306242 -0.022381132 4293269760
2.9357226 1.6367129 -0.0025925699 4293269760
2.9370046 1.6375487 0.017288942 4293269760
2.9286721 1.6330234 0.037048232 4293269760
2.9430685 1.6411721 0.057096615 4293269760
2.9572446 1.649199 0.077272393 4293400320
2.9602826 1.6510152 0.097190171 4293400320
2.9206131 1.6290109 0.1153574 4293269760
2.9531167 1.6472619 0.13620205 4293269760
2.9493999 1.6453102 0.15542024 4293269760
2.9523683 1.6470876 0.17481777 4293400320
2.8339219 1.5811248 0.18609184 4292878080
2.9538298 1.6481463 0.2128167 4293400320
2.9640334 1.6539617 0.23223591 4293400320
2.9511881 1.6469156 0.24958073 4293400320
2.8373535 1.5835068 0.25733519 4292878080
2.9741967 1.6600006 0.28767079 4293400320
2.9754186 1.6608051 0.30540505 4293400320
2.9679427 1.6567546 0.32187447 4293400320
2.9325297 1.6371073 0.33471423 4293269760
2.7934916 1.5596035 0.33438146 4292747520
2.9738057 1.660395 0.37210995 4293530880
2.9587638 1.6521186 0.38587922 4293400320
2.9464583 1.6453688 0.39943206 4293400320
2.9248576 1.6334269 0.4111068 4293269760
2.8438723 1.5883168 0.41347405 4293008640
2.9611402 1.6539335 0.44435662 4293400320
2.9712117 1.6596814 0.45924473 4293530880
2.9633632 1.6554196 0.47085476 4293530880
2.948447 1.6472085 0.48071167 4293400320
2.9253013 1.6343983 0.48852628 4293400320
2.9139583 1.6281809 0.49762008 4293269760
2.9590678 1.6535078 0.51590359 4293530880
2.9665105 1.6577892 0.52721488 4293530880
2.9556091 1.651819 0.53465039 4293530880
2.9535744 1.6508036 0.54303318 4293530880
2.9554183 1.6519561 0.55150098 4293530880
2.955198 1.6519548 0.55894995 4293530880
2.9459977 1.6469332 0.56403047 4293400320
2.9212136 1.6331984 0.56539905 4293400320
2.9453299 1.6468028 0.57556772 4293400320
2.9249268 1.6355155 0.57637745 4293400320
2.9371734 1.6424845 0.58293241 4293400320
2.9443524 1.6466205 0.58782655 4293530880
2.9142568 1.6299099 0.58457178 4293400320
2.9138997 1.6298304 0.58656961 4293400320
2.9170823 1.6317307 0.58859456 4293400320
2.9353819 1.6420881 0.59298623 4293400320
2.9353311 1.6421808 0.59298062 4293400320
2.919054 1.6331949 0.58900625 4293400320
2.9345479 1.6419847 0.5907492 4293400320
2.9305079 1.6398451 0.58786368 4293400320
2.9340615 1.6419547 0.58581299 4293400320
2.9375343 1.6440192 0.58305365 4293400320
2.9458156 1.6487755 0.58055174 4293530880
2.9477596 1.6499852 0.57610852 4293530880
2.953599 1.6533755 0.57174087 4293530880
2.9510977 1.6520971 0.56508744 4293530880
2.9561386 1.6550412 0.55921507 4293530880
2.9561632 1.6551769 0.55173314 4293530880
2.9486146 1.651072 0.54221946 4293400320
2.9390147 1.6458179 0.53175098 4293400320
2.9404993 1.6467706 0.52269846 4293400320
2.9453349 1.6496003 0.51361895 4293400320
2.9627171 1.6594577 0.50605917 4293530880
2.9536273 1.6544884 0.49337032 4293400320
2.9190083 1.636502 0.40399024 4293269760
2.9330757 1.6445098 0.39108706 4293400320
2.9587202 1.6590103 0.37908474 4293400320
2.952297 1.6555306 0.36245123 4293400320
2.9228933 1.6391629 0.34278864 4293269760
2.9222422 1.6389185 0.3262825 4293269760
2.9478085 1.6533788 0.31219888 4293400320
2.9368751 1.6473677 0.29382178 4293269760
2.9124503 1.6337876 0.27398098 4293269760
2.9167318 1.6363099 0.25665906 4293269760
2.9230645 1.6399833 0.23917079 4293269760
2.9264436 1.642 0.22111852 4293269760
2.9055133 1.6303762 0.20109932 4293139200
2.9296901 1.6440636 0.18396008 4293269760
2.9401395 1.6500491 0.16553526 4293269760
2.9454634 1.6531584 0.14653885 4293269760
2.8988447 1.6271132 0.1250719 4293139200
2.9172614 1.637571 0.10646035 4293269760
2.9256082 1.6423773 0.087187193 4293269760
2.9280555 1.6438721 0.067571089 4293269760
2.8913136 1.6233639 0.047208522 4293139200
2.9010537 1.6289525 0.027735386 4293139200
2.9103684 1.634303 0.0080985408 4293139200
2.885776 1.6206125 -0.011538451 4293139200
2.8958905 1.6264123 -0.031204252 4293139200
2.9064415 1.6324582 -0.050981738 4293139200
2.9209838 1.640747 -0.070944451 4293269760
2.8810499 1.6184347 -0.089337908 4293008640
2.9122403 1.6360762 -0.10978124 4293139200
2.9253147 1.6435423 -0.1297192 4293269760
2.9417446 1.6528947 -0.14986156 4293269760
2.8874214 1.6224911 -0.16599075 4293139200
2.9134388 1.6372312 -0.18637219 4293269760
2.917448 1.6396048 -0.20533819 4293269760
2.9187348 1.6404487 -0.22392349 4293269760
2.9099529 1.6356332 -0.2414459 4293269760
2.9290419 1.6464839 -0.26108015 4293269760
2.9407241 1.6531724 -0.27995726 4293400320
2.9450798 1.6557428 -0.29792681 4293400320
2.9247422 1.6444298 -0.312978 4293269760
2.9113739 1.6370338 -0.32823446 4293269760
2.9307747 1.6480638 -0.3468549 4293269760
2.9341476 1.6500818 -0.36332139 4293400320
2.9281905 1.6468529 -0.37821561 4293269760
2.8994939 1.6308334 -0.38957039 4293269760
2.9332025 1.6499143 -0.40889546 4293400320
2.9437368 1.6559615 -0.42475322 4293400320
2.9493828 1.6592594 -0.43950638 4293400320
2.9419522 1.655201 -0.45180836 4293400320
2.9324577 1.6499804 -0.46320716 4293400320
2.9108253 1.6379291 -0.47203091 4293269760
2.912534 1.639011 -0.48401907 4293269760
2.9197097 1.64317 -0.49639842 4293400320
2.9153717 1.6408492 -0.50626463 4293269760
2.9180703 1.6424887 -0.51676625 4293400320
2.9111814 1.6387316 -0.52496344 4293269760
2.9134154 1.6401097 -0.53418577 4293400320
2.9124191 1.6396693 -0.54220349 4293400320
2.906049 1.6362032 -0.54857433 4293269760
2.904232 1.6353004 -0.55514836 4293269760
2.8985622 1.6322278 -0.56032485 4293269760
2.8977211 1.6318741 -0.56576955 4293269760
2.8973792 1.6318014 -0.5706507 4293269760
2.8694744 1.6162041 -0.56939602 4293139200
2.8809178 1.6227689 -0.57525766 4293269760
2.8608308 1.6115725 -0.57414496 4293139200
2.8690331 1.6163119 -0.57802433 4293139200
2.8601723 1.6114383 -0.57779109 4293139200
2.8881743 1.6273344 -0.58433193 4293269760
2.8752253 1.6201574 -0.58191091 4293269760
2.8870165 1.6269211 -0.58381265 4293269760
2.9030199 1.6360596 -0.58587396 4293269760
2.8980846 1.6333982 -0.58302027 4293269760
2.9082832 1.6392666 -0.58252311 4293400320
2.9009197 1.6352361 -0.57782626 4293269760
2.907182 1.6388866 -0.57516813 4293400320
2.9113672 1.6413665 -0.57141268 4293400320
2.9129705 1.6423911 -0.5664748 4293400320
2.9114347 1.6416456 -0.56026709 4293400320
2.9196129 1.6463779 -0.55526209 4293400320
2.91576 1.644326 -0.54731554 4293400320
2.9081917 1.6401782 -0.53806746 4293269760
2.8963399 1.6336139 -0.5274595 4293269760
2.8849776 1.6273248 -0.51640183 4293269760
2.8908455 1.6307544 -0.50784969 4293269760
2.9057057 1.6392574 -0.50022203 4293269760
2.921365 1.6482127 -0.49204808 4293400320
2.9141073 1.6442386 -0.47942182 4293269760
2.9074843 1.6406223 -0.46640897 4293269760
2.8854842 1.6283276 -0.45052034 4293139200
2.8939345 1.633216 -0.43893155 4293269760
2.919879 1.647979 -0.42934182 4293269760
2.9213412 1.6489253 -0.4155407 4293269760
2.8916671 1.6322958 -0.3969833 4293139200
2.8840306 1.6281046 -0.38119209 4293139200
2.9135208 1.6448734 -0.36976552 4293269760
2.9230976 1.6504011 -0.35519218 4293269760
2.9192293 1.648338 -0.33855954 4293269760
2.8782227 1.6253029 -0.31749767 4293139200
2.8967495 1.6358848 -0.30277655 4293139200
2.9029632 1.6395142 -0.28629005 4293269760
2.9047203 1.6406269 -0.26900136 4293269760
2.8744178 1.6236308 -0.24862257 4293139200
2.9043911 1.6406817 -0.23318371 4293139200
2.907413 1.6425092 -0.21512052 4293269760
2.9168603 1.6479673 -0.19721833 4293269760
2.9179404 1.6486984 -0.17846791 4293269760
2.8914599 1.6338563 -0.15800293 4293139200
2.9086747 1.6437042 -0.13981299 4293139200
2.9099066 1.644521 -0.12058131 4293139200
2.8813324 1.6284919 -0.10016596 4293139200
2.9043155 1.641602 -0.081470467 4293139200
2.9153843 1.6479793 -0.062123209 4293269760
2.917125 1.6490841 -0.042423058 4293269760
2.9049604 1.6423278 -0.022544961 4293139200
2.9215746 1.6518419 -0.0028348912 4293269760
2.935849 1.6600342 0.017090978 4293269760
2.9153585 1.6485691 0.036754657 4293269760
2.9418921 1.6636952 0.057012908 4293269760
2.959501 1.673776 0.077335998 4293400320
2.9546967 1.6711814 0.097077236 4293400320
2.8996363 1.6401594 0.11466256 4293139200
2.9432056 1.6649262 0.13594607 4293269760
2.9537225 1.6709977 0.15591533 4293400320
2.9420888 1.6645384 0.17454033 4293269760
2.8278883 1.6000447 0.18607616 4292878080
2.9569476 1.6731902 0.21350388 4293400320
2.9513068 1.6701208 0.23176453 4293400320
2.9438791 1.6660397 0.24955045 4293400320
2.8408475 1.6078484 0.25827998 4293008640
2.9728901 1.6827046 0.28826433 4293530880
2.9741039 1.683515 0.30605251 4293530880
2.9701147 1.68138 0.32295266 4293530880
2.9226913 1.654655 0.33447996 4293269760
2.7806578 1.5743593 0.33374649 4292747520
2.9681537 1.6806394 0.37242338 4293530880
2.9566183 1.6742305 0.38667339 4293400320
2.9452138 1.6678946 0.40038922 4293400320
2.9236803 1.6558213 0.41211349 4293400320
2.8386455 1.6077799 0.41390398 4293008640
2.9589679 1.676052 0.44532362 4293530880
2.961051 1.6773548 0.45901957 4293530880
2.9491079 1.6707118 0.46997944 4293400320
2.9269152 1.6582608 0.47862846 4293400320
2.9197857 1.6543427 0.48907542 4293400320
2.8625436 1.6220282 0.49032539 4293139200
2.9499242 1.6716639 0.51588404 4293530880
2.9522491 1.6731038 0.52629828 4293530880
2.9534154 1.6738875 0.53591263 4293530880
2.9436519 1.668476 0.54290104 4293530880
2.9454877 1.6696389 0.55137795 4293530880
2.9409747 1.6672028 0.55802208 4293530880
2.9403851 1.6669906 0.56475097 4293530880
2.9199698 1.6555377 0.56697184 4293400320
2.9397128 1.6668535 0.57632494 4293530880
2.9236615 1.6578735 0.57799989 4293400320
2.9230063 1.6576234 0.58201712 4293400320
2.9049056 1.6474792 0.58185858 4293400320
2.9078748 1.6492839 0.58522171 4293400320
2.9117997 1.6516309 0.58809823 4293400320
2.9072587 1.6491759 0.58857721 4293400320
2.9297771 1.6620713 0.59384853 4293400320
2.929724 1.6621629 0.59385467 4293400320
2.9126427 1.6525929 0.58971763 4293400320
2.9366481 1.6663352 0.59320146 4293530880
2.9120595 1.652504 0.58618098 4293400320
2.9275928 1.6614401 0.58655369 4293400320
2.9361935 1.666443 0.58482689 4293530880
2.941788 1.6697404 0.58180016 4293530880
2.9420965 1.6700377 0.57704073 4293530880
2.9470572 1.672976 0.57251137 4293530880
2.9454205 1.6721693 0.5660283 4293530880
2.9504435 1.6751436 0.56015897 4293530880
2.9418843 1.6704062 0.55107123 4293530880
2.9515293 1.6760052 0.54475051 4293530880
2.9290807 1.6633797 0.53191698 4293400320
2.934855 1.6667807 0.52364343 4293400320
2.9482706 1.6745223 0.51606709 4293530880
2.9569974 1.6796017 0.50700092 4293530880
2.9599845 1.6814214 0.4963274 4293530880
2.9096956 1.6530029 0.40399024 4293269760
2.9366724 1.6684505 0.3928183 4293400320
2.94928 1.675736 0.37908143 4293400320
2.9515216 1.6771322 0.36351082 4293400320
2.9178908 1.6581436 0.34329048 4293269760
2.9085901 1.6529793 0.325789 4293269760
2.9340723 1.6675829 0.311728 4293400320
2.9275017 1.6639702 0.29380876 4293269760
2.8996885 1.6482819 0.27363884 4293269760
2.9133132 1.6561477 0.25716189 4293269760
2.9267404 1.6639024 0.24021885 4293269760
2.9335823 1.6679142 0.22234589 4293269760
2.8918984 1.6443346 0.20077418 4293139200
2.9203358 1.6606256 0.18393363 4293269760
2.9394336 1.6716075 0.16599667 4293400320
2.9360573 1.6698096 0.14650756 4293269760
2.8861122 1.6415246 0.12488844 4293139200
2.9122877 1.6565334 0.10658367 4293269760
2.9162021 1.6588812 0.087147288 4293269760
2.9187019 1.6604246 0.067530669 4293269760
2.8820763 1.6397084 0.047166374 4293139200
2.8961303 1.6478246 0.027732493 4293139200
2.9132366 1.6576788 0.0080854893 4293269760
2.8643863 1.6300013 -0.011537972 4293008640
2.8866351 1.6427822 -0.031255011 4293139200
2.9014964 1.6513605 -0.051111218 4293139200
2.9073019 1.6547856 -0.070893653 4293139200
2.882776 1.6409458 -0.089734562 4293139200
2.9072714 1.6550101 -0.11000414 4293269760
2.9231167 1.6641519 -0.13009822 4293269760
2.9245229 1.6650741 -0.14952451 4293269760
2.8903368 1.6457305 -0.1667545 4293139200
2.9033124 1.6532395 -0.18638504 4293269760
2.912451 1.6585646 -0.20571044 4293269760
2.9137311 1.6594146 -0.2243243 4293269760
2.8971746 1.650106 -0.24122508 4293139200
2.9243076 1.6656815 -0.26156422 4293269760
2.9269822 1.6673267 -0.27961373 4293269760
2.9387593 1.6741577 -0.2983129 4293400320
2.9222245 1.6648598 -0.31378365 4293269760
2.9020526 1.653488 -0.32830498 4293269760
2.9213901 1.6646276 -0.34692594 4293269760
2.9227207 1.6655073 -0.36314014 4293269760
2.9231291 1.6658617 -0.37884569 4293400320
2.8979728 1.651646 -0.39068684 4293269760
2.9281187 1.668949 -0.40956828 4293400320
2.9265482 1.6681757 -0.42369914 4293400320
2.9399331 1.6759276 -0.4395746 4293400320
2.936831 1.6742815 -0.45253864 4293400320
2.9308064 1.6709689 -0.46449998 4293400320
2.905798 1.6568315 -0.47279394 4293269760
2.9074981 1.657922 -0.48479736 4293269760
2.9103518 1.6596704 -0.4964582 4293400320
2.9103215 1.6597743 -0.50707042 4293400320
2.9087164 1.65898 -0.51682156 4293400320
2.9049292 1.6569409 -0.52557337 4293400320
2.9160838 1.6634247 -0.5364449 4293400320
2.9073691 1.6585747 -0.54305136 4293400320
2.8967321 1.6526271 -0.54861838 4293269760
2.8949208 1.6517143 -0.55518913 4293269760
2.8926947 1.6505647 -0.56102657 4293269760
2.8884301 1.6482517 -0.56580323 4293269760
2.8880892 1.6481774 -0.57068056 4293269760
2.867976 1.6368186 -0.5709551 4293269760
2.8759587 1.6414943 -0.57613641 4293269760
2.8559351 1.6301845 -0.57502353 4293139200
2.8641107 1.6349705 -0.57890183 4293269760
2.8672519 1.6368831 -0.58109295 4293269760
2.8636513 1.6349467 -0.58123785 4293269760
2.8702824 1.6388522 -0.58277804 4293269760
2.8854568 1.6476367 -0.58536798 4293269760
2.8851593 1.6475869 -0.584131 4293269760
2.897346 1.6546669 -0.58472979 4293400320
2.8950188 1.6534586 -0.58170933 4293269760
2.9035964 1.6584785 -0.58019197 4293400320
2.9021397 1.6577674 -0.57598388 4293400320
2.8986096 1.6558716 -0.57069939 4293400320
2.9001327 1.6568626 -0.56574708 4293400320
2.9021006 1.6581078 -0.56021595 4293400320
2.9102528 1.6628869 -0.55520475 4293400320
2.9064121 1.6608135 -0.54725218 4293400320
2.9031541 1.6590726 -0.53879344 4293400320
2.9033468 1.6593038 -0.53036028 4293400320
2.8769388 1.6443312 -0.51653785 4293269760
2.8858685 1.6495553 -0.5085181 4293269760
2.9092686 1.663052 -0.50235128 4293400320
2.9205887 1.6696447 -0.4933978 4293400320
2.9090612 1.6631759 -0.48002335 4293400320
2.8947234 1.6550993 -0.46574205 4293269760
2.8805335 1.6471062 -0.45107481 4293269760
2.8846552 1.6495833 -0.43880591 4293269760
2.9019058 1.6595689 -0.427939 4293269760
2.9076657 1.6629843 -0.41478685 4293269760
2.8789461 1.6466786 -0.39636454 4293139200
2.8790927 1.6468825 -0.38161382 4293139200
2.9041762 1.6613517 -0.36960819 4293269760
2.9134145 1.6667581 -0.35499102 4293269760
2.9176369 1.6692953 -0.33929396 4293269760
2.8646686 1.6391095 -0.31684715 4293139200
2.887455 1.6522678 -0.30259714 4293139200
2.8979714 1.6584064 -0.28653231 4293269760
2.8997235 1.65953 -0.26921225 4293269760
2.8730557 1.6443877 -0.24911064 4293139200
2.8907385 1.654629 -0.2326345 4293139200
2.9024086 1.6614299 -0.21523577 4293269760
2.903162 1.6619822 -0.1967136 4293269760
2.9125309 1.6674671 -0.17849495 4293269760
2.8899734 1.6546732 -0.15821198 4293139200
2.8993297 1.6601511 -0.13958959 4293139200
2.908361 1.6654438 -0.12067785 4293269760
2.8764088 1.6472666 -0.10008821 4293139200
2.9071853 1.6650132 -0.081579156 4293269760
2.9123878 1.6681143 -0.062021185 4293269760
2.9120822 1.6680607 -0.042245157 4293269760
2.899955 1.6612351 -0.022335961 4293139200
2.9156463 1.6703455 -0.002591853 4293269760
2.9271941 1.6770834 0.017345048 4293269760
2.909446 1.6670363 0.037048232 4293269760
2.9280841 1.6778376 0.057181321 4293269760
2.9378281 1.6835437 0.077272393 4293400320
2.9408445 1.6853951 0.097190171 4293400320
2.8859603 1.6540614 0.11474218 4293139200
2.9380574 1.6840429 0.13640329 4293400320
2.9421623 1.6865187 0.15606384 4293400320
2.9360712 1.6831496 0.17500223 4293400320
2.8274326 1.6209888 0.18689334 4292878080
2.9430838 1.6874154 0.21344462 4293400320
2.946116 1.6892768 0.23235856 4293400320
2.9387088 1.6851523 0.25016898 4293400320
2.831682 1.6238978 0.25851944 4293008640
2.9589751 1.6970208 0.28809157 4293400320
2.9645052 1.7003162 0.30629775 4293530880
2.9648452 1.700635 0.32366568 4293530880
2.9175713 1.6736405 0.33521006 4293269760
2.7837572 1.5969954 0.33542094 4292747520
2.9663291 1.7018577 0.37363046 4293530880
2.9470694 1.690931 0.38689747 4293400320
2.939146 1.6865075 0.4010776 4293400320
2.9185402 1.6748055 0.41293383 4293400320
2.8380792 1.6287515 0.41536292 4293008640
2.9416683 1.6883233 0.44435662 4293400320
2.955781 1.6965466 0.45988405 4293530880
2.948169 1.6923006 0.47154176 4293530880
2.9303362 1.6821867 0.48092207 4293400320
2.9146411 1.6732986 0.48996893 4293400320
2.8455734 1.6337655 0.4891597 4293139200
2.9481072 1.6927577 0.51739651 4293530880
2.9389033 1.6875957 0.52576756 4293530880
2.9438713 1.6905714 0.53605413 4293530880
2.9469826 1.6924813 0.5454101 4293530880
2.9359698 1.6862792 0.55150098 4293530880
2.9314718 1.6838183 0.55813551 4293530880
2.9308846 1.6836034 0.56485462 4293530880
2.9190857 1.6769477 0.56873065 4293400320
2.9149623 1.6747007 0.57340783 4293400320
2.9227622 1.679304 0.57976753 4293400320
2.9221082 1.6790503 0.58378583 4293400320
2.8955233 1.6638956 0.58190936 4293400320
2.9070244 1.6706262 0.58698601 4293400320
2.9109366 1.672996 0.58985734 4293400320
2.8944566 1.6636455 0.58790082 4293400320
2.8977182 1.6656413 0.58925849 4293400320
2.915998 1.6762706 0.59298062 4293400320
2.9117799 1.6739676 0.59143418 4293400320
2.9229016 1.6804836 0.59230644 4293400320
2.9274268 1.6832076 0.59113997 4293530880
2.9224174 1.6804494 0.58735782 4293400320
2.9309919 1.6855025 0.58561361 4293530880
2.9306765 1.6854436 0.5813992 4293530880
2.9368799 1.689134 0.5777896 4293530880
2.9418266 1.6921021 0.5732398 4293530880
2.9401975 1.691288 0.56673545 4293530880
2.9443512 1.6938004 0.56068081 4293530880
2.9452324 1.6944305 0.55334044 4293530880
2.9291768 1.685316 0.54221946 4293400320
2.9324811 1.6873398 0.53408992 4293530880
2.9211123 1.6809204 0.52269846 4293400320
2.9387677 1.6912028 0.51587522 4293530880
2.9431806 1.6938654 0.50605917 4293530880
2.9504445 1.6981695 0.49611029 4293530880
2.89974 1.6704056 0.40399024 4293269760
2.9180167 1.681056 0.39166468 4293400320
2.9442933 1.6963171 0.37974334 4293400320
2.9414203 1.6947849 0.36351597 4293400320
2.9156611 1.680065 0.34421328 4293269760
2.908474 1.6760453 0.32690385 4293269760
2.9283416 1.6876169 0.31219888 4293400320
2.9217947 1.6839662 0.29425642 4293400320
2.8923538 1.667119 0.27389947 4293269760
2.9067929 1.6755631 0.25748524 4293269760
2.9210386 1.6838971 0.24059433 4293269760
2.9192133 1.6829671 0.22203906 4293269760
2.8819938 1.6616302 0.20079806 4293139200
2.9181182 1.68258 0.18445218 4293269760
2.9160783 1.6815259 0.16527262 4293269760
2.9303267 1.6898648 0.14675558 4293400320
2.8796873 1.6607825 0.1250719 4293139200
2.9023099 1.673951 0.10661938 4293269760
2.8984168 1.671827 0.086951569 4293269760
2.9043708 1.6753829 0.067470491 4293269760
2.8756647 1.6589442 0.047265466 4293139200
2.8904755 1.6676095 0.027818158 4293139200
2.898922 1.6726038 0.0081203775 4293269760
2.8632309 1.652131 -0.011524506 4293008640
2.8845363 1.6645453 -0.031288803 4293139200
2.9002116 1.6737124 -0.051211119 4293269760
2.9027929 1.6753236 -0.070972003 4293269760
2.8784447 1.6613916 -0.089851387 4293139200
2.9016335 1.6748974 -0.11010972 4293269760
2.9130962 1.681636 -0.13003756 4293269760
2.9222839 1.6870621 -0.14986156 4293269760
2.8776572 1.6614194 -0.16653119 4293139200
2.8984859 1.6735662 -0.18665059 4293269760
2.9067874 1.6784812 -0.20595062 4293269760
2.9037409 1.6768436 -0.22425714 4293269760
2.8806381 1.6636231 -0.24060585 4293139200
2.9096568 1.6805037 -0.26108015 4293269760
2.9255753 1.6898202 -0.28037077 4293400320
2.9329946 1.6942285 -0.29868132 4293400320
2.915652 1.6843328 -0.31408438 4293269760
2.8964088 1.6733377 -0.32872349 4293269760
2.9070644 1.6796156 -0.34634182 4293269760
2.9147201 1.6841609 -0.36332139 4293400320
2.9131031 1.6833487 -0.37877497 4293400320
2.8923323 1.6714674 -0.39119872 4293269760
2.9152889 1.6848561 -0.4091076 4293400320
2.9371257 1.6975994 -0.42662483 4293400320
2.9341402 1.6959969 -0.44015035 4293400320
2.9310458 1.694331 -0.45313498 4293400320
2.9202707 1.6882248 -0.46435824 4293400320
2.9001131 1.6766932 -0.47343025 4293269760
2.9018049 1.6777929 -0.48545238 4293400320
2.8988578 1.6762104 -0.49614063 4293400320
2.9075255 1.6813443 -0.50827014 4293400320
2.9021547 1.6783601 -0.5173763 4293400320
2.9124115 1.6844139 -0.52868909 4293400320
2.8983796 1.67642 -0.53497463 4293400320
2.8973868 1.6759672 -0.5430041 4293400320
2.8987429 1.6768732 -0.5508467 4293400320
2.8935173 1.6739715 -0.55679131 4293400320
2.891295 1.6728071 -0.56265026 4293400320
2.8827748 1.6679986 -0.56660813 4293269760
2.8781672 1.6654533 -0.5706507 4293269760
2.8581219 1.6539739 -0.57092929 4293269760
2.8703394 1.6611644 -0.57697165 4293269760
2.8503826 1.6497343 -0.57586741 4293139200
2.8662002 1.6590093 -0.5813092 4293269760
2.8454621 1.647125 -0.57865775 4293139200
2.8538051 1.6520742 -0.5812341 4293269760
2.8646736 1.6584861 -0.58364737 4293269760
2.8755329 1.6648937 -0.58537412 4293269760
2.8837581 1.6697769 -0.58587396 4293269760
2.8916399 1.6744621 -0.58560961 4293400320
2.8884676 1.6727462 -0.58241904 4293400320
2.900414 1.6797862 -0.58158529 4293400320
2.8998256 1.6795671 -0.57754594 4293400320
2.9005723 1.6801213 -0.57309794 4293400320
2.9020915 1.6811231 -0.56813043 4293400320
2.8991075 1.6795161 -0.56162322 4293400320
2.9002297 1.680288 -0.55526209 4293400320
2.8921313 1.6757174 -0.54650873 4293400320
2.8931525 1.6764305 -0.53886294 4293400320
2.8847978 1.6717104 -0.52886945 4293269760
2.8820615 1.6702458 -0.51932871 4293269760
2.8716462 1.6643302 -0.50784969 4293269760
2.8992405 1.6804448 -0.50244623 4293400320
2.9062402 1.684624 -0.49277377 4293400320
2.9033134 1.6830492 -0.48084018 4293400320
2.892453 1.6768749 -0.4671008 4293269760
2.8748114 1.666768 -0.45185599 4293269760
2.8767264 1.6679991 -0.43924001 4293269760
2.9004166 1.681857 -0.42933288 4293269760
2.9053621 1.6848466 -0.4160324 4293269760
2.869014 1.6638886 -0.39650846 4293139200
2.8734562 1.6665854 -0.38233554 4293139200
2.8941557 1.6787125 -0.36976552 4293269760
2.9122694 1.6893413 -0.35624444 4293400320
2.9118717 1.6892329 -0.33996624 4293269760
2.8547828 1.6562344 -0.31701961 4293139200
2.87749 1.6695291 -0.30277655 4293139200
2.8922787 1.678231 -0.28714561 4293269760
2.8897157 1.6768652 -0.26940322 4293269760
2.8596148 1.6595182 -0.24899806 4293139200
2.8893893 1.6769185 -0.23353238 4293269760
2.8967066 1.6812868 -0.2157634 4293269760
2.893142 1.6793394 -0.19692451 4293269760
2.9071665 1.6876022 -0.17899966 4293269760
2.8843184 1.6744601 -0.15866823 4293139200
2.8936436 1.6799952 -0.14002205 4293269760
2.8905456 1.678318 -0.12058131 4293139200
2.866482 1.6644666 -0.10031721 4293139200
2.8979566 1.6828645 -0.081836663 4293269760
2.902338 1.6855307 -0.06225954 4293269760
2.8977103 1.6829649 -0.042423058 4293269760
2.8942723 1.6810898 -0.022612518 4293269760
2.90991 1.6902949 -0.0028424931 4293269760
2.9205539 1.6966003 0.017115874 4293269760
2.8994086 1.6844386 0.036798552 4293269760
2.9223058 1.6978637 0.057012908 4293269760
2.9397957 1.708149 0.077335998 4293400320
2.9428005 1.7100185 0.097334512 4293400320
2.9043882 1.6878197 0.11562041 4293269760
2.936563 1.7066408 0.13654862 4293400320
2.9320157 1.7041212 0.15580723 4293400320
2.9345801 1.7057351 0.17526224 4293400320
2.8176825 1.6379063 0.18664792 4292878080
2.9329352 1.7050256 0.21319029 4293400320
2.9359574 1.7069058 0.23210545 4293400320
2.9242651 1.7002312 0.24955045 4293400320
2.8219185 1.6408432 0.25827998 4293008640
2.9608326 1.7217412 0.2890211 4293530880
2.9592755 1.72096 0.30656958 4293530880
2.954623 1.7183787 0.32342365 4293530880
2.9161139 1.6961048 0.33596647 4293400320
2.7827566 1.6186569 0.33623964 4292878080
2.9483681 1.7151127 0.37242338 4293530880
2.9454963 1.7135661 0.38780412 4293530880
2.9290116 1.7040991 0.40085912 4293400320
2.8888767 1.6808701 0.40994096 4293269760
2.8317218 1.647734 0.41566607 4293008640
2.9485886 1.715861 0.4467406 4293530880
2.9455867 1.7142379 0.45968792 4293530880
2.9585459 1.7219043 0.47464916 4293530880
2.9202278 1.6997255 0.48074135 4293400320
2.9080064 1.6927345 0.49037334 4293400320
2.8400288 1.6532844 0.48973581 4293139200
2.9379337 1.710402 0.51723784 4293530880
2.9330301 1.7076706 0.526384 4293530880
2.9422455 1.7131598 0.53747195 4293530880
2.9368081 1.7101175 0.54527736 4293530880
2.9300964 1.7063323 0.55218166 4293530880
2.9290209 1.7058293 0.55948782 4293530880
2.9164989 1.6986593 0.56392699 4293400320
2.9090002 1.6944141 0.56863737 4293400320
2.9200897 1.7009964 0.57632494 4293530880
2.9084017 1.6943104 0.57884735 4293400320
2.915411 1.6985164 0.58440638 4293530880
2.8889153 1.6832016 0.58254516 4293400320
2.9012246 1.6904956 0.58780825 4293400320
2.8966107 1.6879289 0.58896339 4293400320
2.9006073 1.69038 0.5911786 4293400320
2.9102104 1.6960988 0.59384853 4293400320
2.910156 1.6961896 0.59385467 4293400320
2.9136081 1.6983242 0.59387994 4293530880
2.917031 1.7004423 0.59320146 4293530880
2.90537 1.6937671 0.58876771 4293400320
2.9122889 1.6979231 0.587412 4293400320
2.9080632 1.6955819 0.58312005 4293400320
2.9205143 1.7029647 0.5814783 4293530880
2.9309516 1.7091739 0.57872212 4293530880
2.9358797 1.7121714 0.57417721 4293530880
2.9385152 1.713832 0.56850076 4293530880
2.9383934 1.7138848 0.56162506 4293530880
2.9264824 1.7070606 0.55187511 4293530880
2.9232702 1.70531 0.54316586 4293530880
2.9137647 1.6998876 0.53269684 4293400320
2.9109652 1.698377 0.52287686 4293400320
2.9285574 1.7087643 0.51606709 4293530880
2.9341583 1.7121558 0.50647163 4293530880
2.9444635 1.7182933 0.49704877 4293530880
2.890238 1.6867932 0.40399024 4293269760
2.9182432 1.7032604 0.39298126 4293400320
2.9389358 1.7154616 0.38029531 4293530880
2.9317801 1.7114084 0.36351082 4293400320
2.9018092 1.6940353 0.34369752 4293269760
2.9066763 1.6969991 0.32776728 4293269760
2.9195421 1.7046335 0.31227341 4293400320
2.916518 1.7029907 0.29467797 4293400320
2.8906174 1.6879888 0.27462032 4293269760
2.9015675 1.6945053 0.2578505 4293269760
2.9149065 1.7024181 0.24085939 4293269760
2.9061947 1.6974524 0.22175418 4293269760
2.8725429 1.6779182 0.20077418 4293139200
2.9085481 1.6990722 0.18442565 4293269760
2.9151385 1.7030449 0.16573408 4293269760
2.9164021 1.7039059 0.14650756 4293269760
2.8831832 1.6846194 0.12560259 4293139200
2.9005554 1.694892 0.10686983 4293269760
2.900991 1.6952689 0.087277122 4293269760
2.8948412 1.6917971 0.067430139 4293269760
2.8748612 1.6802416 0.047365494 4293139200
2.8853064 1.6864679 0.027815135 4293139200
2.8937242 1.6915102 0.0080854893 4293269760
2.857286 1.6703308 -0.011586985 4293139200
2.8793836 1.6833701 -0.031386748 4293139200
2.8863742 1.6875788 -0.051187757 4293139200
2.9007697 1.6961176 -0.071211465 4293269760
2.8767588 1.6821995 -0.090151303 4293139200
2.8921044 1.6912948 -0.11016847 4293269760
2.9035285 1.6980979 -0.13009822 4293269760
2.9092355 1.7015582 -0.14974645 4293269760
2.8682036 1.6776805 -0.1665941 4293139200
2.888963 1.6899449 -0.18671532 4293269760
2.8972361 1.6949066 -0.20601675 4293269760
2.8985045 1.6957709 -0.22465806 4293269760
2.8832228 1.6869519 -0.24168369 4293269760
2.9086978 1.7019798 -0.26192412 4293269760
2.9159577 1.7063508 -0.28044096 4293400320
2.9190531 1.7082852 -0.2983129 4293400320
2.9026279 1.6987953 -0.31378365 4293269760
2.8868842 1.689703 -0.32879409 4293269760
2.9017358 1.698518 -0.34691873 4293269760
2.9008434 1.6981179 -0.36285579 4293269760
2.9043114 1.7002705 -0.37894884 4293400320
2.8913884 1.6928271 -0.3924318 4293269760
2.9099808 1.7038351 -0.40978044 4293400320
2.9188995 1.7091804 -0.42544627 4293400320
2.9202063 1.7100687 -0.4395746 4293400320
2.9287462 1.7151933 -0.45434168 4293530880
2.9234822 1.7122338 -0.46646962 4293400320
2.8948398 1.6955805 -0.47419348 4293400320
2.8879836 1.6916865 -0.48479736 4293269760
2.8950841 1.6959679 -0.4971911 4293400320
2.9027286 1.7005687 -0.50916547 4293400320
2.8968637 1.6972549 -0.51819438 4293400320
2.8982112 1.6981667 -0.52790213 4293400320
2.8922446 1.6947926 -0.53565598 4293400320
2.8921049 1.6948329 -0.54385209 4293400320
2.8849413 1.6907568 -0.55007929 4293400320
2.8916483 1.6948094 -0.55831099 4293400320
2.8817739 1.6891437 -0.5626877 4293400320
2.8732817 1.6842873 -0.56664187 4293269760
2.8771918 1.6867008 -0.57237202 4293269760
2.8487098 1.6701239 -0.5709551 4293269760
2.8685358 1.6818686 -0.57853615 4293269760
2.8528922 1.672817 -0.5782963 4293269760
2.8525131 1.6727149 -0.58045787 4293269760
2.8445868 1.6681871 -0.58039957 4293269760
2.8444071 1.6682018 -0.58123785 4293269760
2.8552396 1.6746756 -0.58364624 4293269760
2.8660634 1.681145 -0.58536798 4293269760
2.8776598 1.6880685 -0.58655518 4293400320
2.8863657 1.6932974 -0.586456 4293400320
2.8713086 1.6845855 -0.58084989 4293269760
2.8798265 1.6897044 -0.57933718 4293400320
2.8783772 1.6889757 -0.57513475 4293400320
2.8910213 1.696517 -0.57305861 4293400320
2.8891342 1.6955316 -0.56741714 4293400320
2.898067 1.7008964 -0.56322497 4293400320
2.8906801 1.696683 -0.55520475 4293400320
2.8945236 1.6990614 -0.54870421 4293400320
2.8836262 1.6927865 -0.53879344 4293400320
2.8710403 1.6855193 -0.52801067 4293269760
2.8606427 1.6795361 -0.51709068 4293269760
2.8664527 1.6830683 -0.5085181 4293269760
2.889694 1.6968367 -0.50235128 4293400320
2.9009364 1.7035608 -0.4933978 4293400320
2.9022887 1.7044777 -0.48215041 4293400320
2.891468 1.6982449 -0.46837035 4293400320
2.8738885 1.6880413 -0.45308363 4293269760
2.8758011 1.6892862 -0.44042343 4293269760
2.8908646 1.698257 -0.42919984 4293269760
2.8965886 1.7017421 -0.41600713 4293400320
2.8715498 1.6871531 -0.39802584 4293269760
2.8639913 1.6828332 -0.38218534 4293139200
2.8889065 1.697595 -0.37015721 4293269760
2.9103911 1.710343 -0.35702673 4293400320
2.9022777 1.7056977 -0.3397961 4293269760
2.8539577 1.6774201 -0.31780279 4293139200
2.8680074 1.6857991 -0.30259714 4293139200
2.8827462 1.6945844 -0.28695983 4293269760
2.8930798 1.7007811 -0.27041703 4293269760
2.854486 1.6782132 -0.24917915 4293139200
2.8755629 1.6907264 -0.23298287 4293139200
2.8905954 1.6996871 -0.21581382 4293269760
2.8967671 1.7034386 -0.19761182 4293269760
2.8963475 1.7033144 -0.17870739 4293269760
2.8791077 1.6932975 -0.15868653 4293139200
2.8846092 1.6966552 -0.13982323 4293269760
2.8904784 1.7002294 -0.1207497 4293269760
2.864774 1.6852309 -0.10035984 4293139200
2.8754642 1.6916411 -0.081236638 4293139200
2.8970628 1.70447 -0.062113564 4293269760
2.901067 1.7069486 -0.042371027 4293269760
2.8862271 1.6983391 -0.022381132 4293269760
2.8967874 1.7046756 -0.0025925699 4293269760
2.9074547 1.711076 0.017345048 4293269760
2.8984425 1.7058947 0.037158713 4293269760
2.916091 1.7164052 0.057333797 4293269760
2.9343822 1.7272955 0.077705882 4293400320
2.9296217 1.7246171 0.097476788 4293400320
2.8818614 1.6966236 0.1153574 4293269760
2.9268465 1.7232311 0.13680576 4293400320
