# .PCD v0.7 - Point Cloud Data file format
VERSION 0.7
FIELDS x y z rgba
SIZE 4 4 4 4
TYPE F F F U
COUNT 1 1 1 1
WIDTH 1054
HEIGHT 1
VIEWPOINT 0 0 0 1 0 0 0
POINTS 1054
DATA ascii
0.83931124 -0.97806621 -0.15809594 4286350080
0.82268059 -0.95867831 -0.1603611 4286219520
0.66516161 -0.77558929 -0.13405198 4285436160
0.58808541 -0.68598741 -0.12222186 4285044480
0.60201061 -0.7021215 -0.12862335 4285044480
0.79656732 -0.92809576 -0.17433771 4286088960
0.80524182 -0.9381128 -0.18055157 4286219520
0.81133711 -0.94513273 -0.18606333 4286219520
0.75367612 -0.87809938 -0.17657708 4285827840
0.71358311 -0.83147848 -0.17051762 4285697280
0.60989094 -0.71100318 -0.14853139 4285175040
0.62834793 -0.73239118 -0.15553358 4285305600
0.59551102 -0.69421434 -0.14970125 4285044480
0.63845587 -0.74403405 -0.16263263 4285305600
0.62151778 -0.72432065 -0.16032155 4285175040
0.6025008 -0.70219618 -0.15718476 4285175040
0.63966876 -0.74529958 -0.16846085 4285305600
0.60879385 -0.70941174 -0.16176754 4285175040
0.64276832 -0.74880236 -0.17199482 4285305600
0.6128965 -0.71408319 -0.16506803 4285175040
0.61604184 -0.71768814 -0.16673563 4285175040
0.637851 -0.74295264 -0.17325301 4285305600
0.64039445 -0.74585688 -0.17439453 4285305600
0.60953259 -0.70999807 -0.16628538 4285175040
0.65796292 -0.76614696 -0.17945722 4285436160
0.63293099 -0.73705548 -0.17252098 4285305600
0.60213077 -0.70127565 -0.16384533 4285175040
0.61172241 -0.7123583 -0.16590238 4285175040
0.63002008 -0.73353863 -0.17008153 4285305600
0.59669644 -0.69483888 -0.1602488 4285044480
0.61936843 -0.72109133 -0.16517089 4285175040
0.64311665 -0.74858874 -0.17009541 4285305600
0.60918754 -0.70919323 -0.1597012 4285175040
0.65580785 -0.76321137 -0.17004578 4285436160
0.76495641 -0.88972867 -0.19584417 4285958400
0.79965198 -0.92990196 -0.20201877 4286088960
0.80737525 -0.93879789 -0.20104136 4286219520
0.80772561 -0.93914485 -0.19797821 4286219520
0.80486727 -0.93577212 -0.1939169 4286219520
0.78880626 -0.91709518 -0.18655428 4286088960
0.75471663 -0.87752312 -0.17497195 4285827840
0.81252211 -0.9444679 -0.18423948 4286219520
0.84144342 -0.97792798 -0.18634735 4286350080
0.83827221 -0.97419137 -0.18104328 4286350080
0.84190333 -0.97833812 -0.17699273 4286350080
0.8506937 -0.98846275 -0.17374869 4286350080
0.85522449 -0.99365056 -0.16936485 4286350080
0.86359084 -1.0032816 -0.16546555 4286480640
0.86731642 -1.0075351 -0.16042009 4286480640
0.86342049 -1.0029585 -0.1537976 4286480640
0.8650285 -1.0047585 -0.1479948 4286480640
0.86874735 -1.0090033 -0.14234984 4286480640
0.86921078 -1.0094769 -0.1359885 4286480640
0.86315918 -1.0024048 -0.12850834 4286480640
0.87010545 -1.0103867 -0.1228019 4286480640
0.85935467 -0.99787372 -0.11451337 4286350080
0.86980832 -1.0099163 -0.108906 4286480640
0.86368454 -1.0027626 -0.10108788 4286480640
0.86193341 -1.0006725 -0.093733132 4286350080
0.86766899 -1.0072503 -0.087051459 4286480640
0.87126213 -1.0113472 -0.079985298 4286480640
0.87064153 -1.0105656 -0.072425917 4286480640
0.85879409 -0.99678874 -0.063974135 4286350080
0.86203724 -1.0004804 -0.056640513 4286350080
0.85573149 -0.99311978 -0.048655581 4286350080
0.84678113 -0.98269939 -0.040607203 4286350080
0.84368163 -0.97905117 -0.032900076 4286350080
0.84409761 -0.97947156 -0.025317734 4286350080
0.85047007 -0.98678404 -0.01782299 4286350080
0.8632524 -1.0015121 -0.010267754 4286350080
0.8644461 -1.0028306 -0.0024478515 4286350080
0.86773872 -1.0065773 0.0054086777 4286480640
0.86304462 -1.0010843 0.013189462 4286350080
0.87096339 -1.0101819 0.021183975 4286480640
0.87416506 -1.0138222 0.029135955 4286480640
0.87450594 -1.0141532 0.036989097 4286480640
0.87593609 -1.015744 0.044862658 4286480640
0.8613686 -0.99883401 0.051741112 4286350080
0.86750805 -1.0058713 0.059741899 4286480640
0.86142153 -0.99877059 0.066828288 4286350080
0.86848128 -1.0068711 0.074874558 4286480640
0.85440743 -0.99053657 0.080945879 4286350080
0.8539719 -0.98997116 0.088102072 4286350080
0.85709977 -0.99352533 0.09555158 4286350080
0.86434036 -1.001833 0.10343988 4286480640
0.85659212 -0.99281442 0.10940956 4286350080
0.86275953 -0.99988067 0.11702634 4286350080
0.87151277 -1.0099347 0.12498035 4286480640
0.88059425 -1.0203665 0.13297807 4286480640
0.88138807 -1.0212201 0.13964687 4286480640
0.85441613 -0.98998976 0.14156118 4286350080
0.8640694 -1.0010816 0.14926839 4286480640
0.87275666 -1.0110559 0.15676735 4286480640
0.87853223 -1.0176651 0.16366293 4286480640
0.87280577 -1.010986 0.16822854 4286480640
0.85940194 -0.99543917 0.17100079 4286350080
0.85899276 -0.9949041 0.17608085 4286350080
0.85858905 -0.99437535 0.1809559 4286350080
0.86143327 -0.99759787 0.18632215 4286480640
0.86051065 -0.99646974 0.19066972 4286480640
0.86244959 -0.99864626 0.19543716 4286480640
0.85383171 -0.9886322 0.19755371 4286350080
0.85348564 -0.9881705 0.20131442 4286350080
0.84063512 -0.97327143 0.20183465 4286350080
0.84702671 -0.98058921 0.20671414 4286350080
0.8490898 -0.98290914 0.21032883 4286350080
0.84623677 -0.97955382 0.21247783 4286350080
0.84599155 -0.97920895 0.21502335 4286350080
0.84805322 -0.98152679 0.21790889 4286350080
0.85108417 -0.98496294 0.22080155 4286350080
0.85091269 -0.98470289 0.22261117 4286350080
0.84770083 -0.98093414 0.22335732 4286350080
0.84113234 -0.97329265 0.22293994 4286350080
0.84749746 -0.98057538 0.22568707 4286350080
0.8502323 -0.98366868 0.22721197 4286350080
0.84375215 -0.97613019 0.2260045 4286350080
0.84741116 -0.9802894 0.22724447 4286350080
0.84744191 -0.9802627 0.22724457 4286350080
0.85056943 -0.98380798 0.22780657 4286350080
0.85388649 -0.98757142 0.22814786 4286350080
0.84785342 -0.98055059 0.22572523 4286350080
0.8454206 -0.97768253 0.22400461 4286350080
0.84236968 -0.97410202 0.22186467 4286350080
0.84580255 -0.97799844 0.22117074 4286350080
0.84861809 -0.98118263 0.22004318 4286350080
0.84629232 -0.97843856 0.21732381 4286350080
0.85262537 -0.98567742 0.21656267 4286350080
0.85034817 -0.98298931 0.21335001 4286350080
0.84979922 -0.98229373 0.21033125 4286350080
0.85338658 -0.98636603 0.20808065 4286350080
0.86370379 -0.99819452 0.20717621 4286480640
0.85738981 -0.99085367 0.20202594 4286350080
0.86687148 -1.0017174 0.20035031 4286480640
0.85262364 -0.98523438 0.19298066 4286350080
0.85541981 -0.98839331 0.1893034 4286350080
0.86843228 -1.0029554 0.15889309 4286480640
0.87128192 -1.006173 0.15352497 4286480640
0.87487513 -1.0102464 0.1480711 4286480640
0.84992087 -0.9814446 0.13776389 4286350080
0.85689586 -0.9894132 0.13261513 4286350080
0.86386818 -0.99737763 0.1272146 4286350080
0.86060297 -0.993554 0.12013384 4286350080
0.85449219 -0.98645473 0.11259387 4286350080
0.85860258 -0.99112308 0.1062948 4286350080
0.85899156 -0.99150699 0.099379927 4286350080
0.86694121 -1.0005937 0.09316469 4286480640
0.85675108 -0.98880035 0.084908798 4286350080
0.87204194 -1.006335 0.079052359 4286480640
0.87235212 -1.0066271 0.071611904 4286480640
0.87739152 -1.0123613 0.064437054 4286480640
0.86100394 -0.99343896 0.055705905 4286350080
0.88230807 -1.0178877 0.04932826 4286480640
0.87809354 -1.0129731 0.041305598 4286480640
0.87568325 -1.0101347 0.03338195 4286480640
0.86229396 -0.99466658 0.025137331 4286350080
0.86016953 -0.99215853 0.017338835 4286350080
0.85669786 -0.98810124 0.0095429337 4286350080
0.85892719 -0.99060154 0.0018142768 4286350080
0.85377645 -0.98461372 -0.0059116636 4286350080
0.8570531 -0.98831838 -0.013667582 4286350080
0.85114938 -0.98146564 -0.021246525 4286350080
0.86590999 -0.99837506 -0.029382808 4286350080
0.86456716 -0.99676669 -0.037074637 4286350080
0.86592454 -0.99826288 -0.044841111 4286350080
0.86646491 -0.99881971 -0.052535269 4286350080
0.88368911 -1.0185558 -0.061326966 4286480640
0.87522393 -1.0087594 -0.068369225 4286480640
0.8740592 -1.0073555 -0.075818673 4286480640
0.87863946 -1.0125549 -0.083708934 4286480640
0.8847689 -1.019534 -0.091745786 4286480640
0.88228148 -1.0166097 -0.098828793 4286480640
0.88626683 -1.0211239 -0.10653573 4286480640
0.88595712 -1.0207021 -0.11364482 4286480640
0.89206749 -1.0276572 -0.12149331 4286611200
0.87489253 -1.0078585 -0.12597558 4286480640
0.88593197 -1.0204761 -0.13430451 4286480640
0.889992 -1.0250744 -0.14154905 4286480640
0.89113343 -1.0263196 -0.14821494 4286611200
0.89171201 -1.0269182 -0.15463637 4286611200
0.83136463 -0.95754081 -0.14997406 4286219520
0.84826177 -0.97688502 -0.15868786 4286350080
0.81752843 -0.94152838 -0.15828282 4286219520
0.68204725 -0.78589243 -0.13649921 4285436160
0.60183996 -0.69374442 -0.12421104 4285044480
0.62496269 -0.7202487 -0.13258563 4285175040
0.80036157 -0.92157751 -0.17397834 4286088960
0.79739541 -0.91811317 -0.17759359 4286088960
0.79704052 -0.917647 -0.18156803 4286088960
0.71871841 -0.82768416 -0.16729914 4285697280
0.66755241 -0.76890272 -0.15851085 4285436160
0.6172722 -0.71114546 -0.14930254 4285175040
0.64493358 -0.74284577 -0.15853453 4285305600
0.62094808 -0.71527296 -0.15499775 4285175040
0.5948053 -0.68522823 -0.15056907 4285044480
0.64452457 -0.74223423 -0.16509658 4285305600
0.61889523 -0.71278071 -0.16034596 4285175040
0.65631109 -0.75566214 -0.17165287 4285305600
0.63752812 -0.73406583 -0.16821194 4285305600
0.61714172 -0.71063304 -0.16407393 4285175040
0.62676096 -0.72162175 -0.1676441 4285175040
0.65775859 -0.75713009 -0.17675617 4285436160
0.65447038 -0.75331068 -0.17654637 4285305600
0.65120536 -0.74951833 -0.17613186 4285305600
0.6421389 -0.73907351 -0.1739476 4285305600
0.62015104 -0.71381307 -0.16807842 4285175040
0.64692712 -0.74447024 -0.1751325 4285305600
0.62174529 -0.71555054 -0.16801609 4285175040
0.62816644 -0.72286707 -0.16919504 4285175040
0.64982682 -0.74765313 -0.17422344 4285305600
0.60980475 -0.70172685 -0.16265367 4285175040
0.63327926 -0.72859073 -0.16773139 4285305600
0.59586722 -0.6856631 -0.15663311 4285044480
0.62238634 -0.71601403 -0.16205332 4285175040
0.66997218 -0.77050489 -0.17254137 4285436160
0.71779275 -0.82525784 -0.18261839 4285697280
0.76458776 -0.8788287 -0.19192833 4285958400
0.802145 -0.92180789 -0.19842359 4286088960
0.80573952 -0.92586839 -0.19618799 4286088960
0.79701102 -0.91581005 -0.19076622 4286088960
0.75619531 -0.86899316 -0.17770615 4285827840
0.76307166 -0.8768158 -0.175732 4285958400
0.80404586 -0.9236958 -0.18112899 4286088960
0.84484816 -0.97037297 -0.18586795 4286350080
0.84855407 -0.97455668 -0.18204921 4286350080
0.84492981 -0.9703449 -0.17646217 4286350080
0.85644239 -0.98346817 -0.17377263 4286350080
0.86100328 -0.9886294 -0.16939016 4286350080
0.87595314 -1.0056858 -0.16672747 4286480640
0.87644148 -1.0061821 -0.16104466 4286480640
0.86925334 -0.9978894 -0.15382679 4286480640
0.87414098 -1.0034226 -0.14857741 4286480640
0.87461531 -1.0039029 -0.14238161 4286480640
0.87180883 -1.0006276 -0.13551615 4286480640
0.87226319 -1.0010853 -0.12902316 4286480640
0.86942941 -0.99777943 -0.12192492 4286480640
0.8618803 -0.98907745 -0.11411855 4286350080
0.8756817 -1.0048102 -0.10894337 4286480640
0.86951637 -0.99769235 -0.10112602 4286480640
0.87431735 -1.0031238 -0.094475359 4286480640
0.87681055 -1.0059139 -0.08741609 4286480640
0.87977195 -1.0092394 -0.080264062 4286480640
0.87389046 -1.002448 -0.072253101 4286480640
0.86196208 -0.98873979 -0.063824192 4286350080
0.86484659 -0.99197781 -0.056489907 4286350080
0.8624438 -0.98916769 -0.048751589 4286350080
0.8524971 -0.97772944 -0.040651321 4286350080
0.85266662 -0.97786248 -0.03306967 4286350080
0.85308576 -0.97828096 -0.025458619 4286350080
0.8529191 -0.97802955 -0.017802887 4286350080
0.86315387 -0.98967189 -0.010249001 4286350080
0.87027991 -0.99775833 -0.0024956909 4286350080
0.8703028 -0.99772245 0.0053378446 4286350080
0.86914706 -0.99633902 0.01314535 4286350080
0.88013208 -1.0088351 0.021216145 4286480640
0.88708746 -1.0167232 0.02932271 4286480640
0.88040656 -1.0090232 0.036939267 4286480640
0.87775362 -1.0059283 0.044602368 4286480640
0.86389053 -0.99002141 0.051493961 4286350080
0.87336099 -1.000783 0.059692349 4286480640
0.87315232 -1.0004822 0.067238003 4286480640
0.87448412 -1.0019418 0.07483758 4286480640
0.86017156 -0.98552555 0.08089754 4286350080
0.86301833 -0.98871678 0.088392049 4286350080
0.85959721 -0.98474663 0.095138781 4286350080
0.87017065 -0.99676442 0.10339206 4286480640
0.86565191 -0.99154037 0.10978017 4286350080
0.86857867 -0.99482173 0.11697967 4286350080
0.88066971 -1.0085701 0.12540194 4286480640
0.89243275 -1.0219419 0.13381843 4286480640
0.88733172 -1.0160525 0.13960133 4286480640
0.87030625 -0.99654633 0.14318736 4286480640
0.86989594 -0.99601555 0.1492255 4286480640
0.87864125 -1.0059391 0.15672502 4286480640
0.88445532 -1.0125146 0.16362137 4286480640
0.88195848 -1.0096006 0.16881479 4286480640
0.86192876 -0.98667103 0.17031612 4286350080
0.86151797 -0.98614037 0.17537828 4286350080
0.86437649 -0.98934156 0.18092011 4286350080
0.8705017 -0.99627101 0.18698902 4286480640
0.86891884 -0.99440199 0.19121119 4286480640
0.86826169 -0.9935897 0.19540551 4286480640
0.8595854 -0.98362595 0.19752394 4286350080
0.85663116 -0.98019314 0.20067552 4286350080
0.85281003 -0.97577143 0.20336209 4286350080
0.85510206 -0.97832525 0.20726405 4286350080
0.85480964 -0.97793013 0.21030594 4286350080
0.85453862 -0.97755945 0.21310596 4286350080
0.85429043 -0.97721475 0.21566111 4286350080
0.85731661 -0.98060519 0.21879858 4286350080
0.85681516 -0.97997147 0.22078618 4286350080
0.85664201 -0.97971213 0.22259784 4286350080
0.85665631 -0.97966665 0.22419651 4286350080
0.85329062 -0.97576654 0.22464156 4286350080
0.85969722 -0.98301053 0.22739863 4286350080
0.85639006 -0.97917736 0.22732273 4286350080
0.85636026 -0.97908145 0.22784622 4286350080
0.85311323 -0.97531748 0.22724406 4286350080
0.85314363 -0.9752903 0.22724643 4286350080
0.85629147 -0.97881705 0.22781073 4286350080
0.85313427 -0.97515601 0.22642978 4286350080
0.85355604 -0.97557485 0.22573403 4286350080
0.85370541 -0.97568321 0.22470006 4286350080
0.85388356 -0.97582424 0.22340904 4286350080
0.85148948 -0.97303385 0.22118659 4286350080
0.85757464 -0.97990626 0.22089931 4286350080
0.8545832 -0.97643524 0.21800847 4286350080
0.85575354 -0.97770649 0.21592887 4286350080
0.85606319 -0.977997 0.21337558 4286350080
0.84639364 -0.96691859 0.20811646 4286350080
0.85586369 -0.97764492 0.20732169 4286350080
0.87276524 -0.99683505 0.20798649 4286480640
0.8664099 -0.98953247 0.20282504 4286480640
0.87269449 -0.99662715 0.20038857 4286480640
0.8707509 -0.9943499 0.19581132 4286480640
0.86442995 -0.98708791 0.19006431 4286350080
0.87751788 -1.0016116 0.1594902 4286480640
0.88038808 -1.0048145 0.15409981 4286480640
0.88072681 -1.0051355 0.14807054 4286480640
0.86528885 -0.98750007 0.1393249 4286350080
0.86262697 -0.98440713 0.13261317 4286350080
0.86636043 -0.98859251 0.12673014 4286350080
0.87227434 -0.99525863 0.12095285 4286480640
0.85362959 -0.97397935 0.11172617 4286350080
0.86390269 -0.9856053 0.1062352 4286350080
0.86802644 -0.99023354 0.099753551 4286350080
0.86944461 -0.99178308 0.09280479 4286350080
0.85589063 -0.97630066 0.084249415 4286350080
0.88116688 -1.0049894 0.079341836 4286480640
0.8852185 -1.009533 0.072179265 4286480640
0.88061786 -1.0042354 0.064232543 4286480640
0.8700574 -0.9921605 0.055908211 4286350080
0.88556498 -1.0097319 0.049167585 4286480640
0.88577282 -1.0099031 0.041377705 4286480640
0.88153476 -1.0050191 0.033367522 4286480640
0.86475432 -0.98587513 0.025024615 4286350080
0.86855841 -0.99013638 0.017377427 4286350080
0.86242163 -0.983096 0.0095261689 4286350080
0.86730736 -0.98858654 0.0018039222 4286350080
0.85589802 -0.97555387 -0.0059078913 4286350080
0.86277795 -0.98331082 -0.013686847 4286350080
0.85666418 -0.97629881 -0.021262337 4286350080
0.86508858 -0.98580992 -0.029186098 4286350080
0.87298226 -0.9947167 -0.037206855 4286350080
0.87500811 -0.99695456 -0.045030802 4286480640
0.87802142 -1.0003142 -0.052901372 4286480640
0.88958865 -1.0133921 -0.061351165 4286480640
0.88106668 -1.0036449 -0.068393774 4286480640
0.87989372 -1.0022477 -0.075843722 4286480640
0.88803595 -1.0114324 -0.084065817 4286480640
0.89067382 -1.0143635 -0.091772079 4286480640
0.88157874 -1.0039679 -0.098127946 4286480640
0.88674164 -1.0097669 -0.10591824 4286480640
0.89186847 -1.0155243 -0.11367214 4286480640
0.9013105 -1.0261812 -0.12196326 4286611200
0.88072932 -1.0027449 -0.12600292 4286480640
0.89184177 -1.015298 -0.13433228 4286480640
0.89592832 -1.0198725 -0.14157699 4286480640
0.90388173 -1.0288364 -0.1493603 4286611200
0.89437491 -1.0179778 -0.15410182 4286480640
0.82706225 -0.94150227 -0.14824615 4286219520
0.84505594 -0.96186608 -0.15707669 4286350080
0.82298058 -0.93674868 -0.15830763 4286219520
0.69315314 -0.78934276 -0.13781355 4285566720
0.61502975 -0.70063287 -0.12609439 4285175040
0.5817889 -0.66286659 -0.12270153 4284913920
0.81224412 -0.9243257 -0.17540611 4286088960
0.81187218 -0.92384452 -0.17963032 4286088960
0.76744395 -0.87337834 -0.17373385 4285958400
0.72677976 -0.82718897 -0.16806851 4285697280
0.66873723 -0.76129115 -0.15776154 4285436160
0.6338008 -0.72161222 -0.15227763 4285175040
0.59723175 -0.68008655 -0.14593609 4285044480
0.63814449 -0.72644675 -0.15822509 4285305600
0.60790831 -0.69210845 -0.15286113 4285044480
0.66447854 -0.75621867 -0.16906536 4285436160
0.64193511 -0.73060644 -0.16518998 4285305600
0.62626743 -0.71279401 -0.16277757 4285175040
0.65742368 -0.74807519 -0.17229347 4285305600
0.63689888 -0.72475708 -0.16818357 4285305600
0.65244442 -0.74233508 -0.17332534 4285305600
0.62435108 -0.71044046 -0.16673665 4285175040
0.61778629 -0.70295382 -0.16562082 4285175040
0.63339448 -0.72060096 -0.17022029 4285175040
0.66205543 -0.75304008 -0.17812814 4285436160
0.64643675 -0.73529106 -0.17400101 4285305600
0.67013437 -0.76210046 -0.18017827 4285436160
0.63892245 -0.7266829 -0.17148699 4285305600
0.65711832 -0.74725527 -0.17577112 4285305600
0.61355758 -0.69785118 -0.16347358 4285175040
0.6360358 -0.72327471 -0.16847748 4285305600
0.65575892 -0.74557376 -0.17249256 4285305600
0.61549401 -0.69991291 -0.16068006 4285175040
0.64219391 -0.73011369 -0.16606188 4285305600
0.61760342 -0.70221406 -0.15808022 4285175040
0.6681487 -0.75941902 -0.16892822 4285436160
0.71697438 -0.81466919 -0.17883924 4285697280
0.76672918 -0.87096471 -0.18843819 4285958400
0.77359825 -0.87868869 -0.18713853 4285958400
0.7739504 -0.87903237 -0.18402952 4285958400
0.72413546 -0.82257301 -0.16906835 4285697280
0.72776592 -0.8266319 -0.16651596 4285697280
0.77509505 -0.88016295 -0.17346026 4285958400
0.83820856 -0.95155621 -0.18316092 4286219520
0.84790611 -0.96247423 -0.18067016 4286350080
0.85383523 -0.96912533 -0.17709158 4286350080
0.871333 -0.98886961 -0.17556347 4286480640
0.87001854 -0.98732013 -0.16997512 4286480640
0.87849826 -0.99685502 -0.16605389 4286480640
0.8849048 -1.0040426 -0.16146293 4286480640
0.87832779 -0.99653774 -0.15434055 4286480640
0.8766675 -0.99459696 -0.14796211 4286480640
0.87714285 -0.99507278 -0.14178704 4286480640
0.88683432 -1.0059752 -0.13686238 4286480640
0.87806684 -0.99599409 -0.12895297 4286480640
0.87851161 -0.99643523 -0.12230857 4286480640
0.87421292 -0.99151075 -0.11490567 4286480640
0.88150656 -0.9996987 -0.10886636 4286480640
0.87529975 -0.99261665 -0.10104749 4286480640
0.88013202 -0.99801987 -0.094394416 4286480640
0.87933594 -0.99705756 -0.087008938 4286480640
0.88892806 -1.0078423 -0.080475248 4286480640
0.88234657 -1.0003378 -0.072381429 4286480640
0.87033927 -0.98669964 -0.063929409 4286350080
0.86700577 -0.98286951 -0.056171536 4286350080
0.87082434 -0.9871254 -0.048807785 4286350080
0.85816252 -0.97275072 -0.040560883 4286350080
0.86495638 -0.98036987 -0.033227194 4286350080
0.86206621 -0.9770422 -0.025460919 4286350080
0.85858524 -0.97304726 -0.017708797 4286350080
0.87485087 -0.99136961 -0.010218186 4286350080
0.87937301 -0.99641854 -0.002404541 4286480640
0.87343103 -0.98964214 0.0054183537 4286350080
0.87491763 -0.99126047 0.013244639 4286350080
0.88266134 -0.99994838 0.021235479 4286480640
0.88966227 -1.007796 0.029313931 4286480640
0.8917681 -1.0101125 0.037275072 4286480640
0.88689035 -1.0045395 0.044873651 4286480640
0.87558341 -0.99170488 0.051951226 4286350080
0.87319517 -0.98894566 0.059385229 4286350080
0.87894404 -0.99537742 0.067339152 4286480640
0.8835932 -1.0005662 0.075221904 4286480640
0.8691842 -0.98423177 0.081307478 4286350080
0.86543357 -0.97993523 0.088152319 4286350080
0.87521464 -0.99091882 0.096332304 4286350080
0.87593907 -0.99167514 0.10348996 4286480640
0.86777937 -0.98240095 0.10941989 4286350080
0.87763745 -0.99346924 0.1175187 4286480640
0.88980645 -1.0071449 0.12596604 4286480640
0.89504641 -1.0129973 0.13342099 4286480640
0.89321047 -1.0108619 0.13969471 4286480640
0.87607193 -0.99145484 0.14327726 4286480640
0.87565833 -0.99092633 0.14931354 4286480640
0.88446099 -1.0007987 0.15681197 4286480640
0.88372976 -0.99991113 0.16249454 4286480640
0.88121915 -0.99701571 0.16764425 4286480640
0.8676368 -0.98162806 0.17039479 4286350080
0.87050986 -0.98480833 0.17612019 4286350080
0.87995613 -0.99540395 0.18304624 4286480640
0.87954926 -0.99488276 0.18776228 4286480640
0.88123661 -0.99672395 0.19271661 4286480640
0.87401015 -0.98851025 0.19547105 4286480640
0.86919707 -0.98301959 0.19848166 4286480640
0.86820322 -0.98183715 0.20210844 4286350080
0.86196905 -0.97474492 0.20424987 4286350080
0.8642748 -0.97728395 0.20816191 4286350080
0.86046857 -0.97293061 0.21035394 4286350080
0.86674297 -0.97994423 0.21477345 4286350080
0.85994583 -0.97221905 0.2157017 4286350080
0.85710281 -0.9689526 0.21734144 4286350080
0.85921633 -0.97127432 0.2199813 4286350080
0.86247438 -0.97488588 0.22266838 4286350080
0.86232764 -0.97465903 0.22422127 4286350080
0.86547858 -0.97814912 0.2263729 4286350080
0.86211979 -0.97430182 0.22655563 4286350080
0.86532873 -0.97785681 0.22819695 4286350080
0.85876137 -0.97039419 0.22698946 4286350080
0.86203051 -0.97401667 0.22811233 4286350080
0.85879254 -0.97030658 0.22724491 4286350080
0.86196136 -0.9738155 0.22780462 4286350080
0.85878348 -0.97017354 0.22641906 4286350080
0.85920823 -0.97059053 0.22571865 4286350080
0.85935879 -0.9706986 0.22467996 4286350080
0.85692137 -0.96789145 0.22270386 4286350080
0.85974604 -0.97101158 0.22183269 4286350080
0.85409021 -0.96457988 0.21851926 4286350080
0.85762393 -0.96849823 0.21730536 4286350080
0.85814631 -0.9690249 0.21506366 4286350080
0.85845697 -0.96931297 0.21251523 4286350080
0.855277 -0.96567065 0.20886409 4286350080
0.86808974 -0.98003513 0.20884159 4286350080
0.88116968 -0.99469864 0.20854333 4286480640
0.87214828 -0.98447913 0.20275612 4286480640
0.87847441 -0.99153757 0.20031431 4286480640
0.86666358 -0.97817963 0.19353017 4286350080
0.86358219 -0.97464889 0.18854502 4286350080
0.88598269 -0.99943155 0.15996806 4286480640
0.88623309 -0.99964917 0.15410091 4286480640
0.89251661 -1.0066534 0.14906631 4286480640
0.86772972 -0.97870725 0.13879721 4286350080
0.87165838 -0.98306322 0.13312116 4286350080
0.87806332 -0.9902038 0.12759975 4286480640
0.88137227 -0.9938615 0.12141276 4286480640
0.86591542 -0.9764154 0.11259285 4286350080
0.86632419 -0.9768123 0.105833 4286350080
0.87378663 -0.98514032 0.099757724 4286350080
0.87189919 -0.9829548 0.092456453 4286350080
0.87090105 -0.98176938 0.085171297 4286350080
0.88369572 -0.99608999 0.07904911 4286480640
0.88732773 -1.0001087 0.071878634 4286480640
0.88314009 -0.99533713 0.063996799 4286480640
0.87582886 -0.9870553 0.055915106 4286350080
0.89741719 -1.0112551 0.049508143 4286480640
0.89762747 -1.0114262 0.041666612 4286480640
0.8873812 -0.9998467 0.033375904 4286480640
0.87979478 -0.99125743 0.025306679 4286350080
0.88096589 -0.99250942 0.017523028 4286480640
0.87412405 -0.98475826 0.0096053947 4286350080
0.87638271 -0.98723239 0.0018231027 4286350080
0.86489767 -0.97426641 -0.0059179934 4286350080
0.87182277 -0.98198283 -0.013726005 4286350080
0.86832756 -0.97799349 -0.021394206 4286350080
0.87414771 -0.98446757 -0.029283341 4286350080
0.87876928 -0.98959464 -0.037194811 4286350080
0.88080817 -0.99182069 -0.045018379 4286480640
0.88716382 -0.99889398 -0.053084698 4286480640
0.89216268 -1.0044429 -0.061113074 4286480640
0.88358486 -0.99474674 -0.068127088 4286480640
0.88572496 -0.99708551 -0.075830027 4286480640
0.89392072 -1.0062225 -0.084051751 4286480640
0.90321213 -1.0165884 -0.092430986 4286480640
0.88742024 -0.99879599 -0.098113574 4286480640
0.89261699 -1.0045649 -0.10590362 4286480640
0.90092105 -1.0138206 -0.1140523 4286480640
0.89909428 -1.0117053 -0.12085552 4286480640
0.89318758 -1.0050114 -0.12692276 4286480640
0.90105993 -1.013781 -0.13480918 4286480640
0.89855403 -1.010904 -0.14104581 4286480640
0.91317576 -1.0272452 -0.14988452 4286611200
0.90690994 -1.0201492 -0.15521142 4286611200
0.84509647 -0.95073593 -0.15045345 4286219520
0.85395551 -0.96061319 -0.15766869 4286350080
0.79385179 -0.8931306 -0.15172769 4285958400
0.70368475 -0.79193556 -0.13896677 4285566720
0.62899947 -0.70811778 -0.12808335 4285175040
0.59817106 -0.6734975 -0.12529479 4285044480
0.78245014 -0.88011545 -0.1678928 4285958400
0.78209144 -0.87965691 -0.17193605 4285958400
0.72861683 -0.81963885 -0.1639082 4285697280
0.67015558 -0.75403732 -0.15403406 4285436160
0.62575388 -0.70420736 -0.14671676 4285175040
0.65049225 -0.73189658 -0.15523008 4285305600
0.61367679 -0.69057882 -0.1489376 4285044480
0.65156972 -0.73301113 -0.16046773 4285305600
0.63426733 -0.71357042 -0.15839282 4285175040
0.61812669 -0.69543439 -0.15631485 4285175040
0.66522312 -0.74817306 -0.17001776 4285305600
0.63041443 -0.70911646 -0.16277219 4285175040
0.62548351 -0.70354587 -0.16290125 4285175040
0.65095603 -0.7320438 -0.17074341 4285305600
0.6344595 -0.71351373 -0.16747372 4285175040
0.644225 -0.72440964 -0.1708813 4285305600
0.65335488 -0.73459208 -0.17394477 4285305600
0.65332544 -0.73451257 -0.1743924 4285305600
0.63102245 -0.70948291 -0.16872165 4285175040
0.66645324 -0.74912423 -0.17818184 4285436160
0.63501382 -0.71386373 -0.16968004 4285175040
0.65561169 -0.73688745 -0.17478903 4285305600
0.66146511 -0.74339616 -0.17577302 4285305600
0.63008249 -0.70820647 -0.16675293 4285175040
0.65271109 -0.73350018 -0.17174008 4285305600
0.61151171 -0.68732393 -0.15988341 4285044480
0.62875664 -0.70658827 -0.16305232 4285175040
0.66220236 -0.7439875 -0.17008996 4285305600
0.63416976 -0.71255922 -0.1612387 4285175040
0.68242347 -0.76652956 -0.17139629 4285436160
0.73420411 -0.82444078 -0.18192548 4285697280
0.72792709 -0.81736356 -0.17780012 4285697280
0.78134078 -0.87709212 -0.18778002 4285958400
0.72857332 -0.81798428 -0.17218511 4285697280
0.73221236 -0.82200533 -0.16984126 4285697280
0.73916262 -0.82973111 -0.16801935 4285697280
0.78944355 -0.88593876 -0.17551714 4285958400
0.84110415 -0.94368315 -0.18261096 4286219520
0.85944325 -0.96414137 -0.18194158 4286350080
0.85748816 -0.96189404 -0.17670768 4286350080
0.87684911 -0.98349166 -0.17554086 4286480640
0.87906563 -0.98590964 -0.17063835 4286480640
0.8902483 -0.99835581 -0.16719216 4286480640
0.89074385 -0.9988479 -0.1614912 4286480640
0.88081241 -0.98767889 -0.1537953 4286480640
0.88245159 -0.98945045 -0.14799252 4286480640
0.886244 -0.99362957 -0.14234754 4286480640
0.8900317 -0.99780297 -0.13649137 4286480640
0.88717687 -0.99454904 -0.12946774 4286480640
0.88430637 -0.99127805 -0.12234362 4286480640
0.88595712 -0.99306184 -0.11571664 4286480640
0.88732046 -0.99452418 -0.10890369 4286480640
0.88772088 -0.99491006 -0.10184211 4286480640
0.88593626 -0.99285364 -0.09443371 4286480640
0.89445013 -1.0023075 -0.08795692 4286480640
0.88879883 -0.9959296 -0.079982989 4286480640
0.88816458 -0.99515903 -0.072423607 4286480640
0.87607807 -0.98159134 -0.063971847 4286350080
0.87633556 -0.98181814 -0.056444328 4286350080
0.87961632 -0.98542297 -0.049019329 4286350080
0.86382055 -0.96771425 -0.040604953 4286350080
0.86732513 -0.97156948 -0.033147458 4286350080
0.87108374 -0.97570801 -0.025601925 4286350080
0.8735826 -0.97843885 -0.017939594 4286350080
0.8806178 -0.98623633 -0.010265457 4286350080
0.88516951 -0.99125898 -0.0024525137 4286480640
0.89186245 -0.99867237 0.0054561873 4286480640
0.88735503 -0.99357682 0.013300432 4286480640
0.89514917 -1.0022188 0.021349492 4286480640
0.89219075 -0.99885339 0.029153161 4286480640
0.89542466 -1.0024023 0.037131622 4286480640
0.89273512 -0.99933738 0.044823732 4286480640
0.88135368 -0.98656911 0.051901903 4286350080
0.88828111 -0.99424136 0.059970956 4286480640
0.88473606 -0.99022245 0.067289762 4286480640
0.88941556 -0.99538434 0.075172409 4286480640
0.87491161 -0.97913432 0.081259012 4286350080
0.87446511 -0.97857529 0.088442549 4286350080
0.88364351 -0.98875755 0.096576266 4286480640
0.88836336 -0.99396324 0.10422549 4286480640
0.88014728 -0.98473352 0.11020845 4286350080
0.88940239 -0.99499911 0.11826976 4286480640
0.88902295 -0.99451399 0.12498268 4286480640
0.89828533 -1.0047857 0.13298041 4286480640
0.90506899 -1.012291 0.14057922 4286611200
0.88184232 -0.98631853 0.14323349 4286480640
0.87810934 -0.98209321 0.14870808 4286350080
0.88697106 -0.99191624 0.15618505 4286480640
0.89882672 -1.005077 0.16415003 4286480640
0.89364541 -0.99923611 0.16885744 4286480640
0.87997031 -0.98392391 0.17164955 4286480640
0.87955022 -0.98339415 0.17674874 4286480640
0.87913567 -0.98287058 0.18164217 4286480640
0.88533968 -0.98972636 0.18772754 4286480640
0.88042974 -0.98419064 0.19124666 4286480640
0.87976325 -0.9833861 0.19543947 4286480640
0.8749181 -0.97792351 0.1984518 4286480640
0.87721705 -0.98042494 0.20284377 4286480640
0.87357891 -0.97630852 0.20562191 4286350080
0.8699621 -0.97221631 0.2081372 4286350080
0.87272257 -0.97523189 0.21193285 4286350080
0.86585516 -0.96751773 0.2131293 4286350080
0.86889726 -0.97084689 0.21650377 4286350080
0.86537546 -0.96686178 0.21798824 4286350080
0.87145269 -0.97357219 0.22164157 4286350080
0.86469233 -0.96597916 0.22176886 4286350080
0.87128949 -0.97326791 0.22506054 4286350080
0.86129671 -0.962075 0.22379759 4286350080
0.86778778 -0.96924478 0.22654866 4286350080
0.86728579 -0.96862459 0.22721425 4286350080
0.87361854 -0.97561663 0.2294068 4286480640
0.86440593 -0.96529508 0.22724675 4286350080
0.8677265 -0.96893197 0.22811209 4286350080
0.86762524 -0.96875799 0.22780885 4286350080
0.8644259 -0.96513426 0.22642559 4286350080
0.87143534 -0.97287756 0.22744617 4286350080
0.87158746 -0.97298527 0.22640198 4286350080
0.87176889 -0.97312558 0.22509876 4286350080
0.86275762 -0.96303254 0.221173 4286350080
0.85969877 -0.95956659 0.21853751 4286350080
0.86325508 -0.96346402 0.21732607 4286350080
0.87300998 -0.97425985 0.21738616 4286350080
0.86409235 -0.96427333 0.21254079 4286350080
0.8668288 -0.96725726 0.21033353 4286350080
0.87378705 -0.97493857 0.20887227 4286350080
0.87770766 -0.97923893 0.20640163 4286480640
0.88141227 -0.98329836 0.20361036 4286480640
0.88754278 -0.99005622 0.20110197 4286480640
0.87234938 -0.97309059 0.19357035 4286350080
0.87255538 -0.9732576 0.18930571 4286350080
0.88913214 -0.99128836 0.15949178 4286480640
0.89203948 -0.99445742 0.15410171 4286480640
0.89570516 -0.99846923 0.14862521 4286480640
0.88006443 -0.9810167 0.13985692 4286350080
0.88069516 -0.98165494 0.13362785 4286350080
0.87782365 -0.97839999 0.12673345 4286350080
0.8871451 -0.98869818 0.12141357 4286480640
0.87158692 -0.97134238 0.11259364 4286350080
0.87533134 -0.97544146 0.10623972 4286350080
0.88551152 -0.98669213 0.10044193 4286480640
0.87760872 -0.9778468 0.09245725 4286350080
0.87054908 -0.96993941 0.084581017 4286350080
0.89326823 -0.99512023 0.079388238 4286480640
0.89313698 -0.99491042 0.071879447 4286480640
0.89493573 -0.99684471 0.064433672 4286480640
0.8849045 -0.98563701 0.056129687 4286350080
0.89994824 -1.0022844 0.04932392 4286480640
0.90350258 -1.0061678 0.041667432 4286480640
0.8898446 -0.99093342 0.033249773 4286480640
0.88287669 -0.98313111 0.02522937 4286350080
0.88338566 -0.98363298 0.01745561 4286350080
0.88653588 -0.98706782 0.0096836491 4286480640
0.87609452 -0.97541034 0.001807389 4286350080
0.8741861 -0.97322857 -0.0059393123 4286350080
0.87418085 -0.97316009 -0.013675274 4286350080
0.8740086 -0.97290617 -0.021393411 4286350080
0.88655782 -0.98677438 -0.029500172 4286480640
0.88451773 -0.98444629 -0.037194002 4286350080
0.88656962 -0.98666036 -0.04501757 4286480640
0.89631063 -0.99740821 -0.05328 4286480640
0.9073596 -1.0096062 -0.061741717 4286480640
0.89270616 -0.99327976 -0.068379514 4286480640
0.89485902 -0.99560481 -0.076110587 4286480640
0.90310693 -1.0046926 -0.0843601 4286480640
0.90664703 -1.0085558 -0.092181146 4286480640
0.89322239 -0.99359691 -0.098112755 4286480640
0.90179014 -1.0030379 -0.1062931 4286480640
0.91031873 -1.0124344 -0.11448941 4286611200
0.91321212 -1.0155787 -0.12194731 4286611200
0.89569253 -0.99608129 -0.12645461 4286480640
0.90028536 -1.0011113 -0.13382442 4286480640
0.90775704 -1.0093333 -0.141561 4286480640
0.92247224 -1.025587 -0.15042317 4286611200
0.91278434 -1.0147785 -0.15520179 4286611200
0.85394514 -0.94947177 -0.15103719 4286219520
0.84775752 -0.94255042 -0.15552059 4286219520
0.80502045 -0.8951087 -0.15285525 4286088960
0.64447129 -0.71706665 -0.12653509 4285175040
0.64904493 -0.72209072 -0.13128078 4285305600
0.61800772 -0.68764114 -0.1285814 4285044480
0.73735845 -0.819884 -0.15725489 4285697280
0.74033469 -0.82313025 -0.16176064 4285697280
0.74331743 -0.82638323 -0.16611479 4285697280
0.68447065 -0.76111799 -0.15628664 4285436160
0.63911319 -0.71080869 -0.14885963 4285175040
0.59938908 -0.66674769 -0.14219642 4285044480
0.63356543 -0.70457137 -0.15273763 4285175040
0.61018407 -0.67862248 -0.14937478 4285044480
0.66088992 -0.73475236 -0.16393052 4285305600
0.64463717 -0.71670163 -0.16192022 4285305600
0.62543774 -0.69538927 -0.15888418 4285175040
0.66029567 -0.73395413 -0.16933513 4285305600
0.65202481 -0.72474724 -0.16867104 4285305600
0.62945443 -0.69970524 -0.16407551 4285175040
0.64850724 -0.72076005 -0.17005284 4285305600
0.65767479 -0.7308659 -0.17330019 4285305600
0.62215608 -0.69149125 -0.16462405 4285175040
0.63136858 -0.70164746 -0.16748241 4285175040
0.66682589 -0.74085867 -0.17708094 4285305600
0.63515955 -0.70575559 -0.16877303 4285175040
0.65764332 -0.73060018 -0.17455354 4285305600
0.68167764 -0.75715792 -0.18052164 4285436160
0.64083117 -0.71189976 -0.16922703 4285175040
0.65004492 -0.7220524 -0.17089146 4285305600
0.6125266 -0.68048543 -0.16019683 4285044480
0.63135958 -0.70128381 -0.16397271 4285175040
0.64872068 -0.72045088 -0.16711001 4285305600
0.60793 -0.67527109 -0.15523425 4285044480
0.64492106 -0.71615642 -0.16289699 4285305600
0.62266046 -0.69148344 -0.15547453 4285175040
0.67721319 -0.75179094 -0.16680701 4285436160
0.73267514 -0.81309664 -0.17779945 4285697280
0.73630327 -0.81705898 -0.17587759 4285697280
0.74591386 -0.82763797 -0.17512199 4285697280
0.67841262 -0.75292945 -0.15642607 4285436160
0.68206298 -0.75691944 -0.15412234 4285436160
0.7443608 -0.82576543 -0.16448708 4285697280
0.85067207 -0.94327277 -0.18348652 4286219520
0.85780454 -0.95110059 -0.18042664 4286350080
0.86639911 -0.96054399 -0.17738338 4286350080
0.87591273 -0.97100234 -0.17422493 4286350080
0.88745439 -0.98370153 -0.17114784 4286480640
0.89937657 -0.99681973 -0.16780879 4286480640
0.90320724 -1.0009921 -0.16268303 4286480640
0.88988233 -0.98620158 -0.154369 4286480640
0.88819951 -0.98428041 -0.1479917 4286480640
0.8980208 -0.99507356 -0.14329875 4286480640
0.89849824 -0.99553943 -0.13689467 4286480640
0.89629376 -0.99304157 -0.12994777 4286480640
0.89006484 -0.98609722 -0.1223428 4286480640
0.88905174 -0.98491669 -0.11537138 4286480640
0.89577311 -0.99228168 -0.10922658 4286480640
0.8901546 -0.986013 -0.10146303 4286480640
0.895051 -0.99136096 -0.094784319 4286480640
0.89424521 -0.99040943 -0.087372534 4286480640
0.9006139 -0.99738276 -0.080516018 4286480640
0.89394546 -0.98995572 -0.07242278 4286480640
0.8781445 -0.97244346 -0.063710354 4286350080
0.89209801 -0.98779297 -0.057078931 4286480640
0.88227022 -0.97687918 -0.048850983 4286350080
0.87615126 -0.97006202 -0.040912148 4286350080
0.87632418 -0.97019291 -0.033271462 4286350080
0.88010728 -0.97430986 -0.025696592 4286350080
0.87926608 -0.9733209 -0.017938782 4286350080
0.88970327 -0.98478281 -0.010301156 4286480640
0.89092749 -0.98607332 -0.0024516915 4286480640
0.89094955 -0.98603672 0.0054118084 4286480640
0.8894856 -0.98435986 0.013244712 4286480640
0.90365618 -0.99993873 0.021415604 4286480640
0.91074753 -1.0077029 0.029575674 4286480640
0.90124726 -0.99715674 0.037132457 4286480640
0.90271348 -0.99871302 0.045035087 4286480640
0.89043927 -0.98510784 0.052100848 4286480640
0.89405626 -0.98903763 0.05997178 4286480640
0.89048779 -0.98503947 0.067290582 4286480640
0.89854991 -0.99387258 0.075456388 4286480640
0.87389559 -0.96661425 0.080638103 4286350080
0.88014907 -0.97345239 0.088443361 4286350080
0.88938665 -0.98358101 0.096577086 4286480640
0.89413673 -0.9887591 0.10422632 4286480640
0.87917328 -0.97219527 0.10937387 4286350080
0.88915986 -0.9831481 0.11747272 4286480640
0.89814353 -0.99299359 0.12545179 4286480640
0.91013813 -1.0061579 0.13386823 4286480640
0.90493482 -1.0003585 0.13965006 4286480640
0.8839215 -0.9771288 0.1426442 4286350080
0.88715148 -0.98062903 0.14927152 4286480640
0.89940506 -0.99407613 0.15735514 4286480640
0.90199667 -0.99687111 0.1636661 4286480640
0.89611608 -0.99032736 0.1682317 4286480640
0.88235354 -0.97509706 0.17100391 4286350080
0.88859189 -0.9819116 0.17741516 4286480640
0.88817275 -0.98138857 0.18232696 4286480640
0.89108813 -0.9845401 0.18772836 4286480640
0.88947141 -0.98269719 0.19196579 4286480640
0.88879871 -0.98189479 0.19617452 4286480640
0.87129503 -0.96254861 0.19635452 4286350080
0.87959027 -0.9716273 0.20208105 4286350080
0.87327367 -0.96460807 0.20422433 4286350080
0.87560874 -0.96711999 0.20813802 4286350080
0.87862587 -0.97038275 0.21199138 4286350080
0.87810737 -0.96975094 0.21475311 4286350080
0.87785143 -0.96940827 0.21732576 4286350080
0.87762022 -0.96909285 0.21964894 4286350080
0.87379336 -0.96481794 0.22080463 4286350080
0.87030268 -0.96091366 0.22176966 4286350080
0.87362963 -0.96451646 0.22421087 4286350080
0.87947053 -0.97088665 0.22704889 4286480640
0.87341714 -0.96416122 0.22654948 4286350080
0.87666708 -0.96767825 0.22819296 4286350080
0.87663573 -0.96758282 0.22871621 4286350080
0.87001234 -0.96023124 0.22724755 4286350080
0.87931478 -0.97040945 0.22967035 4286480640
0.8798753 -0.97096509 0.22953817 4286480640
0.87365109 -0.96405387 0.22736876 4286350080
0.8770858 -0.96777266 0.22744699 4286350080
0.87723851 -0.96787947 0.22640279 4286350080
0.87742072 -0.96801871 0.22509958 4286350080
0.87431717 -0.96454275 0.2226941 4286350080
0.8712399 -0.96109605 0.22004627 4286350080
0.87150407 -0.96132571 0.21799085 4286350080
0.87535083 -0.96549624 0.21656577 4286350080
0.87898558 -0.96943295 0.21481381 4286350080
0.87244666 -0.96217924 0.21033433 4286350080
0.87612802 -0.96616685 0.20808375 4286350080
0.89004099 -0.98140609 0.20795624 4286480640
0.89044774 -0.9817909 0.20437473 4286480640
0.88996708 -0.9811998 0.20035347 4286480640
0.88798422 -0.978957 0.19577391 4286480640
0.88486683 -0.97546715 0.19074315 4286480640
0.90090352 -0.99268913 0.16056606 4286480640
0.90450114 -0.99657911 0.15525201 4286480640
0.90418023 -0.99616259 0.14906798 4286480640
0.88241595 -0.97218412 0.13932829 4286350080
0.8890754 -0.97943878 0.13403338 4286480640
0.89288634 -0.98356283 0.12808309 4286480640
0.89288777 -0.98350126 0.1214144 4286480640
0.87722874 -0.96623641 0.11259446 4286350080
0.88435185 -0.97399873 0.10664648 4286350080
0.89124256 -0.98150474 0.10044276 4286480640
0.88664621 -0.97639346 0.092811033 4286350080
0.87954199 -0.96852863 0.084907666 4286350080
0.90195817 -0.993083 0.079647399 4286480640
0.90227753 -0.99336982 0.072150737 4286480640
0.9007259 -0.99160218 0.064434513 4286480640
0.89510292 -0.98536462 0.05641482 4286480640
0.90913469 -1.0007064 0.049509812 4286480640
0.91153842 -1.0032809 0.041769922 4286480640
0.90569866 -0.99680579 0.033631444 4286480640
0.89128059 -0.98091537 0.025308318 4286350080
0.89583331 -0.98584926 0.0175929 4286480640
0.88890201 -0.9781785 0.0096457535 4286350080
0.88445437 -0.97323447 0.0018155565 4286350080
0.87955439 -0.96779466 -0.005936766 4286350080
0.8728134 -0.96033531 -0.013570373 4286350080
0.88320106 -0.97167134 -0.021476099 4286350080
0.89228976 -0.98158062 -0.029499337 4286480640
0.90033692 -0.99034607 -0.037607424 4286480640
0.89566737 -0.9851597 -0.045183934 4286480640
0.90210444 -0.99215746 -0.053279154 4286480640
0.91322428 -1.0042909 -0.061740864 4286480640
0.89511162 -0.98435992 -0.068125442 4286480640
0.89727885 -0.98667359 -0.075828373 4286480640
0.90894306 -0.99940205 -0.084359251 4286480640
0.91499221 -1.0059713 -0.092429303 4286480640
0.90235436 -0.99204874 -0.098475583 4286480640
0.90644503 -0.99647033 -0.1061561 4286480640
0.91619998 -1.0071017 -0.11448856 4286611200
0.91911167 -1.0102291 -0.12194645 4286611200
0.90483367 -0.99451184 -0.12692109 4286480640
0.91280764 -1.0031891 -0.1348075 4286480640
0.91697222 -1.0076895 -0.14207616 4286611200
0.93178034 -1.0238552 -0.15096179 4286611200
0.92537677 -1.0167714 -0.15632556 4286611200
0.85611349 -0.94080031 -0.15045187 4286219520
0.84731412 -0.93109739 -0.15444766 4286219520
0.75959563 -0.83491892 -0.14336476 4285827840
0.6553207 -0.72061193 -0.12782829 4285305600
0.66259283 -0.72853339 -0.13314566 4285305600
0.64136815 -0.70523399 -0.1325528 4285175040
0.68647689 -0.75460488 -0.14553994 4285436160
0.67948961 -0.7469027 -0.14760378 4285436160
0.68585491 -0.75382727 -0.15237585 4285436160
0.63417649 -0.69717711 -0.14395653 4285175040
0.65923375 -0.72457552 -0.15253352 4285305600
0.61924726 -0.68073875 -0.14593552 4285044480
0.65097415 -0.71543849 -0.1559042 4285305600
0.63009965 -0.69253552 -0.15323138 4285175040
0.61971939 -0.68112588 -0.15280603 4285044480
0.67407644 -0.74059576 -0.16818504 4285305600
0.64211148 -0.70555395 -0.16205055 4285175040
0.64041871 -0.70365608 -0.16322364 4285175040
0.67816901 -0.74493474 -0.17427105 4285436160
0.65877193 -0.72365594 -0.17057082 4285305600
0.67129874 -0.73732084 -0.17486767 4285305600
0.63884646 -0.70175713 -0.16729771 4285175040
0.6514172 -0.71546984 -0.17121512 4285305600
0.64474428 -0.70812243 -0.16991659 4285175040
0.61949408 -0.68044817 -0.16354276 4285044480
0.65852392 -0.72311026 -0.17382473 4285305600
0.684475 -0.75145769 -0.18047144 4285436160
0.64932644 -0.71295691 -0.1709117 4285305600
0.66423678 -0.72922331 -0.17424913 4285305600
0.68015885 -0.74659437 -0.17761689 4285436160
0.63243288 -0.69434386 -0.16431306 4285175040
0.65471494 -0.71867132 -0.16891402 4285305600
0.61032856 -0.67008162 -0.15628433 4285044480
0.63447136 -0.69644248 -0.16093157 4285175040
0.59940767 -0.65805513 -0.15051432 4285044480
0.64265412 -0.70530289 -0.15940993 4285175040
0.68823975 -0.75510252 -0.16842562 4285436160
0.68518937 -0.75172019 -0.16528684 4285436160
0.68548536 -0.75199682 -0.16277006 4285436160
0.68579662 -0.75229007 -0.1600683 4285436160
0.69546193 -0.76280862 -0.15930985 4285436160
0.69580424 -0.76313519 -0.15620549 4285436160
0.76184601 -0.83527124 -0.16725472 4285827840
0.83846503 -0.91895849 -0.17971647 4286219520
0.87001473 -0.95338076 -0.18181509 4286350080
0.87465447 -0.95839173 -0.17792374 4286350080
0.89182997 -0.97710019 -0.17624351 4286480640
0.89316881 -0.97850239 -0.17114699 4286480640
0.9018172 -0.98789078 -0.16719048 4286480640
0.90231848 -0.98837703 -0.16148952 4286480640
0.89225751 -0.97732455 -0.15379365 4286480640
0.89727265 -0.98274243 -0.14854288 4286480640
0.90380114 -0.98981267 -0.1432979 4286480640
0.90428132 -0.9902758 -0.13689382 4286480640
0.90475094 -0.99072737 -0.13033159 4286480640
0.89915556 -0.98455513 -0.12279792 4286480640
0.89477307 -0.97970831 -0.11537053 4286480640
0.90153718 -0.98703402 -0.10922573 4286480640
0.89223015 -0.97681046 -0.10105193 4286480640
0.90080965 -0.98611754 -0.09478347 4286480640
0.90606439 -0.99179357 -0.087955229 4286480640
0.90977883 -0.99578738 -0.080811739 4286480640
0.90644091 -0.992082 -0.072959177 4286480640
0.88379312 -0.96729892 -0.06370952 4286350080
0.89080125 -0.97488862 -0.056636564 4286350080
0.88524425 -0.96876323 -0.048703741 4286350080
0.88448697 -0.96787697 -0.041034508 4286350080
0.88224518 -0.96537077 -0.033281181 4286350080
0.88238925 -0.96546835 -0.025600281 4286350080
0.88221741 -0.96522123 -0.017885121 4286350080
0.88866705 -0.9721989 -0.010227283 4286350080
0.90341198 -0.98822612 -0.0024647536 4286480640
0.90005547 -0.98450327 0.0054352637 4286480640
0.89858168 -0.98283476 0.013297698 4286480640
0.90676165 -0.99169713 0.021351181 4286480640
0.91322273 -0.99868339 0.029465569 4286480640
0.91649663 -1.0021926 0.037525889 4286480640
0.90851444 -0.99342507 0.045035947 4286480640
0.89008337 -0.97326344 0.051745065 4286350080
0.89980096 -0.98380035 0.059972633 4286480640
0.90633428 -0.99086374 0.068056747 4286480640
0.90769678 -0.99228811 0.075740397 4286480640
0.88625616 -0.9688502 0.081260666 4286350080
0.88917518 -0.9719727 0.088782407 4286350080
0.88903195 -0.97175652 0.095920667 4286350080
0.89314044 -0.97617507 0.10344385 4286480640
0.88818824 -0.9707166 0.10979241 4286350080
0.90093058 -0.98454517 0.11827144 4286480640
0.91064197 -0.99506855 0.12638922 4286480640
0.91598207 -1.0008267 0.1338691 4286480640
0.91410756 -0.99872196 0.14016759 4286480640
0.88959676 -0.97195095 0.14264505 4286350080
0.89620638 -0.97909266 0.14983501 4286480640
0.89846331 -0.98149097 0.15618673 4286480640
0.91382754 -0.99816918 0.1647577 4286480640
0.90186793 -0.98507822 0.16823255 4286480640
0.88801694 -0.96992838 0.17100474 4286350080
0.89830124 -0.98107064 0.17821175 4286480640
0.89387262 -0.97618592 0.18232781 4286480640
0.89948481 -0.9822377 0.18829046 4286480640
0.90521872 -0.9884212 0.19412155 4286480640
0.89784664 -0.98033142 0.19690961 4286480640
0.88225037 -0.96328682 0.19755764 4286350080
0.88189101 -0.96283543 0.20131835 4286350080
0.8848899 -0.96604061 0.20562357 4286350080
0.88790536 -0.96926326 0.20971753 4286480640
0.88426167 -0.96523595 0.21199223 4286350080
0.88398004 -0.96486902 0.21481243 4286350080
0.88014483 -0.96063393 0.21650541 4286350080
0.88658428 -0.96758288 0.22047974 4286480640
0.88606685 -0.96695906 0.22248098 4286480640
0.88255221 -0.96307331 0.22345971 4286350080
0.87923127 -0.95939887 0.22421171 4286350080
0.88244253 -0.96283311 0.2263654 4286350080
0.87901676 -0.95904487 0.22655031 4286350080
0.88495332 -0.96544391 0.22888362 4286480640
0.87892264 -0.95882183 0.22785279 4286350080
0.8822543 -0.96238607 0.22897887 4286350080
0.88545293 -0.96580499 0.22980157 4286480640
0.88218147 -0.9621855 0.22867475 4286350080
0.87894046 -0.95859951 0.22728951 4286350080
0.87937266 -0.95900899 0.22658849 4286350080
0.88285971 -0.96274084 0.22640364 4286350080
0.87637269 -0.9556253 0.22339945 4286350080
0.87658322 -0.95579368 0.22185032 4286350080
0.8768217 -0.95599246 0.22004712 4286350080
0.87708724 -0.95622057 0.21799169 4286350080
0.8809582 -0.96036863 0.21656661 4286350080
0.88461584 -0.96428406 0.21481466 4286350080
0.88137615 -0.96070093 0.21113606 4286350080
0.88842475 -0.96830195 0.20966329 4286480640
0.89239669 -0.9725576 0.2071802 4286480640
0.89882642 -0.97948414 0.20498644 4286480640
0.9057076 -0.98690033 0.20260233 4286480640
0.8903209 -0.97011602 0.19504051 4286480640
0.88718164 -0.9666428 0.19002569 4286350080
0.90330678 -0.98375982 0.15997057 4286480640
0.90692514 -0.98762697 0.15467815 4286480640
0.90996599 -0.99086636 0.14906885 4286480640
0.88469458 -0.96335757 0.13879967 4286350080
0.88869882 -0.96764421 0.13312364 4286350080
0.89522761 -0.97467172 0.12760222 4286480640
0.90197307 -0.98193347 0.12187225 4286480640
0.88284069 -0.96109766 0.1125953 4286350080
0.89270997 -0.97175074 0.10697208 4286350080
0.90369886 -0.98361796 0.10120296 4286480640
0.89231724 -0.97119963 0.09281189 4286350080
0.89400446 -0.97296864 0.085760273 4286350080
0.90479779 -0.98462111 0.079389945 4286480640
0.91188395 -0.99224859 0.072458327 4286480640
0.90648544 -0.98632604 0.064435385 4286480640
0.90082616 -0.98012125 0.056415685 4286480640
0.91494715 -0.99538106 0.049510688 4286480640
0.91854727 -0.99922341 0.04182525 4286480640
0.91131383 -0.99131101 0.03362577 4286480640
