# .PCD v0.7 - Point Cloud Data file format
VERSION 0.7
FIELDS x y z rgba
SIZE 4 4 4 4
TYPE F F F U
COUNT 1 1 1 1
WIDTH 1129
HEIGHT 1
VIEWPOINT 0 0 0 1 0 0 0
POINTS 1129
DATA ascii
2.7867179 2.030967 -0.50215268 4293661440
2.7863855 2.0308726 -0.51361889 4293661440
2.7914829 2.0347319 -0.52552307 4293661440
2.785717 2.0306787 -0.53477573 4293661440
2.7854059 2.0305977 -0.54444438 4293661440
2.7824936 2.028621 -0.55296838 4293661440
2.7737436 2.0223904 -0.55965781 4293661440
2.7719643 2.0212364 -0.56708103 4293661440
2.7492645 2.0048389 -0.5694961 4293530880
2.7381141 1.9968539 -0.57356662 4293530880
2.728147 1.9897293 -0.57717437 4293530880
2.6888776 1.9612485 -0.57380521 4293269760
2.6842506 1.9580107 -0.57710004 4293269760
2.6996138 1.9693419 -0.58404487 4293400320
2.6991453 1.969134 -0.58689654 4293400320
2.7019534 1.9713135 -0.58978009 4293400320
2.6905334 1.9631202 -0.58885854 4293269760
2.701488 1.9712374 -0.5921551 4293400320
2.6902616 1.9631824 -0.58989 4293269760
2.6823139 1.9575164 -0.58765751 4293269760
2.7248864 1.9886881 -0.5958159 4293530880
2.7413757 2.0008421 -0.59753269 4293530880
2.7407556 2.0005188 -0.59480387 4293530880
2.7480855 2.0059929 -0.59310293 4293530880
2.7664747 2.0195336 -0.59306824 4293661440
2.7785323 2.0284564 -0.59093601 4293661440
2.7821491 2.0312223 -0.58629036 4293661440
2.7790463 2.0290859 -0.57954478 4293661440
2.7774556 2.0280514 -0.57245463 4293661440
2.7754757 2.026732 -0.56463116 4293661440
2.7811191 2.0309739 -0.55769956 4293661440
2.7789781 2.0295355 -0.54855096 4293661440
2.7660089 2.0201941 -0.53667909 4293661440
2.7571266 2.0138335 -0.5250622 4293530880
2.7543418 2.0119216 -0.51405144 4293530880
2.7750731 2.0271728 -0.50678265 4293661440
2.7983546 2.0442867 -0.49922255 4293792000
2.7823837 2.0327487 -0.48404488 4293661440
2.7692344 2.0232687 -0.46894309 4293661440
2.7505605 2.0097535 -0.45252398 4293530880
2.7567818 2.0144122 -0.43976364 4293530880
2.7777982 2.0298731 -0.42873812 4293661440
2.7654049 2.0209403 -0.41201538 4293530880
2.7368443 2.0002 -0.39263895 4293400320
2.7445879 2.0059688 -0.37816826 4293400320
2.7702029 2.0247891 -0.36555755 4293530880
2.7634995 2.0200074 -0.34815022 4293530880
2.7332666 1.9980391 -0.32760599 4293400320
2.7273717 1.9938452 -0.30985457 4293400320
2.7447391 2.0066426 -0.29434633 4293400320
2.7491121 2.0099485 -0.27697611 4293400320
2.7275867 1.9943346 -0.25679269 4293400320
2.7414081 2.0045424 -0.23972888 4293400320
2.7543623 2.0141175 -0.22214827 4293400320
2.7611928 2.0192189 -0.20369482 4293530880
2.76614 2.0229445 -0.18480019 4293530880
2.7470188 2.0090823 -0.16418381 4293400320
2.7594218 2.0182557 -0.14534198 4293400320
2.7563405 2.016114 -0.12545331 4293400320
2.7337327 1.9997002 -0.10471432 4293400320
2.7561963 2.0162275 -0.085620411 4293400320
2.7765672 2.0312274 -0.066058941 4293530880
2.7767074 2.0314398 -0.045784369 4293530880
2.7501938 2.0121679 -0.025198083 4293400320
2.76968 2.0265226 -0.0050905966 4293530880
2.7842662 2.0372965 0.015282222 4293530880
2.7879922 2.0401311 0.035718441 4293530880
2.7838395 2.0372052 0.056015529 4293530880
2.8043845 2.0523388 0.07684914 4293661440
2.807812 2.0549567 0.097315028 4293661440
2.8053091 2.0532379 0.11747913 4293661440
2.799998 2.0494654 0.13734241 4293661440
2.8020167 2.0510535 0.15738547 4293661440
2.8114605 2.058073 0.17774846 4293661440
2.7704957 2.0282214 0.19454661 4293530880
2.8046584 2.0533226 0.21630068 4293661440
2.814888 2.060919 0.23629455 4293661440
2.8122981 2.0591378 0.25501406 4293661440
2.7783146 2.0343885 0.27038664 4293530880
2.8172624 2.0629983 0.29253134 4293792000
2.8312416 2.0733416 0.3121222 4293792000
2.8298099 2.0724099 0.32976034 4293792000
2.8152027 2.0618365 0.34540796 4293792000
2.7604637 2.0218928 0.35535887 4293530880
2.8216074 2.0667562 0.37976828 4293792000
2.8248339 2.0692351 0.39638048 4293792000
2.81917 2.0652072 0.41129434 4293792000
2.7919526 2.0454023 0.42243963 4293661440
2.7743948 2.0326669 0.43432328 4293661440
2.8257008 2.0703447 0.45660749 4293792000
2.827661 2.0719001 0.47070867 4293792000
2.8312402 2.0746415 0.4845691 4293922560
2.8161566 2.063719 0.49464723 4293792000
2.8215322 2.0677772 0.5076921 4293792000
2.7952242 2.0486345 0.51439595 4293792000
2.8174758 2.0650525 0.52938342 4293792000
2.8161182 2.0641823 0.53942609 4293792000
2.8190875 2.0664818 0.54967654 4293792000
2.8133626 2.0624139 0.55759495 4293792000
2.8134882 2.0626318 0.56600368 4293792000
2.8064563 2.0576074 0.57230216 4293792000
2.8086691 2.059356 0.57979834 4293792000
2.8110387 2.0612202 0.58666176 4293792000
2.8062623 2.0578496 0.59135056 4293792000
2.7947974 2.0495787 0.59391427 4293792000
2.7941635 2.0492439 0.59805363 4293792000
2.8015683 2.0548012 0.60321432 4293792000
2.7790914 2.0384603 0.60124546 4293661440
2.7866836 2.0441568 0.60503292 4293792000
2.789603 2.0464296 0.60710651 4293792000
2.7822912 2.041204 0.60624844 4293792000
2.7963018 2.051609 0.60930353 4293792000
2.796335 2.0517695 0.60860884 4293792000
2.8032238 2.056957 0.60868156 4293792000
2.8074117 2.0601656 0.60744828 4293792000
2.8084488 2.0610652 0.60481834 4293792000
2.8053727 2.0589495 0.60059911 4293792000
2.8002462 2.0553305 0.59525013 4293792000
2.8075519 2.0608296 0.59183073 4293792000
2.8087909 2.0618811 0.58642989 4293792000
2.8133075 2.0653374 0.58101255 4293792000
2.8102345 2.0632274 0.57335377 4293792000
2.7999451 2.0558238 0.56359679 4293792000
2.7931895 2.0510125 0.55394089 4293792000
2.7936745 2.0515141 0.54509044 4293792000
2.8074634 2.0617785 0.53814435 4293792000
2.8209465 2.0718207 0.5304215 4293922560
2.8163209 2.0685756 0.51866561 4293792000
2.8002815 2.0569532 0.50430351 4293792000
2.7809522 2.0437369 0.41447273 4293661440
2.8099558 2.0651884 0.4033702 4293792000
2.8155477 2.0694497 0.38828051 4293792000
2.7930088 2.0530515 0.36899599 4293661440
2.774626 2.0397036 0.35008308 4293530880
2.7908673 2.0517883 0.33512995 4293661440
2.8041739 2.0617194 0.31927085 4293661440
2.7703543 2.0370295 0.29785833 4293530880
2.7597227 2.0293732 0.27887264 4293530880
2.7783277 2.0431991 0.26245522 4293530880
2.7893081 2.0514245 0.24483645 4293661440
2.7876225 2.050343 0.22578211 4293661440
2.7667787 2.0351813 0.20509483 4293530880
2.7887189 2.0514643 0.18731062 4293661440
2.7939465 2.0554655 0.16801961 4293661440
2.7776935 2.0436759 0.14734475 4293530880
2.7700269 2.0381978 0.12712567 4293530880
2.772258 2.0399957 0.10725099 4293530880
2.7719982 2.0399625 0.087147743 4293530880
2.7622714 2.0329683 0.066728272 4293530880
2.7556555 2.0282605 0.046424989 4293400320
2.7576416 2.0298784 0.026240451 4293530880
2.7721066 2.0406754 0.0060131606 4293530880
2.7304819 2.0102153 -0.014108374 4293400320
2.7514052 2.0257633 -0.034432732 4293400320
2.7657294 2.0364587 -0.054895174 4293530880
2.7673578 2.0378149 -0.075158633 4293530880
2.745528 2.0219102 -0.094545327 4293400320
2.7678933 2.0385246 -0.11538788 4293530880
2.7698121 2.0400944 -0.13541968 4293530880
2.7691331 2.0397522 -0.15518904 4293530880
2.742069 2.0199895 -0.17310198 4293400320
2.7545397 2.029325 -0.19324745 4293530880
2.7565804 2.0309832 -0.21255003 4293530880
2.7512302 2.0272005 -0.23102789 4293530880
2.7572567 2.0317931 -0.25022379 4293530880
2.780659 2.0491803 -0.27093419 4293661440
2.7848303 2.0524082 -0.2896497 4293661440
2.7732985 2.0440722 -0.3063612 4293530880
2.6722071 1.9697744 -0.31207803 4293139200
2.7731788 2.0442941 -0.34116051 4293661440
2.7854288 2.053472 -0.35960433 4293661440
2.7774417 2.0477431 -0.37505552 4293661440
2.7537355 2.030432 -0.38777697 4293530880
2.6198244 1.9319222 -0.38359743 4293008640
2.8083293 2.0709615 -0.42666689 4293792000
2.8065495 2.0698037 -0.44126806 4293792000
2.8053451 2.0690694 -0.45545137 4293792000
2.7979298 2.0637567 -0.46806964 4293792000
2.7718277 2.0446699 -0.47686496 4293661440
2.7762845 2.0481045 -0.49029243 4293661440
2.7729652 2.0458069 -0.5017938 4293661440
2.7784863 2.0500252 -0.51433873 4293661440
2.7716236 2.0451136 -0.52399552 4293661440
2.7737398 2.0468204 -0.53473759 4293661440
2.7735279 2.0468104 -0.54442531 4293661440
2.770627 2.0448167 -0.55294937 4293661440
2.7650907 2.0408783 -0.5602842 4293661440
2.756171 2.0344434 -0.56624448 4293661440
2.7335687 2.0179148 -0.56864977 4293530880
2.7335739 2.018059 -0.57505363 4293530880
2.7204738 2.0085349 -0.57800031 4293530880
2.6702685 1.9716355 -0.57225364 4293269760
2.6767609 1.97656 -0.57793951 4293269760
2.6912644 1.9873953 -0.5847168 4293400320
2.6947591 1.9901081 -0.58843911 4293400320
2.6872528 1.9847026 -0.58906519 4293400320
2.6901419 1.9869672 -0.59128368 4293400320
2.6867883 1.9846239 -0.59143746 4293400320
2.6827388 1.9817659 -0.59074581 4293400320
2.6748245 1.9760537 -0.5885126 4293269760
2.7172146 2.0074735 -0.59666908 4293530880
2.7296717 2.0167992 -0.59751391 4293530880
2.7330153 2.0193973 -0.59565055 4293530880
2.7434838 2.0272548 -0.59463352 4293661440
2.7586246 2.0385628 -0.5939045 4293661440
2.7666667 2.0446296 -0.59091699 4293661440
2.7631307 2.0421464 -0.58475733 4293661440
2.7671771 2.0452619 -0.57952571 4293661440
2.7728024 2.0495427 -0.57393152 4293661440
2.7780678 2.0535576 -0.56757116 4293792000
2.7692389 2.0471618 -0.55768049 4293661440
2.763135 2.0427773 -0.54774261 4293661440
2.7581646 2.0392287 -0.53743631 4293661440
2.7477341 2.0316453 -0.52550119 4293530880
2.7505257 2.0338287 -0.51552731 4293530880
2.7697415 2.0481472 -0.50796396 4293661440
2.7863967 2.0605741 -0.49920332 4293792000
2.7856243 2.0601242 -0.48667741 4293661440
2.765367 2.0452745 -0.47028339 4293661440
2.7467759 2.0316539 -0.45382655 4293530880
2.759027 2.0408254 -0.44199982 4293530880
2.7680347 2.0476003 -0.42904732 4293661440
2.7607687 2.0423465 -0.41307548 4293530880
2.7411194 2.0279379 -0.39493087 4293530880
2.7457397 2.0314682 -0.37993979 4293530880
2.7674382 2.0476239 -0.3667469 4293661440
2.7636826 2.0449619 -0.34965625 4293530880
2.7367849 2.0251892 -0.32942647 4293400320
2.719712 2.0126784 -0.31029499 4293400320
2.7461023 2.032304 -0.29574624 4293530880
2.737355 2.0259478 -0.27695724 4293400320
2.7271445 2.0185084 -0.25784197 4293400320
2.7336924 2.0234621 -0.24006467 4293400320
2.7425809 2.0301468 -0.22212936 4293400320
2.7552843 2.0396538 -0.20411684 4293530880
2.7543066 2.0390418 -0.18478119 4293530880
2.7352664 2.0250683 -0.16416493 4293400320
2.7476158 2.0343137 -0.14532302 4293400320
2.7598112 2.0434461 -0.12614191 4293530880
2.7300704 2.021553 -0.1050099 4293400320
2.7524383 2.0382121 -0.085857458 4293530880
2.7595816 2.0436075 -0.065914549 4293530880
2.7719586 2.0528765 -0.045888167 4293530880
2.7415392 2.0304766 -0.02520996 4293400320
2.76719 2.0495687 -0.005095196 4293530880
2.7861769 2.0637312 0.01536817 4293661440
2.7832923 2.0617073 0.035825714 4293661440
2.7759411 2.0563774 0.056113079 4293530880
2.800415 2.074604 0.07708399 4293661440
2.8110569 2.0825937 0.097855002 4293661440
2.7877567 2.0654576 0.11726926 4293661440
2.7839942 2.062784 0.13716671 4293661440
2.790019 2.0673563 0.15740474 4293661440
2.7954082 2.0714591 0.17751586 4293661440
2.7666554 2.0502818 0.19512561 4293530880
2.7926474 2.0696402 0.21631996 4293661440
2.8068416 2.0802648 0.23664893 4293792000
2.8075294 2.080888 0.2556906 4293792000
2.7736249 2.0558927 0.27110502 4293661440
2.8204107 2.0906579 0.29412594 4293792000
2.8231158 2.0927773 0.31258175 4293792000
2.8288884 2.0971696 0.33108217 4293792000
2.802423 2.0776815 0.3453393 4293792000
2.7139652 2.0122671 0.35092285 4293400320
2.8074052 2.0816057 0.37950379 4293792000
2.809536 2.083302 0.39595234 4293792000
2.8070893 2.0816073 0.41131374 4293792000
2.7951424 2.0728734 0.42474949 4293792000
2.7656932 2.0511696 0.43484113 4293661440
2.8096066 2.0838301 0.45598361 4293792000
2.8155415 2.0883491 0.47072813 4293792000
2.8155701 2.0884919 0.48398393 4293792000
2.815222 2.0883558 0.49662212 4293922560
2.8022807 2.0788858 0.50642419 4293792000
2.7690582 2.0543816 0.51180583 4293661440
2.8053963 2.0814419 0.52940285 4293792000
2.8119836 2.0864499 0.54096627 4293922560
2.8109677 2.0858221 0.55046964 4293922560
2.8124044 2.0870137 0.55981565 4293922560
2.8014226 2.0789976 0.56602305 4293792000
2.8055177 2.0821617 0.5745849 4293922560
2.7959106 2.0751653 0.57967061 4293792000
2.7950327 2.0746429 0.5858568 4293792000
2.7942247 2.0741732 0.59136993 4293792000
2.7907255 2.071708 0.59561646 4293792000
2.7972155 2.076653 0.60129285 4293792000
2.7826502 2.06598 0.60174781 4293792000
2.7750797 2.0604959 0.60297704 4293792000
2.7747262 2.0603662 0.60505211 4293792000
2.7744679 2.0603082 0.60643685 4293792000
2.7703512 2.0573878 0.60626763 4293792000
2.7922111 2.0737445 0.61104703 4293792000
2.7882881 2.0709703 0.60948926 4293792000
2.7951469 2.0761981 0.60956001 4293792000
2.8024807 2.0817804 0.60900879 4293922560
2.7917252 2.0739369 0.60383219 4293792000
2.8044076 2.0834916 0.60299104 4293922560
2.8040531 2.0833702 0.59863532 4293922560
2.7986634 2.0795116 0.59251779 4293792000
2.8078156 2.0864501 0.58876431 4293922560
2.8051867 2.0846426 0.58184999 4293922560
2.7981658 2.0795741 0.57337314 4293792000
2.7990153 2.0803509 0.56584978 4293792000
2.7891202 2.0731485 0.55553252 4293792000
2.7848468 2.070121 0.54572868 4293792000
2.8023701 2.0832844 0.53949916 4293792000
2.8088274 2.0882301 0.53044093 4293922560
2.8042209 2.0849581 0.51868504 4293792000
2.7922215 2.0761938 0.50503802 4293792000
2.769397 2.0602119 0.41455141 4293661440
2.8058486 2.0874615 0.40453276 4293792000
2.807431 2.088794 0.3888492 4293792000
2.7770092 2.0663331 0.36848897 4293661440
2.7742708 2.0644522 0.35156 4293661440
2.7860544 2.07337 0.33601063 4293661440
2.792114 2.078033 0.31929022 4293661440
2.7736287 2.0644433 0.29950595 4293661440
2.7518508 2.048403 0.27929446 4293530880
2.766376 2.0593629 0.26247442 4293530880
2.7773085 2.0676525 0.24485572 4293661440
2.776427 2.0671549 0.22586568 4293661440
2.7620823 2.0566413 0.2056452 4293530880
2.787935 2.0760345 0.18807828 4293661440
2.7918205 2.0790854 0.16862948 4293661440
2.7737544 2.0658019 0.14778516 4293530880
2.7570615 2.0535381 0.12709747 4293530880
2.7670634 2.0611405 0.10752715 4293530880
2.7640753 2.0590758 0.087290667 4293530880
2.753588 2.0514286 0.066822939 4293530880
2.7459164 2.0458763 0.046478506 4293530880
2.7518995 2.0504892 0.026313873 4293530880
2.76017 2.0568054 0.0060323211 4293530880
2.7259419 2.0314784 -0.014131901 4293400320
2.7435658 2.0447595 -0.034466811 4293400320
2.7538173 2.0525522 -0.054876052 4293530880
2.7594469 2.0569038 -0.075251482 4293530880
2.7337012 2.0378866 -0.094526343 4293400320
2.7519617 2.051646 -0.11519837 4293530880
2.7618854 2.0591969 -0.13559981 4293530880
2.7548685 2.0541282 -0.15503708 4293530880
2.7374609 2.0413165 -0.17354453 4293400320
2.7557633 2.0551112 -0.19415912 4293530880
2.7568038 2.0560443 -0.2134757 4293530880
2.7418532 2.0450602 -0.23121959 4293530880
2.7565672 2.0561826 -0.25123182 4293530880
2.7785485 2.0727234 -0.27188721 4293661440
2.778415 2.0727816 -0.29021764 4293661440
2.7685289 2.0655696 -0.30714357 4293661440
2.6718595 1.9936571 -0.31337687 4293269760
2.7713084 2.0679545 -0.3423934 4293661440
2.7763667 2.0718818 -0.35996911 4293661440
2.78459 2.0781696 -0.37764093 4293661440
2.7641487 2.0630813 -0.39092278 4293661440
2.6125042 1.9501389 -0.38416693 4293008640
2.8001938 2.0902729 -0.42725658 4293792000
2.787286 2.0807998 -0.44011471 4293792000
2.8003953 2.0907323 -0.45660201 4293792000
2.7890353 2.0824115 -0.46858579 4293792000
2.7709823 2.0690949 -0.47877204 4293661440
2.7754128 2.0725515 -0.49224931 4293661440
2.7721014 2.070231 -0.50379825 4293661440
2.766495 2.0661969 -0.51431948 4293661440
2.7715452 2.0701141 -0.52623892 4293661440
2.7658248 2.0659931 -0.53550613 4293661440
2.7615554 2.0629535 -0.54440606 4293661440
2.7665782 2.0668488 -0.55451995 4293661440
2.7499897 2.0546112 -0.55961967 4293661440
2.7513859 2.0557976 -0.56769699 4293661440
2.7217653 2.0338259 -0.56863081 4293530880
2.7217698 2.0339701 -0.57503468 4293530880
2.7158329 2.0296774 -0.57950175 4293530880
2.6618941 1.9895369 -0.57291651 4293269760
2.6651995 1.9921409 -0.57792091 4293269760
2.6764829 2.0007029 -0.58400774 4293400320
2.6831183 2.0057938 -0.58842039 4293400320
2.682744 2.0056484 -0.59061337 4293400320
2.6753643 2.0002689 -0.59056687 4293400320
2.6822789 2.0055668 -0.59299189 4293400320
2.6632593 1.9914886 -0.58897877 4293269760
2.659322 1.9886768 -0.58762056 4293269760
2.7125716 2.0285943 -0.59821939 4293530880
2.717875 2.0326879 -0.59749496 4293530880
2.7322488 2.0435593 -0.59805483 4293661440
2.7316258 2.0432239 -0.59461451 4293661440
2.7506464 2.057569 -0.59474051 4293661440
2.7657583 2.0689933 -0.59327382 4293792000
2.7582915 2.0635412 -0.58625203 4293661440
2.7591627 2.0643201 -0.58033907 4293661440
2.7679241 2.0709972 -0.57539392 4293792000
2.7595737 2.0648808 -0.56621844 4293661440
2.7612174 2.0662353 -0.55846274 4293661440
2.7622581 2.0671384 -0.54993331 4293661440
2.7516139 2.0593033 -0.53847224 4293661440
2.7358503 2.0476382 -0.52548212 4293530880
2.7425885 2.0527987 -0.51625556 4293661440
2.7609303 2.0666378 -0.50853008 4293661440
2.7783067 2.0797555 -0.49989909 4293792000
2.7756751 2.0779085 -0.48702779 4293792000
2.7562513 2.0634997 -0.47075206 4293661440
2.7381291 2.0500622 -0.45434636 4293530880
2.7500269 2.0590808 -0.44245484 4293661440
2.7560577 2.0637105 -0.42902809 4293661440
2.7553434 2.0632932 -0.41403982 4293661440
2.740392 2.0522225 -0.39652926 4293530880
2.7298787 2.044471 -0.37936556 4293530880
2.7554612 2.06373 -0.36672768 4293661440
2.7496147 2.0594699 -0.34936821 4293530880
2.7258346 2.0417871 -0.32951626 4293400320
2.7198353 2.03741 -0.31164625 4293400320
2.734215 2.0482855 -0.29572716 4293530880
2.7425439 2.0546327 -0.27867991 4293530880
2.7120826 2.0319426 -0.25751194 4293400320
2.7258494 2.0423598 -0.24040025 4293400320
2.7426879 2.0550773 -0.22309235 4293530880
2.7393587 2.0526965 -0.20379795 4293530880
2.7543693 2.0640469 -0.18557739 4293530880
2.7234213 2.0409853 -0.16414593 4293400320
2.7437139 2.0562909 -0.14573385 4293530880
2.7449875 2.0573556 -0.12598908 4293530880
2.7142456 2.0344439 -0.10483377 4293400320
2.7405164 2.0542283 -0.085838325 4293530880
2.7548301 2.0650594 -0.066072904 4293530880
2.7608504 2.0696797 -0.045884449 4293530880
2.733664 2.0494263 -0.025230572 4293400320
2.7579253 2.0677104 -0.0050828415 4293530880
2.7741058 2.0799427 0.015387543 4293661440
2.7752342 2.0808997 0.035894044 4293661440
2.7696769 2.0768478 0.056245394 4293661440
2.7882802 2.0908978 0.077103458 4293661440
2.802875 2.1019464 0.098011598 4293792000
2.7836735 2.0876708 0.11762086 4293661440
2.7719285 2.0789816 0.13718608 4293661440
2.7871971 2.0905366 0.15794274 4293661440
2.7913828 2.0937867 0.17804547 4293661440
2.754663 2.0663784 0.19514485 4293530880
2.7904475 2.0933125 0.21710272 4293661440
2.7986655 2.0995867 0.23700352 4293792000
2.7953577 2.0972216 0.25571015 4293792000
2.7584085 2.0696368 0.27081352 4293530880
2.8063076 2.1056607 0.29395068 4293792000
2.8180475 2.1145787 0.31339359 4293792000
2.8166215 2.1136265 0.33110183 4293792000
2.8014171 2.1023431 0.34672976 4293792000
2.7021949 2.0280557 0.35094175 4293400320
2.8071604 2.1068847 0.38113382 4293792000
2.8052311 2.1055562 0.39708117 4293792000
2.7939117 2.0971856 0.41118667 4293792000
2.7798409 2.0867507 0.42428666 4293792000
2.7295105 2.0491173 0.43106103 4293530880
2.8025031 2.1039889 0.45682803 4293792000
2.8113532 2.110749 0.47208911 4293922560
2.8065238 2.1072481 0.48454824 4293922560
2.806967 2.107703 0.49734014 4293922560
2.7786362 2.0865695 0.50436872 4293792000
2.7641633 2.0758326 0.5131411 4293661440
2.7932212 2.0977604 0.52942234 4293792000
2.8076847 2.1087391 0.54250669 4293922560
2.7987671 2.1021731 0.55048925 4293922560
2.8080955 2.1093009 0.56140769 4293922560
2.7853143 2.0923297 0.56524479 4293792000
2.7933385 2.0984805 0.57460445 4293922560
2.7948179 2.0997198 0.58198071 4293922560
2.7907848 2.0968218 0.58752996 4293922560
2.7939196 2.0993056 0.59389329 4293922560
2.7857022 2.0932672 0.59715062 4293792000
2.7850685 2.0929232 0.60131234 4293792000
2.7784452 2.0880823 0.60347176 4293792000
2.7779961 2.0878782 0.60624999 4293792000
2.7737026 2.0847878 0.60747713 4293792000
2.7655673 2.0788126 0.60714507 4293792000
2.7872353 2.0952222 0.61261797 4293922560
2.7832315 2.0923519 0.61175621 4293792000
2.7801125 2.0901468 0.61036986 4293792000
2.794817 2.1013319 0.61215705 4293922560
2.7903039 2.0980811 0.60902834 4293922560
2.792119 2.0995858 0.60656178 4293922560
2.7922206 2.0998037 0.60301059 4293922560
2.7879267 2.0967195 0.59781337 4293792000
2.7943821 2.1017139 0.59420663 4293922560
2.7924578 2.1004121 0.58812243 4293922560
2.7929931 2.1009593 0.5818696 4293922560
2.7970457 2.1041515 0.57565618 4293922560
2.7868469 2.0966318 0.56586927 4293792000
2.7880454 2.0976801 0.55775344 4293792000
2.7806349 2.0922568 0.54729569 4293792000
2.7941344 2.102555 0.54027915 4293792000
2.7974005 2.1051607 0.53060931 4293922560
2.7959788 2.1042426 0.51943576 4293792000
2.7887759 2.0989773 0.50663048 4293792000
2.7680569 2.0843804 0.41617233 4293661440
2.7957377 2.1053634 0.40485466 4293792000
2.801887 2.1101475 0.38979197 4293792000
2.7717481 2.0876241 0.36941254 4293661440
2.7542458 2.0746086 0.35057384 4293661440
2.7779036 2.0925708 0.33650869 4293661440
2.7799594 2.0942762 0.31930971 4293661440
2.7615535 2.0805793 0.29952532 4293661440
2.7478325 2.0704074 0.28011927 4293530880
2.7654831 2.0838537 0.26354802 4293661440
2.7731836 2.0898104 0.24557477 4293661440
2.7802796 2.0953133 0.22717585 4293661440
2.7580268 2.078716 0.20625487 4293530880
2.7730772 2.09021 0.18791582 4293661440
2.7868404 2.1007366 0.16907941 4293661440
2.7768342 2.0933609 0.14860497 4293661440
2.7530322 2.075592 0.12748055 4293530880
2.7510157 2.0742328 0.10739355 4293530880
2.7632096 2.0835798 0.087656632 4293661440
2.7535667 2.0764749 0.0671257 4293530880
2.7398198 2.0662766 0.04659339 4293530880
2.7489746 2.0733349 0.026413934 4293530880
2.7561255 2.0788844 0.0060636951 4293530880
2.7140596 2.0473399 -0.014112836 4293400320
2.7355983 2.0637331 -0.034500692 4293530880
2.7418118 2.0685761 -0.054856788 4293530880
2.7474158 2.0729606 -0.075232178 4293530880
2.7257721 2.0568025 -0.094648443 4293400320
2.7450292 2.0714808 -0.11539547 4293530880
2.7537606 2.0782242 -0.13577627 4293530880
2.75402 2.0785797 -0.15565605 4293530880
2.7269537 2.058327 -0.1736175 4293400320
2.7517135 2.0771592 -0.19470884 4293530880
2.7447779 2.0720868 -0.21345641 4293530880
2.7378564 2.0670242 -0.23187989 4293530880
2.7531364 2.0787091 -0.25200459 4293530880
2.7704041 2.0918949 -0.27226117 4293661440
2.7702684 2.0919514 -0.29061776 4293661440
2.7643981 2.0876806 -0.30801475 4293661440
2.6681452 2.0152037 -0.31429908 4293269760
2.7631843 2.0870798 -0.3428691 4293661440
2.7721868 2.0940311 -0.36098793 4293661440
2.7720368 2.0940747 -0.37756702 4293661440
2.7489095 2.0767736 -0.39045107 4293661440
2.6690202 2.0166192 -0.39422014 4293269760
2.7919285 2.10956 -0.4278461 4293792000
2.7843344 2.1039822 -0.44156224 4293792000
2.78421 2.1040432 -0.45593238 4293792000
2.7808096 2.1016297 -0.4692356 4293792000
2.7549279 2.0822377 -0.47806469 4293661440
2.7593405 2.0857217 -0.49152413 4293661440
2.7579007 2.0847852 -0.50339586 4293661440
2.7583559 2.0852792 -0.51503897 4293661440
2.7554929 2.083266 -0.52546531 4293661440
2.757683 2.0850692 -0.53625536 4293661440
2.7565818 2.0843852 -0.54579467 4293661440
2.7544892 2.0829513 -0.55450058 4293661440
2.7489958 2.0789468 -0.56185907 4293661440
2.7393615 2.0718117 -0.56767774 4293661440
2.7216716 2.0585871 -0.57109421 4293530880
2.7216713 2.0587289 -0.57752514 4293530880
2.7039614 2.045485 -0.57948267 4293530880
2.6620486 2.0139437 -0.57545286 4293400320
2.6614063 2.0135949 -0.57961786 4293400320
2.6647809 2.0162818 -0.58398896 4293400320
2.6713865 2.0214112 -0.58840162 4293400320
2.6115539 1.9763077 -0.57741696 4293139200
2.6034265 1.9702933 -0.57716209 4293139200
2.6666217 2.0182102 -0.59209913 4293400320
2.6665323 2.0182745 -0.592282 4293400320
2.6594703 2.0130649 -0.5902223 4293400320
2.7046332 2.047353 -0.59907216 4293530880
2.71384 2.0544481 -0.59921402 4293530880
2.7092991 2.0511444 -0.59561253 4293530880
2.7275312 2.0650663 -0.59631687 4293661440
2.7386117 2.0735791 -0.5947212 4293661440
2.7435086 2.0774136 -0.59106296 4293661440
2.7501523 2.0825694 -0.58707368 4293661440
2.7510202 2.0833545 -0.5811522 4293661440
2.7455175 2.0793185 -0.57322013 4293661440
2.7514303 2.0839198 -0.56701177 4293661440
2.7530673 2.0852849 -0.55924481 4293661440
2.7391441 2.0748727 -0.5477041 4293661440
2.7466583 2.0806844 -0.53984994 4293661440
2.7293873 2.067735 -0.52652937 4293661440
2.7361028 2.0729408 -0.51728302 4293661440
2.7488427 2.0827069 -0.50851065 4293661440
2.7661421 2.0959258 -0.4998796 4293792000
2.7635214 2.0940633 -0.4870083 4293792000
2.7512906 2.0849235 -0.47195596 4293661440
2.718236 2.0600145 -0.45300579 4293530880
2.7458899 2.081073 -0.44371748 4293661440
2.7579486 2.0903232 -0.43119925 4293661440
2.7511897 2.0853226 -0.41521934 4293661440
2.7244294 2.0651727 -0.39593238 4293530880
2.7290118 2.0687592 -0.38090077 4293530880
2.7552795 2.0887716 -0.36830437 4293661440
2.7566009 2.0898883 -0.35178864 4293661440
2.7218261 2.0636606 -0.33046502 4293530880
2.7079186 2.0532384 -0.31162712 4293400320
2.7268376 2.0676849 -0.29621074 4293530880
2.7319541 2.0716743 -0.27880716 4293530880
2.7081449 2.0537472 -0.25825563 4293400320
2.7186711 2.0618351 -0.24080631 4293400320
2.7325373 2.0724545 -0.22322693 4293530880
2.7319643 2.0721323 -0.20412616 4293530880
2.7347841 2.0743811 -0.18504494 4293530880
2.7205667 2.0637176 -0.16468243 4293400320
2.7316866 2.0722568 -0.14571455 4293530880
2.7369359 2.0763469 -0.12615591 4293530880
2.7103114 2.0562758 -0.10512893 4293400320
2.735671 2.0756102 -0.086049333 4293530880
2.7425175 2.0809114 -0.066047736 4293530880
2.7494795 2.0863011 -0.045877781 4293530880
2.7328327 2.0737908 -0.025322346 4293530880
2.7550721 2.090764 -0.0050868355 4293530880
2.7619402 2.0960836 0.015407058 4293661440
2.763063 2.0970471 0.035913568 4293661440
2.7654965 2.0990043 0.056421831 4293661440
2.7760506 2.1071208 0.077123076 4293661440
2.7913082 2.1188054 0.098056346 4293792000
2.764308 2.0984397 0.11734191 4293661440
2.7696011 2.1025672 0.13768725 4293661440
2.7781534 2.1091673 0.15814126 4293661440
2.7831147 2.1130445 0.17831708 4293661440
2.75769 2.0938702 0.19622834 4293661440
2.7754974 2.1074936 0.2169129 4293661440
2.7935388 2.1212962 0.23762637 4293792000
2.7870016 2.1164513 0.2560862 4293792000
2.7494802 2.0880949 0.27114376 4293661440
2.7939916 2.1219864 0.29397044 4293792000
2.8157165 2.1385896 0.31452695 4293922560
2.8121901 2.1360309 0.33205202 4293922560
2.7970479 2.1246564 0.34772879 4293792000
2.7022176 2.0527964 0.35250145 4293400320
2.8019645 2.1286244 0.38211992 4293792000
2.7984536 2.1260784 0.39788386 4293792000
2.7966759 2.1248484 0.41341615 4293792000
2.7640722 2.1002162 0.42376286 4293661440
2.73333 2.0769947 0.43357417 4293530880
2.7980952 2.1262877 0.4581345 4293922560
2.7950606 2.1241052 0.47144642 4293922560
2.8060334 2.13256 0.48661062 4293922560
2.7910073 2.1212726 0.49671656 4293922560
2.7821956 2.1147041 0.50724912 4293792000
2.7598996 2.0978944 0.51462287 4293792000
2.7959125 2.1253712 0.5322777 4293922560
2.7914152 2.1220813 0.54176599 4293922560
2.7974856 2.1268189 0.5526756 4293922560
2.795758 2.1256342 0.56142747 4293922560
2.7880118 2.1198776 0.56829602 4293922560
2.7889223 2.1206982 0.57624102 4293922560
2.7864642 2.1189601 0.58281851 4293922560
2.7895141 2.121408 0.58986485 4293922560
2.7816408 2.1155565 0.59391302 4293922560
2.7734587 2.1094701 0.59717023 4293792000
2.7806735 2.1150858 0.60302675 4293922560
2.7583871 2.0982807 0.60178673 4293792000
2.7618623 2.1010554 0.60541338 4293792000
2.7693515 2.1068826 0.60921514 4293792000
2.7651713 2.1038406 0.60974813 4293792000
2.7650087 2.103853 0.61044478 4293792000
2.7827554 2.1174829 0.6143623 4293922560
2.7710238 2.1087019 0.61107838 4293792000
2.7856631 2.1199729 0.61286414 4293922560
2.7819536 2.1172926 0.60990423 4293922560
2.7783494 2.1146934 0.60625774 4293922560
2.7838612 2.1190276 0.60387772 4293922560
2.7866471 2.12129 0.60018933 4293922560
2.7899365 2.1239364 0.59589571 4293922560
2.7911618 2.1250138 0.59045738 4293922560
2.7916968 2.1255672 0.58418006 4293922560
2.7886655 2.1234081 0.57648438 4293922560
2.7824402 2.1188195 0.56748456 4293922560
2.7718465 2.1109071 0.55698687 4293792000
2.7683973 2.1084309 0.5473153 4293792000
2.7857692 2.1218004 0.54105932 4293922560
2.8008242 2.1334093 0.53361404 4293922560
2.7887175 2.124347 0.52039295 4293922560
2.7875245 2.1235914 0.50865281 4293922560
2.7558653 2.1004825 0.41619188 4293661440
2.7834237 2.1216264 0.40487441 4293792000
2.7974522 2.1324689 0.39091042 4293792000
2.7634931 2.106761 0.36995849 4293661440
2.7500262 2.0966599 0.35159889 4293661440
2.7696233 2.111747 0.33700693 4293661440
2.7835531 2.1225188 0.32114488 4293792000
2.7604792 2.105098 0.30074492 4293661440
2.7317591 2.0833726 0.27973586 4293530880
2.7551591 2.1013629 0.26374459 4293661440
2.7622273 2.1069093 0.2457061 4293661440
2.7649481 2.1091435 0.22694534 4293661440
2.7499368 2.0978625 0.2065769 4293661440
2.7635546 2.1084034 0.18811738 4293661440
2.7726862 2.1155264 0.16898669 4293661440
2.7601731 2.1061487 0.14839037 4293661440
2.745105 2.0948215 0.12769292 4293530880
2.7481012 2.0972669 0.10776781 4293530880
2.751749 2.1002102 0.087698795 4293661440
2.7485769 2.0979526 0.067315333 4293530880
2.7327874 2.0860717 0.046695542 4293530880
2.7368479 2.0893295 0.026433384 4293530880
2.751122 2.1003792 0.0060941107 4293530880
2.7100356 2.0691972 -0.014140631 4293400320
2.7235279 2.0796504 -0.034481335 4293530880
2.7386963 2.0913842 -0.055023927 4293530880
2.7313175 2.0859146 -0.075100809 4293530880
2.7198706 2.0773399 -0.094846934 4293530880
2.7347848 2.0888817 -0.11545627 4293530880
2.7543116 2.1039455 -0.13639417 4293661440
2.7421761 2.0948443 -0.15565453 4293530880
2.7159481 2.0749838 -0.17366491 4293400320
2.7409906 2.0942602 -0.19479159 4293530880
2.7445579 2.0971439 -0.21437381 4293530880
2.7329037 2.0884054 -0.232472 4293530880
2.7489049 2.1007829 -0.25271863 4293661440
2.7652998 2.113462 -0.27294967 4293661440
2.7651606 2.1135159 -0.29135337 4293661440
2.7601035 2.1098135 -0.30888566 4293661440
2.6563587 2.0307312 -0.31428018 4293269760
2.7641432 2.1132171 -0.34449801 4293661440
2.7585192 2.1090791 -0.36078176 4293661440
2.7558393 2.1071894 -0.3770048 4293661440
2.7478163 2.1012166 -0.39201474 4293661440
2.6603818 2.0345645 -0.39467129 4293269760
2.7835333 2.1288216 -0.42843542 4293792000
2.7778265 2.1246171 -0.44246915 4293792000
2.7758429 2.1232572 -0.45656264 4293792000
2.7724545 2.1208227 -0.46988523 4293792000
2.7506187 2.1042864 -0.47942096 4293661440
2.7529268 2.1062033 -0.49254271 4293792000
2.7457073 2.1008363 -0.50337631 4293661440
2.750088 2.1043365 -0.51575822 4293792000
2.7514842 2.1055543 -0.52701598 4293792000
2.7415633 2.0981183 -0.53546721 4293661440
2.740907 2.097765 -0.54508048 4293661440
2.7407281 2.0977759 -0.55416107 4293661440
2.7446756 2.1009421 -0.5634529 4293792000
2.7272441 2.0877557 -0.56765831 4293661440
2.7096314 2.0744281 -0.5710749 4293530880
2.7057149 2.0715752 -0.57666934 4293530880
2.6998262 2.0672121 -0.58115256 4293530880
2.6463566 2.0264444 -0.57458234 4293269760
2.6605833 2.037467 -0.58200079 4293400320
2.667851 2.0431652 -0.58724928 4293400320
2.6712956 2.0459378 -0.59098411 4293400320
2.6591911 2.0368104 -0.59057558 4293400320
2.6667314 2.0427158 -0.59384519 4293400320
2.6735828 2.0480938 -0.59627485 4293400320
2.6625466 2.0397799 -0.59401137 4293400320
2.6476965 2.0285444 -0.5902034 4293400320
2.6926589 2.0630953 -0.59905297 4293530880
2.6858177 2.0579898 -0.5956369 4293530880
2.7160711 2.0812833 -0.59974706 4293661440
2.7154531 2.0809417 -0.5962975 4293661440
2.7303953 2.0925138 -0.59555691 4293661440
2.7391827 2.0993733 -0.59274054 4293792000
2.7418852 2.101573 -0.58789515 4293792000
2.7388351 2.0993664 -0.58113265 4293661440
2.7404037 2.1006961 -0.57468212 4293792000
2.7431586 2.1029336 -0.56780493 4293792000
2.7369533 2.0983074 -0.55842382 4293661440
2.7340639 2.0962198 -0.54910523 4293661440
2.7344892 2.0966704 -0.53983045 4293661440
2.7243545 2.0890303 -0.5278818 4293661440
2.7216218 2.0870593 -0.51681471 4293661440
2.7405877 2.1017137 -0.50922275 4293661440
2.7609541 2.1174426 -0.50114703 4293792000
2.7591336 2.1161699 -0.48838407 4293792000
2.7390966 2.1009359 -0.4719364 4293661440
2.7219226 2.0878937 -0.45562902 4293530880
2.7376542 2.1000702 -0.44433892 4293661440
2.7417853 2.1033556 -0.4305591 4293661440
2.7429328 2.1043539 -0.41579917 4293661440
2.7202339 2.0870712 -0.39706817 4293530880
2.7318978 2.0961294 -0.38299078 4293661440
2.750165 2.1102509 -0.36924237 4293661440
2.7554305 2.1144047 -0.35319215 4293661440
2.7136438 2.0824811 -0.33092204 4293530880
2.7113199 2.0808136 -0.3133983 4293530880
2.7266028 2.0926466 -0.29749227 4293530880
2.7317007 2.0966702 -0.28001094 4293530880
2.7036507 2.0752721 -0.25896105 4293400320
2.7082314 2.0788975 -0.24093205 4293400320
2.726871 2.0933065 -0.22374114 4293530880
2.728796 2.0948958 -0.20478408 4293530880
2.736706 2.1010759 -0.18598951 4293530880
2.7124593 2.0825882 -0.16490653 4293530880
2.7267008 2.0936251 -0.14608194 4293530880
2.7327204 2.0983553 -0.12650865 4293530880
2.7054219 2.0775223 -0.10539242 4293400320
2.7274969 2.0945709 -0.086157776 4293530880
2.7403765 2.1045651 -0.066277504 4293530880
2.7523494 2.1138647 -0.046120919 4293661440
2.7215953 2.0903761 -0.025311803 4293530880
2.740742 2.1051812 -0.0050618974 4293530880
2.7590392 2.1193359 0.015472732 4293661440
2.750798 2.1131232 0.035933238 4293661440
2.7492542 2.1120503 0.056363013 4293661440
2.7748294 2.1317947 0.077444881 4293661440
2.7861211 2.1405764 0.098325394 4293792000
2.7670856 2.1260767 0.11799252 4293661440
2.7594037 2.1202924 0.13781032 4293661440
2.7777033 2.1344559 0.158832 4293792000
2.7818463 2.1377513 0.17904252 4293792000
2.7573221 2.1190345 0.19708815 4293661440
2.7790041 2.1357982 0.21816374 4293792000
2.7909055 2.1450529 0.23847404 4293792000
2.7714591 2.1302345 0.2558164 4293792000
2.7491279 2.113199 0.27232903 4293661440
2.7855325 2.1412752 0.29440495 4293792000
2.8032086 2.1549695 0.314547 4293922560
2.7988095 2.1517084 0.33196747 4293922560
2.7892768 2.1445036 0.34832644 4293792000
2.6902115 2.068516 0.3525207 4293400320
2.8013408 2.1540093 0.38375056 4293922560
2.7883854 2.1441753 0.39823994 4293922560
2.7842484 2.1411166 0.41343608 4293792000
2.7596602 2.1223431 0.42498833 4293792000
2.7321966 2.1013584 0.43533948 4293661440
2.7934539 2.1485538 0.45943004 4293922560
2.7982938 2.1523962 0.47410613 4293922560
2.7925704 2.1481209 0.48645893 4293922560
2.7895916 2.1459551 0.49869218 4293922560
2.7698274 2.1308873 0.50726897 4293792000
2.7515512 2.1169624 0.51537371 4293792000
2.7951794 2.1506267 0.5345248 4293922560
2.7793968 2.1386197 0.54186219 4293922560
2.7815685 2.1404166 0.55200833 4293922560
2.7751617 2.1356182 0.55980754 4293922560
2.7772467 2.1373498 0.56864899 4293922560
2.7796483 2.1393261 0.57690763 4293922560
2.774071 2.1351674 0.58283842 4293922560
2.7810154 2.1406391 0.59071159 4293922560
2.7841167 2.1431565 0.59710473 4293922560
2.7650275 2.1286066 0.59803158 4293922560
2.7722089 2.1342638 0.60389405 4293922560
2.7578299 2.1233366 0.60436344 4293792000
2.7605062 2.1255298 0.60783064 4293792000
2.7679598 2.1314001 0.61164075 4293922560
2.7598929 2.12533 0.61131805 4293792000
2.7566071 2.1229389 0.61132669 4293792000
2.7742739 2.1366718 0.61524439 4293922560
2.7704003 2.1338305 0.61368179 4293922560
2.7732642 2.1361752 0.61288404 4293922560
2.7703626 2.1340833 0.61009794 4293922560
2.7737894 2.1368635 0.60798228 4293922560
2.7748995 2.1378613 0.60464239 4293922560
2.7781458 2.1405046 0.60105073 4293922560
2.7693672 2.1338913 0.59417474 4293922560
2.7787333 2.1412482 0.59047735 4293922560
2.7726221 2.1366897 0.58280933 4293922560
2.7840042 2.145602 0.57810855 4293922560
2.7739584 2.1380148 0.56830227 4293922560
2.7599382 2.1273665 0.55709463 4293792000
2.7670238 2.1329732 0.54950184 4293792000
2.7769296 2.1407537 0.54177272 4293922560
2.7923605 2.1527922 0.53439879 4293922560
2.7840614 2.1465523 0.52186257 4293922560
2.7829444 2.1458457 0.51010323 4293922560
2.7516341 2.1223292 0.41739786 4293661440
2.7751403 2.1406024 0.40546483 4293792000
2.785172 2.1484931 0.39092836 4293792000
2.7584496 2.1280549 0.3709228 4293792000
2.7304678 2.1066434 0.35065946 4293661440
2.7632613 2.1320827 0.33772594 4293792000
2.7713306 2.1384642 0.3211588 4293792000
2.7483571 2.1209116 0.30075765 4293661440
2.7312083 2.1078484 0.28091571 4293530880
2.7509549 2.1232357 0.26450822 4293661440
2.7567327 2.1278527 0.24630344 4293661440
2.7590263 2.1297834 0.22746187 4293661440
2.7409201 2.1159797 0.20681269 4293661440
2.7664361 2.1358242 0.18913908 4293661440
2.7644584 2.1344616 0.16923043 4293661440
2.7563982 2.1284063 0.14883864 4293661440
2.7341583 2.1114097 0.12774637 4293530880
2.7410495 2.1168892 0.10796303 4293661440
2.7467778 2.1214721 0.087921418 4293661440
2.7364957 2.1136999 0.06731388 4293530880
2.7197018 2.1009007 0.046675283 4293530880
2.7269096 2.1066258 0.026448464 4293530880
2.7239864 2.1045313 0.0060661947 4293530880
2.6997001 2.0859442 -0.014155931 4293400320
2.7134159 2.0966942 -0.034513328 4293530880
2.7198548 2.1018269 -0.0548902 4293530880
2.7211337 2.1029758 -0.075161584 4293530880
2.71575 2.0989802 -0.095136851 4293530880
2.7352502 2.1142008 -0.1160053 4293530880
2.7421947 2.1197264 -0.13640602 4293661440
2.7332737 2.1129985 -0.15584949 4293530880
2.7190142 2.102145 -0.17465231 4293530880
2.728929 2.1099651 -0.19480562 4293530880
2.7324178 2.1128213 -0.21438362 4293530880
2.7287703 2.1101639 -0.23316668 4293530880
2.7328596 2.1134841 -0.25236762 4293661440
2.7591569 2.133966 -0.27356747 4293661440
2.7743468 2.1458664 -0.29364341 4293792000
2.7541871 2.1304471 -0.30960724 4293661440
2.7056127 2.0930626 -0.32157722 4293530880
2.7519712 2.1290548 -0.34451523 4293661440
2.7563205 2.1325762 -0.36211184 4293792000
2.7618518 2.1370118 -0.37952641 4293792000
2.7332754 2.1150763 -0.39168102 4293661440
2.6525905 2.0528455 -0.39527512 4293269760
2.7751968 2.1478062 -0.42906117 4293792000
2.7676635 2.1421382 -0.44281849 4293792000
2.7636123 2.1391623 -0.45657828 4293792000
2.7602379 2.1367083 -0.46990022 4293792000
2.73458 2.117017 -0.47874725 4293661440
2.7407944 2.1219776 -0.4925561 4293792000
2.737519 2.1195965 -0.50411147 4293661440
2.7379665 2.1200945 -0.51576972 4293792000
2.7393556 2.1213205 -0.52702641 4293792000
2.7372925 2.1198747 -0.53701359 4293792000
2.7291675 2.1137371 -0.54515725 4293661440
2.7286446 2.113481 -0.55416757 4293661440
2.7201657 2.1070664 -0.56089288 4293661440
2.7230203 2.1094222 -0.56929672 4293661440
2.7008026 2.0923703 -0.5717386 4293661440
2.7015793 2.0931156 -0.57834226 4293661440
2.6879199 2.0826838 -0.58115071 4293530880
2.6455934 2.0500557 -0.57696319 4293400320
2.6449537 2.0496988 -0.5811373 4293400320
2.6560838 2.0584548 -0.58724147 4293400320
2.6665208 2.066674 -0.59253502 4293530880
2.5924187 2.0094249 -0.57825691 4293139200
2.5921462 2.009346 -0.57974732 4293139200
2.6617885 2.0634172 -0.59625787 4293400320
2.6508005 2.0550404 -0.59399194 4293400320
2.6360154 2.0437202 -0.59018159 4293400320
2.6955695 2.0899863 -0.60234052 4293661440
2.6770818 2.0757968 -0.5963046 4293530880
2.6863003 2.0830705 -0.59576267 4293530880
2.7112589 2.1025398 -0.59798545 4293661440
2.7292514 2.1166131 -0.59791452 4293792000
2.7270963 2.1150746 -0.5927009 4293792000
2.7249084 2.1135094 -0.58679944 4293661440
2.7337639 2.1205022 -0.58258528 4293792000
2.7283108 2.116405 -0.57463318 4293792000
2.7380719 2.124099 -0.56921548 4293792000
2.7345138 2.1214685 -0.56034875 4293792000
2.7298021 2.1179428 -0.55062503 4293661440
2.7263243 2.1153724 -0.54054481 4293661440
2.7162359 2.1076758 -0.52857918 4293661440
2.7135162 2.1056907 -0.51749402 4293661440
2.7323999 2.1204555 -0.50988257 4293661440
2.7487674 2.1332703 -0.50107157 4293792000
2.7539968 2.1374485 -0.48956099 4293792000
2.727005 2.1166387 -0.47185495 4293661440
2.7169557 2.1089654 -0.45673376 4293661440
2.7312126 2.1201427 -0.44517422 4293661440
2.7406571 2.1275878 -0.43220499 4293661440
2.7399569 2.1271639 -0.41710034 4293661440
2.718487 2.1106279 -0.39848176 4293661440
2.7291625 2.1190269 -0.38420895 4293661440
2.7479541 2.133723 -0.37048322 4293661440
2.7453403 2.1318128 -0.35335353 4293661440
2.7095222 2.1041384 -0.33178094 4293530880
2.7111452 2.1055126 -0.31466356 4293530880
2.7226665 2.1145675 -0.29827046 4293530880
2.7267199 2.1178279 -0.28062671 4293661440
2.6956449 2.0938258 -0.25922295 4293530880
2.7144513 2.1085348 -0.24244554 4293530880
2.7227049 2.1150541 -0.22426999 4293530880
2.724947 2.1169076 -0.20527983 4293530880
2.7313728 2.122009 -0.18632449 4293661440
2.7004025 2.0980804 -0.16477075 4293530880
2.7218714 2.1148589 -0.14634062 4293530880
2.7134678 2.1084471 -0.12603419 4293530880
2.6934614 2.0930259 -0.10525534 4293400320
2.7193859 2.1132658 -0.086145557 4293530880
2.7303514 2.1218922 -0.066187434 4293530880
2.73945 2.1290698 -0.045963913 4293661440
2.7165689 2.1114137 -0.025237739 4293530880
2.7357278 2.1264043 -0.0049333959 4293661440
2.7470725 2.1353276 0.015622181 4293661440
2.7409878 2.1307144 0.036111385 4293661440
2.7424574 2.1319687 0.056619417 4293661440
2.7743945 2.1568894 0.077920526 4293792000
2.7808964 2.1620545 0.098725013 4293792000
2.7579961 2.1443789 0.11827731 4293661440
2.7582371 2.14468 0.13850838 4293661440
2.7654073 2.1503649 0.1589843 4293792000
2.773474 2.1567471 0.17944705 4293792000
2.7272038 2.1209095 0.19596533 4293530880
2.7646105 2.1500902 0.2181517 4293792000
2.7746069 2.157974 0.23828976 4293792000
2.7745426 2.15804 0.2573784 4293792000
2.7261534 2.120549 0.27140924 4293661440
2.7810619 2.1633406 0.29538196 4293792000
2.792639 2.1724567 0.31490085 4293922560
2.7951543 2.1745303 0.33314782 4293922560
2.7762117 2.1599243 0.34838092 4293792000
2.6822169 2.0869713 0.35317001 4293400320
2.7910025 2.1716611 0.38417351 4293922560
2.7830882 2.1656284 0.39938331 4293922560
2.7836695 2.1662011 0.41531438 4293922560
2.7583995 2.146673 0.42680603 4293792000
2.7161691 2.1139545 0.43484074 4293661440
2.78427 2.1670337 0.46008068 4293922560
2.7898004 2.171458 0.47489032 4293922560
2.795048 2.1756632 0.48916474 4293922560
2.7772236 2.1619246 0.49880618 4293922560
2.7606711 2.1491745 0.50795066 4293792000
2.7580903 2.1472917 0.51898879 4293792000
2.7827852 2.1666284 0.53462696 4293922560
2.7779932 2.1630278 0.5440892 4293922560
2.7918465 2.173934 0.5565902 4294053120
2.7776642 2.1630285 0.56288391 4293922560
2.7758381 2.1617374 0.5709666 4293922560
2.7642059 2.1528161 0.57633936 4293922560
2.7734468 2.1601381 0.58536649 4293922560
2.768682 2.1565619 0.59078002 4293922560
2.7534795 2.1448622 0.59324318 4293922560
2.7644329 2.1535208 0.60061377 4293922560
2.7531352 2.1448607 0.60246849 4293922560
2.7564847 2.1476026 0.60679626 4293922560
2.7521503 2.1443641 0.60872734 4293922560
2.7517974 2.1442254 0.61081612 4293922560
2.7593114 2.150213 0.6139304 4293922560
2.7552624 2.1471987 0.61376357 4293922560
2.7513099 2.1442599 0.61289561 4293922560
2.7619998 2.1527247 0.61455345 4293922560
2.7543533 2.1469107 0.61142635 4293922560
2.7650719 2.155401 0.61163718 4293922560
2.7692618 2.1588078 0.60967851 4293922560
2.7742555 2.162842 0.60716981 4293922560
2.7705588 2.1601079 0.602054 4293922560
2.7757525 2.1643002 0.59815341 4293922560
2.770735 2.1605384 0.59136242 4293922560
2.7790022 2.1671278 0.58669549 4293922560
2.7755494 2.1645865 0.57886958 4293922560
2.7651613 2.1566412 0.56896675 4293922560
2.7663925 2.1577511 0.56080854 4293922560
2.7547514 2.1488295 0.54943538 4293792000
2.7763064 2.1657815 0.54398078 4293922560
2.7838748 2.1718342 0.535065 4293922560
2.7827034 2.1710756 0.52383614 4293922560
2.7690418 2.1605802 0.50972533 4293922560
2.7427537 2.1418788 0.41801167 4293792000
2.7711291 2.1641786 0.40678552 4293792000
2.772687 2.1655545 0.39101815 4293922560
2.7534597 2.1507096 0.3720015 4293792000
2.7326694 2.1346433 0.3525978 4293661440
2.7504072 2.1486483 0.33775577 4293792000
2.7628317 2.1585078 0.32169896 4293792000
2.7434237 2.1435189 0.30164891 4293661440
2.7224286 2.1272891 0.28135452 4293661440
2.741298 2.1421826 0.26484796 4293661440
2.7549112 2.1529746 0.24732406 4293792000
2.748548 2.1481688 0.22769901 4293661440
2.7290473 2.1331029 0.20692441 4293661440
2.7548158 2.1533911 0.18927264 4293792000
2.7592304 2.1570034 0.16974537 4293792000
2.7545893 2.1535428 0.14948158 4293661440
2.7293041 2.1339545 0.12816525 4293661440
2.7421887 2.1441844 0.1085607 4293661440
2.7368839 2.1402037 0.088072434 4293661440
2.7313204 2.1360207 0.067557715 4293661440
2.7180665 2.1258276 0.04692186 4293530880
2.7291801 2.134676 0.026650609 4293661440
2.7262697 2.132565 0.0061582341 4293530880
2.6840715 2.099746 -0.014067578 4293400320
2.7092826 2.1196141 -0.034554973 4293530880
2.7189324 2.1273203 -0.055061143 4293530880
2.7273598 2.1340723 -0.075621419 4293661440
2.7141225 2.1238861 -0.095453233 4293530880
2.7343161 2.1398387 -0.11643484 4293661440
2.7412248 2.1454048 -0.13692036 4293661440
2.7362761 2.1416988 -0.15667637 4293661440
2.7224007 2.1310103 -0.17561288 4293661440
2.735086 2.1410947 -0.19608347 4293661440
2.7307515 2.137867 -0.21517406 4293661440
2.7246177 2.1332312 -0.23381744 4293661440
2.7304938 2.13799 -0.25324517 4293661440
2.7523031 2.1552153 -0.27407676 4293792000
2.7642324 2.1647122 -0.2938509 4293792000
2.7499876 2.1537285 -0.31049418 4293792000
2.68908 2.1062257 -0.32101467 4293530880
2.7457273 2.1507175 -0.34525302 4293792000
2.7523644 2.1560729 -0.36319628 4293792000
2.7458444 2.1511297 -0.37899807 4293792000
2.7314849 2.1400485 -0.39317077 4293661440
2.6292744 2.06019 -0.39354026 4293269760
2.7622561 2.1644561 -0.42896774 4293792000
2.7586625 2.1618013 -0.44335598 4293792000
2.7507241 2.1557431 -0.45648712 4293792000
2.7483482 2.1540396 -0.46997917 4293792000
2.7296233 2.1395316 -0.48003525 4293792000
2.7319069 2.1414742 -0.49317551 4293792000
2.7286437 2.1390724 -0.50474972 4293792000
2.7335994 2.1431074 -0.51728255 4293792000
2.7304659 2.140805 -0.5277003 4293792000
2.7284093 2.1393456 -0.53770435 4293792000
2.7238643 2.1359353 -0.54657763 4293792000
2.7159104 2.1298528 -0.55409545 4293661440
2.7222295 2.1349528 -0.56388885 4293792000
2.6998217 2.1175411 -0.56702268 4293661440
2.6881945 2.1085749 -0.57167655 4293661440
2.6920705 2.111757 -0.57895285 4293661440
2.6831267 2.1048908 -0.58278507 4293530880
2.6301372 2.0634966 -0.57623202 4293400320
2.6364779 2.0686064 -0.58194906 4293400320
2.6436779 2.0743895 -0.58719951 4293400320
2.6501896 2.0796328 -0.5916301 4293400320
2.5872815 2.0304456 -0.57979107 4293139200
2.6464369 2.0769641 -0.59467471 4293400320
2.646251 2.0769539 -0.59553504 4293400320
2.6422858 2.0739789 -0.59484732 4293400320
2.6422889 2.0741148 -0.59436023 4293400320
2.6829689 2.106154 -0.602332 4293661440
2.6723146 2.0979309 -0.59803951 4293530880
2.6776147 2.1022208 -0.59663045 4293530880
2.7055557 2.1242719 -0.59954292 4293661440
2.7087355 2.1268988 -0.59621853 4293661440
2.7251952 2.1399446 -0.59509683 4293792000
2.7199163 2.1359341 -0.58850753 4293792000
2.7252417 2.1402431 -0.5835337 4293792000
2.7233043 2.1388528 -0.57631797 4293792000
2.7223878 2.1382625 -0.56865948 4293792000
2.7248216 2.1403008 -0.56104136 4293792000
2.7149704 2.1326964 -0.55026549 4293661440
2.7145731 2.1325107 -0.54081106 4293661440
2.707406 2.1270103 -0.52941185 4293661440
2.7046998 2.1250103 -0.5183183 4293661440
2.727386 2.1429434 -0.51142991 4293792000
2.7436793 2.1558588 -0.50259292 4293792000
2.7340889 2.1484528 -0.48840311 4293792000
2.714232 2.1329842 -0.47195858 4293661440
2.7042286 2.1252506 -0.4568435 4293661440
2.7223179 2.1395755 -0.44593203 4293661440
2.738277 2.1522284 -0.43399227 4293792000
2.7232153 2.1405199 -0.41663095 4293661440
2.7057493 2.1269212 -0.39861706 4293661440
2.7093399 2.1298592 -0.38335171 4293661440
2.7371488 2.1518199 -0.3709144 4293792000
2.7423708 2.15604 -0.35479471 4293792000
2.7108765 2.1314168 -0.33367795 4293661440
2.6941311 2.1183774 -0.31432328 4293530880
