# .PCD v0.7 - Point Cloud Data file format
VERSION 0.7
FIELDS x y z rgba
SIZE 4 4 4 4
TYPE F F F U
COUNT 1 1 1 1
WIDTH 1077
HEIGHT 1
VIEWPOINT 0 0 0 1 0 0 0
POINTS 1077
DATA ascii
2.419004 -0.6577605 -0.43061188 4290528000
2.4252894 -0.65938693 -0.42776358 4290528000
2.4245436 -0.65910447 -0.42317307 4290528000
2.4178095 -0.65719682 -0.41706496 4290528000
2.413516 -0.65595227 -0.41091838 4290528000
2.4191992 -0.65741551 -0.40598843 4290528000
2.403331 -0.65303093 -0.39701065 4290397440
2.4034441 -0.65298325 -0.39025214 4290397440
2.3949785 -0.65060878 -0.3816821 4290397440
2.4104505 -0.65472764 -0.37645766 4290397440
2.4349952 -0.66130626 -0.37208581 4290528000
2.4361994 -0.66155428 -0.36364624 4290528000
2.4274046 -0.65909123 -0.35333389 4290528000
2.3870151 -0.64806342 -0.33822364 4290397440
2.3964677 -0.65054923 -0.32989419 4290397440
2.415205 -0.6555512 -0.32235223 4290397440
2.415719 -0.65561336 -0.31194273 4290397440
2.4001472 -0.65131676 -0.29918081 4290397440
2.3844655 -0.64699149 -0.28621414 4290266880
2.4094627 -0.65368789 -0.27775183 4290397440
2.4246092 -0.65771443 -0.26765731 4290397440
2.4157565 -0.65523994 -0.25459665 4290397440
2.3797038 -0.64539981 -0.23862706 4290266880
2.4026341 -0.65153402 -0.22835512 4290397440
2.4110346 -0.65373278 -0.21629271 4290397440
2.4125097 -0.65405625 -0.20332271 4290397440
2.3797317 -0.64510763 -0.18742868 4290266880
2.4144988 -0.65444309 -0.17661598 4290397440
2.42155 -0.65627569 -0.16335879 4290397440
2.4134841 -0.65401715 -0.14891674 4290397440
2.3936973 -0.648588 -0.13375668 4290266880
2.3946168 -0.64876193 -0.11971407 4290266880
2.4069436 -0.65202153 -0.1060321 4290397440
2.4122572 -0.65338355 -0.091825537 4290397440
2.3742993 -0.6430428 -0.076083489 4290266880
2.4102209 -0.65268236 -0.062619135 4290397440
2.4241457 -0.65637225 -0.048221573 4290397440
2.4244857 -0.65638858 -0.033420708 4290397440
2.398406 -0.6492632 -0.018386027 4290266880
2.434206 -0.6588648 -0.0037324044 4290397440
2.4218836 -0.65545875 0.011128728 4290397440
2.6471784 -0.71626371 0.028428648 4291180800
2.8067544 -0.75929779 0.047328461 4291703040
2.8247941 -0.76408392 0.064843886 4291833600
2.7404423 -0.74120969 0.079514928 4291441920
2.6700759 -0.72211826 0.093570717 4291311360
2.8870234 -0.78062588 0.11852419 4291964160
2.8897109 -0.7812615 0.1358279 4292094720
2.8681865 -0.77535933 0.15172873 4291964160
2.6576767 -0.71843708 0.15607712 4291180800
2.8976519 -0.78313392 0.18694732 4292094720
2.8957875 -0.78253996 0.20334359 4292094720
2.8730018 -0.77629972 0.21790427 4291964160
2.7415049 -0.74072492 0.22310546 4291572480
2.9351506 -0.79288822 0.25489873 4292225280
2.9324231 -0.79205996 0.27036756 4292225280
2.893554 -0.78148234 0.28198007 4292094720
2.8673651 -0.77432722 0.29417741 4291964160
2.8297856 -0.76410168 0.30455285 4291833600
2.7814367 -0.75097424 0.31300098 4291703040
2.7800491 -0.75051188 0.32614538 4291703040
2.6814358 -0.72383755 0.32703918 4291311360
2.5337286 -0.68393528 0.32044539 4290789120
2.3605487 -0.63717657 0.30884147 4290266880
2.5446298 -0.68671155 0.34370139 4290919680
2.6214552 -0.70733225 0.36475965 4291180800
2.6711328 -0.72063333 0.3821286 4291311360
2.6082957 -0.70361871 0.38291073 4291180800
2.6443141 -0.71323705 0.39767227 4291311360
2.6009824 -0.70148069 0.40001667 4291050240
2.8619168 -0.77166873 0.44942477 4292094720
2.857131 -0.77028722 0.45738873 4291964160
2.8713586 -0.77402502 0.46789607 4292094720
2.8678772 -0.77299422 0.47500581 4292094720
2.8896942 -0.77877325 0.48580194 4292094720
2.8387933 -0.76497883 0.48373947 4291964160
2.8512273 -0.76823175 0.49182153 4291964160
2.8646855 -0.77175933 0.49955815 4292094720
2.8867888 -0.77761155 0.50828212 4292094720
2.8861272 -0.77733809 0.51243764 4292094720
2.8173323 -0.75873768 0.50380158 4291964160
2.8263829 -0.76107818 0.50842422 4291964160
2.8260128 -0.7608844 0.51076406 4291964160
2.8343005 -0.76301831 0.51407462 4291964160
2.8255649 -0.7605747 0.51369369 4291964160
2.8207335 -0.75918096 0.51341444 4291964160
2.8207574 -0.75909227 0.51341468 4291964160
2.8928816 -0.77838022 0.52592516 4292225280
2.879792 -0.77476484 0.52230883 4292094720
2.8706055 -0.77219874 0.51879859 4292094720
2.8434362 -0.7648021 0.51145691 4291964160
2.8258705 -0.75998658 0.5052852 4291964160
2.8725259 -0.77242041 0.50996917 4292094720
2.8503821 -0.7663753 0.50180936 4291964160
2.8573334 -0.76814365 0.49820846 4292094720
2.8475823 -0.76542717 0.49111882 4291964160
2.847312 -0.76525611 0.48511145 4291964160
2.7904572 -0.7498973 0.46902454 4291833600
2.7373214 -0.73554021 0.4532803 4291572480
2.7322683 -0.73408902 0.44512302 4291572480
2.706358 -0.72704184 0.43313834 4291441920
2.6244977 -0.70498687 0.41201723 4291180800
2.5439243 -0.68328255 0.3911337 4290919680
2.4958985 -0.67031288 0.37523258 4290789120
2.8696651 -0.76989996 0.35700008 4291964160
2.8898687 -0.77521092 0.34628552 4292094720
2.9056983 -0.77934849 0.33449009 4292094720
2.9162834 -0.78207994 0.32158953 4292225280
2.8938389 -0.77596444 0.30474299 4292094720
2.880827 -0.7723763 0.28872854 4292094720
2.9095407 -0.77996111 0.27649754 4292094720
2.8940289 -0.77570385 0.25968367 4292094720
2.858355 -0.76605052 0.24104463 4291964160
2.8917327 -0.77488095 0.22798188 4292094720
2.9078653 -0.77909398 0.21303216 4292094720
2.8901439 -0.77424729 0.19537255 4292094720
2.6858869 -0.71949667 0.16612896 4291311360
2.8187044 -0.75492841 0.15801184 4291833600
2.8983672 -0.77613348 0.14549525 4292094720
2.8476319 -0.76246059 0.12608388 4291833600
2.6401548 -0.70687968 0.10110333 4291180800
2.4430494 -0.65408665 0.078831956 4290528000
2.4343441 -0.65167105 0.063830666 4290397440
2.4367979 -0.65223861 0.049091622 4290397440
2.4145777 -0.64621204 0.033915706 4290397440
2.4250717 -0.64892858 0.01924013 4290397440
2.4211724 -0.64779878 0.0043842765 4290397440
2.3838305 -0.63773561 -0.010294329 4290266880
2.4128494 -0.64540017 -0.025182014 4290397440
2.4166372 -0.64632422 -0.039987952 4290397440
2.4248912 -0.64844066 -0.054898489 4290397440
2.4020224 -0.6422469 -0.068966649 4290266880
2.4275272 -0.64896864 -0.084352814 4290397440
2.4431746 -0.65305734 -0.099557348 4290528000
2.4402294 -0.65218288 -0.11397965 4290397440
2.4130492 -0.64484155 -0.12697694 4290397440
2.4338129 -0.65029436 -0.14230783 4290397440
2.4404714 -0.65198278 -0.15682502 4290528000
2.4281621 -0.64861131 -0.16992801 4290397440
2.422251 -0.64694721 -0.18318933 4290397440
2.4526815 -0.65497488 -0.19912495 4290528000
2.4633117 -0.65772092 -0.21346992 4290528000
2.4532394 -0.65494716 -0.22579855 4290528000
2.4222577 -0.64660054 -0.23574477 4290397440
2.4404542 -0.65136355 -0.25013319 4290528000
2.4575429 -0.65583009 -0.26431367 4290528000
2.4473255 -0.65301973 -0.27531075 4290528000
2.4453321 -0.65240127 -0.28686556 4290528000
2.3860478 -0.63652176 -0.29111344 4290266880
2.4622033 -0.65672064 -0.31158257 4290528000
2.474365 -0.65987194 -0.32402766 4290658560
2.4709082 -0.65886372 -0.33410886 4290658560
2.4739223 -0.65957868 -0.34468517 4290658560
2.4609306 -0.6560328 -0.3526099 4290658560
2.4278786 -0.64714861 -0.35709268 4290528000
2.4321351 -0.64819592 -0.36653468 4290528000
2.4488621 -0.65256155 -0.37750819 4290528000
2.4493792 -0.65261328 -0.38561833 4290528000
2.4510806 -0.65298021 -0.39348105 4290528000
2.4472287 -0.65187007 -0.39999801 4290528000
2.4460988 -0.65148437 -0.40648553 4290528000
2.4368758 -0.64894676 -0.41113734 4290528000
2.4326618 -0.64774185 -0.41612527 4290528000
2.4357917 -0.64848983 -0.4218829 4290528000
2.3957808 -0.63777006 -0.41962618 4290397440
2.3914719 -0.63654238 -0.42303711 4290397440
2.3809285 -0.63365841 -0.42483312 4290397440
2.3842444 -0.63445801 -0.42859104 4290397440
2.3291991 -0.61975187 -0.42132565 4290136320
2.3469584 -0.62439036 -0.42666367 4290266880
2.3381414 -0.62196875 -0.42669398 4290266880
2.3379736 -0.62184495 -0.42779526 4290266880
2.3331289 -0.62047952 -0.42754233 4290136320
2.3236084 -0.61787301 -0.42593372 4290136320
2.3830585 -0.63357794 -0.43643233 4290397440
2.4036605 -0.63896686 -0.43930587 4290397440
2.4066203 -0.63967216 -0.43844038 4290397440
2.4200144 -0.64314646 -0.43894812 4290528000
2.4332802 -0.64658612 -0.43889734 4290528000
2.4304521 -0.64575517 -0.43542928 4290528000
2.4456582 -0.64970875 -0.43466061 4290528000
2.4519591 -0.65129942 -0.43177608 4290658560
2.4427578 -0.64877844 -0.42567372 4290528000
2.4444809 -0.64915526 -0.42099139 4290528000
2.4354191 -0.64667255 -0.41398618 4290528000
2.4363465 -0.64683896 -0.40821573 4290528000
2.4300046 -0.64507848 -0.4007746 4290528000
2.4110265 -0.63996941 -0.39086407 4290397440
2.4168808 -0.64144284 -0.38455778 4290397440
2.4323847 -0.64547312 -0.37927687 4290528000
2.4548693 -0.65135211 -0.37452465 4290528000
2.4599102 -0.65260863 -0.36659852 4290658560
2.4455619 -0.64872897 -0.35540953 4290528000
2.4137363 -0.6402213 -0.34146127 4290397440
2.4193821 -0.64163935 -0.33251551 4290397440
2.4333642 -0.64526463 -0.32425764 4290528000
2.446357 -0.64862728 -0.31539032 4290528000
2.4221363 -0.64213753 -0.30143806 4290397440
2.4112408 -0.63917667 -0.28896227 4290397440
2.4362886 -0.64572978 -0.28039196 4290528000
2.4514699 -0.64967042 -0.27018645 4290528000
2.4474237 -0.64852244 -0.25751626 4290528000
2.4065166 -0.63762236 -0.24092561 4290397440
2.4198658 -0.64107823 -0.22962376 4290397440
2.4244325 -0.64221019 -0.21714635 4290397440
2.4337063 -0.64458692 -0.20477775 4290397440
2.3930881 -0.63376921 -0.18817781 4290266880
2.4357119 -0.64496487 -0.17787854 4290397440
2.4332449 -0.64423651 -0.16388348 4290397440
2.4441545 -0.64704466 -0.15056007 4290528000
2.4292774 -0.64303607 -0.13551788 4290397440
2.4206491 -0.6406799 -0.12081446 4290397440
2.4247596 -0.64169079 -0.10664054 4290397440
2.4348629 -0.64428496 -0.0925304 4290397440
2.3986342 -0.63463759 -0.076731913 4290266880
2.4249747 -0.64152145 -0.062895402 4290397440
2.4400961 -0.64544028 -0.04845408 4290397440
2.448581 -0.64760536 -0.033689033 4290528000
2.4282537 -0.64216137 -0.0185732 4290397440
2.4486332 -0.64746714 -0.0037400355 4290528000
2.4952729 -0.65970469 0.011471204 4290658560
2.6464701 -0.69954079 0.02838226 4291180800
2.8149953 -0.74394131 0.047401261 4291703040
2.8964012 -0.76533872 0.066404507 4292094720
2.6910412 -0.71105611 0.077956088 4291311360
2.7219365 -0.7191245 0.095255911 4291441920
2.9088261 -0.76834667 0.11924383 4292094720
2.9095681 -0.76845193 0.13655846 4292094720
2.8678241 -0.75735062 0.15147993 4291964160
2.7217453 -0.71873516 0.15960875 4291441920
2.9190686 -0.7706852 0.18804626 4292094720
2.9194772 -0.77070183 0.20469871 4292094720
2.8687937 -0.75724834 0.2172527 4291964160
2.7226353 -0.71862972 0.2212286 4291441920
2.937706 -0.77523261 0.25473124 4292225280
2.9432497 -0.77660155 0.2709524 4292225280
2.8921299 -0.76303822 0.28140986 4292094720
2.8439186 -0.75024426 0.29132199 4291833600
2.8062937 -0.7402423 0.3015587 4291703040
2.7761481 -0.73221278 0.31192636 4291703040
2.7613106 -0.72821695 0.32344794 4291572480
2.6625552 -0.70212144 0.32423589 4291311360
2.5328677 -0.66788679 0.3198449 4290789120
2.4189036 -0.6378001 0.31599894 4290397440
2.6454346 -0.69736046 0.35678166 4291180800
2.7817526 -0.7331593 0.3864896 4291703040
2.6825993 -0.70697325 0.38318112 4291311360
2.6812863 -0.70654184 0.39303029 4291311360
2.6981866 -0.71090275 0.40515703 4291441920
2.6231968 -0.69108588 0.40281606 4291180800
2.8926611 -0.76188964 0.45355827 4292094720
2.8880568 -0.76058501 0.46163252 4292094720
2.8796372 -0.75827706 0.46852526 4292094720
2.8928318 -0.76165336 0.47840554 4292094720
2.8855872 -0.75965428 0.48436609 4292094720
2.825067 -0.74364877 0.4806599 4291964160
2.8508811 -0.75034219 0.49100658 4291964160
2.8595927 -0.75253844 0.49790379 4292094720
2.8721974 -0.75575703 0.5049352 4292094720
2.8858371 -0.75924659 0.51159942 4292094720
2.8852673 -0.75900137 0.51516354 4292094720
2.8117075 -0.73958069 0.50500655 4291833600
2.9025164 -0.76334077 0.52379227 4292225280
2.8110664 -0.73922515 0.509076 4291833600
2.815655 -0.74033624 0.5111056 4291833600
2.8070056 -0.73797071 0.51013058 4291833600
2.8924747 -0.76031584 0.52566642 4292225280
2.8840265 -0.75800067 0.52351028 4292094720
2.8661516 -0.75321144 0.51903635 4292094720
2.8474197 -0.74819833 0.51381719 4291964160
2.8478401 -0.74821192 0.51146388 4291964160
2.8858893 -0.75809813 0.51523101 4292094720
2.8722069 -0.75441015 0.50913084 4292094720
2.8838508 -0.75736612 0.50692636 4292094720
2.8787785 -0.7559368 0.50118041 4292094720
2.8832061 -0.7569989 0.49650419 4292094720
2.887517 -0.75802982 0.49121156 4292094720
2.8393803 -0.74531007 0.47652143 4291964160
2.8092258 -0.73730719 0.4644821 4291833600
2.773762 -0.72791451 0.45119542 4291703040
2.7698143 -0.72678339 0.44262245 4291703040
2.7576704 -0.72350472 0.43227619 4291703040
2.6253629 -0.68874437 0.40304708 4291180800
2.5117528 -0.65889108 0.37704068 4290789120
2.8692818 -0.75189584 0.35640821 4291964160
2.885684 -0.75608635 0.34525675 4292094720
2.8967257 -0.75887281 0.33294836 4292094720
2.9165597 -0.76395869 0.32113069 4292094720
2.8800206 -0.75429642 0.30282483 4291964160
2.9005847 -0.75957209 0.29026982 4292094720
2.9073009 -0.76122469 0.27586505 4292094720
2.8942604 -0.7577107 0.25931069 4292094720
2.8671126 -0.75050914 0.24141826 4291964160
2.8875132 -0.75573915 0.22730422 4291964160
2.897876 -0.75834394 0.21197812 4292094720
2.8897758 -0.75612277 0.19505307 4291964160
2.6463542 -0.69241178 0.16343041 4291180800
2.8681815 -0.75027269 0.16055268 4291964160
2.8734004 -0.75153261 0.14402182 4291964160
2.772758 -0.72514158 0.12257228 4291572480
2.6625967 -0.69627184 0.10181594 4291180800
2.4698141 -0.64583564 0.079584025 4290528000
2.4621942 -0.64375693 0.064473026 4290528000
2.4544792 -0.64165384 0.049380962 4290528000
2.4502265 -0.64045513 0.034377061 4290528000
2.4423549 -0.63831216 0.019356707 4290397440
2.4479134 -0.63967425 0.0044375681 4290397440
2.4191821 -0.63208956 -0.010416884 4290397440
2.4301126 -0.63485348 -0.025313707 4290397440
2.4396257 -0.63724697 -0.040295206 4290397440
2.4518435 -0.6403451 -0.055411115 4290528000
2.4337723 -0.63554418 -0.069757149 4290397440
2.4593115 -0.64211494 -0.085312098 4290528000
2.4701419 -0.64484954 -0.10048898 4290528000
2.471606 -0.64514202 -0.11525384 4290528000
2.4399579 -0.63680476 -0.12818281 4290397440
2.4520507 -0.63986796 -0.14314362 4290528000
2.4586306 -0.64149392 -0.15773883 4290528000
2.4589326 -0.64148414 -0.17180276 4290528000
2.4433534 -0.63733774 -0.18449003 4290528000
2.4747851 -0.64543593 -0.2005991 4290528000
2.4902451 -0.64937299 -0.2154592 4290658560
2.4801471 -0.64665449 -0.22791114 4290658560
2.4272187 -0.63278681 -0.23585854 4290397440
2.46732 -0.64313817 -0.25248489 4290528000
2.4796102 -0.64624864 -0.26626557 4290658560
2.4828374 -0.64700007 -0.27886024 4290658560
2.4721699 -0.64413607 -0.28955498 4290658560
2.4175882 -0.62984866 -0.29449323 4290397440
2.4890425 -0.64834929 -0.31448165 4290658560
2.4964097 -0.65017718 -0.32640055 4290658560
2.4929378 -0.64918596 -0.3365581 4290658560
2.4911506 -0.6486333 -0.34654242 4290658560
2.4877191 -0.6476534 -0.35588732 4290658560
2.4593961 -0.64020354 -0.36115742 4290528000
2.473223 -0.64371097 -0.37213555 4290658560
2.4755974 -0.64424133 -0.38103008 4290658560
2.470927 -0.64294124 -0.38840181 4290658560
2.4711056 -0.64290148 -0.3960757 4290658560
2.4787102 -0.64479089 -0.40450633 4290658560
2.4680099 -0.64192569 -0.4094854 4290658560
2.4683189 -0.64192039 -0.41578767 4290658560
2.4593134 -0.63949668 -0.42002499 4290658560
2.4490743 -0.63675362 -0.42352414 4290528000
2.4175885 -0.62849587 -0.42278433 4290528000
2.4275799 -0.6310063 -0.42874804 4290528000
2.4027033 -0.62446713 -0.42804894 4290397440
2.420326 -0.62895811 -0.43439212 4290528000
2.3556545 -0.61209631 -0.42544377 4290266880
2.3648565 -0.61440355 -0.42924792 4290266880
2.3550708 -0.61178517 -0.42911458 4290266880
2.3644338 -0.61413395 -0.43195975 4290266880
2.3595805 -0.61279577 -0.43171284 4290266880
2.3595769 -0.6127156 -0.4318462 4290266880
2.4010072 -0.62337756 -0.4390353 4290397440
2.4302208 -0.63087016 -0.44346589 4290528000
2.4246066 -0.62933403 -0.44103011 4290528000
2.4418366 -0.63371873 -0.44221604 4290528000
2.4455884 -0.63461 -0.44043374 4290528000
2.4522965 -0.63626719 -0.43865818 4290658560
2.462759 -0.63889676 -0.43701974 4290658560
2.4738445 -0.64168727 -0.43495125 4290658560
2.4683344 -0.6401791 -0.42945901 4290658560
2.472012 -0.64105076 -0.42506731 4290658560
2.4716253 -0.64087003 -0.41948044 4290658560
2.4630094 -0.63855904 -0.41203806 4290658560
2.4566665 -0.63683718 -0.40453839 4290658560
2.4376686 -0.63184053 -0.39456505 4290528000
2.4392369 -0.63216776 -0.38750938 4290528000
2.4695272 -0.63992721 -0.38446209 4290658560
2.48544 -0.64396501 -0.37859398 4290658560
2.4828351 -0.64321142 -0.36943731 4290658560
2.4635968 -0.63815576 -0.35747305 4290658560
2.4354398 -0.6307947 -0.3439934 4290528000
2.4461122 -0.63347709 -0.33566213 4290528000
2.4649286 -0.63826478 -0.32794684 4290528000
2.4700744 -0.63951701 -0.3179493 4290658560
2.4538314 -0.6352399 -0.30490109 4290528000
2.4380052 -0.63107163 -0.29171026 4290528000
2.4669518 -0.63847589 -0.28347299 4290528000
2.4783187 -0.64133561 -0.27271542 4290658560
2.4751568 -0.64044076 -0.26002342 4290658560
2.4242206 -0.62720364 -0.24231759 4290397440
2.4466991 -0.63293433 -0.2318027 4290528000
2.4568746 -0.63548601 -0.21970157 4290528000
2.4633884 -0.63709152 -0.20694532 4290528000
2.417727 -0.62522364 -0.18981312 4290397440
2.4605882 -0.63621485 -0.17940907 4290528000
2.4670031 -0.63779432 -0.16588902 4290528000
2.4590423 -0.63566267 -0.15123719 4290528000
2.4392736 -0.63048393 -0.13586053 4290397440
2.4387622 -0.6302762 -0.12152305 4290397440
2.4529538 -0.63386256 -0.10770336 4290528000
2.4657443 -0.63708657 -0.093547784 4290528000
2.429718 -0.62771618 -0.077594444 4290397440
2.4583986 -0.63503897 -0.063651256 4290528000
2.4692981 -0.63777405 -0.048946612 4290528000
2.4707792 -0.63807958 -0.033931926 4290528000
2.457124 -0.63448209 -0.018753013 4290528000
2.4872663 -0.6421774 -0.0037785426 4290528000
2.6065567 -0.67285258 0.011996433 4291050240
2.749342 -0.70957649 0.029469075 4291441920
2.8609447 -0.73825479 0.048117228 4291833600
2.9022651 -0.74881446 0.066445284 4292094720
2.7214179 -0.70212603 0.078728296 4291441920
2.6821752 -0.69193131 0.093719929 4291311360
2.9055221 -0.74938381 0.11893328 4292094720
2.9043193 -0.74898398 0.13611059 4292094720
2.8586452 -0.73713076 0.15077056 4291833600
2.7307181 -0.704099 0.1598994 4291441920
2.9099748 -0.75016963 0.18718089 4292094720
2.9055574 -0.74894184 0.20341779 4292094720
2.8499742 -0.73454309 0.21550336 4291833600
2.7036023 -0.69677979 0.21935166 4291311360
2.9238338 -0.75337368 0.25314829 4292094720
2.9245703 -0.75347185 0.26882833 4292094720
2.8917024 -0.74492353 0.28094792 4292094720
2.8530569 -0.73489082 0.29182258 4291964160
2.8009231 -0.72139072 0.30053076 4291703040
2.7899919 -0.7184912 0.31301472 4291703040
2.7472191 -0.70740348 0.32131383 4291572480
2.6348569 -0.67842418 0.32037875 4291180800
2.5597849 -0.65903938 0.3227635 4290919680
2.5061698 -0.64517522 0.32692084 4290789120
2.7416446 -0.70562297 0.36921519 4291572480
2.7449889 -0.70639533 0.38080597 4291572480
2.753216 -0.70842206 0.39268681 4291572480
2.7604983 -0.71020538 0.40404391 4291572480
2.6936529 -0.69294339 0.40386936 4291441920
2.6271751 -0.67577994 0.40282252 4291180800
2.8884289 -0.74279898 0.45221528 4292094720
2.8972213 -0.744964 0.46240398 4292094720
2.8924661 -0.7436493 0.46990815 4292094720
2.8828704 -0.74109197 0.47604239 4292094720
2.8756196 -0.73913693 0.48196831 4292094720
2.8245692 -0.72593927 0.47985461 4291833600
2.8418245 -0.73027587 0.48871216 4291964160
2.8457768 -0.73119718 0.49475414 4291964160
2.8679538 -0.73679429 0.50343299 4292094720
2.880661 -0.73996013 0.50991583 4292094720
2.8896365 -0.74216759 0.51517069 4292094720
2.8939316 -0.74317378 0.51900274 4292094720
2.8155951 -0.72298765 0.50733763 4291833600
2.8200924 -0.72404736 0.50994599 4291833600
2.8246872 -0.72513145 0.51197761 4291964160
2.8150699 -0.72257161 0.51083034 4291833600
2.8787246 -0.73879367 0.52238274 4292094720
2.8740788 -0.73750627 0.5209223 4292094720
2.8561752 -0.73282146 0.51645428 4291964160
2.8517268 -0.73158526 0.51382422 4291964160
2.8340135 -0.72695071 0.50821751 4291964160
2.8807075 -0.73881555 0.51353562 4292094720
2.8765497 -0.73765254 0.50913799 4292094720
2.8700655 -0.73589379 0.50374705 4292094720
2.869756 -0.7357164 0.49886152 4292094720
2.8875637 -0.74017715 0.49651134 4292094720
2.8832777 -0.73898065 0.48975661 4292094720
2.8795362 -0.73792368 0.48254198 4292094720
2.8495505 -0.73015028 0.47044915 4291964160
2.7827373 -0.71295524 0.45197996 4291703040
2.8203158 -0.72247308 0.45002466 4291833600
2.7752452 -0.71084523 0.4343833 4291703040
2.7126985 -0.69475037 0.41584295 4291441920
2.5807405 -0.6609081 0.38682655 4291050240
2.8591516 -0.73158503 0.35462385 4291964160
2.8803825 -0.73690879 0.34411213 4291964160
2.8914351 -0.7396304 0.33184761 4292094720
2.9016593 -0.7421394 0.31901464 4292094720
2.869875 -0.73391783 0.30130884 4291964160
2.8817825 -0.73685658 0.28795704 4291964160
2.9000633 -0.74142164 0.27476752 4292094720
2.8889403 -0.73847818 0.25844705 4291964160
2.8665755 -0.73266566 0.24101193 4291964160
2.8773427 -0.73531121 0.2261623 4291964160
2.8886812 -0.73810172 0.21098609 4291964160
2.8795962 -0.73567986 0.19407067 4291964160
2.8079715 -0.71730262 0.17317717 4291703040
2.8869851 -0.7373578 0.16136169 4291964160
2.8785534 -0.73510337 0.14405912 4291964160
2.8053458 -0.71632999 0.12382638 4291703040
2.7377212 -0.69898546 0.10453895 4291441920
2.5054684 -0.63967335 0.080611654 4290658560
2.4891241 -0.63541657 0.065077573 4290658560
2.4814 -0.63335812 0.04984403 4290528000
2.4733877 -0.63122666 0.034644611 4290528000
2.4706278 -0.63043422 0.019546449 4290528000
2.4748278 -0.63141513 0.0044734757 4290528000
2.4363627 -0.62152737 -0.010484271 4290397440
2.4637785 -0.62842232 -0.025631845 4290528000
2.4665239 -0.62903261 -0.040686876 4290528000
2.468816 -0.62952721 -0.055722918 4290528000
2.4507556 -0.6248402 -0.070151113 4290397440
2.4791689 -0.63198465 -0.08588472 4290528000
2.4882698 -0.63421172 -0.10108867 4290658560
2.4985294 -0.636733 -0.11634694 4290658560
2.4580407 -0.62634081 -0.12895425 4290528000
2.475352 -0.6306566 -0.14430155 4290528000
2.4777706 -0.63118291 -0.15874463 4290528000
2.4886947 -0.63387239 -0.1736351 4290658560
2.4674113 -0.6283707 -0.18604277 4290528000
2.4889061 -0.6337477 -0.20146054 4290658560
2.5088403 -0.63872653 -0.21676117 4290658560
2.5123794 -0.63953644 -0.23054157 4290658560
2.4588187 -0.62583363 -0.23858528 4290528000
2.4992566 -0.63602227 -0.2553845 4290658560
2.5076947 -0.63807726 -0.26889408 4290658560
2.5020714 -0.63655943 -0.28061861 4290658560
2.4970264 -0.63518906 -0.29204533 4290658560
2.4491026 -0.62292868 -0.29789928 4290528000
2.5122793 -0.63888556 -0.31695977 4290789120
2.5148389 -0.63944668 -0.32833683 4290789120
2.5205917 -0.64081854 -0.33979762 4290789120
2.5177016 -0.63999611 -0.34972712 4290789120
2.5100415 -0.63796341 -0.3585597 4290789120
2.4775684 -0.62963456 -0.36329848 4290658560
2.5012755 -0.63556325 -0.37580639 4290789120
2.4953015 -0.63396025 -0.38350356 4290658560
2.4988692 -0.63477826 -0.39221793 4290658560
2.5055478 -0.63638526 -0.40100381 4290789120
2.5010676 -0.63516212 -0.4075563 4290789120
2.4934425 -0.63314211 -0.41309604 4290658560
2.4825954 -0.63030589 -0.41757989 4290658560
2.4850624 -0.63084573 -0.42379525 4290658560
2.4579656 -0.62389237 -0.42443851 4290658560
2.4584577 -0.62393278 -0.42928714 4290658560
2.4297817 -0.61658239 -0.42850757 4290528000
2.4425757 -0.61974096 -0.43449768 4290528000
2.3824892 -0.60443652 -0.42698714 4290397440
2.386848 -0.60545969 -0.43042901 4290397440
2.3912854 -0.60650271 -0.43339258 4290397440
2.3910298 -0.60635728 -0.4350062 4290397440
2.3908577 -0.60623312 -0.43612728 4290397440
2.3859961 -0.60492218 -0.43588465 4290397440
2.3907654 -0.60604948 -0.43688777 4290397440
2.4456234 -0.61985356 -0.44650558 4290528000
2.4324262 -0.61643249 -0.44320041 4290528000
2.4388573 -0.61797899 -0.44294798 4290528000
2.4514627 -0.62108719 -0.44328427 4290528000
2.4769328 -0.62744904 -0.44538969 4290658560
2.4973931 -0.63254237 -0.4460274 4290789120
2.502317 -0.63370556 -0.44334584 4290789120
2.4954681 -0.63189173 -0.43807223 4290789120
2.496901 -0.63217252 -0.43374985 4290789120
2.5034177 -0.63373846 -0.42979059 4290789120
2.4900384 -0.63027537 -0.42194301 4290658560
2.4957716 -0.63164359 -0.41685608 4290789120
2.4852045 -0.6288926 -0.40858662 4290658560
2.4599671 -0.62243593 -0.39753994 4290528000
2.4704385 -0.62500215 -0.39183447 4290658560
2.4789414 -0.62707072 -0.38531137 4290658560
2.5133982 -0.63569391 -0.38223118 4290789120
2.5098414 -0.63471544 -0.37284619 4290789120
2.497015 -0.63139671 -0.36172453 4290658560
2.466913 -0.62371743 -0.34786072 4290528000
2.4775403 -0.62632191 -0.33940679 4290658560
2.4919553 -0.62988192 -0.33098617 4290658560
2.4980826 -0.63134956 -0.3210102 4290658560
2.4805753 -0.62685287 -0.3076981 4290658560
2.4604604 -0.62169945 -0.29389119 4290528000
2.4898 -0.62902397 -0.28560185 4290658560
2.5020449 -0.63203472 -0.27484292 4290658560
2.5087276 -0.63364184 -0.26307869 4290658560
2.4401085 -0.61625844 -0.24346893 4290397440
2.4745846 -0.62487566 -0.23401497 4290528000
2.4801269 -0.62619585 -0.22136934 4290528000
2.4816544 -0.62650371 -0.20808761 4290528000
2.4445131 -0.61706454 -0.19154495 4290397440
2.4826097 -0.62659019 -0.18065831 4290528000
2.4987168 -0.6305722 -0.16767922 4290658560
2.4859133 -0.62726867 -0.15257007 4290528000
2.4612806 -0.62098569 -0.13679053 4290528000
2.4762671 -0.62468481 -0.12310995 4290528000
2.4769239 -0.62477368 -0.10849796 4290528000
2.4926476 -0.62865716 -0.094328865 4290658560
2.4526949 -0.61851943 -0.078113846 4290528000
2.4861829 -0.62687552 -0.064173214 4290528000
2.5068777 -0.63200879 -0.049511388 4290658560
2.4835379 -0.62605631 -0.033956312 4290528000
2.4851155 -0.62637687 -0.018833313 4290528000
2.5098493 -0.63252479 -0.0037014927 4290658560
2.6841044 -0.67629546 0.012460841 4291311360
2.7388518 -0.68998712 0.029422307 4291441920
2.8685641 -0.72253436 0.048292913 4291964160
2.9045198 -0.73149014 0.06651853 4291964160
2.8668163 -0.72191781 0.082959346 4291964160
2.6909735 -0.67760885 0.094001628 4291311360
2.8913901 -0.72791976 0.11829749 4291964160
2.8998768 -0.7299642 0.1358214 4291964160
2.8434827 -0.71569788 0.14986485 4291833600
2.7114987 -0.68243527 0.15864858 4291311360
2.904577 -0.73087621 0.1866771 4292094720
2.9098313 -0.73210657 0.20353685 4292094720
2.849329 -0.7168144 0.21525322 4291833600
2.7027431 -0.67989916 0.21906817 4291311360
2.9252443 -0.7357071 0.25301504 4292094720
2.9143775 -0.73288655 0.26761129 4292094720
2.8814669 -0.72453064 0.2796531 4291964160
2.8427706 -0.71472377 0.29045123 4291833600
2.8002131 -0.70394975 0.30011928 4291703040
2.7709475 -0.69651508 0.31052223 4291572480
2.7329414 -0.68688822 0.31927258 4291441920
2.6339083 -0.66194695 0.31988743 4291180800
2.5827968 -0.64903766 0.32528061 4290919680
2.5608475 -0.64344871 0.33365795 4290919680
2.6895201 -0.67564976 0.36174732 4291311360
2.7573764 -0.69258654 0.38205376 4291572480
2.7111354 -0.68090069 0.38619766 4291441920
2.755904 -0.69204193 0.40286258 4291572480
2.6880043 -0.67492771 0.40250897 4291311360
2.6223929 -0.65839124 0.40157232 4291180800
2.883074 -0.72365844 0.4507916 4292094720
2.878463 -0.72241008 0.45880803 4292094720
2.8871248 -0.72448832 0.46842203 4292094720
2.8870969 -0.72438812 0.47610763 4292094720
2.8616436 -0.71791703 0.47898272 4291964160
2.8788435 -0.72213334 0.48842055 4292094720
2.8412068 -0.71261173 0.4879421 4291964160
2.8547318 -0.71590668 0.49563268 4291964160
2.8578141 -0.71658522 0.50096083 4291964160
2.8714995 -0.71991843 0.50758785 4292094720
2.8709321 -0.71968198 0.51111907 4292094720
2.8838391 -0.72281849 0.51646394 4292094720
2.8015673 -0.70213026 0.50409341 4291833600
2.8060734 -0.70316517 0.50668567 4291833600
2.8011217 -0.70183283 0.50697482 4291833600
2.8829238 -0.72220671 0.52239209 4292094720
2.87817 -0.72092122 0.52152115 4292094720
2.8696957 -0.718705 0.51936454 4292094720
2.8469875 -0.71292925 0.51403177 4291964160
2.8425317 -0.7117191 0.51140469 4291964160
2.8200116 -0.70599228 0.50494766 4291833600
2.871551 -0.71878183 0.51112998 4292094720
2.8578227 -0.7152527 0.50505269 4291964160
2.8742776 -0.71926808 0.50371397 4292094720
2.8739681 -0.71909273 0.49882296 4292094720
2.8774476 -0.71986377 0.4940013 4292094720
2.8779371 -0.71988738 0.48808244 4292094720
2.8837633 -0.72124386 0.48248672 4292094720
2.8537338 -0.71364421 0.47038907 4291964160
2.8160253 -0.7041288 0.45665443 4291833600
2.7832274 -0.69584191 0.44338232 4291703040
2.7198465 -0.67992169 0.42500934 4291441920
2.656817 -0.66409343 0.40659711 4291311360
2.6306169 -0.65746152 0.39364973 4291180800
2.8499336 -0.71130669 0.35295904 4291964160
2.8711884 -0.71650356 0.34250939 4291964160
2.8957508 -0.72252303 0.33185783 4292094720
2.8973057 -0.72280782 0.31807205 4292094720
2.8702958 -0.71597582 0.30091688 4291964160
2.8764238 -0.71740025 0.28700715 4291964160
2.8811982 -0.71848702 0.27258721 4291964160
2.874881 -0.71681118 0.25682235 4291964160
2.8476384 -0.70992541 0.23908018 4291833600
2.8632488 -0.71371001 0.22473909 4291964160
2.8833079 -0.71860075 0.21030322 4291964160
2.8703318 -0.71526802 0.19318266 4291964160
2.852566 -0.71074414 0.17570083 4291833600
2.8767524 -0.71665978 0.16057867 4291964160
2.877996 -0.71686596 0.14384878 4291964160
2.8004324 -0.69746935 0.12345778 4291703040
2.8004994 -0.69738537 0.1068241 4291703040
2.5414994 -0.63287926 0.081690542 4290789120
2.513201 -0.62575191 0.065649569 4290658560
2.5132337 -0.62566966 0.050452266 4290658560
2.4964786 -0.62141454 0.034959547 4290658560
2.4975975 -0.62160277 0.019776687 4290658560
2.5018044 -0.6225583 0.0045636166 4290658560
2.4632819 -0.61289716 -0.010535083 4290528000
2.4869759 -0.61869454 -0.025784342 4290528000
2.4954226 -0.6207031 -0.041048769 4290658560
2.5142136 -0.62527996 -0.056603331 4290658560
2.482111 -0.61721814 -0.07088583 4290528000
2.5061388 -0.62309438 -0.086632088 4290658560
2.5171847 -0.62574637 -0.10205135 4290658560
2.5235662 -0.62723988 -0.11727777 4290658560
2.489809 -0.61877191 -0.13036385 4290528000
2.5022926 -0.6217801 -0.14559238 4290658560
2.523113 -0.62685591 -0.16133958 4290658560
2.5059555 -0.62250942 -0.1745175 4290658560
2.5039959 -0.62193376 -0.18845196 4290658560
2.5170922 -0.62509197 -0.20337212 4290658560
2.5366702 -0.62985653 -0.21877192 4290789120
2.533268 -0.62892258 -0.23204663 4290789120
2.4856699 -0.61703366 -0.24076477 4290658560
2.5226898 -0.62612045 -0.25732851 4290789120
2.5345962 -0.62898135 -0.27130589 4290789120
2.5289528 -0.62749314 -0.28314322 4290789120
2.5210793 -0.625453 -0.29435286 4290789120
2.4465075 -0.60689211 -0.29708502 4290528000
2.5356815 -0.62889129 -0.31937012 4290789120
2.5513215 -0.63267493 -0.33253404 4290919680
2.5493624 -0.63210005 -0.34309793 4290919680
2.5498824 -0.63213933 -0.35360312 4290919680
2.5272346 -0.62644392 -0.36041823 4290789120
2.5091226 -0.6218729 -0.3673141 4290789120
2.5193186 -0.62430841 -0.37789628 4290789120
2.5267708 -0.62606448 -0.38770103 4290789120
2.5256152 -0.62569076 -0.39576834 4290789120
2.5226998 -0.62488204 -0.40309584 4290789120
2.5132017 -0.62244564 -0.408876 4290789120
2.5149465 -0.62279034 -0.41598913 4290789120
2.5274823 -0.62580317 -0.42444116 4290789120
2.5069494 -0.62064028 -0.42684689 4290789120
2.493211 -0.61715847 -0.4298369 4290658560
2.4718249 -0.61178768 -0.43094337 4290658560
2.4563529 -0.60788006 -0.43251121 4290528000
2.3999114 -0.59385091 -0.42626607 4290397440
2.4089782 -0.59600943 -0.43106073 4290397440
2.4181204 -0.59818614 -0.43538955 4290397440
2.4177783 -0.59802002 -0.43751734 4290397440
2.4175189 -0.59787452 -0.43914974 4290397440
2.4211679 -0.59869438 -0.44098005 4290528000
2.4258575 -0.59977108 -0.44248807 4290528000
2.4172482 -0.59756494 -0.44106004 4290397440
2.4077682 -0.59514469 -0.43895978 4290397440
2.4589705 -0.60770035 -0.44736871 4290658560
2.4787998 -0.61251169 -0.44953001 4290658560
2.4866457 -0.61436552 -0.44898108 4290658560
2.4997225 -0.61750942 -0.4488323 4290789120
2.5144756 -0.62106615 -0.44843054 4290789120
2.5136549 -0.62078136 -0.44471925 4290789120
2.5178738 -0.62173957 -0.44137567 4290789120
2.5235651 -0.62306076 -0.43776065 4290789120
2.5224316 -0.62269938 -0.43244952 4290789120
2.5127897 -0.62024105 -0.42520687 4290789120
2.5137448 -0.62039524 -0.41928226 4290789120
2.5033691 -0.61775744 -0.41101414 4290789120
2.4912009 -0.61467886 -0.40204155 4290658560
2.4971106 -0.61605483 -0.39553562 4290658560
2.5200384 -0.62162256 -0.39117682 4290789120
2.536705 -0.62564695 -0.3852742 4290789120
2.5379574 -0.62587458 -0.37653783 4290789120
2.5238862 -0.62232929 -0.36515397 4290789120
2.4893596 -0.61374897 -0.35058954 4290658560
2.4956226 -0.61521196 -0.3414678 4290658560
2.5152769 -0.61997068 -0.33368301 4290789120
2.5166049 -0.62021828 -0.32301196 4290789120
2.5034285 -0.61689681 -0.31017619 4290658560
2.482404 -0.61164552 -0.29618034 4290658560
2.5137227 -0.61927235 -0.28803167 4290658560
2.5253243 -0.62204748 -0.27710736 4290789120
2.5307691 -0.6233077 -0.2651203 4290789120
2.4813898 -0.61108583 -0.24733974 4290528000
2.5014286 -0.61593574 -0.23633189 4290658560
2.5083542 -0.61756068 -0.22369008 4290658560
2.5085294 -0.61752594 -0.21016686 4290658560
2.4713433 -0.60830826 -0.19349939 4290528000
2.5105941 -0.61787796 -0.18256892 4290658560
2.5124755 -0.61826271 -0.16850558 4290658560
2.517678 -0.61946326 -0.15444201 4290658560
2.4930182 -0.61332756 -0.13850218 4290658560
2.4994254 -0.61482453 -0.12423632 4290658560
2.5087008 -0.61702555 -0.10988743 4290658560
2.5098972 -0.6172421 -0.09500818 4290658560
2.4822547 -0.61037749 -0.079102717 4290528000
2.5179918 -0.619075 -0.065067023 4290658560
2.5251272 -0.62074924 -0.049973339 4290658560
2.5153503 -0.61827189 -0.034513623 4290658560
2.516933 -0.61858296 -0.019221529 4290658560
2.5405204 -0.62429374 -0.0039203176 4290789120
2.7259281 -0.669707 0.012443946 4291441920
2.7636263 -0.67887163 0.029444164 4291572480
2.8412175 -0.69781959 0.047543962 4291833600
2.8972266 -0.71146935 0.066034541 4291964160
2.8613267 -0.7025764 0.08246167 4291833600
2.6764915 -0.65716594 0.093152851 4291180800
2.890794 -0.70962495 0.11788021 4291964160
2.894444 -0.71043068 0.13514759 4291964160
2.83409 -0.69554806 0.14893442 4291833600
2.7019167 -0.66306734 0.1576502 4291311360
2.8855903 -0.70799327 0.18496469 4291964160
2.8957062 -0.71038276 0.20203292 4291964160
2.8351221 -0.69545078 0.213653 4291833600
2.688328 -0.65940464 0.21737981 4291311360
2.9140565 -0.71460825 0.25146359 4292094720
2.9186723 -0.71564823 0.26740289 4292094720
2.8770101 -0.70535588 0.27860585 4291964160
2.8285954 -0.69341278 0.28837895 4291833600
2.7908146 -0.68407571 0.29847977 4291703040
2.7615125 -0.67681628 0.30882311 4291572480
2.7089798 -0.66387302 0.31582662 4291441920
2.6329668 -0.64518708 0.31913361 4291180800
2.6184206 -0.6415453 0.32912308 4291050240
2.5110002 -0.61518294 0.32652274 4290658560
2.749712 -0.67349619 0.36914474 4291572480
2.7113774 -0.66403335 0.37496793 4291441920
2.7696838 -0.67820644 0.39381239 4291572480
2.8192997 -0.69025064 0.41138229 4291833600
2.7817104 -0.68097091 0.41579846 4291703040
2.7089624 -0.66309857 0.41409847 4291441920
2.887316 -0.70660603 0.45066005 4292094720
2.8826971 -0.70538473 0.458684 4292094720
2.8597033 -0.69967347 0.46317321 4291964160
2.8683193 -0.70168662 0.4722065 4291964160
2.8658485 -0.7009905 0.4788827 4291964160
2.8696523 -0.70182699 0.48605406 4291964160
2.8137567 -0.68808246 0.48243481 4291833600
2.8359303 -0.69340581 0.49157107 4291964160
2.8485985 -0.69640648 0.49854752 4291964160
2.85273 -0.69732207 0.50347352 4291964160
2.8607798 -0.69919354 0.50851804 4291964160
2.8698776 -0.70132005 0.51317269 4292094720
2.8647137 -0.69996536 0.51467907 4291964160
2.8740029 -0.70213729 0.51818067 4292094720
2.8786063 -0.70316517 0.52023613 4292094720
2.8737419 -0.70188296 0.51996934 4292094720
2.8641946 -0.6994586 0.51824272 4291964160
2.8509202 -0.69612581 0.51523513 4291964160
2.8463569 -0.69491762 0.51320183 4291964160
2.8371065 -0.69256675 0.50972807 4291964160
2.8145499 -0.68697268 0.5032891 4291833600
2.8709471 -0.70062363 0.51034433 4292094720
2.8533652 -0.69624174 0.50360709 4291964160
2.8602614 -0.69782531 0.50061482 4291964160
2.8637767 -0.69858438 0.49642903 4291964160
2.8730049 -0.70073467 0.49263123 4292094720
2.8773246 -0.70168859 0.48739073 4292094720
2.8745244 -0.70090806 0.48037368 4292094720
2.8756311 -0.70107871 0.47345552 4292094720
2.827641 -0.68929595 0.45802519 4291833600
2.8069191 -0.68415409 0.44667119 4291833600
2.7741055 -0.67607039 0.43303451 4291703040
2.7484889 -0.6697402 0.42020497 4291572480
2.6892354 -0.65522695 0.40202916 4291311360
2.8596594 -0.6962992 0.3536706 4291964160
2.8607748 -0.69646955 0.34078845 4291964160
2.8863299 -0.70258135 0.33031303 4291964160
2.8830485 -0.70168167 0.31605968 4291964160
2.8598576 -0.69594318 0.29939777 4291964160
2.8717897 -0.69874138 0.28613785 4291964160
2.8852754 -0.70191598 0.27258465 4291964160
2.8741081 -0.69910055 0.25638545 4291964160
2.8289001 -0.68801713 0.2371618 4291833600
2.8721437 -0.69841874 0.22511137 4291964160
2.8835087 -0.70107603 0.21001001 4291964160
2.8646941 -0.69640499 0.19251725 4291833600
2.8468993 -0.69198275 0.17508851 4291833600
2.8672347 -0.6968168 0.15980293 4291833600
2.8723581 -0.69795758 0.14334436 4291964160
2.8294873 -0.68745208 0.12454715 4291703040
2.8035178 -0.68105 0.10676628 4291703040
2.5771451 -0.62603605 0.082704194 4290919680
2.5352106 -0.61577266 0.066111684 4290789120
2.5401034 -0.61686826 0.050899696 4290789120
2.5096462 -0.60939205 0.035069901 4290658560
2.5253353 -0.6131056 0.019945212 4290658560
2.5243456 -0.61277503 0.0045725154 4290658560
2.4984143 -0.60639948 -0.010694043 4290658560
2.5186689 -0.61121809 -0.026102535 4290658560
2.5222659 -0.61199927 -0.041461002 4290658560
2.5313637 -0.61411268 -0.056942336 4290658560
2.5050423 -0.60764629 -0.071472533 4290658560
2.532901 -0.61430347 -0.087467223 4290658560
2.5488973 -0.61808616 -0.10322501 4290789120
2.5504258 -0.61836487 -0.11839511 4290789120
2.5025408 -0.60668164 -0.13088611 4290658560
2.5304766 -0.61335373 -0.1470622 4290789120
2.5374584 -0.61495286 -0.16207078 4290789120
2.5347826 -0.61421484 -0.17631541 4290789120
2.5219865 -0.61102849 -0.18958132 4290658560
2.5535815 -0.61858141 -0.20606816 4290789120
2.5586436 -0.61971474 -0.22039971 4290789120
2.5639415 -0.62090486 -0.23456693 4290919680
2.5038321 -0.60627973 -0.2422267 4290658560
2.5416303 -0.61532891 -0.25894055 4290789120
2.5578935 -0.61917001 -0.27345824 4290789120
2.555625 -0.61853123 -0.28576949 4290789120
2.5478036 -0.61655086 -0.29709679 4290789120
2.4731145 -0.5984149 -0.29993364 4290528000
2.5623174 -0.61987752 -0.32231271 4290919680
2.5697675 -0.62158692 -0.33451116 4290919680
2.5723405 -0.62211812 -0.34574527 4290919680
2.571768 -0.62188983 -0.35617781 4290919680
2.5530276 -0.61727518 -0.36362311 4290919680
2.5318189 -0.61206615 -0.37015337 4290789120
2.5334334 -0.61236769 -0.37951887 4290789120
2.5495479 -0.61616868 -0.39068127 4290919680
2.5493393 -0.61602992 -0.39895773 4290919680
2.5501814 -0.6161449 -0.40694445 4290919680
2.5451131 -0.61483425 -0.41351214 4290919680
2.5463114 -0.61503565 -0.42060971 4290919680
2.5352447 -0.61227924 -0.42517731 4290789120
2.5248685 -0.60969037 -0.42931837 4290789120
2.5123219 -0.60657912 -0.43254447 4290789120
2.4982982 -0.60311288 -0.43496251 4290658560
2.4875898 -0.60044688 -0.43740687 4290658560
2.4406433 -0.58904868 -0.43289527 4290528000
2.4353468 -0.58768988 -0.43517312 4290528000
2.4531174 -0.59188908 -0.44107017 4290528000
2.4575582 -0.59287626 -0.44408578 4290528000
2.4572947 -0.59273028 -0.4457393 4290528000
2.4523296 -0.5914523 -0.44601935 4290528000
2.4570248 -0.59250104 -0.44753104 4290528000
2.45702 -0.59241807 -0.44766742 4290528000
2.4245503 -0.58452022 -0.44138402 4290528000
2.4854004 -0.59908611 -0.45151973 4290658560
2.50526 -0.60378343 -0.45366392 4290789120
2.4997125 -0.60236603 -0.45068091 4290789120
2.5171134 -0.60647053 -0.45128843 4290789120
2.5305564 -0.609622 -0.45062879 4290789120
2.5449736 -0.61300713 -0.44958156 4290919680
2.543205 -0.61249888 -0.4451414 4290919680
2.5506005 -0.61419469 -0.44177502 4290919680
2.5548663 -0.6151377 -0.43733409 4290919680
2.5498965 -0.61386043 -0.43081254 4290919680
2.5460665 -0.6128577 -0.42400658 4290919680
2.5299299 -0.60889763 -0.41471887 4290789120
2.5129511 -0.60473651 -0.40490669 4290789120
2.5146098 -0.60505468 -0.39766926 4290789120
2.5381191 -0.61062229 -0.3933455 4290789120
2.5633545 -0.61660326 -0.38868159 4290919680
2.5559578 -0.61474538 -0.37858084 4290919680
2.546689 -0.61243856 -0.36783418 4290789120
2.5159774 -0.60498387 -0.35373408 4290789120
2.5266004 -0.6074549 -0.34510756 4290789120
2.5380969 -0.61013514 -0.33612183 4290789120
2.5529461 -0.61361951 -0.32709053 4290789120
2.5301132 -0.60805994 -0.31291604 4290789120
2.5078533 -0.60263944 -0.29866713 4290658560
2.5404453 -0.61038071 -0.29054895 4290789120
2.5569093 -0.61425114 -0.28003636 4290789120
2.5489507 -0.61226261 -0.26650745 4290789120
2.502846 -0.60112607 -0.24898252 4290658560
2.5242281 -0.60617584 -0.23799965 4290658560
2.5351224 -0.60870981 -0.22560233 4290789120
2.5401537 -0.60983759 -0.21235427 4290789120
2.4976628 -0.59957373 -0.19512248 4290658560
2.5325418 -0.60785627 -0.18373872 4290789120
2.544136 -0.61055678 -0.17021447 4290789120
2.53458 -0.60818869 -0.15508698 4290789120
2.5236969 -0.60550332 -0.13982947 4290658560
2.5262344 -0.60603362 -0.12521005 4290658560
2.5269034 -0.60611629 -0.11034607 4290658560
2.5363135 -0.6082924 -0.095684201 4290789120
2.5041919 -0.6005227 -0.079501301 4290658560
2.5321994 -0.60715175 -0.065151252 4290658560
2.5482197 -0.61090946 -0.050162584 4290789120
2.5421989 -0.6093902 -0.034633309 4290789120
2.5446801 -0.6099062 -0.019203946 4290789120
2.576854 -0.61752772 -0.0037622603 4290919680
2.8119295 -0.67369705 0.013057357 4291703040
2.7623184 -0.66174167 0.029606674 4291441920
2.8640285 -0.68598777 0.048090577 4291833600
2.8818114 -0.69015342 0.065818399 4291964160
2.8690448 -0.68701196 0.082799889 4291833600
2.7709622 -0.66347003 0.096547402 4291572480
2.8860645 -0.69090527 0.1177544 4291964160
2.8751459 -0.68820649 0.13428719 4291964160
2.8283114 -0.67692322 0.14864978 4291703040
2.7008109 -0.64636344 0.15758237 4291311360
2.8895926 -0.69139367 0.1851947 4291964160
2.8861356 -0.69047868 0.20131268 4291964160
2.8342013 -0.67798215 0.21350999 4291833600
2.683326 -0.64185381 0.21688285 4291311360
2.9083998 -0.69552916 0.25085139 4292094720
2.9091496 -0.69561827 0.26638201 4292094720
2.8858335 -0.6899606 0.27929211 4291964160
2.8141184 -0.67274874 0.28671294 4291703040
2.7850001 -0.66571003 0.29764858 4291572480
2.7508264 -0.65746629 0.30739862 4291572480
2.6943614 -0.64390457 0.31387568 4291311360
2.6414356 -0.63119072 0.3199006 4291180800
2.5792069 -0.61626035 0.32391432 4290919680
2.5926354 -0.61938304 0.33685344 4291050240
2.8046298 -0.6698699 0.37618256 4291703040
2.8167107 -0.67266291 0.38918349 4291833600
2.7831445 -0.66456938 0.39534763 4291703040
2.8087466 -0.67058599 0.40943718 4291703040
2.771112 -0.66152453 0.41379467 4291572480
2.7040434 -0.64544886 0.41291872 4291441920
2.8913028 -0.68999535 0.45080602 4292094720
2.8722577 -0.68536431 0.45652908 4291964160
2.8636525 -0.68322194 0.46330306 4291964160
2.8588331 -0.6819818 0.47011632 4291964160
2.8467622 -0.67901438 0.47514856 4291964160
2.8553791 -0.68097508 0.4830732 4291964160
2.8176441 -0.67189604 0.48253065 4291833600
2.8254602 -0.67366588 0.48916656 4291833600
2.8477404 -0.67887872 0.4977884 4291964160
2.8470857 -0.67863011 0.50185311 4291964160
2.8561082 -0.68068463 0.50704706 4291964160
2.8604286 -0.68161923 0.51082724 4291964160
2.8686771 -0.68348807 0.51472133 4291964160
2.8636067 -0.6821872 0.51562381 4291964160
2.8682184 -0.68318969 0.51766342 4291964160
2.8595161 -0.68102479 0.51669061 4291964160
2.8681619 -0.68298602 0.51824462 4291964160
2.8404973 -0.67631209 0.51263148 4291964160
2.8368862 -0.67535859 0.51076633 4291964160
2.8180387 -0.67078304 0.50557017 4291833600
2.8002412 -0.66645813 0.49999601 4291833600
2.8567147 -0.67978525 0.50705838 4291964160
2.8381467 -0.67527664 0.50016397 4291964160
2.8450491 -0.67682052 0.49718809 4291964160
2.8495243 -0.67778707 0.49318868 4291964160
2.8625996 -0.68079585 0.49007049 4291964160
2.8726816 -0.68309259 0.48582265 4291964160
2.8785186 -0.68438041 0.48025674 4292094720
2.8604131 -0.67998308 0.47016743 4291964160
2.8534055 -0.67822129 0.46142149 4291964160
2.8387065 -0.67463422 0.4509576 4291833600
2.8106701 -0.66788274 0.4379797 4291833600
2.7840712 -0.66147411 0.42489174 4291703040
2.7623034 -0.65621316 0.41221231 4291572480
2.8501956 -0.6761722 0.35200578 4291833600
2.8561378 -0.67747962 0.3397612 4291833600
2.8807566 -0.68321043 0.32921684 4291964160
2.882303 -0.68347502 0.31554121 4291964160
2.8552036 -0.67695624 0.29849908 4291833600
2.8613365 -0.67830724 0.28470537 4291833600
2.8825979 -0.68323898 0.2719619 4291964160
2.8694601 -0.68002719 0.25562564 4291964160
2.8411632 -0.67322874 0.23787418 4291833600
2.8577809 -0.67705983 0.22368804 4291833600
2.8730369 -0.68056738 0.20897326 4291964160
2.8648713 -0.67853349 0.19228238 4291833600
2.827621 -0.66962129 0.17368087 4291703040
2.876157 -0.68099797 0.16010477 4291964160
2.8764286 -0.68095946 0.14337701 4291964160
2.8578711 -0.67646962 0.12565744 4291833600
2.8263474 -0.66891634 0.10752308 4291703040
2.6293542 -0.62225956 0.084305882 4291050240
2.5729735 -0.60884291 0.06704548 4290789120
2.5515838 -0.6036973 0.051097229 4290789120
2.5462868 -0.60235465 0.035578888 4290789120
2.5571344 -0.60482556 0.020215999 4290789120
2.556144 -0.60450006 0.0046736007 4290789120
2.5165503 -0.59505981 -0.010708542 4290658560
2.5318909 -0.59859127 -0.026153859 4290658560
2.5405548 -0.60054564 -0.041650951 4290789120
2.5530183 -0.60339624 -0.05729397 4290789120
2.5346034 -0.59895939 -0.072156124 4290658560
2.5598323 -0.60482121 -0.088213444 4290789120
2.5720766 -0.60761815 -0.10395703 4290789120
2.5822327 -0.60992169 -0.11963888 4290919680
2.5342724 -0.59851891 -0.13229465 4290658560
2.5621548 -0.605003 -0.14862737 4290789120
2.5643644 -0.60543251 -0.16349269 4290789120
2.5616767 -0.6047076 -0.17786826 4290789120
2.5488536 -0.60159415 -0.19126356 4290789120
2.5770011 -0.60813648 -0.20759727 4290919680
2.5923297 -0.61165667 -0.2229149 4290919680
2.5869601 -0.61029965 -0.23627028 4290919680
2.5257876 -0.59579897 -0.24393862 4290658560
2.5684738 -0.6057626 -0.26123607 4290919680
2.5759509 -0.60743248 -0.27493259 4290919680
2.5873039 -0.6100145 -0.28883144 4290919680
2.574621 -0.60693765 -0.29973012 4290919680
2.5133488 -0.59242541 -0.30430982 4290658560
2.5852661 -0.60926175 -0.32467216 4290919680
2.6071186 -0.61431301 -0.33882132 4291050240
2.6030047 -0.61325389 -0.34930319 4291050240
2.5985582 -0.61211699 -0.35931265 4291050240
2.5836365 -0.60851681 -0.36739579 4290919680
2.5638311 -0.60376942 -0.37423807 4290919680
2.5697672 -0.60507613 -0.38435176 4290919680
2.5733676 -0.60583347 -0.39371398 4290919680
2.5684593 -0.60459071 -0.40132532 4290919680
2.5773544 -0.60659266 -0.41064167 4290919680
2.5756326 -0.60609931 -0.41782251 4290919680
2.5796926 -0.60696477 -0.42546582 4290919680
2.5666885 -0.60382152 -0.42978987 4290919680
2.5601294 -0.60219312 -0.43464744 4290919680
2.534111 -0.59599537 -0.43563595 4290789120
2.5296602 -0.59486407 -0.43975624 4290789120
2.5179687 -0.59203327 -0.44208217 4290789120
2.4623139 -0.57888311 -0.43608791 4290528000
2.4752307 -0.58183187 -0.44163695 4290658560
2.4069927 -0.56573433 -0.43216494 4290397440
2.4888294 -0.58485633 -0.44907317 4290658560
2.4111862 -0.56655681 -0.43676385 4290397440
2.4014227 -0.56418598 -0.4361555 4290397440
2.4786987 -0.58223099 -0.45082796 4290658560
2.4700642 -0.58012378 -0.44940257 4290658560
2.4701457 -0.58006108 -0.44903466 4290658560
2.4559319 -0.57664716 -0.44555494 4290528000
2.5121658 -0.58974844 -0.45428124 4290789120
