# .PCD v0.7 - Point Cloud Data file format
VERSION 0.7
FIELDS x y z rgba
SIZE 4 4 4 4
TYPE F F F U
COUNT 1 1 1 1
WIDTH 1103
HEIGHT 1
VIEWPOINT 0 0 0 1 0 0 0
POINTS 1103
DATA ascii
1.7151231 -1.5073169 -0.082295366 4289614080
1.7070947 -1.5001662 -0.06870012 4289614080
1.7241025 -1.5150164 -0.055968706 4289614080
1.7234462 -1.5143439 -0.042476971 4289614080
1.7158908 -1.5076095 -0.028834494 4289614080
1.7379777 -1.5269188 -0.01554544 4289744640
1.7448258 -1.5328381 -0.0018765903 4289744640
1.7383893 -1.5270867 0.011811045 4289744640
1.6184922 -1.4216733 0.023721032 4289222400
1.7532623 -1.5399568 0.039451949 4289744640
1.752822 -1.5394726 0.053150974 4289744640
1.8427348 -1.6183388 0.070228443 4290136320
1.8596747 -1.6331124 0.085279644 4290266880
1.8915927 -1.6610366 0.10130155 4290397440
1.9142797 -1.6808519 0.11713756 4290528000
1.9350442 -1.6989766 0.13305861 4290658560
1.7471076 -1.5338705 0.133232 4289744640
1.6999079 -1.492337 0.14223348 4289614080
1.8105929 -1.5894058 0.16475016 4290005760
1.9718398 -1.7308446 0.19366172 4290789120
1.8658139 -1.6376733 0.19652097 4290266880
1.9834286 -1.7407964 0.22278823 4290789120
1.9904648 -1.7468612 0.23726052 4290919680
1.9903219 -1.7466251 0.25066227 4290919680
1.9609475 -1.7207383 0.25991008 4290789120
1.9986442 -1.7537062 0.27780852 4290919680
1.9120935 -1.6776562 0.2778255 4290528000
1.9328334 -1.6957457 0.29270372 4290658560
1.9428082 -1.7043889 0.30581102 4290658560
1.9099977 -1.6754987 0.31171 4290528000
1.8610595 -1.6324655 0.31416181 4290266880
1.799814 -1.5786426 0.31357533 4290005760
1.7321101 -1.5191624 0.31082362 4289744640
1.6543056 -1.4508313 0.30516294 4289352960
1.6468273 -1.4441813 0.31170171 4289352960
1.5738412 -1.3800888 0.30511504 4289091840
1.608834 -1.4106843 0.31893092 4289222400
1.6634765 -1.4585043 0.33665606 4289483520
1.7162864 -1.5047117 0.35405669 4289744640
1.6856291 -1.47774 0.35392502 4289614080
1.7176683 -1.5057324 0.36654645 4289744640
1.6665362 -1.4608167 0.36094272 4289483520
1.7119962 -1.5005699 0.37581158 4289744640
1.6561191 -1.4515015 0.36798277 4289483520
1.6808835 -1.4731128 0.37755474 4289614080
1.701978 -1.4915054 0.3859683 4289614080
1.7119969 -1.5001903 0.3914848 4289744640
1.6568377 -1.4517633 0.38156912 4289483520
1.7225567 -1.5092522 0.39904535 4289744640
1.6638198 -1.4576963 0.38724902 4289483520
1.6740621 -1.4665768 0.39099866 4289483520
1.663619 -1.4573357 0.38946187 4289483520
1.6599021 -1.4539875 0.38903689 4289483520
1.6384641 -1.4351178 0.38400197 4289352960
1.6459756 -1.4416058 0.38530016 4289352960
1.6869018 -1.4773568 0.39394423 4289614080
1.6693407 -1.4618845 0.38846043 4289483520
1.6444201 -1.4399697 0.3808516 4289352960
1.7000827 -1.4886173 0.39141196 4289614080
1.6611812 -1.4544624 0.37973115 4289483520
1.7121156 -1.4989636 0.38810983 4289744640
1.6658833 -1.4583944 0.37401345 4289483520
1.6859906 -1.4759037 0.37442771 4289614080
1.7108618 -1.497581 0.3753494 4289744640
1.7522483 -1.5337108 0.37927058 4289875200
1.7455291 -1.5277328 0.3722403 4289875200
1.752618 -1.5338399 0.367722 4289875200
1.7456892 -1.5276792 0.35984021 4289875200
1.7259026 -1.510268 0.34899762 4289744640
1.8225392 -1.5947297 0.36097348 4290136320
1.8450518 -1.6143259 0.35735589 4290266880
2.0583804 -1.8002406 0.33012083 4291180800
2.0595 -1.8011057 0.31820226 4291180800
2.0815473 -1.8202715 0.30902198 4291311360
2.0796738 -1.8185179 0.29582489 4291311360
2.0556698 -1.7974143 0.27931604 4291180800
1.9184331 -1.6773123 0.24816018 4290528000
1.8250464 -1.5955619 0.22391984 4290136320
1.9589666 -1.7125342 0.22703382 4290658560
2.0786748 -1.8170682 0.22651216 4291311360
2.0756354 -1.8142962 0.21155927 4291180800
2.0971627 -1.832997 0.19874676 4291311360
2.1021416 -1.8372322 0.18395935 4291311360
2.0326087 -1.7763491 0.16292675 4291050240
1.8988465 -1.6593456 0.13807583 4290397440
1.8169506 -1.5876786 0.11845825 4290005760
1.7434785 -1.5233809 0.10043553 4289744640
1.7374548 -1.5180215 0.086793907 4289744640
1.7479253 -1.5270728 0.073848471 4289744640
1.7520322 -1.5305636 0.060442585 4289744640
1.7405 -1.5203928 0.046490628 4289744640
1.7207603 -1.5030541 0.032514106 4289614080
1.7310872 -1.5119786 0.019144736 4289614080
1.7295359 -1.5105278 0.0055553596 4289614080
1.710236 -1.4935771 -0.0079325847 4289614080
1.7186731 -1.5008502 -0.021454573 4289614080
1.7243562 -1.5057176 -0.035029005 4289614080
1.7273272 -1.5082164 -0.048577528 4289614080
1.7226781 -1.5040616 -0.061845623 4289614080
1.7293428 -1.5097847 -0.07546778 4289614080
1.7425423 -1.521212 -0.089445889 4289744640
1.7537053 -1.5308599 -0.10340866 4289744640
1.7345705 -1.5140606 -0.11541247 4289744640
1.7432745 -1.5215616 -0.129063 4289744640
1.7568204 -1.5332875 -0.14309672 4289744640
1.7517128 -1.5287329 -0.15551753 4289744640
1.7294059 -1.5091697 -0.16604225 4289614080
1.7446829 -1.5224047 -0.17994076 4289744640
1.7562724 -1.5324205 -0.1934512 4289744640
1.7621313 -1.5374351 -0.20623888 4289875200
1.7503223 -1.5270351 -0.21669149 4289744640
1.7377727 -1.5159903 -0.22664958 4289744640
1.7551847 -1.5310829 -0.24029362 4289744640
1.7592311 -1.5345154 -0.25197899 4289875200
1.7525235 -1.5285677 -0.26182732 4289744640
1.7376167 -1.5154697 -0.27002707 4289744640
1.7515892 -1.5275589 -0.28240395 4289744640
1.7564455 -1.531697 -0.29310247 4289875200
1.7715461 -1.5447674 -0.30528989 4289875200
1.7635279 -1.537678 -0.31318846 4289875200
1.7618456 -1.5361137 -0.32180664 4289875200
1.7304947 -1.508684 -0.32447943 4289744640
1.7376598 -1.5148345 -0.33388564 4289744640
1.7457508 -1.5217916 -0.34315747 4289744640
1.7567631 -1.531294 -0.35269257 4289875200
1.7532704 -1.5281526 -0.35894319 4289875200
1.7542984 -1.5289516 -0.36569637 4289875200
1.7529192 -1.5276527 -0.37152511 4289875200
1.7554801 -1.5297874 -0.37776315 4289875200
1.7466167 -1.5219671 -0.38108724 4289875200
1.7453934 -1.5208046 -0.38560638 4289875200
1.7333796 -1.5102409 -0.38726032 4289744640
1.7299851 -1.5071877 -0.39035189 4289744640
1.7188255 -1.4973704 -0.39120695 4289744640
1.7053396 -1.4855278 -0.3910313 4289614080
1.705933 -1.4859505 -0.39360523 4289614080
1.7027547 -1.4830879 -0.39484587 4289614080
1.7026061 -1.4828644 -0.39632326 4289614080
1.7025166 -1.4826924 -0.39735022 4289614080
1.6950598 -1.4761049 -0.39618984 4289614080
1.7046304 -1.484345 -0.39854327 4289614080
1.725307 -1.5022542 -0.40302292 4289744640
1.7250929 -1.5019726 -0.40214646 4289744640
1.7319801 -1.5078733 -0.40244958 4289744640
1.7333708 -1.5089884 -0.40099803 4289744640
1.7447944 -1.5188369 -0.40138245 4289875200
1.7497423 -1.5230473 -0.39978582 4289875200
1.7574167 -1.5296304 -0.39832392 4289875200
1.7519411 -1.5247679 -0.39341483 4289875200
1.7544888 -1.5268883 -0.38985512 4289875200
1.7565117 -1.5285518 -0.38571465 4289875200
1.7504669 -1.5231949 -0.37936735 4289875200
1.7413315 -1.5151494 -0.37195694 4289744640
1.7276281 -1.5031307 -0.3632158 4289744640
1.7225249 -1.4985955 -0.35592866 4289744640
1.7371634 -1.5112351 -0.35227367 4289744640
1.7488551 -1.5213096 -0.34751302 4289875200
1.7591693 -1.5301849 -0.34198898 4289875200
1.7449124 -1.5176873 -0.33131805 4289744640
1.7296978 -1.5043586 -0.32022494 4289744640
1.7306188 -1.5050641 -0.31182319 4289744640
1.7409643 -1.5139652 -0.30470875 4289744640
1.749616 -1.5213923 -0.29685426 4289744640
1.757091 -1.5277953 -0.28837836 4289875200
1.7202411 -1.4956594 -0.27247381 4289614080
1.7375785 -1.5106374 -0.26495612 4289744640
1.7476816 -1.5193245 -0.25587592 4289744640
1.7573519 -1.5276344 -0.24632606 4289744640
1.743345 -1.5153623 -0.23321347 4289744640
1.7285455 -1.5024029 -0.21992341 4289614080
1.7455298 -1.5170689 -0.210418 4289744640
1.7483538 -1.5194268 -0.19884151 4289744640
1.7399625 -1.5120384 -0.18581042 4289744640
1.7287166 -1.5021703 -0.17240888 4289614080
1.7486677 -1.5194104 -0.16186699 4289744640
1.7513486 -1.5216433 -0.14938787 4289744640
1.7416854 -1.5131514 -0.13574526 4289744640
1.7149373 -1.4898186 -0.1208943 4289614080
1.7306314 -1.5033571 -0.10898574 4289614080
1.7300835 -1.5027857 -0.095823005 4289614080
1.7261298 -1.4992564 -0.082402959 4289614080
1.7248592 -1.4980577 -0.069062606 4289614080
1.7360342 -1.5076677 -0.056069933 4289614080
1.7413335 -1.5121738 -0.042699959 4289744640
1.7100053 -1.4848742 -0.028589725 4289614080
1.7482066 -1.5179498 -0.015557563 4289744640
1.7561543 -1.5247539 -0.001879188 4289744640
1.7393363 -1.5100561 0.011757504 4289614080
1.6843922 -1.462262 0.024561597 4289483520
1.9108937 -1.6587882 0.042780772 4290397440
2.0335577 -1.765157 0.061350852 4291050240
2.0592024 -1.7873036 0.078080051 4291050240
1.9770309 -1.7158731 0.090201303 4290789120
2.1721411 -1.8850905 0.11573577 4291572480
2.1527612 -1.8681531 0.13106233 4291572480
2.086189 -1.8102672 0.14272404 4291180800
1.9844984 -1.721917 0.15056746 4290789120
2.0993483 -1.8214549 0.17476426 4291311360
2.0878153 -1.8113335 0.18901178 4291311360
2.1556227 -1.8700428 0.21063808 4291572480
1.9599335 -1.7001709 0.2053875 4290658560
2.1997979 -1.9081233 0.24583893 4291703040
2.179261 -1.8901895 0.25844765 4291703040
2.1302915 -1.8475982 0.26692986 4291441920
2.0488493 -1.7768511 0.27018413 4291050240
2.1200356 -1.83847 0.29318786 4291441920
2.1018028 -1.8225431 0.30384207 4291311360
2.0477197 -1.7755332 0.30853 4291050240
2.0609787 -1.7869164 0.32276759 4291180800
2.0012002 -1.7349769 0.32493898 4290919680
2.0249536 -1.7554588 0.34009615 4291050240
1.8316844 -1.5878104 0.31751081 4290136320
1.8090775 -1.5681139 0.32299027 4290005760
1.6881793 -1.4632261 0.30983359 4289483520
1.6873837 -1.4624437 0.31775981 4289483520
1.6147583 -1.399411 0.31146154 4289222400
1.6008494 -1.3872689 0.31574044 4289091840
1.7220042 -1.4921649 0.34673563 4289744640
1.7023486 -1.4750391 0.34940261 4289614080
1.6836989 -1.4587871 0.35172918 4289483520
1.7330683 -1.5014663 0.36795974 4289744640
1.716316 -1.4868582 0.36984164 4289614080
1.6814388 -1.4565514 0.36723459 4289483520
1.6665542 -1.443566 0.36842635 4289483520
1.6735559 -1.4495387 0.37400547 4289483520
1.6425247 -1.4225711 0.37059981 4289352960
1.6637832 -1.4408914 0.37853357 4289483520
1.6776361 -1.4527962 0.38440311 4289483520
1.6440794 -1.4236465 0.37893748 4289352960
1.66549 -1.4420948 0.38567567 4289483520
1.6936551 -1.4663889 0.39357269 4289614080
1.6469471 -1.425858 0.38360754 4289352960
1.6874099 -1.4607962 0.39348251 4289614080
1.6450143 -1.4240038 0.38358614 4289352960
1.6704364 -1.4459186 0.38904744 4289483520
1.6827459 -1.4564812 0.39098537 4289483520
1.6902615 -1.4628934 0.39133874 4289614080
1.7011887 -1.4722573 0.39200604 4289614080
1.7209151 -1.4892344 0.39420387 4289744640
1.6676583 -1.4430557 0.3792834 4289483520
1.6916877 -1.463756 0.3815394 4289614080
1.7280402 -1.4951155 0.38600624 4289744640
1.6748968 -1.4490434 0.37008277 4289483520
1.6876984 -1.4600259 0.36839497 4289483520
1.7630427 -1.5251094 0.37967727 4289875200
1.7760565 -1.5362694 0.3768352 4289875200
1.764513 -1.5261874 0.36834583 4289875200
1.7196577 -1.4872962 0.35268214 4289614080
1.7772954 -1.5370481 0.35757288 4289875200
1.832026 -1.58428 0.36101812 4290136320
1.8868383 -1.6315764 0.36360192 4290397440
2.1807475 -1.8849512 0.34797874 4291703040
2.1849394 -1.8884544 0.33587754 4291703040
2.2041521 -1.9049393 0.3255704 4291833600
2.1884053 -1.89121 0.30971885 4291703040
2.1686883 -1.8740517 0.29318392 4291572480
2.1622684 -1.8683852 0.27828881 4291572480
2.1452634 -1.8535737 0.26187867 4291441920
2.1671934 -1.872403 0.24989764 4291572480
2.1616275 -1.8674757 0.23436187 4291572480
2.1691678 -1.8738707 0.21997602 4291572480
2.1908388 -1.8924716 0.20657593 4291703040
2.1747317 -1.8784386 0.18935077 4291572480
2.1554818 -1.8616931 0.17190345 4291572480
2.0392158 -1.7611623 0.14753424 4291050240
1.953166 -1.6867385 0.12669611 4290658560
1.8612099 -1.6072239 0.10667636 4290266880
1.7572134 -1.5173227 0.087337837 4289744640
1.7594472 -1.519155 0.073960058 4289744640
1.7635747 -1.5226221 0.060533717 4289744640
1.7586454 -1.5182698 0.046738233 4289744640
1.7414058 -1.5032911 0.032738157 4289614080
1.7488022 -1.5095803 0.019243056 4289744640
1.7461544 -1.5071989 0.0055804383 4289744640
1.7203377 -1.484821 -0.0079391794 4289614080
1.7325187 -1.4952393 -0.021518294 4289614080
1.742035 -1.5033568 -0.035209607 4289614080
1.7425522 -1.5037076 -0.048758481 4289614080
1.7275941 -1.490705 -0.061709251 4289614080
1.7510493 -1.5108482 -0.076029606 4289744640
1.762311 -1.5204684 -0.090004377 4289744640
1.7590699 -1.5175757 -0.10320188 4289744640
1.7466295 -1.5067474 -0.11562876 4289744640
1.7594479 -1.517709 -0.12960353 4289744640
1.7680655 -1.5250456 -0.14328648 4289744640
1.7646248 -1.5219812 -0.15587395 4289744640
1.7429456 -1.5031874 -0.16649851 4289744640
1.7658681 -1.5228601 -0.18120755 4289744640
1.7782693 -1.5334573 -0.19488671 4289875200
1.7756788 -1.5311261 -0.20677687 4289875200
1.7625033 -1.5196687 -0.21709968 4289744640
1.7541132 -1.5123384 -0.22762769 4289744640
1.7696131 -1.5256052 -0.24104796 4289875200
1.7786841 -1.5333279 -0.25348142 4289875200
1.771937 -1.5274144 -0.26339367 4289875200
1.7539397 -1.5118048 -0.27119029 4289744640
1.764219 -1.5205684 -0.28300709 4289875200
1.7758619 -1.5305059 -0.29484946 4289875200
1.7842722 -1.5376567 -0.30593389 4289875200
1.7867227 -1.5396707 -0.3157092 4289875200
1.7745178 -1.5290562 -0.32248855 4289875200
1.7467566 -1.5050395 -0.32587889 4289744640
1.7577027 -1.5143746 -0.33603576 4289875200
1.7658291 -1.5212793 -0.34535608 4289875200
1.7680544 -1.5230998 -0.35317189 4289875200
1.7771199 -1.530812 -0.36199373 4289875200
1.7736555 -1.5277307 -0.36786976 4289875200
1.7715751 -1.5258418 -0.37358862 4289875200
1.7681028 -1.5227544 -0.37856385 4289875200
1.7621835 -1.5175601 -0.38254809 4289875200
1.761699 -1.5170463 -0.38724941 4289875200
1.7496216 -1.5065507 -0.38892141 4289744640
1.7454605 -1.5028721 -0.39186135 4289744640
1.745446 -1.5027641 -0.39526635 4289744640
1.7214333 -1.4819958 -0.392735 4289744640
1.727886 -1.4874566 -0.39666408 4289744640
1.7180855 -1.4789258 -0.39639607 4289614080
1.7179351 -1.4787023 -0.39787927 4289614080
1.7141119 -1.4753178 -0.39804357 4289614080
1.7274021 -1.486662 -0.4017179 4289744640
1.7244463 -1.4840239 -0.40114793 4289744640
1.7414951 -1.4986006 -0.40475792 4289744640
1.7479991 -1.5041018 -0.40543649 4289744640
1.7549223 -1.509963 -0.40572938 4289875200
1.7563217 -1.5110711 -0.40426388 4289875200
1.7536138 -1.5086455 -0.40138245 4289875200
1.7660569 -1.5192538 -0.40148416 4289875200
1.7737715 -1.5257934 -0.40000913 4289875200
1.7645324 -1.5177494 -0.39424989 4289875200
1.7670935 -1.5198559 -0.39068168 4289875200
1.7667315 -1.5194479 -0.38600829 4289875200
1.7630529 -1.5161879 -0.3801741 4289875200
1.7548463 -1.5090344 -0.37295941 4289875200
1.7475895 -1.5026985 -0.3655656 4289744640
1.7417157 -1.4975528 -0.35808513 4289744640
1.7544916 -1.5084418 -0.35399935 4289744640
1.7689376 -1.5207652 -0.34973702 4289875200
1.7765709 -1.5272306 -0.34363624 4289875200
1.7625806 -1.5151075 -0.33299106 4289875200
1.7422817 -1.4975634 -0.32093385 4289744640
1.7394515 -1.4950358 -0.31183991 4289744640
1.7653919 -1.5172348 -0.30743176 4289875200
1.766989 -1.5185109 -0.29829577 4289875200
1.7710785 -1.5219284 -0.28921378 4289875200
1.743929 -1.4985032 -0.27483827 4289744640
1.7508687 -1.5043706 -0.26564163 4289744640
1.7650648 -1.5164717 -0.25712302 4289744640
1.7803326 -1.5294919 -0.24829394 4289875200
1.7688388 -1.5195209 -0.23543555 4289875200
1.7451401 -1.4990673 -0.22091974 4289744640
1.7566794 -1.5088836 -0.21069874 4289744640
1.7633383 -1.5145071 -0.19953877 4289744640
1.7616885 -1.5129938 -0.18718599 4289744640
1.7484096 -1.5014941 -0.1734975 4289744640
1.7628624 -1.5138096 -0.16236176 4289744640
1.7663566 -1.5167136 -0.1499117 4289744640
1.7578797 -1.5093389 -0.13631973 4289744640
1.7207723 -1.477384 -0.12069678 4289614080
1.754747 -1.5064576 -0.10994982 4289744640
1.7509367 -1.5030909 -0.096491307 4289744640
1.749243 -1.5015415 -0.08308731 4289744640
1.7412367 -1.4945738 -0.069368519 4289614080
1.7563963 -1.5074902 -0.05644295 4289744640
1.757323 -1.5081897 -0.042875845 4289744640
1.7300096 -1.4846541 -0.028779071 4289614080
1.7725099 -1.5210302 -0.015694711 4289744640
1.783222 -1.5301251 -0.0018985801 4289875200
1.7522736 -1.5034736 0.011785544 4289744640
1.6897852 -1.4497658 0.02451665 4289483520
1.956951 -1.6788763 0.04359217 4290658560
2.0438073 -1.7532791 0.061350852 4291050240
2.0946178 -1.7967527 0.079024635 4291180800
2.0089931 -1.7231947 0.091199957 4290789120
2.2050934 -1.8912776 0.11690243 4291703040
2.1893902 -1.8776897 0.13262405 4291703040
2.1224754 -1.8201858 0.14447854 4291311360
1.9944969 -1.7103257 0.15056746 4290789120
2.2209489 -1.9043922 0.18396033 4291833600
2.2050099 -1.8906049 0.19862093 4291703040
2.1265833 -1.823245 0.20675896 4291441920
1.995538 -1.7107832 0.20807053 4290789120
2.2358429 -1.9166759 0.24861495 4291833600
2.2121668 -1.896259 0.26103538 4291833600
2.1810813 -1.8694937 0.27192453 4291572480
2.1659715 -1.8564246 0.28419799 4291572480
2.1382627 -1.8325592 0.294227 4291441920
2.1486175 -1.8413165 0.3090536 4291441920
2.094244 -1.7946055 0.31395909 4291311360
2.1075516 -1.8058941 0.32840791 4291311360
2.0474536 -1.7542866 0.33078402 4291050240
2.0682948 -1.7720309 0.3456355 4291180800
1.8371391 -1.5738862 0.31686145 4290136320
1.8068936 -1.5478762 0.32098478 4290005760
1.6966757 -1.4533656 0.30983359 4289483520
1.699635 -1.4558079 0.31846425 4289483520
1.6334059 -1.3989911 0.31348085 4289222400
1.623178 -1.3901426 0.3185415 4289222400
1.7239105 -1.4763192 0.34538165 4289614080
1.7629761 -1.5096781 0.36003479 4289875200
1.7207407 -1.4734173 0.35766789 4289614080
1.7530969 -1.5010276 0.37034908 4289744640
1.7156839 -1.4689006 0.36785501 4289614080
1.7511005 -1.4991275 0.38053495 4289744640
1.7268678 -1.4782877 0.3798494 4289744640
1.7803326 -1.5239594 0.39587688 4289875200
1.7604173 -1.5068161 0.39521217 4289875200
1.7710594 -1.5158287 0.40092421 4289875200
1.7274793 -1.478435 0.39384347 4289744640
1.7668966 -1.5120736 0.40520769 4289875200
1.7574843 -1.5039231 0.40494272 4289875200
1.7685719 -1.5133147 0.40892604 4289875200
1.7430521 -1.4913833 0.40396157 4289744640
1.7522495 -1.4991574 0.4065586 4289744640
1.7663589 -1.5111327 0.40982145 4289875200
1.7846471 -1.5266813 0.41356865 4290005760
1.7271901 -1.4774357 0.39930511 4289744640
1.7401571 -1.4884329 0.40087622 4289744640
1.7633871 -1.5082067 0.40430674 4289875200
1.7210571 -1.4719086 0.39226532 4289614080
1.7687047 -1.5125623 0.40025374 4289875200
1.7362084 -1.4846778 0.38962296 4289744640
1.7669699 -1.5108865 0.39272922 4289875200
1.735309 -1.4837198 0.38151479 4289744640
1.7716914 -1.5147312 0.38479626 4289875200
1.7869025 -1.5276389 0.38289231 4290005760
1.7954842 -1.5348778 0.37905341 4290005760
1.7808832 -1.5222993 0.36990538 4289875200
1.7776438 -1.5194335 0.36275268 4289875200
1.7832142 -1.5240979 0.35697111 4289875200
1.8592707 -1.5890015 0.36455637 4290266880
1.8963122 -1.6205556 0.36360192 4290397440
2.2064075 -1.8847836 0.35031503 4291703040
2.2178078 -1.8944017 0.33922774 4291833600
2.2295713 -1.9043286 0.32768062 4291833600
2.2281182 -1.9029663 0.31376478 4291833600
2.2045341 -1.8827041 0.29654196 4291703040
2.1988509 -1.8777311 0.28158423 4291703040
2.2167754 -1.8929176 0.26925746 4291833600
2.2038245 -1.8817389 0.25285304 4291703040
2.1944523 -1.8736173 0.23673314 4291703040
2.1982477 -1.8767384 0.2218124 4291703040
2.2162414 -1.8919801 0.20792824 4291703040
2.2076478 -1.8845239 0.19125749 4291703040
2.1431584 -1.8293571 0.17006773 4291441920
2.0160251 -1.7207292 0.14512864 4290919680
1.9515643 -1.6656044 0.12596059 4290528000
1.9039797 -1.6248888 0.10858329 4290397440
1.7728651 -1.512897 0.087676167 4289744640
1.7834744 -1.5218539 0.074596077 4289875200
1.7837567 -1.5219979 0.060921039 4289875200
1.7765787 -1.5157768 0.04697933 4289744640
1.7607843 -1.5022055 0.032937367 4289744640
1.7651752 -1.5058557 0.01932635 4289744640
1.7617532 -1.5028408 0.0056022117 4289744640
1.7365676 -1.4812623 -0.0079741152 4289614080
1.7556561 -1.4974492 -0.021696936 4289744640
1.7614151 -1.5022657 -0.035423804 4289744640
1.7541596 -1.4959824 -0.048838556 4289744640
1.7575474 -1.4987761 -0.062466197 4289744640
1.7674272 -1.5071055 -0.076358169 4289744640
1.7760141 -1.5143312 -0.090252087 4289744640
1.7851684 -1.5220399 -0.104211 4289875200
1.7660187 -1.505617 -0.11632966 4289744640
1.7726651 -1.5111872 -0.12992637 4289744640
1.7817903 -1.5188696 -0.14367914 4289875200
1.7831358 -1.5199199 -0.15672417 4289875200
1.7676119 -1.5065917 -0.16801345 4289744640
1.7878798 -1.5237697 -0.1825522 4289875200
1.7953627 -1.5300499 -0.19577974 4289875200
1.7958828 -1.5303956 -0.20808776 4289875200
1.770646 -1.5087937 -0.21701618 4289744640
1.7786485 -1.5155163 -0.22966187 4289875200
1.7870696 -1.5225947 -0.24221331 4289875200
1.7991676 -1.5328047 -0.2551235 4289875200
1.7882046 -1.5233678 -0.26448798 4289875200
1.7702789 -1.508001 -0.2723535 4289744640
1.7887646 -1.5236509 -0.28551567 4289875200
1.7940812 -1.5280823 -0.29639125 4289875200
1.8013519 -1.5341773 -0.30732459 4290005760
1.7994359 -1.5324479 -0.31637257 4290005760
1.7977266 -1.5308949 -0.32507992 4290005760
1.7660499 -1.503824 -0.32783809 4289875200
1.7702636 -1.5073161 -0.33675247 4289875200
1.7865603 -1.5210955 -0.34767145 4289875200
1.7895439 -1.5235388 -0.35568529 4289875200
1.7927814 -1.5261979 -0.36336648 4290005760
1.7938099 -1.5269762 -0.37019843 4290005760
1.7848879 -1.5192847 -0.37452298 4289875200
1.7837098 -1.5181853 -0.38000512 4289875200
1.7785096 -1.5136628 -0.38417125 4289875200
1.7847805 -1.5189033 -0.3903712 4289875200
1.7726383 -1.5084739 -0.39207742 4289875200
1.7684523 -1.5048158 -0.39504802 4289875200
1.757925 -1.4957627 -0.39611205 4289744640
1.744298 -1.4840734 -0.39597204 4289744640
1.741141 -1.4812931 -0.39771897 4289744640
1.7341758 -1.4752736 -0.39811853 4289744640
1.7377745 -1.4782408 -0.40047261 4289744640
1.7406827 -1.4806205 -0.40220371 4289744640
1.7376504 -1.4779471 -0.40209186 4289744640
1.7435658 -1.482884 -0.40357894 4289744640
1.7531977 -1.4909809 -0.40545192 4289744640
1.7672366 -1.5028244 -0.4078607 4289875200
1.7749455 -1.5092839 -0.4083187 4289875200
1.7756026 -1.5097466 -0.40667033 4289875200
1.7803892 -1.51372 -0.40548548 4289875200
1.7853898 -1.5178751 -0.40386188 4289875200
1.786386 -1.5186253 -0.40085173 4289875200
1.7913744 -1.5227691 -0.39825815 4290005760
1.7864389 -1.518477 -0.39299604 4289875200
1.7868299 -1.5187125 -0.38845965 4289875200
1.7762159 -1.5095952 -0.38110942 4289875200
1.7703791 -1.5045387 -0.37439123 4289875200
1.7601713 -1.4957684 -0.36636826 4289744640
1.7609524 -1.4963369 -0.36024156 4289744640
1.7700299 -1.5039546 -0.35536048 4289875200
1.7900943 -1.520906 -0.35216197 4289875200
1.7967492 -1.526463 -0.34581313 4290005760
1.78194 -1.5137851 -0.33497652 4289875200
1.7622404 -1.4969548 -0.32299826 4289744640
1.7556845 -1.4912908 -0.31318709 4289744640
1.7819856 -1.5135348 -0.30878052 4289875200
1.7881714 -1.518692 -0.30037284 4289875200
1.79149 -1.5214136 -0.29109448 4289875200
1.7605782 -1.4950666 -0.27608466 4289744640
1.7709628 -1.5037894 -0.26735649 4289744640
1.7920543 -1.5216022 -0.25975883 4289875200
1.7930039 -1.5223114 -0.24881995 4289875200
1.7859457 -1.5162224 -0.23653267 4289875200
1.7576386 -1.4920954 -0.22139768 4289744640
1.7866991 -1.5166688 -0.21323584 4289875200
1.7835262 -1.5138791 -0.2008217 4289875200
1.7780136 -1.5091038 -0.18798317 4289744640
1.7647308 -1.4977344 -0.17424819 4289744640
1.7754552 -1.5067405 -0.16271028 4289744640
1.7837623 -1.5136939 -0.15063789 4289875200
1.7739201 -1.5052459 -0.1368812 4289744640
1.7476249 -1.4828389 -0.1219722 4289614080
1.7634941 -1.4962084 -0.10994982 4289744640
1.7741401 -1.505145 -0.097285092 4289744640
1.7664111 -1.4984925 -0.083486654 4289744640
1.7604916 -1.4933757 -0.069787793 4289744640
1.7689613 -1.5004648 -0.056564838 4289744640
1.7767552 -1.5069797 -0.043135006 4289744640
1.7569323 -1.4900717 -0.029082021 4289744640
1.7851549 -1.5139112 -0.015728308 4289744640
1.7966163 -1.5235341 -0.0019033578 4289875200
1.7590489 -1.4915818 0.011772463 4289744640
1.7692093 -1.5001017 0.025541753 4289744640
1.9329122 -1.6388 0.042843271 4290397440
1.9482207 -1.651674 0.058191683 4290528000
2.059788 -1.746148 0.077325456 4291050240
2.044919 -1.7334327 0.092370801 4290919680
2.2419903 -1.9003646 0.11826951 4291833600
2.2330608 -1.8926753 0.13459916 4291833600
2.1581852 -1.8290966 0.14618146 4291441920
2.0333703 -1.723204 0.15274155 4290919680
2.2578945 -1.913358 0.186094 4291964160
2.2148683 -1.8767776 0.19852063 4291703040
2.1630399 -1.8327439 0.20926175 4291441920
2.04198 -1.7300596 0.21185836 4290919680
2.2625527 -1.9168167 0.25033888 4291964160
2.2490163 -1.9052274 0.26406929 4291833600
2.2170043 -1.8779894 0.2750344 4291703040
2.1987703 -1.862425 0.2870729 4291703040
2.1633234 -1.8322835 0.29620138 4291572480
2.177515 -1.8441861 0.31165937 4291572480
2.1190705 -1.7945738 0.31610811 4291311360
2.1438041 -1.8154043 0.33240315 4291441920
2.0644569 -1.7481006 0.33187994 4291050240
2.0164404 -1.7073333 0.33530205 4290919680
1.8387104 -1.556749 0.31556273 4290136320
1.7977283 -1.5219544 0.31777599 4289875200
1.7825006 -1.5089666 0.32389531 4289875200
1.7148888 -1.4516376 0.31973222 4289614080
1.6777834 -1.4201378 0.32040432 4289352960
1.6606932 -1.4055824 0.32429105 4289352960
1.7505938 -1.4815784 0.34899223 4289744640
1.7860739 -1.5115099 0.3629472 4289875200
1.7292958 -1.4633669 0.35766789 4289614080
1.7542752 -1.4844103 0.36876464 4289744640
1.7973602 -1.5207705 0.38346073 4290005760
1.8329284 -1.5507665 0.39634696 4290136320
1.7991866 -1.5221219 0.39379957 4290005760
1.8672024 -1.579563 0.41313994 4290266880
1.914165 -1.619188 0.42760324 4290528000
1.9366039 -1.6380646 0.43623152 4290528000
1.9400179 -1.6408478 0.44011253 4290658560
1.9637907 -1.6608487 0.44813523 4290658560
1.9936675 -1.6860092 0.45709065 4290789120
1.9453647 -1.6450557 0.44758007 4290658560
1.9452795 -1.6448786 0.44860017 4290658560
1.9753571 -1.6702051 0.45605868 4290789120
1.9212621 -1.6243633 0.44355801 4290528000
1.8709908 -1.5817596 0.43143472 4290266880
1.8836894 -1.5923938 0.43333355 4290397440
1.8335358 -1.5498972 0.42030028 4290136320
1.8489484 -1.5628259 0.42182925 4290136320
1.7981449 -1.5197874 0.40781015 4290005760
1.7774872 -1.5022318 0.40025374 4289875200
1.7448291 -1.474537 0.38962296 4289744640
1.8013493 -1.5222048 0.3983925 4290005760
1.7725525 -1.497775 0.38777778 4289875200
1.7407714 -1.4708267 0.37621307 4289744640
1.7773929 -1.5016735 0.37897342 4289875200
1.8146009 -1.5330119 0.38119715 4290005760
1.8040589 -1.5240088 0.37286854 4290005760
1.7902406 -1.5122392 0.3635191 4289875200
1.7882874 -1.510493 0.35621887 4289875200
1.8616964 -1.5723983 0.36322951 4290266880
1.9057218 -1.6094798 0.36360192 4290397440
2.239351 -1.8904688 0.35379073 4291833600
2.2546141 -1.9032329 0.34315559 4291964160
2.2482345 -1.8977264 0.32879293 4291833600
2.249805 -1.8989311 0.3152554 4291833600
2.2337115 -1.8852273 0.29898414 4291833600
2.2242055 -1.8770847 0.28342581 4291703040
2.2528794 -1.9011625 0.27229273 4291833600
2.2398758 -1.8900684 0.25572154 4291833600
2.2176361 -1.8711828 0.23805405 4291703040
2.2246017 -1.8769405 0.2233644 4291703040
2.2455242 -1.8944725 0.20963642 4291833600
2.2330811 -1.8838545 0.19250672 4291833600
2.1575952 -1.8200576 0.17036897 4291441920
2.0115147 -1.6967221 0.14408985 4290789120
1.9793279 -1.669466 0.12712258 4290658560
1.9472941 -1.6423423 0.11050591 4290528000
1.7992964 -1.5174248 0.088544592 4289875200
1.8068283 -1.5236796 0.075200297 4289875200
1.8040574 -1.521246 0.061310623 4289875200
1.7815579 -1.5021778 0.046878766 4289744640
1.7809733 -1.5015892 0.033150807 4289744640
1.784622 -1.5045695 0.019442959 4289744640
1.7819476 -1.5022191 0.0056385007 4289744640
1.7489911 -1.4743421 -0.0079915831 4289614080
1.7643508 -1.487195 -0.021696936 4289744640
1.7819198 -1.5019084 -0.035659585 4289744640
1.7811931 -1.5012002 -0.04934686 4289744640
1.7704549 -1.4920548 -0.062614925 4289744640
1.7906991 -1.5090195 -0.076982439 4289875200
1.7955047 -1.5129727 -0.090793043 4289875200
1.7940059 -1.5116134 -0.104211 4289875200
1.7756194 -1.4960257 -0.11638593 4289744640
1.7997656 -1.516273 -0.13126294 4289875200
1.805113 -1.5206811 -0.14484292 4289875200
1.7995919 -1.5159334 -0.15739158 4289875200
1.7801738 -1.4994805 -0.1683742 4289744640
1.807403 -1.5223192 -0.18363689 4289875200
1.8149182 -1.5285515 -0.19693771 4289875200
1.8192455 -1.5320983 -0.20975691 4290005760
1.793877 -1.5106376 -0.21878099 4289875200
1.7914836 -1.508526 -0.2301804 4289875200
1.8111285 -1.5249708 -0.24426578 4289875200
1.8129431 -1.5264014 -0.25581148 4290005760
1.8076924 -1.5218834 -0.26605436 4289875200
1.7866445 -1.5040674 -0.27351847 4289875200
1.8052058 -1.5195962 -0.28672189 4289875200
1.8173761 -1.5297434 -0.29876217 4290005760
1.8246751 -1.5357893 -0.30977184 4290005760
1.8166727 -1.5289563 -0.31783152 4290005760
1.817227 -1.5293254 -0.32698932 4290005760
1.783209 -1.5006011 -0.32939485 4289875200
1.7975004 -1.512531 -0.34025154 4289875200
1.8022044 -1.5163927 -0.34899062 4289875200
1.8051993 -1.5188156 -0.35703203 4290005760
1.8102723 -1.5229868 -0.36510691 4290005760
1.8041853 -1.517769 -0.37050837 4290005760
1.8042886 -1.5177591 -0.37673193 4290005760
1.8042785 -1.5176538 -0.38249683 4290005760
1.8016461 -1.515343 -0.38725522 4290005760
1.7973742 -1.5116535 -0.39119273 4289875200
1.7881893 -1.5038327 -0.39357239 4289875200
1.7745436 -1.4922619 -0.39445987 4289875200
1.7847141 -1.5007187 -0.40017143 4289875200
1.7747868 -1.492276 -0.40091276 4289875200
1.7535121 -1.4742938 -0.39857599 4289744640
1.7570676 -1.4771888 -0.40139121 4289744640
1.7569126 -1.4769644 -0.4028931 4289744640
1.7605879 -1.4799597 -0.40480378 4289744640
1.756786 -1.4766695 -0.40452212 4289744640
1.7627302 -1.4815716 -0.40600994 4289744640
1.7799488 -1.4959483 -0.4096159 4289875200
1.7835023 -1.4988391 -0.4095923 4289875200
1.7904955 -1.5046202 -0.40987229 4289875200
1.7956816 -1.508882 -0.40924865 4289875200
1.799739 -1.512195 -0.40787891 4290005760
1.7983978 -1.5109715 -0.40480608 4290005760
1.7982223 -1.5107279 -0.4015258 4290005760
1.8017232 -1.5135725 -0.39859158 4290005760
1.8000966 -1.5121096 -0.39405581 4290005760
1.8034297 -1.5148128 -0.39014313 4290005760
1.8041013 -1.5152802 -0.3851918 4290005760
1.7915213 -1.5046183 -0.37700203 4289875200
1.780201 -1.4950153 -0.36871803 4289875200
1.781688 -1.4961687 -0.36269403 4289875200
1.7870235 -1.5005536 -0.35701093 4289875200
1.8133152 -1.5225333 -0.35497901 4290005760
1.8180056 -1.5263742 -0.34818673 4290005760
1.7992973 -1.5105705 -0.33657926 4289875200
1.7785175 -1.49303 -0.32438174 4289875200
1.7794628 -1.4937283 -0.31587094 4289875200
1.798367 -1.5095006 -0.31008986 4289875200
1.8083857 -1.5178132 -0.30227777 4289875200
1.8044367 -1.5144022 -0.29175952 4289875200
1.7723012 -1.487337 -0.27655938 4289744640
1.7903482 -1.5023863 -0.26895699 4289875200
1.8060642 -1.515478 -0.26050529 4289875200
1.8108298 -1.5193799 -0.25006098 4289875200
1.80542 -1.5147442 -0.237939 4289875200
1.7846043 -1.4971843 -0.22369179 4289744640
1.8031349 -1.5126339 -0.21414196 4289875200
1.8030028 -1.5124265 -0.2020191 4289875200
1.7982311 -1.5083276 -0.18918836 4289875200
1.7803031 -1.4931947 -0.17492381 4289744640
1.8025479 -1.5117556 -0.16438317 4289875200
1.7963743 -1.5064819 -0.15095918 4289875200
1.7855201 -1.4972836 -0.13710083 4289744640
1.7638863 -1.4790479 -0.12250363 4289744640
1.7905515 -1.5013112 -0.11108954 4289744640
1.7906306 -1.5012817 -0.097708054 4289744640
1.786599 -1.4978061 -0.084026933 4289744640
1.7845774 -1.4960158 -0.070395865 4289744640
1.7960607 -1.5055461 -0.057149917 4289875200
1.7891684 -1.499673 -0.043223504 4289744640
1.7763127 -1.4888024 -0.029258741 4289744640
1.8085068 -1.5156889 -0.015855977 4289875200
1.8177228 -1.5233154 -0.0019162832 4289875200
1.7734805 -1.4861441 0.011810899 4289744640
1.7909348 -1.5006746 0.025728736 4289744640
1.9830464 -1.6615443 0.043739188 4290658560
2.0196512 -1.6921066 0.06002976 4290789120
2.0862949 -1.7478305 0.077936932 4291050240
2.0657094 -1.7304741 0.092852913 4291050240
2.2675776 -1.8994608 0.11903347 4291833600
2.2352662 -1.8722755 0.1340723 4291703040
2.1948361 -1.8382934 0.14793597 4291572480
2.0655718 -1.7299174 0.15440072 4291050240
2.2732069 -1.9036903 0.18643872 4291964160
2.244123 -1.879214 0.20015799 4291833600
2.1882093 -1.8322753 0.21066035 4291572480
2.0627258 -1.7270929 0.21296313 4291050240
2.2958388 -1.9221526 0.25277841 4292094720
2.2784073 -1.9074366 0.26621088 4291964160
2.2355421 -1.8714312 0.27597678 4291833600
2.2202663 -1.8585248 0.28846079 4291703040
2.1960795 -1.8381613 0.2992149 4291572480
2.1958458 -1.8378484 0.31274509 4291572480
2.1439672 -1.7943132 0.31825712 4291441920
2.1543446 -1.8028833 0.33240315 4291441920
2.0928757 -1.7513305 0.33480248 4291180800
2.0293968 -1.6981027 0.33580562 4290919680
1.8371028 -1.5371021 0.31374452 4290005760
1.7921234 -1.4993721 0.3152357 4289875200
1.7912619 -1.4985558 0.32389531 4289875200
1.7491355 -1.4632198 0.32452238 4289614080
1.7550988 -1.4681145 0.33353001 4289744640
1.6999459 -1.4218892 0.33033279 4289483520
1.7611963 -1.4730269 0.34938905 4289744640
1.7824469 -1.4907053 0.36043912 4289875200
1.8181113 -1.5204352 0.37419891 4290005760
1.8393954 -1.5381364 0.38476735 4290136320
1.8569207 -1.5526922 0.39423105 4290136320
1.9214098 -1.6065131 0.4134489 4290528000
1.9647218 -1.642622 0.42792934 4290658560
2.0186551 -1.6876056 0.44446751 4290919680
2.0211303 -1.6895671 0.4492915 4290919680
2.0645595 -1.7257614 0.46278152 4291050240
2.0966969 -1.7525133 0.47333232 4291311360
2.1145306 -1.7673066 0.48017606 4291311360
2.1218493 -1.7733102 0.48410204 4291311360
2.0796301 -1.737915 0.47613344 4291180800
2.1102521 -1.7633928 0.48426694 4291311360
2.1140115 -1.7664216 0.48568606 4291311360
2.0702343 -1.7297318 0.47561613 4291180800
2.1112344 -1.7638758 0.48445493 4291311360
2.0456789 -1.7089969 0.4682999 4291050240
2.0391443 -1.703429 0.46514884 4291050240
1.9230455 -1.6063416 0.43659154 4290528000
1.8833486 -1.573082 0.42504808 4290266880
1.8550426 -1.5493401 0.41567791 4290136320
1.8192154 -1.5193201 0.40425003 4290005760
1.7940197 -1.4981822 0.39483425 4289875200
1.7658329 -1.4745494 0.38442174 4289744640
1.825803 -1.5245297 0.39266369 4290005760
1.7901292 -1.4946469 0.37982583 4289875200
1.8156356 -1.5158464 0.37955275 4290005760
1.7875979 -1.4923428 0.367663 4289875200
1.7952279 -1.4986169 0.36275268 4289875200
1.7856731 -1.4905456 0.35396224 4289875200
1.8670292 -1.558356 0.36249238 4290136320
1.9120277 -1.5958132 0.36302495 4290397440
2.2686231 -1.8926537 0.35666716 4291964160
2.2763431 -1.8989729 0.34477293 4291964160
2.2852001 -1.9062399 0.33256909 4291964160
2.2829738 -1.9042611 0.31834313 4291964160
2.2629924 -1.8874737 0.30142635 4291833600
2.2610919 -1.8857683 0.28672126 4291833600
2.2822714 -1.9033105 0.27450022 4291964160
2.2653866 -1.8891087 0.25737309 4291833600
2.2430441 -1.8703579 0.23960763 4291833600
2.2500496 -1.8760794 0.2248182 4291833600
2.2718575 -1.8941419 0.21106099 4291964160
2.2585809 -1.8829525 0.19375594 4291833600
2.1167929 -1.7646326 0.16633245 4291180800
1.9738133 -1.6453347 0.14070013 4290528000
1.9483581 -1.624012 0.12452373 4290528000
1.9460855 -1.622014 0.10989916 4290397440
1.7977499 -1.4982843 0.088037409 4289744640
1.8194473 -1.5162705 0.075356536 4289875200
1.8198016 -1.516469 0.061544374 4289875200
1.8087139 -1.5071331 0.047361471 4289875200
1.7973136 -1.497538 0.033291988 4289744640
1.8048815 -1.5037476 0.019567896 4289875200
1.7975844 -1.4975723 0.0056602741 4289744640
1.7798327 -1.4826887 -0.0080928961 4289744640
1.7814344 -1.4839281 -0.02180033 4289744640
1.7944814 -1.4947007 -0.035736084 4289744640
1.7975913 -1.4971955 -0.049558654 4289744640
1.7867992 -1.4881117 -0.062885262 4289744640
1.8043001 -1.5025911 -0.077189475 4289875200
1.8119678 -1.5088804 -0.091179445 4289875200
1.8135303 -1.510085 -0.1048323 4289875200
1.7988884 -1.4977973 -0.11733714 4289875200
1.8162423 -1.5121499 -0.13181984 4289875200
1.8246813 -1.519079 -0.14570045 4289875200
1.8191291 -1.51436 -0.15832596 4289875200
1.7966406 -1.4955435 -0.16910467 4289875200
1.8239045 -1.5181412 -0.18441166 4289875200
1.8276229 -1.521139 -0.19735126 4290005760
1.8319691 -1.524659 -0.21019615 4290005760
1.8210157 -1.5154462 -0.22101024 4289875200
1.8186018 -1.5133407 -0.23252787 4289875200
1.8268642 -1.5201191 -0.2451894 4290005760
1.8325053 -1.5247155 -0.25731391 4290005760
1.8241675 -1.5176811 -0.2671732 4290005760
1.7984313 -1.4961734 -0.27398378 4289875200
1.8257059 -1.518767 -0.28856757 4290005760
1.8369368 -1.528012 -0.30050915 4290005760
1.845028 -1.5346445 -0.31170389 4290005760
1.8369803 -1.527853 -0.3198216 4290005760
1.8375313 -1.5282136 -0.32903513 4290005760
1.8025799 -1.4990499 -0.33135408 4289875200
1.8138918 -1.5083606 -0.34168494 4290005760
1.8234075 -1.5161767 -0.35137993 4290005760
1.8226095 -1.5154163 -0.3587231 4290005760
1.8259544 -1.5181004 -0.36647967 4290005760
1.8274308 -1.5192307 -0.373458 4290005760
1.8241125 -1.5163752 -0.37902001 4290005760
1.8237172 -1.5159497 -0.3847388 4290005760
1.8218267 -1.5142815 -0.38968995 4290005760
1.8132776 -1.5070792 -0.39273629 4290005760
1.8151219 -1.5085156 -0.39755896 4290005760
1.7869987 -1.4850481 -0.39529845 4289875200
1.7837876 -1.4822848 -0.39802051 4289875200
1.7872404 -1.4850591 -0.40176463 4289875200
1.7734385 -1.4734966 -0.40114707 4289744640
1.78004 -1.4788871 -0.40466386 4289875200
1.7760944 -1.4755147 -0.40531355 4289875200
1.7835745 -1.4816341 -0.40809721 4289875200
1.7797531 -1.4783652 -0.40782031 4289875200
1.7826958 -1.4807149 -0.40861458 4289875200
1.779 -1.4775507 -0.40740955 4289875200
1.7887899 -1.4855868 -0.4088119 4289875200
1.8030202 -1.4973093 -0.4107354 4289875200
1.8153516 -1.5074534 -0.4117229 4290005760
1.8229214 -1.5136427 -0.41112712 4290005760
1.8215761 -1.512429 -0.40803298 4290005760
1.828987 -1.518485 -0.40641284 4290005760
1.8211316 -1.5118665 -0.40092975 4290005760
1.8270884 -1.5167147 -0.39802328 4290005760
1.8198159 -1.5105811 -0.39177737 4290005760
1.812899 -1.5047435 -0.3851918 4290005760
1.8108929 -1.5029823 -0.37922931 4290005760
1.8033212 -1.4966023 -0.37169442 4289875200
1.8010195 -1.4945966 -0.36485046 4289875200
1.8101891 -1.50211 -0.35988438 4289875200
1.8273278 -1.516235 -0.35598674 4290005760
1.8413352 -1.5277599 -0.35094413 4290005760
1.811115 -1.5025901 -0.33714652 4289875200
1.8016684 -1.4946572 -0.32701036 4289875200
1.7988123 -1.4921924 -0.31775701 4289875200
1.8109463 -1.5021621 -0.31074452 4289875200
1.8317039 -1.5192831 -0.30469072 4290005760
1.8246875 -1.5133666 -0.29360321 4290005760
1.7992797 -1.4921983 -0.27940786 4289875200
1.8106364 -1.5015209 -0.270686 4289875200
1.8294003 -1.5169845 -0.26259199 4290005760
1.8303685 -1.5176903 -0.25153378 4290005760
1.8218738 -1.5105501 -0.23894353 4289875200
1.8040253 -1.4956559 -0.22503002 4289875200
1.8168322 -1.5061773 -0.21472284 4289875200
1.8166173 -1.5059029 -0.20255804 4289875200
1.8181169 -1.5070497 -0.1903535 4289875200
1.7966499 -1.4891603 -0.1756745 4289744640
1.8190057 -1.5075936 -0.1650802 4289875200
1.8235617 -1.5112729 -0.15250134 4289875200
1.8126607 -1.5021428 -0.13851045 4289875200
1.7870829 -1.4808518 -0.12351334 4289744640
1.8072754 -1.4974884 -0.11158392 4289875200
1.8108875 -1.5003853 -0.098334722 4289875200
1.8137646 -1.502673 -0.084891364 4289875200
1.8001907 -1.4913319 -0.070667803 4289744640
1.8117306 -1.500796 -0.057369318 4289875200
1.8086551 -1.4981526 -0.043482665 4289875200
1.788807 -1.4816172 -0.029321857 4289744640
1.8280888 -1.5140562 -0.01595005 4289875200
1.8342688 -1.5190775 -0.0019243632 4290005760
1.7641033 -1.4608755 0.011691566 4289614080
1.8140187 -1.5021149 0.025934193 4289875200
1.9871858 -1.6454023 0.043618303 4290658560
2.0085673 -1.6630001 0.059411321 4290658560
2.0078974 -1.662339 0.074645184 4290658560
2.071907 -1.715223 0.09268073 4290919680
2.2932298 -1.8983231 0.11979743 4291964160
2.264605 -1.8745077 0.13517469 4291833600
2.223973 -1.840757 0.14917445 4291703040
2.1048419 -1.7420423 0.1565748 4291180800
2.3027127 -1.9056853 0.18794484 4291964160
2.2803981 -1.8870974 0.20240936 4291964160
2.2288127 -1.844291 0.2135312 4291703040
2.0950267 -1.7334753 0.21525161 4291050240
2.3215859 -1.920813 0.25437674 4292094720
2.3040628 -1.9061929 0.26790628 4291964160
2.2609823 -1.8704318 0.2777673 4291833600
2.2532923 -1.863951 0.29133567 4291833600
2.2144156 -1.8316746 0.30025405 4291703040
2.2141764 -1.8313596 0.31383082 4291703040
2.1658695 -1.79129 0.31995371 4291441920
2.1716995 -1.7959969 0.33346072 4291441920
2.1183417 -1.751758 0.33723789 4291180800
2.0285525 -1.6773996 0.33404312 4290919680
1.893173 -1.5653548 0.32175726 4290266880
1.7939547 -1.4832221 0.31403241 4289875200
1.8182843 -1.5032414 0.32719225 4290005760
1.7866267 -1.4769744 0.32987604 4289744640
1.7066936 -1.4108049 0.3227638 4289483520
1.712013 -1.4151114 0.33106992 4289483520
1.8515612 -1.5303609 0.36554074 4290136320
1.8728803 -1.5478827 0.37689614 4290136320
1.908685 -1.5773733 0.39094239 4290397440
1.9406968 -1.6037259 0.40399632 4290528000
1.994795 -1.6483253 0.42145622 4290789120
2.0527089 -1.6960719 0.43956801 4291050240
2.1357334 -1.7645588 0.4629297 4291441920
2.1196733 -1.7511777 0.46445531 4291311360
2.1738775 -1.7958438 0.4809126 4291572480
2.1916523 -1.8104118 0.48889732 4291572480
2.2163272 -1.8306774 0.49792269 4291703040
2.2197988 -1.8334275 0.50164652 4291703040
2.2309389 -1.8425108 0.50653315 4291833600
2.230762 -1.8422469 0.50826919 4291833600
2.2306628 -1.842047 0.50942761 4291833600
2.223048 -1.8356414 0.50827104 4291833600
2.2124741 -1.8267932 0.50584054 4291703040
2.1761558 -1.7966911 0.49694163 4291572480
2.146744 -1.7722945 0.48906377 4291441920
2.1594548 -1.7826741 0.4902153 4291441920
2.0868762 -1.7226487 0.47149956 4291180800
2.0794625 -1.7164192 0.46704364 4291180800
1.9600829 -1.6177779 0.43709582 4290658560
1.916504 -1.5817083 0.42381367 4290397440
1.8737202 -1.5462995 0.41038525 4290266880
1.852266 -1.5284964 0.40129268 4290136320
1.8346542 -1.5138663 0.39266369 4290005760
1.8602421 -1.5348819 0.39279816 4290136320
1.842715 -1.520323 0.38335541 4290005760
1.8183584 -1.5001317 0.37218568 4290005760
1.8153628 -1.4975646 0.36505198 4290005760
1.8490059 -1.5252205 0.36474863 4290136320
1.9155222 -1.5799878 0.37011394 4290397440
1.9174759 -1.581498 0.36230373 4290397440
2.2941988 -1.8913637 0.35894436 4291964160
2.3096278 -1.9039617 0.34812385 4292094720
2.3254292 -1.9168651 0.33678928 4292094720
2.3124766 -1.9060662 0.32090074 4292094720
2.3000836 -1.8957299 0.3048892 4291964160
2.2935781 -1.8902471 0.28943908 4291964160
2.315639 -1.9083062 0.27717245 4292094720
2.294838 -1.8910432 0.25946501 4291964160
2.2762408 -1.8755983 0.24198554 4291833600
2.2832894 -1.8812858 0.22704479 4291964160
2.286736 -1.884005 0.21142548 4291964160
2.1003311 -1.7303182 0.17931862 4291050240
2.0223141 -1.6659387 0.15815033 4290789120
2.0183218 -1.6625435 0.14318819 4290789120
2.0100031 -1.6555852 0.12785427 4290658560
1.9660929 -1.619314 0.11050459 4290528000
1.8288438 -1.5061764 0.089139387 4289875200
1.8359916 -1.5119663 0.075687222 4289875200
1.8402071 -1.5153408 0.061947484 4290005760
1.829067 -1.506071 0.047677416 4289875200
1.8137528 -1.4933654 0.033449214 4289875200
1.8205856 -1.4988953 0.019658631 4289875200
1.8178852 -1.4965762 0.0057130773 4289875200
1.7983018 -1.4803594 -0.0081203245 4289744640
1.8055162 -1.4862032 -0.021970507 4289744640
1.8139933 -1.4930854 -0.035931628 4289875200
1.8209767 -1.4987375 -0.049941655 4289875200
1.8024116 -1.4833626 -0.063108712 4289744640
1.8315719 -1.5072647 -0.077957228 4289875200
1.831557 -1.507156 -0.091699019 4289875200
1.8446959 -1.5178705 -0.10609717 4290005760
1.8261209 -1.5024902 -0.11851629 4289875200
1.835843 -1.5103927 -0.13257653 4289875200
1.8303778 -1.5057998 -0.14542677 4289875200
1.842589 -1.5157486 -0.15957013 4290005760
1.8199859 -1.4970589 -0.1704516 4289875200
1.8372096 -1.5111299 -0.18483633 4290005760
1.8521076 -1.5232862 -0.19900553 4290005760
1.855467 -1.5259513 -0.21184017 4290005760
1.8375323 -1.5111049 -0.22191405 4290005760
1.8351028 -1.5090104 -0.23348092 4290005760
1.8434012 -1.5157372 -0.24619043 4290005760
1.8529054 -1.5234544 -0.25889835 4290005760
1.8437536 -1.5158327 -0.26871449 4290005760
1.8186542 -1.4951016 -0.275704 4289875200
1.8414537 -1.5137479 -0.28962854 4290005760
1.8573339 -1.5267043 -0.30235636 4290136320
1.8618584 -1.5303254 -0.31300643 4290136320
1.8642569 -1.5321987 -0.3229818 4290136320
1.864801 -1.5325477 -0.33228499 4290136320
1.8265512 -1.5010169 -0.33411965 4290005760
1.8372054 -1.5096755 -0.34438652 4290005760
1.8391172 -1.5111496 -0.35267785 4290005760
1.8421315 -1.5135295 -0.36079749 4290005760
1.8493056 -1.5193266 -0.36935788 4290136320
1.8431494 -1.5141718 -0.37483639 4290005760
1.8516378 -1.5210477 -0.38286749 4290136320
1.8432252 -1.5140402 -0.3869639 4290005760
1.8435992 -1.5142504 -0.3924315 4290005760
1.8296778 -1.5027196 -0.39436486 4290005760
1.8315282 -1.504143 -0.39920673 4290005760
1.8139324 -1.4895972 -0.39931184 4289875200
1.803084 -1.4805936 -0.40037799 4289875200
1.8036221 -1.4809406 -0.40348551 4289875200
1.7926797 -1.4718616 -0.40353912 4289875200
1.8031179 -1.4803368 -0.40793037 4289875200
1.7999123 -1.4776105 -0.40876675 4289875200
1.7998146 -1.4774357 -0.40982759 4289875200
1.7921678 -1.4710643 -0.40868694 4289875200
1.8095874 -1.4852676 -0.4127824 4289875200
1.8058739 -1.4821248 -0.4115757 4289875200
1.8088598 -1.4844803 -0.41141328 4289875200
1.8300124 -1.5017434 -0.41488427 4290005760
1.83479 -1.5055674 -0.41413721 4290005760
1.8355423 -1.5060884 -0.41199178 4290005760
1.8448567 -1.513634 -0.41127181 4290136320
1.8458298 -1.5143354 -0.40819657 4290136320
1.8482275 -1.5162053 -0.40495414 4290136320
1.8435428 -1.5122653 -0.39969462 4290005760
1.843102 -1.5118068 -0.39490283 4290005760
1.8399717 -1.5091424 -0.38908672 4290005760
1.8310257 -1.5017087 -0.38162649 4290005760
1.8196098 -1.4922504 -0.37327534 4290005760
1.8173592 -1.4903094 -0.36641961 4289875200
1.8372772 -1.5065463 -0.36354545 4290005760
1.8430356 -1.5111712 -0.35735488 4290005760
1.8578783 -1.5232438 -0.35243168 4290136320
1.8382325 -1.50704 -0.34058836 4290005760
1.8249197 -1.4960297 -0.3296791 4290005760
1.8228232 -1.4942154 -0.3204937 4289875200
1.8380903 -1.5066338 -0.31393182 4290005760
1.8443816 -1.5116936 -0.30537301 4290005760
1.8442408 -1.5114814 -0.29537353 4290005760
1.8194836 -1.4910957 -0.28123918 4289875200
1.8339745 -1.5028747 -0.27291173 4290005760
1.845917 -1.5125643 -0.26374632 4290005760
1.8499702 -1.5157884 -0.25306493 4290005760
1.8452877 -1.5118549 -0.24091241 4290005760
1.816411 -1.4881006 -0.22554834 4289875200
1.8363835 -1.5043668 -0.21605539 4290005760
1.840026 -1.5072541 -0.20424916 4290005760
1.8376836 -1.5052389 -0.19154622 4290005760
1.8236628 -1.4936588 -0.17752889 4289875200
1.8385851 -1.5057844 -0.16612761 4290005760
1.8393066 -1.5062788 -0.15315294 4290005760
1.8283553 -1.4972143 -0.13911355 4289875200
1.8034288 -1.4767077 -0.12411979 4289744640
1.8198565 -1.4900637 -0.11189857 4289875200
1.8265791 -1.4954722 -0.09878964 4289875200
1.8263786 -1.4952122 -0.085151717 4289875200
1.8243414 -1.4934486 -0.071353562 4289875200
1.8401251 -1.506273 -0.058072116 4289875200
1.8398147 -1.5059224 -0.04410392 4289875200
1.8061643 -1.4782842 -0.029548151 4289744640
1.8485122 -1.5128475 -0.016137596 4290005760
1.850949 -1.5147448 -0.0020202366 4290005760
1.8669087 -1.5277076 0.012224349 4290005760
1.815863 -1.4858413 0.025748627 4289875200
2.0376518 -1.6672145 0.044412799 4290789120
2.0475876 -1.6752367 0.060175344 4290789120
2.0101454 -1.6444976 0.074272133 4290658560
1.9499624 -1.5951598 0.08671204 4290397440
2.3085356 -1.8883682 0.11990541 4291964160
2.2940817 -1.8764248 0.13616495 4291964160
2.2532487 -1.8429077 0.15030299 4291703040
2.1304467 -1.7423575 0.15761544 4291180800
2.3362198 -1.9105238 0.18965161 4292094720
2.3060663 -1.885744 0.20359458 4291964160
2.2503667 -1.8400785 0.2144542 4291703040
2.1275074 -1.7395077 0.21743929 4291180800
2.3397207 -1.9128963 0.25502411 4292094720
2.3375323 -1.9109845 0.27038571 4292094720
