# .PCD v0.7 - Point Cloud Data file format
VERSION 0.7
FIELDS x y z rgba
SIZE 4 4 4 4
TYPE F F F U
COUNT 1 1 1 1
WIDTH 1101
HEIGHT 1
VIEWPOINT 0 0 0 1 0 0 0
POINTS 1101
DATA ascii
1.4392158 -1.8314213 0.28388268 4289875200
1.4068053 -1.7901299 0.28708452 4289614080
1.5104169 -1.9216346 0.31819767 4290266880
1.5106126 -1.9217601 0.32783285 4290266880
1.4896214 -1.8949748 0.33236665 4290136320
1.4771091 -1.8789618 0.33821172 4290005760
1.4590752 -1.8559386 0.34223029 4290005760
1.4145665 -1.7992973 0.33930624 4289744640
1.4015552 -1.7826598 0.34324712 4289614080
1.3461463 -1.7121904 0.33607608 4289352960
1.3456323 -1.7114277 0.34195945 4289352960
1.3475912 -1.7138047 0.34808046 4289352960
1.3648498 -1.7356044 0.3578245 4289483520
1.3019197 -1.6556082 0.3459667 4289091840
1.3045996 -1.6589034 0.35092819 4289091840
1.3073146 -1.6622428 0.35550568 4289091840
1.3094567 -1.6648543 0.35952482 4289091840
1.3037077 -1.6574512 0.36094815 4289091840
1.3034916 -1.65707 0.36346638 4289091840
1.3088068 -1.6637079 0.36710864 4289091840
1.3031887 -1.656472 0.36725372 4289091840
1.300055 -1.6523893 0.36765662 4289091840
1.3061128 -1.6599679 0.37022731 4289091840
1.3030702 -1.656001 0.36978549 4289091840
1.3086098 -1.6629213 0.37134305 4289091840
1.3117572 -1.666806 0.37178344 4289222400
1.3088524 -1.6630139 0.3700718 4289091840
1.3005029 -1.6523169 0.36639562 4289091840
1.300736 -1.6525055 0.36471516 4289091840
1.3579813 -1.7249919 0.37849793 4289352960
1.3583149 -1.7253032 0.3758761 4289352960
1.3495342 -1.7140579 0.37031099 4289352960
1.3414004 -1.7036343 0.36453187 4289352960
1.3911513 -1.766597 0.37393397 4289614080
1.4063271 -1.7857208 0.37340781 4289614080
1.4129926 -1.7940542 0.37011319 4289744640
1.4664128 -1.8616494 0.37840626 4290005760
1.4765247 -1.8743449 0.37483251 4290005760
1.4986749 -1.9022956 0.37374026 4290136320
1.5119449 -1.9189888 0.36983889 4290266880
1.5114194 -1.9181982 0.36207536 4290266880
1.5104101 -1.9167945 0.35378775 4290266880
1.4889903 -1.8888589 0.28843045 4290005760
1.5039657 -1.9077021 0.28058529 4290136320
1.4992595 -1.9016176 0.26867771 4290136320
1.4800419 -1.8771576 0.25404581 4290005760
1.4832993 -1.8811598 0.24311152 4290005760
1.4868461 -1.885528 0.23190039 4290005760
1.4962448 -1.8973045 0.22124106 4290136320
1.4682736 -1.8617688 0.20495793 4289875200
1.4549375 -1.8447647 0.19083723 4289875200
1.4841001 -1.8815596 0.18195263 4290005760
1.4822713 -1.8791219 0.16882677 4290005760
1.4544525 -1.8437895 0.15280961 4289875200
1.4473163 -1.8346374 0.1391121 4289744640
1.2945189 -1.6411505 0.11266503 4288961280
1.2565837 -1.5930388 0.097856291 4288700160
1.2498498 -1.5844139 0.085789651 4288700160
1.2564954 -1.5927187 0.074552596 4288700160
1.2558634 -1.5918151 0.062743366 4288700160
1.255635 -1.591422 0.050893627 4288700160
1.2351911 -1.5654562 0.038355637 4288569600
1.2470063 -1.5802993 0.026872166 4288700160
1.2168508 -1.5420536 0.014610291 4288569600
1.0873661 -1.3781847 0.0026129335 4287786240
1.2288669 -1.5570487 -0.0087038334 4288569600
1.2315561 -1.5603476 -0.020473016 4288569600
1.2365677 -1.5665829 -0.032331869 4288700160
1.2380366 -1.5683377 -0.044127721 4288700160
1.2430778 -1.574609 -0.056063943 4288700160
1.2466592 -1.5790339 -0.06795691 4288700160
1.2525289 -1.5863512 -0.079989396 4288700160
1.2492361 -1.5820851 -0.091380857 4288700160
1.2468942 -1.5790215 -0.1026913 4288700160
1.2517734 -1.5850853 -0.11450455 4288700160
1.2543905 -1.5882893 -0.12605691 4288700160
1.2478619 -1.579935 -0.13652535 4288700160
1.2505882 -1.5832769 -0.14781825 4288700160
1.266986 -1.6038941 -0.1607233 4288830720
1.2677726 -1.6047832 -0.17163204 4288830720
1.2664845 -1.6030509 -0.18206991 4288830720
1.2374939 -1.5663207 -0.18809664 4288700160
1.2618085 -1.5969347 -0.2019379 4288830720
1.2654128 -1.6013834 -0.21248138 4288830720
1.2616272 -1.5964973 -0.22155419 4288830720
1.2570475 -1.5906091 -0.23017956 4288830720
1.2237331 -1.5484307 -0.23303281 4288569600
1.2674879 -1.6035864 -0.2503078 4288830720
1.2741199 -1.6118567 -0.26035613 4288830720
1.2712312 -1.6081042 -0.26820123 4288830720
1.2629586 -1.5975546 -0.27454156 4288830720
1.2648687 -1.5998621 -0.28273669 4288830720
1.2501594 -1.5811881 -0.28683633 4288830720
1.2512202 -1.5824245 -0.29413539 4288830720
1.2592672 -1.5924792 -0.30278581 4288830720
1.254648 -1.5865452 -0.30807644 4288830720
1.2591373 -1.5921082 -0.31524211 4288830720
1.2578021 -1.5903199 -0.32060948 4288830720
1.2533784 -1.5846341 -0.32479978 4288830720
1.2578968 -1.5902331 -0.33092511 4288830720
1.2529318 -1.5838652 -0.33418259 4288830720
1.2479557 -1.5774839 -0.33701682 4288830720
1.2470802 -1.5762771 -0.34054595 4288830720
1.232389 -1.5576413 -0.33987841 4288700160
1.2298573 -1.5543468 -0.3421132 4288700160
1.2248385 -1.5479155 -0.34324488 4288700160
1.2246629 -1.5475938 -0.34531963 4288700160
1.2083304 -1.5268947 -0.34242895 4288569600
1.2082392 -1.5266811 -0.34370354 4288569600
1.2057426 -1.5234342 -0.34389386 4288569600
1.2213204 -1.5429791 -0.34882548 4288700160
1.2182976 -1.5390681 -0.34806198 4288569600
1.2292975 -1.5528378 -0.35088253 4288700160
1.231696 -1.5557617 -0.3508431 4288700160
1.2370702 -1.5624363 -0.35123342 4288700160
1.2470046 -1.574859 -0.35248807 4288830720
1.2488015 -1.5770224 -0.35102487 4288830720
1.2636142 -1.5955913 -0.35276929 4288830720
1.2551706 -1.5848467 -0.34762359 4288830720
1.2533771 -1.5824847 -0.34393397 4288830720
1.2615628 -1.5926986 -0.34255666 4288830720
1.258673 -1.5889546 -0.33777192 4288830720
1.2577184 -1.5876499 -0.3331278 4288830720
1.2527144 -1.5812433 -0.32705358 4288830720
1.2516348 -1.5797818 -0.32164824 4288830720
1.2371314 -1.5614096 -0.31250459 4288700160
1.2355181 -1.5592772 -0.30631942 4288700160
1.2534313 -1.581741 -0.30452773 4288830720
1.2608734 -1.5910133 -0.29972729 4288830720
1.2659944 -1.597361 -0.29397014 4288830720
1.252331 -1.5800514 -0.28358513 4288830720
1.239324 -1.5635709 -0.27318549 4288700160
1.2439412 -1.5692849 -0.26639831 4288700160
1.2550614 -1.5831863 -0.26059878 4288830720
1.2670238 -1.5981464 -0.25452965 4288830720
1.2480114 -1.5741084 -0.2420309 4288700160
1.2378449 -1.5612094 -0.2311773 4288700160
1.2572161 -1.5854943 -0.22549126 4288830720
1.2605586 -1.5896003 -0.21652581 4288830720
1.2633113 -1.5929637 -0.207175 4288830720
1.2380441 -1.5610619 -0.19320214 4288700160
1.2477704 -1.5732026 -0.18457538 4288700160
1.2524774 -1.5790256 -0.17489119 4288700160
1.250963 -1.5770192 -0.16412693 4288700160
1.2380381 -1.5606562 -0.15181969 4288700160
1.2468014 -1.5715824 -0.14202838 4288700160
1.2578059 -1.5853269 -0.13216533 4288700160
1.255371 -1.5821627 -0.12068228 4288700160
1.2406597 -1.5635564 -0.10805301 4288700160
1.2413127 -1.5642782 -0.096764706 4288700160
1.2433273 -1.5667126 -0.085455149 4288700160
1.2417688 -1.5646528 -0.073808387 4288700160
1.1362951 -1.4319093 -0.056967929 4288047360
1.1987935 -1.5104114 -0.048784617 4288439040
1.2511469 -1.5761465 -0.039063491 4288700160
1.2425028 -1.5651776 -0.027018894 4288700160
1.2512118 -1.5760276 -0.015315649 4288700160
1.2588849 -1.5855739 -0.0034311833 4288700160
1.2538203 -1.5791062 0.0085073933 4288700160
1.2531841 -1.5782059 0.020411838 4288700160
1.2695818 -1.598717 0.032725714 4288830720
1.3152859 -1.65606 0.046356004 4289091840
1.4443359 -1.8181447 0.064548314 4289744640
1.4117255 -1.7770468 0.076293707 4289614080
1.4970306 -1.8841316 0.09485434 4290005760
1.5048735 -1.8938667 0.10924075 4290005760
1.4762074 -1.8577278 0.12065449 4289875200
1.3704693 -1.7247603 0.12439368 4289352960
1.5067912 -1.8959144 0.15030232 4290136320
1.5156424 -1.9069129 0.16459207 4290136320
1.4775189 -1.8589023 0.17333175 4289875200
1.4291209 -1.7979921 0.17992316 4289614080
1.5226667 -1.9153711 0.20459345 4290136320
1.5369411 -1.9331765 0.21927497 4290266880
1.5076354 -1.8962501 0.22736512 4290136320
1.4681126 -1.8464981 0.2331049 4289875200
1.3868642 -1.7443584 0.23100279 4289483520
1.5320631 -1.9265591 0.26687369 4290266880
1.5304158 -1.9243679 0.27793175 4290266880
1.5024325 -1.8891138 0.28367573 4290136320
1.4560431 -1.8307579 0.28509545 4289875200
1.417208 -1.7818921 0.28708544 4289614080
1.5333236 -1.9275267 0.32065511 4290266880
1.5267835 -1.9191948 0.3289122 4290266880
1.5098929 -1.8978739 0.33441946 4290136320
1.4581773 -1.8328516 0.33142504 4289875200
1.4698603 -1.8473951 0.34223124 4290005760
1.4281046 -1.7948821 0.34004137 4289744640
1.4149953 -1.7783186 0.34399733 4289614080
1.3585597 -1.7073987 0.33668777 4289352960
1.3555773 -1.7035477 0.34196031 4289352960
1.3667828 -1.7174956 0.35044923 4289352960
1.366321 -1.7168062 0.35558301 4289352960
1.3115402 -1.6479838 0.34596753 4289091840
1.3142393 -1.6512634 0.35092905 4289091840
1.3194329 -1.657671 0.35617048 4289091840
1.3105259 -1.6463946 0.35718006 4289091840
1.3071938 -1.6421102 0.35925987 4289091840
1.3161926 -1.6532886 0.36431769 4289091840
1.3129452 -1.6491107 0.36556983 4289091840
1.3158855 -1.652691 0.36811388 4289091840
1.3096567 -1.6447759 0.36765745 4289091840
1.3126874 -1.6484692 0.36936393 4289091840
1.3126929 -1.6483699 0.36978635 4289091840
1.3158158 -1.6521782 0.37065175 4289091840
1.315914 -1.6521949 0.37022868 4289091840
1.3129867 -1.6484195 0.36852059 4289091840
1.3131764 -1.648551 0.36725578 4289091840
1.3072656 -1.6410377 0.36386064 4289091840
1.368005 -1.7170397 0.37849882 4289352960
1.362192 -1.7096455 0.37418783 4289352960
1.3564193 -1.7023026 0.36947417 4289352960
1.3513 -1.6957791 0.36453277 4289352960
1.3572943 -1.7031785 0.3621597 4289352960
1.4228601 -1.7851974 0.37503171 4289744640
1.4289606 -1.7927228 0.37155566 4289744640
1.4412625 -1.8080145 0.36919144 4289744640
1.4809628 -1.857617 0.37320668 4290005760
1.5131167 -1.8977629 0.37458009 4290136320
1.5317339 -1.9209526 0.37193793 4290266880
1.5318254 -1.9209425 0.364279 4290266880
1.5277247 -1.9156836 0.35522532 4290266880
1.5055448 -1.8871216 0.28950483 4290136320
1.5311121 -1.9189949 0.28356308 4290266880
1.5220989 -1.9075912 0.27077779 4290136320
1.4996415 -1.8793665 0.2555292 4290005760
1.4942311 -1.8724747 0.24311249 4290005760
1.5096109 -1.8915948 0.23373179 4290136320
1.5072706 -1.8885436 0.22124204 4290136320
1.4878018 -1.8640661 0.20616761 4290005760
1.4805946 -1.8549294 0.19278653 4289875200
1.5007013 -1.8799577 0.18264464 4290005760
1.4982378 -1.876754 0.16939957 4290005760
1.4738919 -1.8461839 0.15372282 4289875200
1.461895 -1.8310609 0.13948789 4289875200
1.3081466 -1.638684 0.11302063 4288961280
1.2714558 -1.5926995 0.098293133 4288830720
1.2578012 -1.5755233 0.085704431 4288700160
1.265751 -1.5853596 0.07455343 4288700160
1.2651138 -1.5844597 0.062744193 4288700160
1.2705034 -1.5910935 0.051122904 4288830720
1.2417996 -1.5551106 0.038278654 4288569600
1.261812 -1.5800225 0.02699575 4288700160
1.2161473 -1.5228471 0.014491353 4288439040
1.1103696 -1.3905537 0.002657573 4287916800
1.2472874 -1.5615625 -0.0087642632 4288700160
1.2437478 -1.5570377 -0.02052216 4288569600
1.2487956 -1.5632433 -0.032410495 4288700160
1.2519858 -1.5671271 -0.044295374 4288700160
1.2584752 -1.5751321 -0.05633935 4288700160
1.2620814 -1.5795345 -0.068290539 4288700160
1.2648703 -1.5829153 -0.080184713 4288700160
1.2677956 -1.586466 -0.092054531 4288700160
1.2560707 -1.5717182 -0.10269047 4288700160
1.2619816 -1.5789979 -0.11459359 4288700160
1.2636209 -1.5809422 -0.12605608 4288700160
1.2663987 -1.5843078 -0.13753445 4288700160
1.2654005 -1.5829582 -0.14847209 4288700160
1.2763073 -1.5964732 -0.16072245 4288830720
1.2782185 -1.5987552 -0.17178087 4288830720
1.2761494 -1.596068 -0.18211855 4288830720
1.2497091 -1.5629574 -0.18856318 4288700160
1.2679785 -1.5856608 -0.20144507 4288830720
1.2750907 -1.5944349 -0.21254212 4288830720
1.2771219 -1.5968661 -0.22263238 4288830720
1.2693985 -1.5871234 -0.23074107 4288830720
1.2278597 -1.5351821 -0.23211479 4288569600
1.2799113 -1.6000354 -0.25091299 4288830720
1.2865899 -1.6082648 -0.26098213 4288961280
1.2892592 -1.6114908 -0.27001181 4288961280
1.2840204 -1.6048502 -0.27707258 4288961280
1.27292 -1.5908978 -0.28246018 4288830720
1.2593491 -1.5738654 -0.28683552 4288830720
1.2666069 -1.5828166 -0.2955738 4288830720
1.2685225 -1.5851032 -0.30278498 4288830720
1.2756193 -1.5938516 -0.31092975 4288830720
1.2722858 -1.5895911 -0.31620607 4288830720
1.2707505 -1.5875735 -0.32154307 4288830720
1.2687654 -1.5849953 -0.32638258 4288830720
1.2671392 -1.582865 -0.33092424 4288830720
1.2652237 -1.5803745 -0.33499622 4288830720
1.2595924 -1.5732515 -0.33767554 4288830720
1.2562414 -1.5689723 -0.34054512 4288830720
1.2500774 -1.561187 -0.34223378 4288700160
1.2419746 -1.5509863 -0.34296098 4288700160
1.2363012 -1.5438148 -0.34392786 4288700160
1.2336574 -1.5404202 -0.34531879 4288700160
1.2172046 -1.5198165 -0.34242815 4288569600
1.2232759 -1.5272845 -0.34543744 4288569600
1.2201439 -1.5232834 -0.3454583 4288569600
1.2358352 -1.5427368 -0.35039219 4288700160
1.2334062 -1.5396111 -0.34980342 4288700160
1.2414045 -1.5494767 -0.35175213 4288700160
1.2462863 -1.5554587 -0.35240594 4288700160
1.2523165 -1.5628704 -0.35296461 4288700160
1.2586243 -1.5706271 -0.35317713 4288830720
1.2672188 -1.5812309 -0.35359713 4288830720
1.2698032 -1.5843481 -0.35191637 4288830720
1.2705525 -1.5851798 -0.34931374 4288830720
1.2712163 -1.5859047 -0.34627941 4288830720
1.2755734 -1.5912286 -0.34383297 4288830720
1.2740848 -1.5892732 -0.33941114 4288830720
1.2700354 -1.5841298 -0.3339366 4288830720
1.2674682 -1.5808324 -0.32848981 4288830720
1.2608163 -1.5724505 -0.32164741 4288830720
1.2532665 -1.5629518 -0.31426799 4288700160
1.2476755 -1.5558928 -0.30707768 4288700160
1.265721 -1.5782535 -0.30527115 4288830720
1.2756972 -1.5905689 -0.30103782 4288830720
1.281478 -1.5976615 -0.29539332 4288830720
1.2701986 -1.5835233 -0.28552935 4288830720
1.2484112 -1.5563116 -0.27318466 4288700160
1.2623767 -1.5735891 -0.26837024 4288830720
1.2673693 -1.5797005 -0.26123586 4288830720
1.2732034 -1.5868579 -0.25391132 4288830720
1.26027 -1.5706676 -0.24262643 4288700160
1.2500302 -1.5578301 -0.23175101 4288700160
1.2695442 -1.5820036 -0.22604246 4288830720
1.2760277 -1.5899668 -0.21758282 4288830720
1.2781799 -1.5925423 -0.2080835 4288830720
1.2471164 -1.5538102 -0.1932013 4288700160
1.2567253 -1.5656604 -0.18454705 4288700160
1.2672734 -1.5786769 -0.17566538 4288700160
1.2672182 -1.578508 -0.16504472 4288700160
1.2496077 -1.5565127 -0.15212148 4288700160
1.2646877 -1.5751616 -0.14301161 4288700160
1.2726483 -1.5849578 -0.13274808 4288830720
1.2625616 -1.5723187 -0.12049142 4288700160
1.2528759 -1.5601798 -0.10832083 4288700160
1.2597955 -1.5686812 -0.097485021 4288700160
1.2570391 -1.5651559 -0.085765935 4288700160
1.2546754 -1.5621191 -0.074030392 4288700160
1.1540158 -1.4369335 -0.057429235 4288177920
1.2241615 -1.5240048 -0.04944469 4288439040
1.2597286 -1.5681005 -0.03904504 4288700160
1.2572411 -1.5649108 -0.027136965 4288700160
1.2626897 -1.5715805 -0.015341838 4288700160
1.2680991 -1.5782008 -0.0034303349 4288700160
1.2732875 -1.5845459 0.0085823396 4288700160
1.2648636 -1.5739819 0.020454369 4288700160
1.2851428 -1.5990696 0.03288972 4288830720
1.345664 -1.6741331 0.047091357 4289091840
1.4730828 -1.8322659 0.065362312 4289875200
1.4276941 -1.7757858 0.076599292 4289614080
1.5111136 -1.8792572 0.095053449 4290005760
1.5221454 -1.8928356 0.10969521 4290136320
1.4870031 -1.849084 0.12065549 4289875200
1.3867552 -1.7245102 0.12496085 4289352960
1.5178089 -1.887092 0.15030333 4290136320
1.526724 -1.8980387 0.1645931 4290136320
1.5002096 -1.8650073 0.1747202 4290005760
1.4426966 -1.7935054 0.18031576 4289744640
1.5456765 -1.9211992 0.20618165 4290266880
1.5512999 -1.9280559 0.21971925 4290266880
1.5249019 -1.8951752 0.22830266 4290136320
1.4882092 -1.8495246 0.23458411 4290005760
1.4088596 -1.7509518 0.23296697 4289483520
1.5519928 -1.9284256 0.26838654 4290266880
1.5415984 -1.9154077 0.27793276 4290266880
1.5221361 -1.8911419 0.28531367 4290136320
1.4754034 -1.8330516 0.28679308 4289875200
1.4425069 -1.7921306 0.29009384 4289744640
1.5501261 -1.9254971 0.32181972 4290266880
1.5410464 -1.9141135 0.32957882 4290266880
1.5247482 -1.8937794 0.3352623 4290136320
1.4781507 -1.8358748 0.33353058 4289875200
1.4892927 -1.8495737 0.34424341 4290005760
1.450333 -1.8011492 0.34283233 4289744640
1.4253289 -1.7700335 0.34399828 4289614080
1.3746858 -1.7071357 0.33821574 4289352960
1.3679571 -1.6986854 0.34258273 4289352960
1.3674626 -1.697964 0.34808224 4289352960
1.3762969 -1.7088056 0.35558394 4289352960
1.3211161 -1.6403035 0.34596843 4289091840
1.3238343 -1.6435673 0.35092995 4289091840
1.3234917 -1.6430376 0.3546775 4289091840
1.3169969 -1.6348842 0.35634321 4289091840
1.3229254 -1.6421256 0.3609499 4289091840
1.3196104 -1.6379129 0.36261767 4289091840
1.3225276 -1.6414223 0.36557072 4289091840
1.3193012 -1.6373198 0.36639616 4289091840
1.3254011 -1.6447712 0.36938286 4289091840
1.3253595 -1.6446142 0.37022907 4289091840
1.3191775 -1.6368513 0.36892202 4289091840
1.3223225 -1.6406413 0.36978742 4289091840
1.3255144 -1.644489 0.37022957 4289091840
1.3163768 -1.6330673 0.36679694 4289091840
1.319661 -1.6370291 0.36639735 4289091840
1.3168011 -1.6333824 0.36386153 4289091840
1.3170801 -1.6336228 0.36176908 4289091840
1.3752228 -1.7055029 0.37503332 4289352960
1.3663108 -1.6943599 0.3694751 4289352960
1.364252 -1.6917019 0.3653636 4289352960
1.3764892 -1.7067405 0.36462417 4289352960
1.430133 -1.7730285 0.37422118 4289744640
1.4424795 -1.788195 0.37235749 4289744640
1.4548715 -1.803416 0.36998174 4289875200
1.497345 -1.8558613 0.37460607 4290005760
1.5365677 -1.9042771 0.37763521 4290266880
1.5522183 -1.9235194 0.3741869 4290266880
1.5429879 -1.9119742 0.36428005 4290266880
1.5419672 -1.9105875 0.35594463 4290266880
1.5371027 -1.9037725 0.29343987 4290266880
1.5478851 -1.9169824 0.28459859 4290266880
1.545049 -1.9133509 0.27287623 4290266880
1.5168157 -1.8783178 0.25658911 4290136320
1.5113685 -1.8714612 0.24412523 4290005760
1.5262369 -1.889721 0.23459987 4290136320
1.5213765 -1.8835897 0.22170003 4290136320
1.4986341 -1.8553549 0.20616864 4290005760
1.4938815 -1.8493599 0.19311225 4290005760
1.5172706 -1.8781476 0.18332902 4290005760
1.5191197 -1.8803107 0.17052285 4290136320
1.4908974 -1.8453112 0.15437545 4289875200
1.4756753 -1.826381 0.13978718 4289875200
1.3217407 -1.6360545 0.11337209 4288961280
1.291023 -1.5979944 0.099089049 4288830720
1.2745074 -1.5774857 0.086218841 4288700160
1.2781073 -1.5818303 0.074739315 4288830720
1.2806101 -1.5848191 0.063057192 4288830720
1.2797495 -1.5836527 0.051123776 4288830720
1.2621511 -1.561813 0.038630642 4288700160
1.2709937 -1.5726324 0.026996616 4288700160
1.2491078 -1.5455011 0.014788773 4288569600
1.2499189 -1.5464021 0.0030407407 4288569600
1.2532153 -1.5503718 -0.0087429937 4288569600
1.2616068 -1.5606322 -0.020661179 4288700160
1.2610266 -1.5598143 -0.03248908 4288700160
1.2650324 -1.5646583 -0.044430796 4288700160
1.2644827 -1.5638778 -0.05620037 4288700160
1.2744061 -1.5760257 -0.068456896 4288700160
1.2797302 -1.582495 -0.080536895 4288830720
1.2795306 -1.5821456 -0.092233524 4288830720
1.2714919 -1.5721213 -0.10319613 4288700160
1.2789541 -1.5812281 -0.11529075 4288830720
1.2790376 -1.5812283 -0.12666823 4288830720
1.2724649 -1.573015 -0.13719694 4288700160
1.2808796 -1.5832952 -0.14919859 4288830720
1.291235 -1.5959686 -0.16142415 4288830720
1.2962947 -1.602107 -0.17294617 4288830720
1.2910702 -1.5955578 -0.1829136 4288830720
1.2587923 -1.5556378 -0.18856232 4288700160
1.2865943 -1.5898296 -0.20292015 4288830720
1.2906212 -1.5946929 -0.21357334 4288830720
1.2920374 -1.5963361 -0.22360261 4288830720
1.287384 -1.5904938 -0.23231477 4288830720
1.2392837 -1.5310757 -0.23258157 4288569600
1.2934361 -1.5977499 -0.25173134 4288830720
1.2984364 -1.6038116 -0.26148272 4288961280
1.3017479 -1.6077905 -0.27065784 4288961280
1.2933474 -1.5973299 -0.27707168 4288961280
1.2890382 -1.5919143 -0.2839677 4288830720
1.2772285 -1.5772537 -0.28880203 4288830720
1.2835389 -1.5849298 -0.29735804 4288830720
1.2808506 -1.5815139 -0.30351987 4288830720
1.2904887 -1.5932899 -0.31228083 4288961280
1.2871283 -1.5890455 -0.31758317 4288830720
1.2830893 -1.5839658 -0.3223213 4288830720
1.2866879 -1.5882975 -0.3285988 4288830720
1.2856683 -1.5869386 -0.33333421 4288830720
1.2862226 -1.5875192 -0.33809039 4288830720
1.2749518 -1.5735317 -0.33932352 4288830720
1.2709529 -1.5685041 -0.34204441 4288830720
1.262257 -1.5576915 -0.34307441 4288700160
1.2509886 -1.5437117 -0.34296012 4288700160
1.2483788 -1.5403979 -0.34478176 4288700160
1.2481986 -1.5400769 -0.3468658 4288700160
1.2353507 -1.524156 -0.34501967 4288569600
1.2321521 -1.5201192 -0.34543657 4288569600
1.2352051 -1.5237806 -0.34719664 4288569600
1.2572175 -1.5507854 -0.35387471 4288700160
1.2479416 -1.5392658 -0.35137054 4288700160
1.2559977 -1.5490845 -0.35331798 4288700160
1.2615356 -1.5558025 -0.35414246 4288700160
1.2669888 -1.5624151 -0.35452256 4288830720
1.2739637 -1.5709001 -0.35490093 4288830720
1.2819998 -1.5806901 -0.35514009 4288830720
1.2751206 -1.5721229 -0.35084856 4288830720
1.2850477 -1.5842385 -0.35074994 4288830720
1.2897595 -1.5899353 -0.34879237 4288961280
1.2910408 -1.5914104 -0.34549102 4288961280
1.2864323 -1.5856385 -0.34023026 4288830720
1.2823541 -1.5805199 -0.33474538 4288830720
1.2766556 -1.5734087 -0.32848892 4288830720
1.269955 -1.5650657 -0.32164654 4288830720
1.26235 -1.5556113 -0.31426713 4288700160
1.2685649 -1.5631565 -0.30996132 4288830720
1.2773887 -1.5739092 -0.30586565 4288830720
1.2849412 -1.5830972 -0.30103692 4288830720
1.2938856 -1.5939958 -0.29610443 4288961280
1.2769022 -1.5730106 -0.28497273 4288830720
1.2668332 -1.5605298 -0.2752133 4288700160
1.2746494 -1.5700407 -0.26902694 4288830720
1.2796792 -1.5761247 -0.26187286 4288830720
1.2880614 -1.5863293 -0.2550219 4288830720
1.2725308 -1.5671372 -0.24322189 4288700160
1.2653526 -1.5582144 -0.2328992 4288700160
1.2843834 -1.5815066 -0.22703527 4288830720
1.2909161 -1.5894353 -0.21853401 4288830720
1.2905746 -1.5889148 -0.2085878 4288830720
1.2680831 -1.5611748 -0.19502774 4288700160
1.2691563 -1.5623945 -0.18502964 4288700160
1.2764478 -1.5712548 -0.1756645 4288700160
1.2826834 -1.5788167 -0.16585316 4288830720
1.2586532 -1.5491939 -0.15212061 4288700160
1.2738416 -1.5677546 -0.14301074 4288700160
1.288159 -1.5852432 -0.13339564 4288830720
1.2811522 -1.5765362 -0.12138037 4288830720
1.270769 -1.5636832 -0.10907218 4288700160
1.2720649 -1.5651758 -0.09772452 4288700160
1.2781208 -1.5725139 -0.08657001 4288700160
1.2763264 -1.5702111 -0.074758902 4288700160
1.2751667 -1.5686878 -0.062933743 4288700160
1.2728233 -1.5657111 -0.051018082 4288700160
1.2744453 -1.5676036 -0.039213687 4288700160
1.2726499 -1.5653003 -0.027268197 4288700160
1.280664 -1.5750397 -0.015443265 4288700160
1.2882619 -1.584267 -0.0034537504 4288830720
1.28818 -1.5840664 0.0086238747 4288830720
1.2803261 -1.5743264 0.020559479 4288700160
1.2950118 -1.5922511 0.032905519 4288830720
1.3522446 -1.6623895 0.046981692 4289091840
1.4868877 -1.8275152 0.065503523 4289875200
1.4411702 -1.7712998 0.076769538 4289614080
1.5308719 -1.8812536 0.095609196 4290136320
1.5331546 -1.8839355 0.10969696 4290136320
1.5009032 -1.8442483 0.12091161 4289875200
1.446208 -1.7770321 0.12939911 4289614080
1.5419544 -1.8943728 0.15160364 4290136320
1.5409057 -1.8929666 0.16493236 4290136320
1.5078962 -1.8523589 0.17435613 4290005760
1.4625683 -1.796648 0.18149167 4289744640
1.5568407 -1.9121499 0.20618273 4290266880
1.5625039 -1.9189738 0.21972033 4290266880
1.5478698 -1.9009072 0.23008314 4290266880
1.507762 -1.8516079 0.23596485 4290005760
1.4190341 -1.7427025 0.23296796 4289483520
1.5600569 -1.9154875 0.26784769 4290266880
1.559019 -1.9140937 0.27906078 4290266880
1.5331254 -1.8822304 0.28531474 4290136320
1.4954672 -1.8359505 0.28861192 4290005760
1.4585652 -1.7906033 0.29122266 4289744640
1.5644493 -1.9202635 0.32246727 4290266880
1.5584444 -1.9127822 0.33091307 4290266880
1.5445206 -1.8955977 0.33717844 4290266880
1.4975826 -1.8379599 0.33549589 4290005760
1.4614348 -1.7935508 0.33538127 4289744640
1.4670534 -1.8003209 0.34430176 4289875200
1.3914149 -1.7075374 0.33340466 4289352960
1.3758562 -1.6883681 0.33607885 4289352960
1.3778275 -1.6906756 0.34258369 4289352960
1.3835735 -1.6976062 0.34966183 4289352960
1.3949656 -1.7114516 0.35782728 4289483520
1.3306471 -1.6325675 0.34596938 4289091840
1.3302648 -1.6319951 0.3501097 4289091840
1.3361572 -1.6391069 0.35550836 4289091840
1.3327323 -1.6348083 0.35801959 4289091840
1.332467 -1.634379 0.36095083 4289091840
1.3322442 -1.6340019 0.36346906 4289091840
1.3320651 -1.6336781 0.36557165 4289091840
1.3288147 -1.6295944 0.36639708 4289091840
1.3224946 -1.6217535 0.36593476 4289091840
1.3349155 -1.6368535 0.37022999 4289091840
1.3255726 -1.6253132 0.36805773 4289091840
1.3318554 -1.6328984 0.36978835 4289091840
1.3406786 -1.6435918 0.37178615 4289222400
1.3289821 -1.6291728 0.36766014 4289091840
1.3291728 -1.6293017 0.3663983 4289091840
1.3294092 -1.6294862 0.36471784 4289091840
1.3209597 -1.6190434 0.36023918 4289091840
1.3851328 -1.6974506 0.3750343 4289352960
1.3792757 -1.6901762 0.37031379 4289352960
1.3765782 -1.6867678 0.36602852 4289352960
1.380163 -1.6910439 0.36298278 4289352960
1.4460565 -1.7715305 0.37568286 4289744640
1.455994 -1.7835704 0.37315935 4289744640
1.4684759 -1.7987202 0.37077209 4289875200
1.5175091 -1.8585658 0.37693772 4290136320
1.5359231 -1.8809626 0.37477815 4290136320
1.5630164 -1.9139688 0.37409726 4290266880
1.5691278 -1.9213172 0.36780542 4290397440
1.561841 -1.9122845 0.35795698 4290266880
1.5575968 -1.9062994 0.29522997 4290266880
1.56217 -1.9117643 0.28517437 4290266880
1.5649797 -1.9150734 0.27442405 4290266880
1.5302496 -1.8725154 0.25701374 4290136320
1.5310653 -1.8733908 0.24554273 4290136320
1.5435226 -1.8884877 0.23556435 4290136320
1.5323219 -1.8746827 0.22170112 4290136320
1.4725006 -1.8014894 0.20111953 4289744640
1.5012922 -1.836539 0.19268443 4289875200
1.5313429 -1.873122 0.18370974 4290136320
1.5388936 -1.8822217 0.17151216 4290136320
1.5047816 -1.8404424 0.15470232 4289875200
1.4862885 -1.8177409 0.13978824 4289875200
1.3464321 -1.6468551 0.11467109 4289091840
1.3034183 -1.5942305 0.099327996 4288830720
1.2900047 -1.5777509 0.086647265 4288830720
1.2929984 -1.581303 0.075073265 4288830720
1.2983091 -1.587683 0.063476458 4288830720
1.2975613 -1.5866669 0.051469643 4288830720
1.2775631 -1.5621551 0.038826786 4288700160
1.2867584 -1.5732762 0.027140155 4288700160
1.2882813 -1.5750324 0.015158428 4288830720
1.2645117 -1.5459237 0.0030578296 4288700160
1.2702993 -1.5528854 -0.0087940991 4288700160
1.273845 -1.5571107 -0.02071023 4288700160
1.2789644 -1.5632554 -0.032710612 4288700160
1.2741249 -1.5572497 -0.044429895 4288700160
1.2824426 -1.5672954 -0.056586172 4288700160
1.2956035 -1.5832477 -0.069091424 4288830720
1.2952615 -1.5827277 -0.080928259 4288830720
1.2950587 -1.5823774 -0.092682265 4288830720
1.286327 -1.5716255 -0.10365108 4288700160
1.2923192 -1.5788308 -0.11566109 4288830720
1.297142 -1.5846095 -0.12753843 4288830720
1.2873003 -1.572506 -0.13780198 4288830720
1.2900805 -1.5757937 -0.14919767 4288830720
1.3036709 -1.5922607 -0.16181354 4288830720
1.3107895 -1.6008358 -0.17362855 4288961280
1.3066599 -1.5956979 -0.18379703 4288830720
1.2766733 -1.5590419 -0.18987001 4288700160
1.3015143 -1.5892189 -0.20380481 4288830720
1.3087213 -1.5978999 -0.21501733 4288961280
1.3107737 -1.6002976 -0.2252202 4288961280
1.2997787 -1.5867949 -0.23287618 4288830720
1.2657249 -1.5451952 -0.23583598 4288700160
1.3104299 -1.5995677 -0.25321412 4288961280
1.3171982 -1.6077106 -0.26336232 4288961280
1.3142371 -1.6039991 -0.27130383 4288961280
1.3113557 -1.600385 -0.27891979 4288961280
1.3077174 -1.5958495 -0.28602132 4288961280
1.2958181 -1.5812519 -0.29090902 4288830720
1.2968922 -1.5824579 -0.29830655 4288830720
1.3019674 -1.588537 -0.30631489 4288961280
1.3028853 -1.5895523 -0.31303099 4288961280
1.3080899 -1.5957876 -0.32044518 4288961280
1.3010712 -1.5871382 -0.32450193 4288961280
1.2959185 -1.5807618 -0.32859787 4288830720
1.3013186 -1.587235 -0.3349824 4288961280
1.2954487 -1.5799861 -0.33808947 4288830720
1.2959917 -1.5805454 -0.34245542 4288830720
1.2831979 -1.5648698 -0.34287694 4288830720
1.2775671 -1.5579152 -0.34475648 4288830720
1.2718465 -1.5508523 -0.34618393 4288830720
1.2635859 -1.5406989 -0.34649035 4288700160
1.2634029 -1.5403774 -0.34858477 4288700160
1.2632626 -1.5401076 -0.35028481 4288700160
1.2497405 -1.5235546 -0.34786427 4288700160
1.2471869 -1.5203499 -0.34806535 4288700160
1.2662301 -1.543422 -0.35387379 4288700160
1.26314 -1.5395637 -0.35311186 4288700160
1.2650003 -1.5417283 -0.35331705 4288700160
1.2737043 -1.5522175 -0.35501024 4288830720
1.2823235 -1.5626025 -0.35625365 4288830720
1.2893488 -1.5710475 -0.35662469 4288830720
1.2943147 -1.5769867 -0.35599688 4288830720
1.3031956 -1.5876864 -0.35600454 4288961280
1.3005147 -1.5843251 -0.35244 4288961280
1.2989995 -1.5823816 -0.34879145 4288961280
1.3034215 -1.5876575 -0.34631956 4288961280
1.3012871 -1.5849611 -0.34170538 4288961280
1.2915394 -1.5730096 -0.33474445 4288830720
1.2952065 -1.5773673 -0.33088309 4288830720
1.287834 -1.5683051 -0.32384688 4288830720
1.280178 -1.5588993 -0.31643081 4288830720
1.2776493 -1.5557268 -0.30996042 4288830720
1.2959598 -1.5778821 -0.30809745 4288830720
1.3035706 -1.587031 -0.30322161 4288961280
1.3031491 -1.5864182 -0.29610348 4288961280
1.2917073 -1.5724142 -0.28622216 4288830720
1.2784207 -1.5561705 -0.27575359 4288700160
1.2894434 -1.5694641 -0.27020967 4288830720
1.2976632 -1.5793511 -0.26365805 4288830720
1.3004336 -1.5826166 -0.25563845 4288830720
1.2904724 -1.5704161 -0.24489076 4288830720
1.2819867 -1.5600092 -0.23427756 4288700160
1.2967328 -1.5778211 -0.22758639 4288830720
1.3064736 -1.5895517 -0.21959092 4288830720
1.3029704 -1.5851967 -0.20909205 4288830720
1.2739919 -1.5499063 -0.19454595 4288700160
1.2900733 -1.5693357 -0.18673399 4288830720
1.2950794 -1.575315 -0.1769553 4288830720
1.2975613 -1.578229 -0.16658062 4288830720
1.2771653 -1.5533674 -0.15325452 4288700160
1.2924656 -1.5718436 -0.14406416 4288830720
1.3005437 -1.5815504 -0.13371892 4288830720
1.2992001 -1.5798197 -0.12220994 4288830720
1.2798558 -1.5562409 -0.10907125 4288700160
1.2837009 -1.5608096 -0.097915903 4288700160
1.2840821 -1.5611736 -0.086357251 4288700160
1.2854985 -1.5627941 -0.074760713 4288700160
1.2900035 -1.5681621 -0.063210048 4288700160
1.2957509 -1.575037 -0.051560193 4288830720
1.2900574 -1.5680299 -0.039408073 4288700160
1.28457 -1.5612735 -0.027325934 4288700160
1.2950342 -1.5738696 -0.015502278 4288830720
1.3006485 -1.5805809 -0.0034597935 4288830720
1.3005654 -1.5803806 0.0086473934 4288830720
1.2926549 -1.5706863 0.020612525 4288700160
1.3080785 -1.5892936 0.033004303 4288830720
1.3803494 -1.6768404 0.047626171 4289222400
1.4911479 -1.8110976 0.065224245 4289875200
1.4610012 -1.7744275 0.077278316 4289614080
1.5481615 -1.8799998 0.09600652 4290136320
1.5504584 -1.8826661 0.11015154 4290136320
1.4963688 -1.8169706 0.11968832 4289875200
1.3771207 -1.6722921 0.12232196 4289222400
1.5460404 -1.8769544 0.1509272 4290136320
1.563969 -1.8985682 0.16621858 4290266880
1.5307194 -1.8581475 0.1757447 4290005760
1.4850632 -1.8026954 0.18298094 4289744640
1.5768311 -1.9137964 0.20735337 4290266880
1.5857002 -1.9244235 0.22140576 4290397440
1.5741243 -1.9102749 0.23233193 4290266880
1.527389 -1.8535259 0.23734564 4290005760
1.44119 -1.7489693 0.23493226 4289614080
1.5775158 -1.9140217 0.26892874 4290266880
1.5764668 -1.91263 0.28018713 4290266880
1.5648291 -1.8984113 0.28915629 4290266880
1.5118228 -1.8340846 0.2897037 4290005760
1.472128 -1.7858891 0.2918503 4289744640
1.5819207 -1.9187515 0.32376131 4290397440
1.5752382 -1.910537 0.33211225 4290266880
1.5363163 -1.8632816 0.33301154 4290136320
1.5233933 -1.847515 0.33886427 4290005760
1.4806788 -1.7956774 0.33739355 4289875200
1.4831834 -1.798596 0.34562442 4289875200
1.3981882 -1.6955792 0.33265638 4289352960
1.3913307 -1.6871698 0.3374542 4289352960
1.3876511 -1.6826084 0.3425847 4289352960
1.3902928 -1.685699 0.34887353 4289352960
1.328609 -1.610931 0.33838964 4289091840
1.340133 -1.6247761 0.34597033 4289091840
1.3428888 -1.6280081 0.35093185 4289091840
1.3331177 -1.6160799 0.35218963 4289091840
1.3359509 -1.6194053 0.35634512 4289091840
1.3388238 -1.6227783 0.36010724 4289091840
1.3354604 -1.6186054 0.36176911 4289091840
1.329631 -1.6114495 0.36232221 4289091840
1.3263581 -1.6073873 0.36313269 4289091840
1.3262691 -1.6071771 0.36438367 4289091840
1.3262264 -1.6070226 0.3652184 4289091840
1.3350161 -1.6175514 0.36805871 4289091840
1.3350669 -1.6175095 0.36805889 4289091840
1.3445796 -1.6289103 0.37023151 4289091840
1.338448 -1.6213912 0.36766112 4289091840
1.3355006 -1.6177232 0.36553997 4289091840
1.3451562 -1.6292946 0.36642957 4289091840
1.3422998 -1.6257365 0.36347193 4289091840
1.3949956 -1.6893408 0.37503532 4289352960
1.3859544 -1.6783024 0.36947706 4289352960
1.386379 -1.678708 0.36602953 4289352960
1.3931323 -1.6867633 0.36380497 4289352960
1.3999295 -1.6948705 0.36112633 4289352960
1.4663574 -1.7750462 0.37316042 4289744640
1.4908881 -1.8045779 0.37377259 4289875200
1.49784 -1.8128628 0.36942208 4289875200
1.5619744 -1.890244 0.37844422 4290266880
1.5835934 -1.9162441 0.37634635 4290397440
1.5834452 -1.9159416 0.36854079 4290397440
1.5792627 -1.9107649 0.3593947 4290397440
1.5655171 -1.8933691 0.29463658 4290266880
1.5821489 -1.9133303 0.28678471 4290266880
1.5792773 -1.9097391 0.27497759 4290266880
1.5563529 -1.8819367 0.25955617 4290136320
1.5514703 -1.8759202 0.24706146 4290136320
1.5633854 -1.8901829 0.23691425 4290266880
1.5463916 -1.8695463 0.22215921 4290136320
1.3925744 -1.6837552 0.1888413 4289352960
1.49116 -1.8026394 0.19002952 4289875200
1.548589 -1.871835 0.18447018 4290136320
1.5518045 -1.8755944 0.1717322 4290136320
1.5243899 -1.8423896 0.1556157 4290005760
1.4968511 -1.8090394 0.13978934 4289875200
1.3643492 -1.6490434 0.11538067 4289091840
1.3222426 -1.5981334 0.10005568 4288961280
1.3017229 -1.5732735 0.086819232 4288830720
1.3085644 -1.581425 0.075444274 4288830720
1.3100863 -1.5831581 0.063602276 4288830720
1.3067811 -1.5790685 0.0514706 4288830720
1.2866405 -1.5546737 0.038827732 4288700160
1.2994605 -1.5700346 0.027217204 4288830720
1.304407 -1.5758981 0.015243959 4288830720
1.2579733 -1.519801 0.0030142339 4288569600
1.279323 -1.5454464 -0.0087931575 4288700160
1.2797014 -1.5458025 -0.020659337 4288700160
1.2912399 -1.5596137 -0.032789104 4288700160
1.2927481 -1.5613308 -0.044755455 4288700160
1.2979321 -1.567479 -0.056861438 4288830720
1.3016132 -1.5718145 -0.068923242 4288830720
1.3099389 -1.581748 -0.081264235 4288830720
1.3106327 -1.5824816 -0.093130961 4288830720
1.2986485 -1.5679355 -0.10390338 4288830720
1.3068515 -1.5777196 -0.11613305 4288830720
1.3095373 -1.5808536 -0.12784666 4288830720
1.3059959 -1.576484 -0.13881093 4288830720
1.3081551 -1.5789833 -0.15021504 4288830720
1.3161074 -1.588462 -0.16220289 4288830720
1.3264569 -1.6008276 -0.17446056 4288961280
1.3123958 -1.5837851 -0.1833044 4288830720
1.288913 -1.5553955 -0.19033641 4288700160
1.3107495 -1.581597 -0.20380384 4288830720
1.317628 -1.5897791 -0.21495478 4288961280
1.3248935 -1.5984263 -0.22603813 4288961280
1.312174 -1.5830053 -0.23343755 4288830720
1.2747045 -1.5377825 -0.23583505 4288700160
1.3228964 -1.5957117 -0.2538192 4288961280
1.3265412 -1.5999969 -0.26336133 4288961280
1.3324286 -1.6069818 -0.27311426 4288961280
1.3269888 -1.6003292 -0.28025135 4288961280
1.3169916 -1.5881912 -0.28602034 4288961280
1.3050075 -1.5736631 -0.29090804 4288830720
1.31178 -1.5817134 -0.29960087 4288961280
1.3143595 -1.5847161 -0.30704969 4288961280
1.3184412 -1.5895263 -0.31453219 4288961280
1.3230479 -1.5949676 -0.32182217 4288961280
1.3153476 -1.5855988 -0.32574809 4288961280
1.3230902 -1.5948133 -0.33311 4288961280
1.3168516 -1.5872046 -0.33658862 4288961280
1.3014773 -1.5686057 -0.33727401 4288830720
1.305177 -1.5729556 -0.34245443 4288830720
1.2922921 -1.5573548 -0.34287599 4288830720
1.2891415 -1.5534651 -0.34542874 4288830720
1.2808592 -1.5434036 -0.34618297 4288830720
1.2782089 -1.540117 -0.34802794 4288700160
1.2780232 -1.5397952 -0.35013169 4288700160
1.2586918 -1.5164492 -0.34657329 4288700160
1.2617431 -1.5200213 -0.34873068 4288700160
1.280876 -1.5429296 -0.35492894 4288830720
1.2777183 -1.5390345 -0.35456952 4288700160
1.2777543 -1.5389794 -0.35467893 4288700160
1.283406 -1.5456755 -0.35592729 4288830720
1.2915421 -1.5553571 -0.3574416 4288830720
1.2977034 -1.5626639 -0.35798472 4288830720
1.3135986 -1.5816696 -0.36076292 4288961280
1.3003287 -1.5656201 -0.35513821 4288830720
1.3124225 -1.5800545 -0.35600355 4288961280
1.3097221 -1.5767088 -0.35243905 4288961280
1.3138711 -1.5815942 -0.35029879 4288961280
1.3214798 -1.5906359 -0.34864104 4288961280
1.3168085 -1.5849224 -0.34334445 4288961280
1.315832 -1.5836486 -0.33862981 4288961280
1.3100573 -1.5766106 -0.33231917 4288961280
1.3032665 -1.5683531 -0.32541823 4288830720
1.2892374 -1.5514021 -0.31642982 4288830720
1.2930144 -1.5558404 -0.31147763 4288830720
1.3082932 -1.5740921 -0.30884069 4288830720
1.3205428 -1.5887036 -0.30500427 4288961280
1.3244027 -1.5932384 -0.29880813 4288961280
1.3071824 -1.5724593 -0.2876105 4288830720
1.287464 -1.5486835 -0.27575263 4288700160
1.298564 -1.5619128 -0.27020869 4288830720
1.313189 -1.5793726 -0.26493287 4288830720
1.3191576 -1.5864381 -0.25748989 4288961280
1.2970566 -1.5598073 -0.24441271 4288830720
1.2910522 -1.5525016 -0.23427659 4288700160
1.3154446 -1.5816811 -0.22924155 4288830720
1.3157108 -1.5819008 -0.21958993 4288830720
1.3210984 -1.588267 -0.21050559 4288961280
1.2919195 -1.5531508 -0.19589141 4288700160
1.301743 -1.5648408 -0.1870978 4288830720
1.3074229 -1.5715575 -0.17738488 4288830720
1.30418 -1.5675677 -0.16625592 4288830720
1.2886665 -1.5488569 -0.15354681 4288700160
1.3041545 -1.5673398 -0.14434436 4288830720
1.31229 -1.5770004 -0.13397732 4288830720
1.3072318 -1.5708338 -0.12210236 4288830720
1.2984906 -1.5602505 -0.10987624 4288700160
1.3023654 -1.5647997 -0.098636061 4288830720
1.3076426 -1.5710301 -0.087315619 4288830720
1.2971399 -1.5583363 -0.074906163 4288700160
1.2615755 -1.5155916 -0.061402671 4288569600
1.2909765 -1.5507501 -0.051016189 4288700160
1.3061264 -1.5688171 -0.039614599 4288830720
1.3026088 -1.5645013 -0.027509913 4288830720
1.3073822 -1.5701256 -0.015537837 4288830720
1.315112 -1.579293 -0.0034703147 4288830720
1.3161546 -1.5804435 0.0086935423 4288830720
1.3049847 -1.5669558 0.020665614 4288830720
1.3269218 -1.5931499 0.033250038 4288961280
1.3900932 -1.6687582 0.047627214 4289222400
1.4927058 -1.7916228 0.064832859 4289744640
1.4802769 -1.7766166 0.077753313 4289744640
1.5680492 -1.8816767 0.096562386 4290136320
1.5671592 -1.880492 0.11056082 4290136320
1.4759668 -1.7711176 0.11722136 4289744640
1.3625261 -1.6351031 0.1201712 4289091840
1.5416063 -1.8495265 0.14943726 4290005760
1.5781982 -1.8932421 0.16655794 4290266880
1.5568566 -1.8675605 0.17749846 4290136320
1.4987328 -1.7978275 0.1833737 4289875200
1.5943385 -1.9122149 0.20818992 4290266880
1.6026282 -1.922022 0.22220477 4290397440
1.5852243 -1.9010601 0.23233312 4290266880
1.5509168 -1.8598603 0.23931779 4290136320
1.4602787 -1.7512195 0.23637998 4289614080
1.6007462 -1.9192843 0.27098173 4290397440
1.5875803 -1.9034015 0.28018832 4290266880
1.5734113 -1.8863198 0.28870782 4290266880
1.5224798 -1.8252342 0.28970486 4290005760
1.4945905 -1.7917368 0.29423234 4289875200
1.5937611 -1.9103187 0.32390308 4290397440
1.5841109 -1.8986487 0.33164662 4290266880
1.5623872 -1.8725315 0.33629566 4290136320
1.5373026 -1.8423957 0.33956695 4290136320
1.5006316 -1.7983996 0.33954951 4289875200
1.503149 -1.8012978 0.34782821 4289875200
1.4048697 -1.6836002 0.33190814 4289352960
1.3979646 -1.6752326 0.33669174 4289352960
1.3974274 -1.674484 0.34258574 4289352960
1.4064205 -1.6851352 0.3504532 4289352960
1.3436669 -1.6099676 0.33983219 4289091840
1.3527378 -1.6207147 0.34678283 4289091840
1.3555117 -1.6239293 0.35175404 4289091840
1.3519961 -1.6196219 0.35468042 4289091840
1.3453598 -1.6115832 0.35634613 4289091840
1.3450909 -1.6111592 0.35926366 4289091840
1.3360138 -1.6002036 0.35938883 4289091840
1.3326725 -1.5961069 0.36061248 4288961280
1.3356972 -1.5996213 0.3631337 4289091840
1.3356071 -1.5994117 0.36438468 4289091840
1.3355633 -1.5992575 0.36521941 4289091840
1.3355664 -1.5991592 0.36563709 4289091840
1.3324566 -1.5953403 0.36477205 4288961280
1.3445628 -1.6097069 0.36763981 4289091840
1.3478686 -1.6135546 0.36766213 4289091840
1.3512219 -1.6174587 0.36725959 4289091840
1.3514609 -1.617641 0.36557519 4289091840
1.3422586 -1.6065421 0.36092156 4289091840
1.3425852 -1.6068295 0.3584213 4289091840
1.4051975 -1.6815277 0.37199134 4289352960
1.4024624 -1.6781527 0.36769047 4289352960
1.4092648 -1.6861707 0.36544839 4289352960
1.4218122 -1.7010496 0.36421105 4289483520
1.437575 -1.719767 0.36327931 4289614080
1.4502164 -1.7347541 0.36103451 4289614080
1.5204234 -1.8184847 0.37237534 4290005760
1.5575289 -1.8626767 0.3747322 4290136320
1.5973406 -1.9100944 0.37696442 4290397440
1.5952682 -1.9074972 0.3687017 4290397440
1.5960841 -1.9083484 0.36068884 4290397440
1.5860838 -1.89562 0.2964268 4290266880
1.6028368 -1.9154896 0.28851002 4290397440
1.5999497 -1.9119207 0.27663597 4290397440
1.5672879 -1.872826 0.25955737 4290136320
1.5713174 -1.8775125 0.24847907 4290136320
1.5839593 -1.8924732 0.23836054 4290266880
1.5508672 -1.8528738 0.22124784 4290136320
1.3656735 -1.6318424 0.18389378 4289091840
1.4991719 -1.7909724 0.18971846 4289744640
1.5716375 -1.8772871 0.18591404 4290136320
1.5723166 -1.8779756 0.17279221 4290136320
1.5472776 -1.8479935 0.15685496 4290005760
1.5009487 -1.7926275 0.13919388 4289744640
1.3899072 -1.6601051 0.1167284 4289222400
1.3321683 -1.5911539 0.10010497 4288961280
1.3108644 -1.5656513 0.086820222 4288830720
1.3252749 -1.5827296 0.07587868 4288830720
1.3203111 -1.5767096 0.063653119 4288830720
1.3155197 -1.5708961 0.05145435 4288830720
1.3046706 -1.5578628 0.039102074 4288700160
1.3127086 -1.567342 0.027305759 4288830720
1.2937371 -1.5446304 0.015006148 4288700160
1.2758036 -1.5231588 0.0030408453 4288569600
1.2947313 -1.545615 -0.0088329855 4288700160
1.3041112 -1.5566915 -0.020898106 4288700160
1.3087894 -1.5621644 -0.032997873 4288830720
1.3104594 -1.5640529 -0.045047015 4288830720
1.3070405 -1.5598786 -0.056860439 4288830720
1.3139597 -1.56802 -0.069089457 4288830720
1.3223426 -1.5779039 -0.081459366 4288830720
1.3211212 -1.5763469 -0.09322045 4288830720
1.3141816 -1.5679795 -0.10440889 4288830720
1.3185877 -1.5731254 -0.11635715 4288830720
1.3212909 -1.5762427 -0.128093 4288830720
1.3228645 -1.5780146 -0.13961869 4288830720
1.3173305 -1.571323 -0.15021403 4288830720
1.3285438 -1.5845722 -0.16259219 4288961280
1.3415278 -1.5999278 -0.17520921 4288961280
1.3337721 -1.5905912 -0.18498366 4288961280
1.3162072 -1.5695792 -0.19299994 4288830720
1.3295422 -1.5853506 -0.20527877 4288961280
1.3326249 -1.5889174 -0.21588264 4288961280
1.3341821 -1.5906681 -0.2260371 4288961280
1.3271261 -1.5821681 -0.23444875 4288961280
1.2868353 -1.5341194 -0.23641859 4288700160
1.3385556 -1.5955641 -0.25503024 4288961280
1.3447754 -1.602862 -0.26511547 4288961280
1.3417671 -1.5991794 -0.27311325 4288961280
1.3388395 -1.5955932 -0.28078336 4288961280
1.3319575 -1.5873034 -0.28725204 4288961280
1.3173378 -1.5698103 -0.29160967 4288830720
1.323139 -1.5766096 -0.30008969 4288961280
1.329934 -1.5845902 -0.3085202 4288961280
1.3308597 -1.5855891 -0.31528226 4288961280
1.3323166 -1.58722 -0.32182115 4288961280
1.3340981 -1.5892364 -0.32808444 4288961280
1.3323582 -1.5870653 -0.33310899 4288961280
1.3260753 -1.579493 -0.33658761 4288961280
1.3201191 -1.5723102 -0.33971643 4288961280
1.3174924 -1.5690864 -0.34327784 4288961280
1.3191049 -1.5709029 -0.34753966 4288961280
1.3076878 -1.5572305 -0.34795222 4288830720
1.2987106 -1.5464602 -0.34855807 4288830720
1.287159 -1.5326315 -0.34802696 4288700160
1.2901427 -1.5360795 -0.35099062 4288830720
1.2868273 -1.5320414 -0.35183829 4288700160
1.2930684 -1.53936 -0.35488266 4288830720
1.2961833 -1.5429631 -0.35666713 4288830720
1.2866621 -1.5315518 -0.35456854 4288700160
1.2898682 -1.5352633 -0.35554904 4288830720
1.2923884 -1.5381595 -0.35592631 4288830720
1.3037517 -1.5515606 -0.3583093 4288830720
1.3213634 -1.5723823 -0.3619647 4288961280
1.3132745 -1.5626743 -0.35817492 4288830720
1.3214829 -1.5723243 -0.35839641 4288961280
1.3311247 -1.5836754 -0.35855874 4288961280
1.3277725 -1.5795939 -0.35480538 4288961280
1.3294126 -1.5814412 -0.35197365 4288961280
1.3275472 -1.579126 -0.34781057 4288961280
1.3317381 -1.5840018 -0.34481946 4288961280
1.3250351 -1.5759431 -0.33862877 4288961280
1.3192194 -1.5689389 -0.33231816 4288961280
1.3181068 -1.5675188 -0.32683229 4288961280
1.3100857 -1.5578982 -0.31930298 4288830720
1.3084241 -1.5558274 -0.31299478 4288830720
1.3191288 -1.5684344 -0.30923405 4288830720
1.3297751 -1.5809708 -0.30500326 4288961280
1.3368504 -1.5892675 -0.29951909 4288961280
1.3212017 -1.5705973 -0.28867224 4288830720
1.3054581 -1.5518168 -0.2776576 4288830720
1.3172232 -1.5656786 -0.27218041 4288830720
1.3276348 -1.5779327 -0.26598325 4288961280
1.3341326 -1.5855421 -0.25860032 4288961280
1.3135723 -1.5610516 -0.24580054 4288830720
1.3064766 -1.5525362 -0.23542464 4288830720
1.3246359 -1.5739782 -0.22924052 4288830720
1.3370818 -1.5886409 -0.2215988 4288961280
1.3357171 -1.5869225 -0.2113536 4288961280
1.3009448 -1.5455855 -0.19589041 4288700160
1.3140461 -1.5610244 -0.18755277 4288830720
1.3255472 -1.5745641 -0.17858946 4288830720
1.3239878 -1.5726162 -0.16760236 4288830720
1.3034527 -1.5481706 -0.15422669 4288700160
1.3249696 -1.5735829 -0.14562283 4288830720
1.3267562 -1.5756021 -0.13451068 4288830720
1.3260148 -1.5746242 -0.12299115 4288830720
1.3243064 -1.5725005 -0.11127286 4288830720
1.3082377 -1.5533563 -0.098394677 4288700160
1.3135501 -1.5595551 -0.087102778 4288830720
1.3175467 -1.5641936 -0.075549923 4288830720
1.3105946 -1.5558571 -0.063323244 4288830720
1.3064349 -1.5508305 -0.051264834 4288700160
1.3190553 -1.5656871 -0.039726511 4288830720
1.3149242 -1.5606945 -0.027574947 4288830720
1.3178589 -1.5640734 -0.015552147 4288830720
1.3247781 -1.5721723 -0.0034703477 4288830720
1.3285071 -1.576491 0.0087167621 4288830720
1.319895 -1.5661912 0.020760447 4288830720
1.3459343 -1.5969349 0.033497851 4288961280
1.4088193 -1.6713136 0.047938965 4289222400
1.5089204 -1.7897577 0.065086357 4289744640
1.4938244 -1.7717685 0.077923715 4289744640
1.5789831 -1.8724974 0.096563607 4290136320
1.581309 -1.875134 0.11078878 4290136320
1.5075235 -1.787655 0.11890607 4289744640
1.3859665 -1.6436292 0.12139754 4289222400
1.5678103 -1.858801 0.15093052 4290136320
1.5830781 -1.876758 0.16591616 4290136320
1.5644901 -1.8546376 0.17713456 4290136320
1.5214033 -1.8035227 0.18486309 4289875200
1.6054592 -1.9028938 0.20819244 4290266880
1.6112344 -1.9096091 0.22185278 4290397440
1.6002252 -1.8964608 0.23291074 4290266880
1.5188824 -1.8000867 0.23274596 4289875200
1.4858627 -1.760903 0.23886105 4289744640
1.6083658 -1.905735 0.27038854 4290397440
1.6047292 -1.9013127 0.28125775 4290397440
1.5770178 -1.8684098 0.28736791 4290136320
1.4999561 -1.777132 0.28344092 4289744640
1.5178113 -1.7981406 0.29673976 4289875200
1.6045378 -1.9006077 0.32383913 4290397440
1.5845442 -1.8768411 0.3294431 4290266880
1.5487201 -1.8343552 0.33104709 4290136320
1.505367 -1.782971 0.33021018 4289875200
1.5264174 -1.8077506 0.34299847 4290005760
1.4693099 -1.740111 0.33764395 4289614080
1.4235903 -1.6859442 0.33400729 4289483520
1.4262062 -1.6889305 0.34112126 4289483520
1.4224677 -1.6844041 0.3463158 4289483520
1.3598586 -1.6102854 0.33650517 4289091840
1.3683214 -1.620187 0.34367734 4289091840
1.3678901 -1.6195747 0.34824458 4289091840
1.3706809 -1.6227705 0.35323322 4289222400
1.3614061 -1.6117064 0.35468149 4289091840
1.3642756 -1.6149952 0.3588604 4289091840
1.3544515 -1.603284 0.35926473 4289091840
1.3542233 -1.6029125 0.3617712 4289091840
1.3419458 -1.5883044 0.36061352 4288961280
1.3386264 -1.5842818 0.36141613 4288961280
