# .PCD v0.7 - Point Cloud Data file format
VERSION 0.7
FIELDS x y z rgba
SIZE 4 4 4 4
TYPE F F F U
COUNT 1 1 1 1
WIDTH 1131
HEIGHT 1
VIEWPOINT 0 0 0 1 0 0 0
POINTS 1131
DATA ascii
3.3383217 1.1407363 0.61977881 4293922560
3.3483963 1.1442964 0.61946797 4293922560
3.3430903 1.1426004 0.61558485 4293922560
3.3694756 1.1517366 0.61679351 4294053120
3.3566182 1.1474595 0.6100862 4293922560
3.3657615 1.1507032 0.60666859 4294053120
3.3680334 1.1515981 0.60128766 4294053120
3.3739979 1.153756 0.59585083 4294053120
3.3803856 1.1560589 0.58977109 4294053120
3.3733425 1.1537685 0.5806669 4294053120
3.3652394 1.1511152 0.57074481 4294053120
3.3432636 1.1437155 0.55789095 4293922560
3.3479805 1.1454465 0.54889417 4293922560
3.3697121 1.1529999 0.54197407 4294053120
3.378932 1.1562732 0.53232151 4294053120
3.3757029 1.1552867 0.52007902 4294053120
3.3333235 1.141538 0.42534831 4293792000
3.3479736 1.1466727 0.41158545 4293792000
3.3698263 1.1542755 0.39807394 4293922560
3.3761964 1.156576 0.38215268 4293922560
3.335923 1.1428968 0.36069891 4293792000
3.3366373 1.1432586 0.3434768 4293792000
3.3536775 1.1492149 0.32746094 4293792000
3.3372643 1.1437078 0.30781534 4293792000
3.3245161 1.1394554 0.28832757 4293792000
3.3281844 1.1408297 0.26999626 4293792000
3.3485532 1.1479292 0.25258705 4293792000
3.3395278 1.1449524 0.23262025 4293792000
3.3109202 1.1352606 0.21125475 4293661440
3.3356707 1.1438643 0.19308421 4293792000
3.3426356 1.1463701 0.17348567 4293792000
3.3489108 1.1486397 0.15358306 4293792000
3.3038139 1.133288 0.13139442 4293661440
3.3328552 1.1433668 0.11210817 4293792000
3.3333809 1.1436642 0.091559768 4293792000
3.3292637 1.1423686 0.070806801 4293661440
3.3108726 1.1361743 0.049813367 4293661440
3.3283224 1.1422794 0.02931058 4293661440
3.3242512 1.1409987 0.0085027926 4293661440
3.289727 1.1292645 -0.012151232 4293530880
3.3080494 1.1356702 -0.032886446 4293661440
3.3146651 1.1380577 -0.053626005 4293661440
3.313916 1.1379169 -0.074225619 4293661440
3.2926559 1.1307324 -0.094149791 4293530880
3.3199649 1.1402272 -0.11539812 4293661440
3.3381431 1.1465876 -0.1364845 4293792000
3.3443632 1.1488415 -0.15708391 4293792000
3.2971005 1.1327219 -0.17475417 4293661440
3.3259027 1.1427338 -0.19615377 4293661440
3.3217583 1.1414264 -0.21554504 4293661440
3.3178794 1.1402102 -0.23467207 4293661440
3.3009832 1.1345196 -0.25250265 4293661440
3.3281238 1.1439645 -0.27348283 4293792000
3.3445902 1.1497419 -0.29353276 4293792000
3.341923 1.1489425 -0.31165883 4293792000
3.3221517 1.1422619 -0.32772577 4293792000
3.3117988 1.1388185 -0.34419915 4293661440
3.3382263 1.1480234 -0.36419645 4293792000
3.3275528 1.1444696 -0.37982497 4293792000
3.3313448 1.145891 -0.39664721 4293792000
3.311964 1.1393408 -0.41019395 4293792000
3.3351946 1.1474495 -0.42857477 4293792000
3.3473599 1.1517524 -0.44521588 4293922560
3.3494847 1.1526012 -0.46008497 4293922560
3.3520567 1.1536041 -0.47451666 4293922560
3.3427157 1.1505069 -0.48669833 4293922560
3.2905529 1.1326689 -0.4918533 4293661440
3.3107791 1.1397474 -0.50714207 4293792000
3.3121555 1.1403376 -0.51904488 4293792000
3.3216121 1.1437103 -0.53165716 4293792000
3.3166356 1.1421132 -0.54136574 4293792000
3.313611 1.1411881 -0.5507462 4293792000
3.314136 1.1414855 -0.56007475 4293792000
3.3126783 1.1410997 -0.56841952 4293792000
3.3229353 1.1447498 -0.5781377 4293792000
3.2942498 1.1349833 -0.58037215 4293792000
3.2970295 1.1360569 -0.58741891 4293792000
3.2835062 1.1315125 -0.59085929 4293661440
3.2661529 1.1256473 -0.59287101 4293661440
3.2784584 1.1300035 -0.59956437 4293661440
3.2705178 1.1273816 -0.60186279 4293661440
3.2699957 1.1273166 -0.6048134 4293661440
3.277966 1.1301794 -0.60863239 4293661440
3.2599781 1.1240922 -0.60691613 4293661440
3.2644515 1.1257495 -0.60866308 4293661440
3.2763438 1.1299657 -0.61108243 4293661440
3.2763925 1.1300976 -0.61057764 4293661440
3.2753618 1.1298572 -0.60915697 4293661440
3.3012383 1.1388996 -0.61201239 4293792000
3.3030334 1.139635 -0.60967034 4293792000
3.3090582 1.1418301 -0.60738838 4293792000
3.3019326 1.1394874 -0.60198551 4293792000
3.3205051 1.1460134 -0.6005469 4293922560
3.3138382 1.143829 -0.59382743 4293792000
3.3125982 1.1435175 -0.5874024 4293792000
3.3133378 1.1438893 -0.58064634 4293792000
3.3051195 1.1411682 -0.5716638 4293792000
3.3028598 1.1405041 -0.56307393 4293792000
3.2894914 1.1360035 -0.55198067 4293661440
3.2872078 1.1353306 -0.54215294 4293661440
3.2988551 1.1394691 -0.53396958 4293792000
3.3241479 1.1483227 -0.52726382 4293792000
3.3365669 1.1527301 -0.5177871 4293922560
3.3148994 1.1453608 -0.50246447 4293792000
3.2947397 1.1385112 -0.48695198 4293661440
3.2879395 1.136277 -0.47296336 4293661440
3.3066914 1.1428738 -0.46206385 4293792000
3.3222826 1.1483792 -0.45005646 4293792000
3.3243947 1.1492262 -0.43563965 4293792000
3.2766883 1.1328496 -0.41441324 4293661440
3.3027136 1.1419635 -0.40214255 4293661440
3.3242998 1.1495442 -0.38865429 4293792000
3.3306355 1.1518523 -0.3728134 4293792000
3.3274457 1.1508662 -0.35547629 4293792000
3.2800941 1.134604 -0.33329043 4293661440
3.3055513 1.1435261 -0.31824532 4293661440
3.3117149 1.1457747 -0.30082208 4293661440
3.311666 1.1458744 -0.28247002 4293661440
3.2893944 1.1382838 -0.26203784 4293661440
3.3134813 1.1467355 -0.24499901 4293661440
3.3138604 1.1469834 -0.22579914 4293661440
3.3252838 1.1510541 -0.20703588 4293792000
3.3144541 1.1474221 -0.18665864 4293661440
3.3121488 1.1467406 -0.16663648 4293661440
3.3163812 1.1483226 -0.14675026 4293661440
3.3323832 1.1539806 -0.12710205 4293792000
3.307384 1.14544 -0.10580806 4293661440
3.333653 1.154655 -0.086030722 4293792000
3.3351407 1.1552876 -0.065348804 4293792000
3.3153138 1.1485362 -0.044292659 4293661440
3.3374865 1.156335 -0.023734465 4293792000
3.3408399 1.1576144 -0.0028568727 4293792000
3.3466032 1.1597291 0.018079236 4293792000
3.274575 1.1348838 0.038161825 4293530880
3.3565867 1.1634251 0.060060289 4293792000
3.3662355 1.1668879 0.081171319 4293922560
3.3451335 1.1596907 0.10138299 4293792000
3.1923549 1.1068379 0.11642271 4293269760
3.3721426 1.1692915 0.14362472 4293922560
3.3686008 1.168182 0.16394262 4293922560
3.3204663 1.1516066 0.18160151 4293661440
3.0281115 1.0503184 0.18367314 4292616960
3.376559 1.1712984 0.22472554 4293922560
3.3677201 1.1683508 0.24375829 4293922560
3.3204422 1.1520656 0.25941986 4293792000
3.0234892 1.0491408 0.25333828 4292616960
3.4014039 1.1803957 0.30395016 4294053120
3.398876 1.179638 0.32232314 4294053120
3.3664513 1.168503 0.33731833 4293922560
3.1912596 1.107806 0.33654097 4293269760
3.0661607 1.0644873 0.33910975 4292878080
3.3870015 1.1759937 0.39158896 4294053120
3.3741925 1.1716652 0.40660474 4293922560
3.3296816 1.1563263 0.41707233 4293792000
3.1923938 1.1087615 0.4146069 4293269760
3.1210175 1.0840814 0.41928393 4293139200
3.3877335 1.1768442 0.46974164 4294053120
3.387779 1.1769793 0.48384458 4294053120
3.3635726 1.1686879 0.49383953 4293922560
3.3225515 1.154552 0.50055122 4293792000
3.2803488 1.1400025 0.50620347 4293661440
3.2257864 1.1211543 0.50902617 4293530880
3.3853133 1.1767186 0.54538661 4294053120
3.3768346 1.1738905 0.55455595 4294053120
3.3814185 1.1756029 0.56521982 4294053120
3.3652117 1.1700869 0.57172614 4294053120
3.3643627 1.1699102 0.58013487 4294053120
3.3512876 1.1654816 0.58573127 4293922560
3.3465748 1.1639605 0.59206927 4293922560
3.3311329 1.1587069 0.59578151 4293922560
3.3348565 1.1601197 0.60220498 4293922560
3.3424041 1.1628629 0.60863513 4293922560
3.2929354 1.1457682 0.60391986 4293792000
3.3053551 1.150206 0.60979861 4293792000
3.2955549 1.1469117 0.61087006 4293792000
3.299823 1.1485133 0.6138289 4293792000
3.2911835 1.1456223 0.61366707 4293792000
3.299402 1.1485993 0.61592793 4293792000
3.3443606 1.1643682 0.62432784 4293922560
3.3397915 1.1628951 0.62275171 4293922560
3.3316188 1.1601667 0.61977881 4293922560
3.3416727 1.1637855 0.61946797 4293922560
3.3383808 1.1627567 0.61595464 4293922560
3.3462229 1.1656059 0.61376971 4293922560
3.3582518 1.1699144 0.61161166 4294053120
3.3636544 1.1719149 0.6075092 4294053120
3.3743024 1.1757437 0.60361958 4294053120
3.3761339 1.1765007 0.59742838 4294053120
3.374114 1.1759157 0.58986223 4294053120
3.3712232 1.175027 0.58147067 4294053120
3.3675947 1.1738811 0.57229453 4294053120
3.3589284 1.1709784 0.56163383 4293922560
3.3393719 1.1642784 0.54858565 4293922560
3.3748295 1.1767596 0.5438906 4294053120
3.372999 1.1762402 0.53245741 4294053120
3.3913388 1.1827552 0.52354079 4294053120
3.3313026 1.1625749 0.42594755 4293792000
3.3459251 1.1677958 0.41216305 4293922560
3.3677354 1.1755267 0.39862925 4293922560
3.3609519 1.1732774 0.38119441 4293922560
3.3339038 1.1639526 0.36120769 4293792000
3.3213894 1.1597006 0.34259689 4293792000
3.3533146 1.1709659 0.32808611 4293922560
3.3548064 1.171605 0.31005773 4293922560
3.3178208 1.1588055 0.28832757 4293792000
3.3357174 1.1651736 0.27115348 4293792000
3.3525014 1.1711546 0.25339526 4293792000
3.3472142 1.1694256 0.23362629 4293792000
3.3268654 1.1624335 0.21270066 4293792000
3.3421462 1.1678905 0.19384964 4293792000
3.3568349 1.1731417 0.1745744 4293792000
3.3580809 1.1736956 0.15431461 4293792000
3.3213997 1.1609921 0.13236058 4293661440
3.333401 1.1653047 0.112353 4293792000
3.3433626 1.168905 0.092019446 4293792000
3.3267422 1.1632115 0.070896111 4293792000
3.3078551 1.1567241 0.04986852 4293661440
3.3176913 1.1602807 0.029275995 4293661440
3.31952 1.1610373 0.0085078496 4293661440
3.2911139 1.1512179 -0.012180923 4293661440
3.2966573 1.1532732 -0.032839436 4293661440
3.3079782 1.1573503 -0.053626005 4293661440
3.3298781 1.1651298 -0.07473392 4293792000
3.2897863 1.1512176 -0.094257921 4293661440
3.3179822 1.1612014 -0.1155624 4293661440
3.3351786 1.1673373 -0.13663907 4293792000
3.3328984 1.1666567 -0.15686202 4293792000
3.2905619 1.1519532 -0.17476039 4293661440
3.3144767 1.1604421 -0.19587533 4293661440
3.3150518 1.1607603 -0.21554504 4293661440
3.3158886 1.1611704 -0.23500577 4293661440
3.2990239 1.1553808 -0.25286341 4293661440
3.3214023 1.1633354 -0.27348283 4293792000
3.3353474 1.1683373 -0.29331401 4293792000
3.3409297 1.1704106 -0.31219682 4293792000
3.3285956 1.1662071 -0.32902616 4293792000
3.3182566 1.1627017 -0.34556851 4293792000
3.331481 1.1674531 -0.36419645 4293792000
3.3302109 1.1671255 -0.38089815 4293792000
3.3293011 1.166924 -0.39720663 4293792000
3.3146427 1.1619031 -0.41135716 4293792000
3.3284528 1.1668615 -0.42857477 4293792000
3.3452742 1.1728766 -0.44583982 4293922560
3.3511348 1.1750497 -0.4612442 4293922560
3.3499553 1.1747543 -0.47518 4293922560
3.3441257 1.1728278 -0.48789024 4293922560
3.2969787 1.1564091 -0.49381253 4293792000
3.3052976 1.1594436 -0.50732857 4293792000
3.3164668 1.1634786 -0.52077401 4293792000
3.3148923 1.1630433 -0.53165716 4293792000
3.3242962 1.1664599 -0.54371631 4293922560
3.3162274 1.1637456 -0.55229861 4293792000
3.3209412 1.165517 -0.56236285 4293922560
3.3106308 1.1620153 -0.56922019 4293792000
3.3050251 1.1601644 -0.57618785 4293792000
3.3061957 1.1606919 -0.58365822 4293792000
3.2950208 1.1568851 -0.58825195 4293792000
3.2898803 1.1551963 -0.59320736 4293792000
3.2679086 1.1475966 -0.59439331 4293661440
3.2552276 1.1432583 -0.596524 4293661440
3.2722597 1.1493555 -0.60340542 4293661440
3.2763836 1.1509197 -0.60722482 4293792000
3.2713256 1.1492584 -0.60863239 4293661440
3.2673113 1.1479634 -0.6095162 4293661440
3.2708449 1.1493204 -0.61109334 4293661440
3.2624154 1.1464735 -0.60972005 4293661440
3.2697527 1.1491674 -0.61057764 4293661440
3.2826607 1.1538199 -0.61175436 4293792000
3.290844 1.1568123 -0.61132455 4293792000
3.2967043 1.1589887 -0.60973817 4293792000
3.2995493 1.1601053 -0.60687333 4293792000
3.3091829 1.1636093 -0.60453308 4293792000
3.3049393 1.1622338 -0.59894621 4293792000
3.3043244 1.1621343 -0.59332585 4293792000
3.3105316 1.1644342 -0.588229 4293792000
3.306617 1.163174 -0.58064634 4293792000
3.3077245 1.1636804 -0.57327729 4293792000
3.3008153 1.1613662 -0.56386936 4293792000
3.2874751 1.1567887 -0.55276394 4293792000
3.2945178 1.1593832 -0.54446346 4293792000
3.3061466 1.1635922 -0.53623813 4293792000
3.3257968 1.1706254 -0.52859825 4293922560
3.3344605 1.1737927 -0.51851273 4293922560
3.3081701 1.1646547 -0.50246447 4293792000
3.2927215 1.1593323 -0.48764372 4293792000
3.285002 1.1567303 -0.47350225 4293661440
3.3037171 1.163437 -0.46258759 4293792000
3.3202133 1.1693636 -0.45069143 4293792000
3.3176427 1.1685753 -0.43563965 4293792000
3.2878263 1.1581893 -0.41666827 4293661440
3.2960043 1.1611865 -0.40214255 4293661440
3.3150668 1.1680193 -0.38836387 4293792000
3.3260775 1.1720161 -0.37306118 4293792000
3.3215492 1.1705378 -0.35556889 4293792000
3.2865715 1.1583276 -0.33462864 4293661440
3.2988329 1.1627655 -0.31824532 4293661440
3.3143797 1.1683625 -0.30167738 4293792000
3.309634 1.1668065 -0.28287175 4293661440
3.2958729 1.1620713 -0.26308879 4293661440
3.3161519 1.1693386 -0.24569604 4293792000
3.3071215 1.1662711 -0.22579914 4293661440
3.3232281 1.1720686 -0.20732956 4293792000
3.3030043 1.1650524 -0.18639293 4293661440
3.3046608 1.1657536 -0.16659865 4293661440
3.3228257 1.1722788 -0.14733516 4293792000
3.3161793 1.1700511 -0.12674187 4293661440
3.3087504 1.1675469 -0.1060676 4293661440
3.3298888 1.1751236 -0.086108804 4293792000
3.3325946 1.1761961 -0.065432079 4293792000
3.3213015 1.1723278 -0.044463154 4293661440
3.3212633 1.1724316 -0.02366727 4293661440
3.3421381 1.1799186 -0.002863813 4293792000
3.3434789 1.1805102 0.018099207 4293792000
3.2966373 1.1640878 0.038497325 4293661440
3.3565426 1.1853598 0.06018205 4293792000
3.3773642 1.1928324 0.081605867 4293922560
3.3557632 1.1853217 0.10191272 4293792000
3.1811404 1.1237539 0.11625052 4293269760
3.3699832 1.1905828 0.14382577 4293922560
3.361531 1.1877154 0.16393255 4293922560
3.3231165 1.17426 0.18211754 4293792000
3.0304124 1.0709369 0.18418807 4292747520
3.380312 1.1947095 0.22543477 4293922560
3.3754919 1.1931252 0.24481982 4293922560
3.314759 1.1717753 0.25950482 4293792000
3.0304835 1.0713904 0.25444305 4292747520
3.396157 1.2007898 0.30410132 4294053120
3.3872504 1.1977603 0.321877 4294053120
3.3736651 1.1930757 0.33873188 4293922560
3.1894419 1.1280391 0.33703664 4293269760
3.0636573 1.08366 0.3395254 4292878080
3.393286 1.2003744 0.39311746 4294053120
3.3747206 1.1939261 0.4074997 4294053120
3.3311696 1.1786362 0.41811177 4293792000
3.2698097 1.1570414 0.42552948 4293661440
3.1286764 1.1072112 0.42117235 4293139200
3.3892317 1.1995392 0.47091049 4294053120
3.3948777 1.2016574 0.48585007 4294053120
3.3613753 1.1899177 0.49452639 4293922560
3.3241677 1.1768639 0.50181919 4293792000
3.2867103 1.1637189 0.50822282 4293661440
3.222929 1.1412499 0.5096159 4293530880
3.3737404 1.194772 0.5446344 4294053120
3.3802657 1.1972024 0.55625546 4294053120
3.3773992 1.1963066 0.56570345 4294053120
3.3629909 1.191322 0.57251835 4294053120
3.3503103 1.1869484 0.57889444 4293922560
3.3574605 1.1896002 0.5880115 4294053120
3.3490334 1.1867328 0.5937174 4294053120
3.337337 1.1827062 0.59811342 4293922560
3.3587024 1.1903965 0.6077531 4294053120
3.2869177 1.1650708 0.59975725 4293792000
3.2945623 1.167897 0.60545594 4293792000
3.3032403 1.1710901 0.61065686 4293792000
3.2981007 1.1693846 0.61259449 4293792000
3.3023584 1.171011 0.61555922 4293792000
3.3104429 1.1739948 0.618523 4293922560
3.2972949 1.1694487 0.61679608 4293792000
3.2842638 1.1649432 0.61436558 4293792000
3.3422413 1.1856263 0.62448597 4293922560
3.3377981 1.1841681 0.62220126 4293922560
3.3288291 1.1811038 0.61835223 4293922560
3.3445477 1.1867994 0.61835784 4294053120
3.3486609 1.1883773 0.61547643 4294053120
3.3657682 1.1945674 0.61423767 4294053120
3.3744202 1.1977575 0.61070365 4294053120
3.3677616 1.1955132 0.60368532 4294053120
3.3729398 1.1974708 0.59808767 4294053120
3.3811524 1.200506 0.59230542 4294053120
3.3726909 1.197621 0.58291745 4294053120
3.3653505 1.1951336 0.57308674 4294053120
3.3650801 1.1951566 0.5638172 4294053120
3.3567545 1.1923183 0.55257308 4294053120
3.3737485 1.1984739 0.54483247 4294053120
3.3792095 1.2005335 0.5345329 4294053120
3.3732045 1.1985193 0.52181041 4294053120
3.32915 1.183627 0.42654681 4293792000
3.3492863 1.1909046 0.41342482 4293922560
3.3718758 1.199056 0.39993945 4293922560
3.3700771 1.1985358 0.38301489 4293922560
3.3310792 1.1847844 0.36164346 4293792000
3.3469296 1.1905404 0.34594095 4293922560
3.3595698 1.1951556 0.32937378 4293922560
3.3573093 1.1944703 0.31092697 4293922560
3.3241589 1.1827936 0.28947231 4293792000
3.333569 1.1862599 0.27153605 4293792000
3.3456211 1.190667 0.25339526 4293792000
3.3497448 1.1922532 0.23428379 4293922560
3.3153346 1.1801231 0.21239944 4293792000
3.3485365 1.1920601 0.1946198 4293792000
3.357136 1.1952404 0.17494924 4293922560
3.3511858 1.1932405 0.15431461 4293792000
3.3098722 1.1786474 0.13217261 4293661440
3.3359706 1.1880592 0.11267101 4293792000
3.3395121 1.1894386 0.092102639 4293792000
3.3436611 1.1910347 0.071403332 4293792000
3.3104789 1.1793323 0.050010812 4293661440
3.3130939 1.1803811 0.029295614 4293661440
3.3305972 1.186735 0.008553816 4293792000
3.2890606 1.1720514 -0.01219839 4293661440
3.3030691 1.1771604 -0.032971065 4293661440
3.3096559 1.1796249 -0.053763703 4293661440
3.3230333 1.1845106 -0.07473392 4293792000
3.2877312 1.1720434 -0.094393089 4293661440
3.3064532 1.1788347 -0.11539812 4293661440
3.337733 1.190105 -0.13702546 4293792000
3.3354545 1.1894106 -0.15730581 4293792000
3.2884982 1.1727825 -0.1750107 4293661440
3.2991958 1.1767144 -0.19537412 4293661440
3.3129332 1.1817315 -0.21585131 4293661440
3.3222239 1.1851631 -0.23594014 4293792000
3.2838984 1.1716073 -0.25222299 4293661440
3.3346212 1.189822 -0.27513739 4293792000
3.3378699 1.1910993 -0.29414114 4293792000
3.3424976 1.1928691 -0.31298748 4293792000
3.3264332 1.1872538 -0.3294906 4293792000
3.3161125 1.1836877 -0.34605756 4293792000
3.3246226 1.1868432 -0.36419645 4293792000
3.3317816 1.1895168 -0.38186398 4293792000
3.3224459 1.1863015 -0.39720663 4293792000
3.3124938 1.1828653 -0.41193876 4293792000
3.3300118 1.1892388 -0.42966038 4293792000
3.3430557 1.1940156 -0.44646373 4293922560
3.3442318 1.1945541 -0.4612442 4293922560
3.3430541 1.1942519 -0.47518 4293922560
3.3372357 1.1922916 -0.48789024 4293922560
3.2995095 1.17893 -0.49521196 4293792000
3.2984865 1.1786814 -0.50732857 4293792000
3.3049743 1.1811168 -0.52004117 4293792000
3.3117843 1.1836678 -0.53225571 4293792000
3.3127906 1.184145 -0.54295367 4293792000
3.3177631 1.1860398 -0.5536958 4293922560
3.3140943 1.1848457 -0.56236285 4293922560
3.3038044 1.181284 -0.56922019 4293792000
3.3075008 1.1827229 -0.577811 4293792000
3.3077364 1.1829243 -0.58513701 4293792000
3.2928672 1.1777234 -0.58908248 4293792000
3.279381 1.1730161 -0.59253651 4293792000
3.279727 1.173256 -0.59777611 4293792000
3.2707784 1.1701709 -0.60061288 4293792000
3.2701459 1.1700604 -0.60426247 4293792000
3.2696226 1.169989 -0.60722482 4293792000
3.2548647 1.1648235 -0.60682219 4293661440
3.2452953 1.1615139 -0.60666126 4293661440
3.2780015 1.1733358 -0.61369717 4293792000
3.2640252 1.1684488 -0.61128289 4293661440
3.272274 1.1715177 -0.61231267 4293792000
3.2842281 1.1759138 -0.61331278 4293792000
3.2886848 1.1776261 -0.61218762 4293792000
3.2982428 1.1811656 -0.61128515 4293792000
3.2973721 1.1809707 -0.60772812 4293792000
3.3106971 1.1858604 -0.60606158 4293922560
3.3073914 1.1847936 -0.60063142 4293922560
3.310492 1.1860217 -0.59566396 4293922560
3.3003585 1.1825082 -0.58763564 4293792000
3.303499 1.1837505 -0.58130002 4293792000
3.3046048 1.1842638 -0.57392269 4293792000
3.29864 1.1822432 -0.56466484 4293792000
3.2817247 1.1762972 -0.55294001 4293792000
3.2877071 1.178558 -0.54446346 4293792000
3.2992303 1.1828058 -0.53622496 4293792000
3.3189201 1.1899824 -0.52859825 4293922560
3.3275652 1.1932 -0.51851273 4293922560
3.3143735 1.1885872 -0.50444996 4293792000
3.2905724 1.1801684 -0.48833546 4293792000
3.287534 1.1791953 -0.47484943 4293792000
3.3062143 1.1860129 -0.46389693 4293792000
3.313344 1.188688 -0.45069143 4293792000
3.3238554 1.1925769 -0.43736044 4293792000
3.2772844 1.1759838 -0.41619352 4293661440
3.3069491 1.1867455 -0.40431467 4293792000
3.3222382 1.1923501 -0.39001125 4293792000
3.3238726 1.1930546 -0.37358719 4293792000
3.3287196 1.1949123 -0.35707566 4293792000
3.2844512 1.1791378 -0.33510658 4293661440
3.2936866 1.1825701 -0.31840816 4293661440
3.2998242 1.1848909 -0.30097577 4293661440
3.3079407 1.1879226 -0.28331375 4293792000
3.285409 1.1799477 -0.26279783 4293661440
3.3161883 1.1911197 -0.24620874 4293792000
3.3143582 1.1905799 -0.226763 4293792000
3.325738 1.1947857 -0.2079169 4293792000
3.3008592 1.1859649 -0.18665864 4293661440
3.2978129 1.1849874 -0.16659865 4293661440
3.3206406 1.1933078 -0.14754404 4293792000
3.3224723 1.1940839 -0.12724613 4293792000
3.301892 1.1868045 -0.1060676 4293661440
3.3229859 1.1945043 -0.086108804 4293792000
3.3256853 1.1955925 -0.065432079 4293792000
3.3191197 1.19335 -0.044526268 4293792000
3.3275499 1.196499 -0.023761343 4293792000
3.3436759 1.2024161 -0.002871085 4293792000
3.3497181 1.2047077 0.01817067 4293792000
3.3086176 1.1900436 0.038717542 4293661440
3.3683963 1.2116643 0.060520131 4293922560
3.3777664 1.2151546 0.081785262 4293922560
3.3488004 1.2048529 0.10191272 4293792000
3.1745391 1.1422688 0.11625052 4293269760
3.3660009 1.2112805 0.14395456 4293922560
3.3773186 1.2154729 0.16504501 4293922560
3.3209171 1.1952924 0.18237555 4293792000
3.0241215 1.0885745 0.18418807 4292747520
3.372072 1.2139437 0.22535309 4293922560
3.3679581 1.2125822 0.24478164 4293922560
3.3172588 1.1944466 0.26024091 4293792000
3.0560794 1.100512 0.25712609 4292878080
3.3869584 1.2197837 0.30390885 4294053120
3.3931282 1.222126 0.32310668 4294053120
3.3493223 1.2064672 0.33698785 4293922560
3.200603 1.1530101 0.33892018 4293400320
3.0666487 1.1048623 0.34056455 4292878080
3.3862348 1.220124 0.39311746 4294053120
3.3770547 1.2169361 0.40863076 4294053120
3.3373256 1.202738 0.41975686 4293922560
3.2592781 1.1747261 0.42504239 4293661440
3.1221726 1.1254207 0.42117235 4293139200
3.387054 1.2210202 0.47158834 4294053120
3.3858728 1.2207147 0.48557097 4294053120
3.3627717 1.2125053 0.49576274 4294053120
3.3502889 1.2081234 0.50681645 4293922560
3.2752202 1.1811697 0.50750166 4293661440
3.2301812 1.1650417 0.51182723 4293530880
3.3797417 1.2191042 0.54674059 4294053120
3.3852363 1.2212063 0.55823481 4294183680
3.3703718 1.2159637 0.56570345 4294053120
3.3689957 1.2155868 0.5747366 4294053120
3.3516936 1.209463 0.58034116 4294053120
3.3597531 1.2124906 0.58964026 4294053120
3.3467011 1.2078991 0.59454149 4294053120
3.3396642 1.205478 0.59977907 4293922560
3.3517098 1.2099448 0.6077531 4294053120
3.2976863 1.1905599 0.60297763 4293792000
3.3053105 1.1934298 0.60869867 4293922560
3.3009942 1.1919886 0.61151516 4293792000
3.3088343 1.1949371 0.61587089 4293922560
3.3084486 1.1949153 0.61798161 4293922560
3.2998416 1.191924 0.61782932 4293792000
3.3080237 1.1949968 0.6200949 4293922560
3.2996502 1.1920892 0.61853254 4293792000
3.2858355 1.187215 0.61522871 4293792000
3.3530734 1.211628 0.62635404 4294053120
3.3181856 1.1991391 0.61766249 4293922560
3.3375766 1.2062652 0.61835784 4294053120
3.3416803 1.2078671 0.61547643 4294053120
3.3541172 1.2124816 0.61339021 4294053120
3.3720198 1.2190731 0.61154425 4294053120
3.3779917 1.2213521 0.60678434 4294183680
3.3844569 1.2238098 0.60138398 4294183680
3.3782206 1.2216748 0.59302866 4294183680
3.3795786 1.222286 0.5853287 4294183680
3.3631763 1.2164733 0.57391369 4294053120
3.3555155 1.2138215 0.56339002 4294053120
3.3543971 1.2135361 0.55333948 4294053120
3.3667088 1.2181097 0.54483247 4294053120
3.3851783 1.2249125 0.53659689 4294053120
3.3801217 1.2232029 0.523974 4294053120
3.3357 1.2081687 0.4282918 4293922560
3.3464062 1.2121655 0.41394567 4293922560
3.3790405 1.2241067 0.40164062 4294053120
3.3680058 1.2202288 0.38359371 4294053120
3.3429427 1.2112672 0.36370462 4293922560
3.3440568 1.2117898 0.34638166 4293922560
3.3648205 1.2194335 0.330594 4293922560
3.358633 1.2173105 0.3117162 4293922560
3.3218076 1.2040815 0.28988913 4293792000
3.3265121 1.2059051 0.27154517 4293792000
3.3432267 1.2120831 0.2537615 4293922560
3.3557854 1.2167555 0.23521587 4293922560
3.317698 1.2030636 0.21301457 4293792000
3.3376086 1.2104023 0.19441034 4293792000
3.3522372 1.2158265 0.17508003 4293922560
3.3572359 1.2177589 0.15493789 4293922560
3.3160121 1.2029238 0.13271648 4293792000
3.3289032 1.2077186 0.11268988 4293792000
3.3294265 1.2080268 0.092039548 4293792000
3.3316708 1.2089595 0.071319692 4293792000
3.298764 1.1971359 0.049961969 4293661440
3.3201721 1.2050231 0.029444175 4293792000
3.3196964 1.2049685 0.0085686976 4293792000
3.2736292 1.1883636 -0.012141415 4293530880
3.3088403 1.2012633 -0.033071943 4293661440
3.3120379 1.2025419 -0.053888723 4293661440
3.3112895 1.2023879 -0.074599043 4293661440
3.2854583 1.193125 -0.094498537 4293661440
3.3152215 1.2040515 -0.11591908 4293792000
3.3323429 1.2103883 -0.13706294 4293792000
3.3288517 1.2092386 -0.1572953 4293792000
3.2862175 1.193868 -0.17522791 4293661440
3.305336 1.2009314 -0.19611979 4293661440
3.3202603 1.2064719 -0.21675374 4293792000
3.314971 1.2046678 -0.23589018 4293792000
3.2899392 1.1956882 -0.25318861 4293661440
3.3228614 1.2077715 -0.27471364 4293792000
3.3307879 1.2107711 -0.29410434 4293792000
3.3447671 1.2159716 -0.31382874 4293922560
3.3240533 1.2085595 -0.32991782 4293792000
3.3043988 1.2015311 -0.3455314 4293792000
3.326915 1.2098366 -0.36518529 4293792000
3.3200383 1.207454 -0.38129014 4293792000
3.319129 1.2072413 -0.39761704 4293792000
3.3007951 1.2006903 -0.41132048 4293792000
3.3276067 1.2105616 -0.43022686 4293922560
3.3381541 1.2145175 -0.44672135 4293922560
3.3371308 1.2142639 -0.4612084 4293922560
3.3443377 1.2170051 -0.4763388 4293922560
3.3254938 1.2102661 -0.48717397 4293922560
3.3008754 1.2014241 -0.49643821 4293792000
3.3007796 1.2015067 -0.50872964 4293792000
3.3156142 1.2070246 -0.52279454 4293922560
3.3152478 1.2070091 -0.53391641 4293922560
3.3103948 1.2053601 -0.54368716 4293922560
3.3107123 1.2055935 -0.55366802 4293922560
3.3070507 1.2043777 -0.56233644 4293922560
3.3085973 1.2050588 -0.57123542 4293922560
3.3134496 1.206944 -0.58006012 4293922560
3.3099718 1.2057949 -0.58675849 4293922560
3.2988367 1.2018558 -0.59138829 4293792000
3.2900057 1.1987556 -0.59570545 4293792000
3.281085 1.195622 -0.59928268 4293792000
3.2638204 1.1894469 -0.60059935 4293792000
3.2770727 1.1943932 -0.60682207 4293792000
3.2566769 1.1870754 -0.60610121 4293661440
3.2562659 1.1870414 -0.60837138 4293661440
3.2513413 1.185362 -0.60908359 4293661440
3.2474568 1.1840614 -0.60927385 4293661440
3.2709534 1.1927449 -0.61388808 4293792000
3.2782586 1.1955254 -0.6147449 4293792000
3.2864854 1.1986426 -0.61505038 4293792000
3.2946339 1.2017318 -0.61461312 4293792000
3.3050971 1.2056659 -0.61387515 4293922560
3.3042295 1.205467 -0.61030716 4293922560
3.3071024 1.2066329 -0.60671425 4293922560
3.3096006 1.2076622 -0.6023373 4293922560
3.3034339 1.2055296 -0.59568775 4293922560
3.3025856 1.2053375 -0.58931559 4293922560
3.3103547 1.2082909 -0.58378154 4293922560
3.2938473 1.2023829 -0.57331049 4293792000
3.2882738 1.2004654 -0.56413019 4293792000
3.279361 1.1973284 -0.55376279 4293792000
3.2844033 1.1992863 -0.54512244 4293792000
3.2968311 1.2039416 -0.53702748 4293792000
3.3164797 1.211235 -0.52938956 4293922560
3.3334718 1.2175596 -0.52059811 4293922560
3.3035769 1.206758 -0.50393915 4293792000
3.2881961 1.2012566 -0.48908675 4293792000
3.2851655 1.2002665 -0.47558585 4293792000
3.3084636 1.2088964 -0.46527284 4293792000
3.3062654 1.2082111 -0.45076126 4293792000
3.3214142 1.2138652 -0.43804845 4293922560
3.2833376 1.2000663 -0.41793096 4293661440
3.2952166 1.2045255 -0.40382236 4293792000
3.322274 1.2145343 -0.39093396 4293792000
3.3167677 1.2126395 -0.37367335 4293792000
3.3300138 1.2176009 -0.35806933 4293922560
3.2774298 1.1984906 -0.33519775 4293661440
3.3006742 1.2071083 -0.31986207 4293792000
3.3152258 1.212548 -0.30312654 4293792000
3.3046119 1.2087837 -0.28373569 4293792000
3.2830658 1.2010194 -0.26327577 4293661440
3.2997284 1.2072325 -0.24561746 4293661440
3.3075526 1.2102128 -0.22689092 4293792000
3.3144627 1.2128592 -0.20776734 4293792000
3.3116169 1.2119359 -0.18778186 4293792000
3.3038919 1.2092265 -0.16737896 4293661440
3.3182294 1.2145922 -0.14787106 4293792000
3.315366 1.2136623 -0.12736617 4293792000
3.3042157 1.2096982 -0.1064913 4293661440
3.329021 1.2188981 -0.086574331 4293792000
3.3373492 1.2220663 -0.065928504 4293792000
3.3204708 1.2160041 -0.044766936 4293792000
3.3345175 1.221267 -0.02399111 4293792000
3.3412189 1.2238406 -0.0030055896 4293792000
3.3472481 1.2261682 0.018064408 4293922560
3.3015409 1.2095423 0.038586639 4293661440
3.3649468 1.2328914 0.060453556 4293922560
3.3715968 1.235448 0.08167579 4293922560
3.3421006 1.2247589 0.1017925 4293792000
3.1855783 1.1675127 0.1167765 4293269760
3.3689308 1.2348313 0.14425287 4293922560
3.3698895 1.2353028 0.16489914 4293922560
3.3195846 1.2169808 0.18255961 4293792000
3.0317137 1.1115535 0.18492468 4292747520
3.3745122 1.2373581 0.22586483 4293922560
3.374392 1.2374343 0.24564101 4294053120
3.3148453 1.2157159 0.26047835 4293792000
3.0495427 1.1185251 0.25700694 4292878080
3.3961687 1.2457832 0.30525717 4294053120
3.3910687 1.2440333 0.32347319 4294053120
3.3433573 1.2266493 0.3369827 4293922560
3.1205521 1.1450152 0.33103585 4293139200
2.9857264 1.0956504 0.33217958 4292616960
3.3840516 1.2419416 0.39358497 4294053120
3.3665478 1.2356378 0.40811458 4294053120
3.3265996 1.221094 0.41919073 4293922560
3.185499 1.1694138 0.41620499 4293400320
3.1154909 1.1438246 0.42107075 4293139200
3.3842547 1.2426193 0.47210208 4294053120
3.3842885 1.2427524 0.4862811 4294053120
3.3518538 1.2309616 0.49511403 4294053120
3.3477628 1.2295785 0.50742549 4294053120
3.2821403 1.2055933 0.50957549 4293792000
3.2232637 1.1840818 0.51174307 4293530880
3.3817828 1.2424351 0.54816091 4294183680
3.3909702 1.2459315 0.56030089 4294183680
3.3825274 1.24295 0.56888759 4294183680
3.3710439 1.2388505 0.57625085 4294053120
3.3701873 1.2386558 0.5847314 4294053120
3.352551 1.2322935 0.58958036 4294053120
3.3617437 1.2357923 0.59844214 4294053120
3.3278749 1.2234607 0.5988971 4293922560
3.3491466 1.2314004 0.60854965 4294053120
3.2906115 1.2099959 0.60293978 4293792000
3.3028417 1.2146107 0.6095196 4293922560
3.3114767 1.2179043 0.61474973 4293922560
3.3017309 1.2144377 0.61584985 4293922560
3.3059661 1.2161134 0.61883163 4293922560
3.3056941 1.2161313 0.62024814 4293922560
3.2879777 1.2097309 0.61766112 4293792000
3.2962565 1.2128946 0.61923009 4293922560
3.3586082 1.2359574 0.63021845 4294053120
3.3366215 1.2279853 0.62463945 4294053120
3.3521578 1.2338227 0.62535316 4294053120
3.3598392 1.2367698 0.62385303 4294053120
3.347436 1.2323235 0.61790103 4294053120
3.3640149 1.238547 0.61656892 4294053120
3.3684616 1.2403044 0.61226535 4294183680
3.370719 1.2412558 0.6068396 4294183680
3.367913 1.2403426 0.59979767 4294053120
3.3839059 1.2463531 0.5953778 4294183680
3.3722973 1.2421979 0.58540398 4294183680
3.378165 1.2444798 0.57779843 4294183680
3.3566248 1.2366644 0.56488174 4294053120
3.3518021 1.2350072 0.55420047 4294053120
3.3594496 1.2379448 0.54493374 4294053120
3.3778782 1.2448562 0.5367052 4294053120
3.3783987 1.2451686 0.52495372 4294053120
3.3380995 1.2305282 0.42949033 4293922560
3.3483205 1.2344155 0.4150413 4293922560
3.3885372 1.2493631 0.40360275 4294053120
3.3724854 1.2435651 0.38489661 4294053120
3.3397436 1.231611 0.36410427 4293922560
3.3324523 1.2290412 0.34588763 4293922560
3.3548491 1.237421 0.33028775 4293922560
3.346993 1.2346429 0.31126776 4293922560
3.3278024 1.2276826 0.29100001 4293792000
3.328892 1.2282033 0.27228609 4293792000
3.3540702 1.2376126 0.25509304 4293922560
3.3535028 1.237523 0.23552141 4293922560
3.3233993 1.2265327 0.21379891 4293792000
3.3438776 1.2342097 0.19515251 4293922560
3.3608751 1.2406034 0.17586556 4293922560
3.3549531 1.2385372 0.15512148 4293922560
3.3091278 1.2217381 0.13268133 4293792000
3.3381214 1.2325618 0.11319912 4293792000
3.3348942 1.2314892 0.092342183 4293792000
3.3333981 1.2310557 0.0714624 4293792000
3.3031712 1.2200105 0.050088085 4293661440
3.3110654 1.2230445 0.029377325 4293792000
3.3119428 1.2234869 0.0085169543 4293792000
3.275269 1.2100559 -0.012223992 4293661440
3.2892175 1.2153267 -0.032997862 4293661440
3.3098435 1.2230659 -0.054021221 4293792000
3.3185892 1.2264161 -0.074977458 4293792000
3.2739394 1.2100322 -0.09442278 4293661440
3.3167651 1.2259789 -0.11627672 4293792000
3.3254125 1.2292939 -0.13712686 4293792000
3.3303607 1.2312421 -0.15776031 4293792000
3.2840645 1.2142435 -0.17554449 4293661440
3.3078232 1.2231462 -0.19674478 4293792000
3.3074515 1.2231269 -0.21643731 4293792000
3.3176343 1.2270111 -0.23664299 4293792000
3.2877676 1.2160823 -0.25362054 4293661440
3.323091 1.2292665 -0.2753787 4293792000
3.3322637 1.2327787 -0.29492244 4293922560
3.3367507 1.2345579 -0.31380448 4293922560
3.3171291 1.2274165 -0.32999223 4293792000
3.3021812 1.2220035 -0.34609473 4293792000
3.3283787 1.2318169 -0.36618379 4293922560
3.3224435 1.229739 -0.38243794 4293922560
3.3215303 1.2295196 -0.39881021 4293922560
3.3022974 1.2225182 -0.41244081 4293792000
3.3299787 1.2328848 -0.43150648 4293922560
3.3311939 1.2334538 -0.446794 4293922560
3.3394716 1.2366381 -0.4625681 4293922560
3.337363 1.2359765 -0.47640932 4293922560
3.3315632 1.2339475 -0.48915219 4293922560
3.2950337 1.2205354 -0.49666205 4293792000
3.3035553 1.22381 -0.51028675 4293792000
3.3099039 1.2262801 -0.52304828 4293922560
3.3129661 1.227533 -0.53472537 4293922560
3.3173075 1.2292601 -0.54602015 4293922560
3.3094764 1.2264764 -0.55467439 4293922560
3.3175387 1.2295828 -0.56535256 4293922560
3.3059237 1.2253962 -0.57201725 4293922560
3.3130915 1.2281713 -0.58125716 4293922560
3.2976074 1.2225492 -0.5858323 4293922560
3.2919512 1.2205698 -0.59142762 4293792000
3.2914577 1.2205045 -0.5972504 4293792000
3.278857 1.2159492 -0.60015982 4293792000
3.2708662 1.2131028 -0.60318208 4293792000
3.2739272 1.2143551 -0.60753065 4293792000
3.2498794 1.2055514 -0.60611951 4293661440
3.2540865 1.2072283 -0.60924953 4293661440
3.2445552 1.2038083 -0.60909241 4293661440
3.2725055 1.2142955 -0.61526144 4293792000
3.268743 1.2130163 -0.61475515 4293792000
3.2714167 1.2141254 -0.6147384 4293792000
3.2879367 1.220374 -0.61659682 4293792000
3.2877584 1.2204252 -0.61459553 4293792000
3.3065119 1.2275048 -0.61539876 4293922560
3.2983389 1.2245886 -0.6104638 4293922560
3.3002017 1.2253982 -0.60667902 4293922560
3.3015685 1.2260237 -0.60209042 4293922560
3.3022015 1.2263769 -0.59666294 4293922560
3.3002372 1.2257653 -0.590074 4293922560
3.3000274 1.2258054 -0.58311683 4293922560
3.301131 1.2263334 -0.5757128 4293922560
3.2943702 1.2239395 -0.56628454 4293792000
3.2808521 1.2190346 -0.55509347 4293792000
3.2737744 1.2165219 -0.54440856 4293792000
3.2945864 1.2243732 -0.53769088 4293792000
3.3225391 1.2348802 -0.5313651 4293922560
3.3203554 1.2341872 -0.51952666 4293922560
3.309675 1.2303357 -0.50581139 4293922560
3.2850494 1.2212989 -0.48952097 4293792000
3.2829556 1.2206378 -0.4761337 4293792000
3.2969146 1.2259458 -0.46448508 4293792000
3.3123827 1.2318161 -0.45239925 4293792000
3.3144836 1.2327158 -0.43790153 4293922560
3.2671793 1.2152394 -0.41659263 4293661440
3.3051803 1.2294922 -0.40573105 4293792000
3.3153398 1.23339 -0.39076763 4293792000
3.3182325 1.2345848 -0.37444761 4293792000
3.3091474 1.2313229 -0.35639158 4293792000
3.278867 1.220173 -0.33586362 4293661440
3.296771 1.2269535 -0.31996268 4293792000
3.2982197 1.2276107 -0.30200723 4293792000
3.2981741 1.2277118 -0.28357461 4293792000
3.288239 1.2241311 -0.26403677 4293661440
3.3059208 1.2308319 -0.24638136 4293792000
3.3134501 1.2337536 -0.22755359 4293792000
3.3159525 1.234804 -0.20807314 4293792000
3.3093708 1.2324715 -0.18782037 4293792000
3.2986631 1.2286017 -0.16723324 4293661440
3.3197136 1.2365608 -0.14801048 4293792000
3.3177927 1.2359639 -0.1274859 4293792000
3.3007634 1.2297382 -0.10635984 4293661440
3.3220501 1.2377877 -0.086325854 4293792000
3.330359 1.2410027 -0.065676101 4293792000
3.3088291 1.2330984 -0.044449858 4293792000
3.3300071 1.2411098 -0.023750819 4293792000
3.3482699 1.2480363 -0.0027562163 4293922560
3.3486619 1.2483022 0.018374261 4293922560
3.2946153 1.2282728 0.038848456 4293661440
3.3650479 1.2546514 0.060851462 4293922560
3.3728344 1.2576753 0.082148455 4293922560
3.3570995 1.2519281 0.10273493 4293922560
3.1835699 1.1873294 0.11720551 4293269760
3.3648517 1.25506 0.14465342 4293922560
3.3761158 1.2593821 0.1658244 4294053120
3.3293042 1.2420393 0.18374823 4293792000
3.038434 1.1336352 0.18596934 4292747520
3.3767648 1.2599868 0.22676221 4294053120
3.3626189 1.2548288 0.24556758 4293922560
3.3116064 1.235911 0.26103419 4293792000
3.0477929 1.1375633 0.25763997 4292878080
3.3971381 1.2680751 0.30625188 4294053120
3.3974013 1.2682949 0.32502145 4294183680
3.3658953 1.2566538 0.34022492 4294053120
3.214061 1.2000817 0.34191474 4293530880
2.9887516 1.1160616 0.33343717 4292616960
3.3908875 1.2663487 0.39545673 4294183680
3.3734121 1.2599432 0.41004816 4294053120
3.3288884 1.2434331 0.42059457 4293922560
3.2010965 1.1958139 0.41934168 4293400320
3.1312234 1.169824 0.42429611 4293269760
3.3952835 1.2685982 0.47485715 4294183680
3.3775158 1.2620806 0.48654133 4294053120
3.3577726 1.2548232 0.49723604 4294053120
3.3217165 1.2414678 0.50473171 4293922560
3.2881923 1.2290561 0.5117746 4293792000
3.234066 1.2089406 0.51471299 4293661440
3.3792779 1.2633439 0.54908139 4294183680
3.3745601 1.261701 0.5589276 4294183680
3.3753912 1.2621326 0.5690378 4294183680
3.3593082 1.2562392 0.57559878 4294053120
3.3630779 1.2577693 0.58486187 4294053120
3.3584173 1.2561466 0.59198064 4294053120
3.3592727 1.2565867 0.59937608 4294053120
3.3337865 1.2471726 0.60132742 4294053120
3.3420849 1.2503967 0.60863775 4294053120
3.2965965 1.233496 0.60538858 4293922560
3.2875741 1.2302377 0.60804832 4293792000
3.2952709 1.233236 0.61308676 4293922560
3.3039985 1.2366205 0.6176163 4293922560
3.3036129 1.2365946 0.61972708 4293922560
3.3079541 1.238338 0.62200063 4293922560
3.2939651 1.2332191 0.62009794 4293922560
3.2939272 1.233323 0.62009209 4293922560
3.3432369 1.2519054 0.62863874 4294053120
3.3434341 1.252099 0.6272034 4294053120
3.3580179 1.2576809 0.6277228 4294053120
3.3501449 1.2548523 0.62330705 4294053120
3.3450079 1.2530479 0.61868399 4294053120
3.3527806 1.2560798 0.61572123 4294053120
3.365994 1.2611506 0.61300868 4294183680
3.3728657 1.263846 0.60839456 4294183680
3.373764 1.2643036 0.60198104 4294183680
3.3680718 1.2622911 0.59370255 4294183680
3.3735287 1.2644571 0.58669996 4294183680
3.3662417 1.2618464 0.57680744 4294183680
3.370605 1.2636027 0.56825119 4294183680
3.3475254 1.2550704 0.55446917 4294053120
3.3641858 1.2614374 0.54664731 4294053120
3.3808985 1.2678251 0.53809834 4294183680
3.372345 1.2647384 0.52488619 4294053120
3.334909 1.2517499 0.43002251 4293922560
3.3502789 1.2576391 0.41619739 4294053120
3.3811071 1.2693326 0.40360454 4294053120
3.3650897 1.26344 0.38489932 4294053120
3.3463886 1.2565385 0.36563432 4293922560
3.3339961 1.2520047 0.34681326 4293922560
3.3568115 1.260693 0.33121336 4293922560
3.3443131 1.2561189 0.31170928 4293922560
3.3207054 1.2473708 0.29102591 4293792000
3.3290117 1.2506104 0.27290386 4293922560
3.3491788 1.2583066 0.25529167 4293922560
3.3449271 1.2568291 0.23544745 4293922560
3.3161047 1.2461182 0.21381164 4293792000
3.3402758 1.2553209 0.19538523 4293922560
3.3534968 1.2604098 0.17588091 4293922560
3.351409 1.2597452 0.15531518 4293922560
3.3018618 1.2412395 0.13269891 4293792000
3.330791 1.2522341 0.11321808 4293792000
3.3300447 1.2520729 0.092431046 4293792000
3.3260767 1.2507004 0.071483783 4293792000
3.300595 1.2412368 0.050181612 4293792000
3.3084719 1.2443177 0.02944258 4293792000
3.3187065 1.2482859 0.008578009 4293792000
3.2821126 1.2346393 -0.012250794 4293661440
3.2960291 1.2399925 -0.033112101 4293661440
3.3025706 1.2425718 -0.053993199 4293792000
3.3196018 1.2490989 -0.075136334 4293792000
3.2807779 1.2346079 -0.094798602 4293661440
3.3124716 1.2466536 -0.11635096 4293792000
3.3164227 1.2482594 -0.13702546 4293792000
3.3272462 1.2524526 -0.1579271 4293792000
3.2851417 1.2367213 -0.1759557 4293661440
3.3030224 1.2435712 -0.19685796 4293792000
3.3141913 1.2478951 -0.21732135 4293792000
3.3192091 1.2499036 -0.23724149 4293792000
3.2917423 1.2396785 -0.25445098 4293792000
3.3241808 1.2520142 -0.27603957 4293792000
3.3249357 1.2524177 -0.29488555 4293922560
3.3340731 1.2559792 -0.31420648 4293922560
3.3098333 1.2469665 -0.32995501 4293792000
3.2995741 1.2432199 -0.34654662 4293792000
3.3164029 1.2496796 -0.36563319 4293792000
3.3197861 1.2510735 -0.38293716 4293922560
3.3235214 1.2526004 -0.39989182 4293922560
3.2950313 1.241981 -0.41240403 4293792000
3.3263667 1.2539115 -0.43195224 4293922560
3.3368607 1.257987 -0.44850466 4293922560
3.3451126 1.2612181 -0.46433547 4294053120
3.3346543 1.2573946 -0.47703743 4293922560
3.3288643 1.2553308 -0.48979965 4293922560
3.3007503 1.2448473 -0.498588 4293792000
3.2971275 1.2435993 -0.51038516 4293792000
3.3109457 1.24893 -0.52433592 4293922560
3.3060505 1.2472022 -0.53475642 4293922560
3.3100016 1.2488115 -0.54599094 4293922560
3.3068085 1.2477254 -0.55542272 4293922560
3.3102307 1.2491355 -0.56532609 4293922560
3.3165829 1.2516515 -0.57510364 4293922560
3.3084805 1.2487125 -0.58170658 4293922560
3.313319 1.2506576 -0.5899018 4293922560
3.2893088 1.2417127 -0.59223849 4293922560
3.2888141 1.241644 -0.59807122 4293922560
3.2716286 1.2352734 -0.60014409 4293792000
3.2719512 1.2355126 -0.60470176 4293792000
3.2713163 1.2353902 -0.6083762 4293792000
3.2707908 1.2353091 -0.6113587 4293792000
3.2469087 1.226406 -0.60924268 4293661440
3.2746832 1.2370144 -0.61610305 4293792000
3.2615998 1.2321892 -0.61456513 4293792000
3.2698207 1.2354124 -0.61631852 4293792000
3.2780151 1.2386261 -0.61734414 4293792000
3.2769935 1.2383577 -0.61591017 4293792000
3.3026128 1.2481576 -0.61874729 4293922560
3.303818 1.2487317 -0.61626995 4293922560
3.3075631 1.2502661 -0.61354077 4293922560
3.30213 1.2483308 -0.60839498 4293922560
3.3081045 1.2507082 -0.60463893 4293922560
3.3124275 1.2524616 -0.59985995 4293922560
3.3113937 1.2521896 -0.59340715 4293922560
3.2977262 1.2471397 -0.58403116 4293922560
3.2988279 1.2476748 -0.57661915 4293922560
3.2925465 1.2454174 -0.56726182 4293922560
3.2744486 1.2386893 -0.55527753 4293792000
3.2803962 1.241057 -0.54676187 4293792000
3.3002424 1.2486838 -0.53985465 4293922560
3.3122261 1.253337 -0.53094035 4293922560
3.3167102 1.2551529 -0.52016073 4293922560
3.2989268 1.2485416 -0.50534356 4293922560
3.2832644 1.2427317 -0.4903999 4293792000
3.2756166 1.2399547 -0.4761861 4293792000
3.2979608 1.2485313 -0.46572998 4293792000
3.3025961 1.2504047 -0.45213354 4293792000
3.3164258 1.25576 -0.43920413 4293922560
3.2692304 1.2380068 -0.41785514 4293661440
3.2940636 1.2475293 -0.40534356 4293792000
3.3079967 1.2529248 -0.39085081 4293792000
3.3201821 1.2576594 -0.375586 4293922560
3.3241467 1.2592806 -0.35889167 4293922560
3.2799809 1.2426671 -0.3368153 4293661440
3.2978482 1.2495549 -0.32087305 4293792000
3.3039556 1.2519877 -0.30330244 4293792000
3.2992549 1.2503248 -0.28439832 4293792000
3.285615 1.2452738 -0.2645151 4293661440
3.2948637 1.2488976 -0.24620874 4293792000
3.306107 1.253278 -0.22766259 4293792000
3.3127487 1.2559148 -0.2084455 4293792000
3.2973676 1.2502021 -0.18766835 4293792000
3.2990136 1.2509447 -0.16773836 4293792000
3.3039479 1.2529345 -0.14775293 4293792000
3.319783 1.2590588 -0.12796649 4293792000
3.2984018 1.2510682 -0.10664171 4293792000
3.3100133 1.2555914 -0.086328208 4293792000
3.3267167 1.2620471 -0.065876357 4293792000
3.3108442 1.2561445 -0.044702988 4293792000
3.3273008 1.2625078 -0.023913501 4293792000
3.3396318 1.2673067 -0.0028861936 4293922560
3.3440561 1.2691059 0.018257508 4293922560
3.300401 1.2526568 0.038871691 4293792000
3.3575895 1.2744832 0.060716972 4293922560
3.3700321 1.2793273 0.082126923 4294053120
3.3543313 1.2734877 0.10274281 4293922560
3.1765137 1.2060925 0.11707699 4293269760
3.3637428 1.2773026 0.14479077 4293922560
3.3639636 1.2775073 0.16545841 4294053120
3.3256595 1.2630804 0.18382044 4293792000
3.036366 1.1533164 0.1861333 4292878080
3.3773961 1.2829728 0.22717299 4294053120
3.3728859 1.2813807 0.24673006 4294053120
3.3229115 1.2625146 0.26237565 4293922560
3.0494242 1.1587148 0.25823087 4292878080
3.3942657 1.2898691 0.30654088 4294183680
3.3947299 1.2901676 0.32535705 4294183680
3.3584342 1.276494 0.34009773 4294053120
3.2069361 1.219027 0.34179509 4293530880
3.0691819 1.166774 0.3430585 4293008640
3.4005587 1.2928718 0.39734337 4294183680
3.3785684 1.2846328 0.4114683 4294053120
3.3307893 1.2665855 0.42165509 4293922560
3.1986368 1.2164475 0.41984308 4293530880
3.1465333 1.1967455 0.42721528 4293269760
3.3923869 1.2903749 0.47539884 4294183680
3.3746555 1.2837517 0.48710611 4294183680
3.3679137 1.2813082 0.49974653 4294053120
3.331928 1.2677374 0.50731373 4293922560
3.215512 1.2235589 0.50148731 4293530880
3.1322653 1.1919948 0.49953762 4293269760
3.3796976 1.2862775 0.55028677 4294183680
3.3782325 1.2858415 0.56070071 4294183680
3.37076 1.2831185 0.56944633 4294183680
3.3656905 1.2813097 0.57790542 4294183680
3.3602209 1.2793484 0.58560044 4294183680
3.3437228 1.2731873 0.59064263 4294053120
3.3554962 1.2777909 0.59998035 4294053120
3.3355927 1.2703316 0.60294378 4294053120
3.3392627 1.2718494 0.60943437 4294053120
3.289268 1.2529259 0.60535061 4293922560
3.2977588 1.2562788 0.61125875 4293922560
3.3017511 1.2579184 0.6156348 4293922560
3.3095353 1.261003 0.62000942 4293922560
3.3137493 1.2627279 0.62299955 4293922560
3.3005922 1.2578331 0.62199152 4293922560
3.3041172 1.2592952 0.62339371 4293922560
3.2957954 1.2562423 0.62183142 4293922560
3.2866697 1.2528821 0.61939096 4293922560
3.3359861 1.2718016 0.6272192 4294053120
3.3316953 1.2702856 0.62421525 4294053120
3.347281 1.2763485 0.62419409 4294053120
3.3458374 1.2759184 0.62025529 4294053120
3.3545134 1.2793477 0.61745811 4294183680
3.3502119 1.2778277 0.61154681 4294053120
3.361099 1.2821013 0.60768288 4294183680
3.3735971 1.2869902 0.60335964 4294183680
3.3769081 1.2883748 0.59666061 4294183680
3.3796287 1.2895343 0.58915156 4294183680
3.3721573 1.2868049 0.57919633 4294183680
3.3501585 1.2785308 0.56615657 4294053120
3.3529739 1.2797259 0.55670989 4294053120
3.3705251 1.286546 0.54900569 4294183680
3.3816609 1.2909184 0.53953391 4294183680
3.385957 1.2926801 0.52830076 4294183680
3.3321021 1.273177 0.43062177 4293922560
3.3465114 1.2788032 0.41666037 4294053120
3.3811738 1.2921705 0.40451738 4294183680
3.3752232 1.2900178 0.38692504 4294053120
3.33845 1.2760832 0.365587 4293922560
3.3400292 1.2768072 0.34822327 4293922560
3.3560138 1.2830385 0.33188173 4294053120
3.3537812 1.2823057 0.31329849 4294053120
3.3272507 1.2722818 0.29226047 4293922560
3.3272772 1.2724116 0.27338162 4293922560
3.3485479 1.2806666 0.25582564 4293922560
3.3340054 1.2752247 0.23521587 4293922560
3.313355 1.2674456 0.2141256 4293792000
3.3374729 1.2767915 0.19567266 4293922560
3.3553293 1.2837435 0.17638665 4293922560
3.3532479 1.2830678 0.15576519 4293922560
3.3133504 1.2679211 0.13347666 4293792000
3.3196099 1.2704359 0.11310983 4293792000
3.3201296 1.2707545 0.092382535 4293792000
3.3233075 1.2720904 0.071605757 4293792000
3.295078 1.2614034 0.050232448 4293792000
3.3070073 1.2660893 0.029519198 4293792000
3.2981279 1.2628086 0.0085686976 4293792000
3.2878449 1.2589898 -0.012273892 4293661440
3.2886555 1.2594187 -0.033085193 4293661440
3.3035855 1.2652552 -0.054102808 4293792000
3.3038876 1.2654901 -0.074919231 4293792000
3.273437 1.2539444 -0.094768785 4293661440
3.3067362 1.2668194 -0.11637895 4293792000
3.3190758 1.2716663 -0.13741061 4293792000
3.3197997 1.2720633 -0.15789421 4293792000
3.2825677 1.2579151 -0.17617895 4293661440
3.3062162 1.2670966 -0.19745612 4293792000
3.3067727 1.267429 -0.21728645 4293792000
3.3159726 1.2710747 -0.23750636 4293792000
