# .PCD v0.7 - Point Cloud Data file format
VERSION 0.7
FIELDS x y z rgba
SIZE 4 4 4 4
TYPE F F F U
COUNT 1 1 1 1
WIDTH 1102
HEIGHT 1
VIEWPOINT 0 0 0 1 0 0 0
POINTS 1102
DATA ascii
1.3605294 -1.5678983 -0.1044224 4288961280
1.362774 -1.5704012 -0.11635318 4288961280
1.3702581 -1.5789304 -0.12869413 4288961280
1.3726245 -1.5815722 -0.1404915 4288961280
1.3708668 -1.57947 -0.15171356 4288961280
1.3827772 -1.5930873 -0.16438125 4289091840
1.3870203 -1.5978854 -0.17607984 4289091840
1.3850321 -1.5955167 -0.18680501 4289091840
1.3639446 -1.5711857 -0.19454716 4288961280
1.3710498 -1.5792739 -0.20601794 4288961280
1.3801594 -1.5896657 -0.21768577 4289091840
1.3787606 -1.587974 -0.22750045 4289091840
1.373211 -1.5815101 -0.23632289 4288961280
1.3428129 -1.5464805 -0.24032949 4288830720
1.3807461 -1.5900038 -0.25641537 4289091840
1.3812103 -1.5904522 -0.26547256 4289091840
1.392211 -1.6030107 -0.27633885 4289091840
1.3829296 -1.5922561 -0.28285953 4289091840
1.3774661 -1.5858898 -0.28975686 4289091840
1.3607273 -1.566566 -0.29381698 4288961280
1.3644122 -1.5707139 -0.30189961 4288961280
1.3675361 -1.5742158 -0.30954841 4288961280
1.3744662 -1.5820904 -0.31775761 4289091840
1.3827822 -1.591556 -0.32599527 4289091840
1.3786693 -1.5867398 -0.33093625 4289091840
1.3736324 -1.5808622 -0.33523539 4289091840
1.3739253 -1.5811073 -0.3404341 4289091840
1.3688539 -1.5751897 -0.34388825 4289091840
1.3717253 -1.5783955 -0.3489382 4289091840
1.3651296 -1.5707266 -0.351156 4288961280
1.3512779 -1.5547243 -0.3510378 4288961280
1.3519547 -1.5554082 -0.35426471 4288961280
1.333776 -1.5344384 -0.35208592 4288830720
1.3393993 -1.5408021 -0.35577551 4288830720
1.3392453 -1.5405307 -0.3575182 4288830720
1.3372973 -1.5381987 -0.35835987 4288830720
1.3455449 -1.5475717 -0.36152768 4288961280
1.3422985 -1.5437475 -0.36117777 4288961280
1.3423338 -1.5436903 -0.36128977 4288961280
1.3480552 -1.5501593 -0.36251304 4288961280
1.3569243 -1.5602394 -0.36415499 4288961280
1.3699689 -1.57511 -0.36647907 4289091840
1.3673561 -1.5720087 -0.36416349 4289091840
1.374334 -1.579913 -0.36397812 4289091840
1.3783494 -1.5844163 -0.36256298 4289091840
1.3753507 -1.5808699 -0.35887268 4289091840
1.3770379 -1.5826997 -0.35599375 4289091840
1.3778121 -1.5834812 -0.35245788 4289091840
1.3726656 -1.5774696 -0.34700611 4289091840
1.3689207 -1.5730658 -0.34153569 4288961280
1.3651029 -1.5685784 -0.33567807 4288961280
1.3646336 -1.5679314 -0.33027515 4288961280
1.3539019 -1.5555143 -0.32204458 4288961280
1.3521502 -1.5533966 -0.31564116 4288961280
1.3633506 -1.5661305 -0.31186756 4288961280
1.3727684 -1.5768182 -0.30722895 4288961280
1.3788568 -1.5836864 -0.30141351 4289091840
1.3611864 -1.5633146 -0.29010287 4288961280
1.3468686 -1.5467885 -0.27935919 4288830720
1.3609732 -1.5628444 -0.2742224 4288961280
1.3721312 -1.5755203 -0.26802772 4288961280
1.372907 -1.5762943 -0.25941959 4288961280
1.3667352 -1.5691056 -0.24923658 4288961280
1.3562742 -1.5570021 -0.23810017 4288961280
1.3796409 -1.5836622 -0.23258205 4288961280
1.3886834 -1.5939053 -0.22414777 4289091840
1.3832697 -1.587584 -0.21309151 4289091840
1.3601588 -1.5609891 -0.19926801 4288961280
1.3632115 -1.5643691 -0.18923844 4288961280
1.3653321 -1.5666803 -0.178831 4288961280
1.363698 -1.5646905 -0.16772845 4288961280
1.3465881 -1.5449767 -0.15467329 4288830720
1.3654175 -1.5664226 -0.1456051 4288961280
1.376788 -1.5793238 -0.13532513 4288961280
1.3802295 -1.5831439 -0.12398622 4288961280
1.37795 -1.5804133 -0.11198341 4288961280
1.3766738 -1.5788316 -0.099973708 4288961280
1.3901887 -1.5941817 -0.088842951 4289091840
1.3732276 -1.5746448 -0.075662941 4288961280
1.3604746 -1.5599271 -0.062901422 4288830720
1.3593507 -1.558521 -0.050749008 4288830720
1.3586503 -1.5575997 -0.038575914 4288830720
1.3431034 -1.5396893 -0.026066702 4288830720
1.360204 -1.5591377 -0.014195065 4288830720
1.374999 -1.5759451 -0.0019960618 4288961280
1.3708547 -1.5710826 0.010352701 4288961280
1.37032 -1.5703498 0.022668954 4288961280
1.3975474 -1.6013734 0.035618421 4289091840
1.5133739 -1.7337302 0.051940039 4289614080
1.6164789 -1.8515172 0.069734149 4290136320
1.5520874 -1.7777367 0.080778852 4289875200
1.647877 -1.8871372 0.10013501 4290397440
1.6261653 -1.8621669 0.11303773 4290266880
1.51329 -1.7329699 0.11842964 4289614080
1.5257901 -1.7471281 0.13246252 4289744640
1.6600903 -1.9005226 0.15799907 4290397440
1.6740181 -1.9162986 0.17331071 4290528000
1.6525009 -1.8915591 0.18474562 4290397440
1.5487682 -1.7728593 0.18587299 4289875200
1.680104 -1.9228187 0.21488233 4290528000
1.6938573 -1.9383904 0.22992478 4290658560
1.6837096 -1.9266496 0.2415285 4290528000
1.6433052 -1.8803409 0.24818079 4290397440
1.5770131 -1.8044637 0.24988961 4290005760
1.6800611 -1.922051 0.27816126 4290528000
1.681671 -1.9237477 0.29021633 4290528000
1.6674786 -1.907395 0.29915464 4290528000
1.6470286 -1.8838983 0.30641046 4290397440
1.6045167 -1.8352097 0.30884039 4290136320
1.6618494 -1.9005487 0.33007532 4290528000
1.6355582 -1.8703895 0.33464324 4290397440
1.5892112 -1.8173354 0.33433452 4290136320
1.6015365 -1.8312771 0.34570214 4290136320
1.5508097 -1.7732346 0.34296122 4289875200
1.5566586 -1.7797856 0.35201457 4290005760
1.4309107 -1.636121 0.33054569 4289352960
1.4303385 -1.6353532 0.33680266 4289352960
1.4297937 -1.6346174 0.342673 4289352960
1.4260252 -1.6302032 0.34736341 4289352960
1.3589479 -1.5535448 0.33608198 4288961280
1.3617752 -1.5566646 0.3413375 4288961280
1.3581343 -1.5524045 0.34458551 4288961280
1.3480326 -1.5407742 0.34576634 4288830720
1.3295263 -1.5195578 0.34433085 4288830720
1.3318607 -1.5221196 0.34781143 4288830720
1.3225423 -1.5113894 0.34785256 4288830720
1.3067739 -1.4933041 0.34576121 4288700160
1.3131357 -1.5004627 0.34906164 4288700160
1.3097991 -1.4965601 0.34939885 4288700160
1.3130021 -1.5001166 0.35105768 4288700160
1.3188484 -1.5066875 0.35301065 4288700160
1.322143 -1.5103488 0.35387367 4288830720
1.3222364 -1.5103605 0.3534714 4288830720
1.3444613 -1.5356052 0.35851505 4288830720
1.3504963 -1.5423902 0.3588323 4288961280
1.3604776 -1.5536739 0.3597526 4288961280
1.3575095 -1.5501958 0.35684416 4288961280
1.427627 -1.6300247 0.37246856 4289352960
1.4280137 -1.6303674 0.36945605 4289352960
1.4251916 -1.627054 0.36519459 4289352960
1.4347715 -1.6378753 0.36364469 4289352960
1.4450486 -1.6494906 0.36178961 4289352960
1.4612311 -1.6678345 0.36089742 4289483520
1.4963528 -1.707757 0.36405054 4289614080
1.5250211 -1.7403228 0.36498314 4289744640
1.5939715 -1.8187792 0.37466848 4290136320
1.6295412 -1.8591989 0.37567917 4290266880
1.6580231 -1.8915404 0.37434125 4290528000
1.6716102 -1.9069122 0.36903089 4290528000
1.6645999 -1.898259 0.3041715 4290528000
1.687484 -1.9242152 0.29699922 4290528000
1.6805129 -1.916176 0.2841756 4290528000
1.6607218 -1.8935423 0.26907277 4290397440
1.652396 -1.8839644 0.25571311 4290397440
1.6660688 -1.8994317 0.24540274 4290397440
1.6603233 -1.8927926 0.23192857 4290397440
1.6101398 -1.8355713 0.21248314 4290136320
1.4997823 -1.7098637 0.18620598 4289614080
1.6297078 -1.8576548 0.18903428 4290266880
1.6541047 -1.8853267 0.17831217 4290397440
1.6439489 -1.873673 0.16360003 4290266880
1.6228148 -1.8495272 0.14789231 4290266880
1.511966 -1.7232934 0.12508208 4289614080
1.3918581 -1.5865368 0.10335362 4288961280
1.3605982 -1.5508884 0.089279473 4288830720
1.3725785 -1.5644416 0.078047149 4288961280
1.3764658 -1.568786 0.066143632 4288961280
1.3736136 -1.5654627 0.053845834 4288961280
1.3619215 -1.5520836 0.041285425 4288830720
1.3642904 -1.5547009 0.029169416 4288830720
1.3611101 -1.5510057 0.016918734 4288830720
1.3628229 -1.5528767 0.0047170538 4288830720
1.3535199 -1.5422183 -0.0074442853 4288830720
1.3548648 -1.5436713 -0.019599423 4288830720
1.3589771 -1.5482709 -0.031825785 4288830720
1.3647003 -1.5547023 -0.044145212 4288830720
1.3641386 -1.553986 -0.056251109 4288830720
1.3699168 -1.5604786 -0.068611816 4288961280
1.3787616 -1.5704573 -0.081184298 4288961280
1.3783443 -1.5699041 -0.093185537 4288961280
1.3701415 -1.5604992 -0.10447497 4288961280
1.3796538 -1.5712348 -0.11703421 4288961280
1.3880681 -1.5807207 -0.12952408 4288961280
1.3800436 -1.5715188 -0.14032312 4288961280
1.3798114 -1.5711749 -0.15170142 4288961280
1.3885086 -1.5809802 -0.1639747 4288961280
1.3982462 -1.5919667 -0.17634076 4289091840
1.4018202 -1.5959468 -0.18783458 4289091840
1.3796619 -1.5706823 -0.19550174 4288961280
1.3813374 -1.5725048 -0.20619875 4288961280
1.3898613 -1.5821089 -0.21777296 4289091840
1.3870857 -1.578872 -0.22736542 4288961280
1.387201 -1.5789198 -0.23716246 4289091840
1.3310909 -1.5150859 -0.23663865 4288700160
1.3937627 -1.5862068 -0.25713003 4289091840
1.3973988 -1.5902525 -0.26681995 4289091840
1.4035919 -1.5972019 -0.27676228 4289091840
1.3981041 -1.5908815 -0.28408265 4289091840
1.3850845 -1.5760063 -0.28943536 4289091840
1.3787978 -1.5687792 -0.29576316 4288961280
1.3798871 -1.5699296 -0.30331483 4288961280
1.3851469 -1.5758156 -0.31147349 4289091840
1.3893481 -1.5804981 -0.31908333 4289091840
1.3851799 -1.5756757 -0.32439813 4289091840
1.3891369 -1.5800791 -0.33124864 4289091840
1.3928838 -1.5842427 -0.33769888 4289091840
1.3820039 -1.5717988 -0.34017381 4289091840
1.3832164 -1.5730839 -0.34520689 4289091840
1.3772436 -1.5662113 -0.34802523 4288961280
1.370423 -1.5583764 -0.35018635 4288961280
1.3671499 -1.5545686 -0.3528223 4288961280
1.3585725 -1.5447398 -0.35364583 4288961280
1.3467015 -1.5311737 -0.3531543 4288830720
1.3465003 -1.5308522 -0.35529831 4288830720
1.3522052 -1.5372322 -0.3585982 4288961280
1.3520961 -1.5370134 -0.35993877 4288961280
1.3520346 -1.5368478 -0.36087069 4288961280
1.349417 -1.5337816 -0.36069441 4288830720
1.3429413 -1.5263379 -0.35905942 4288830720
1.3513882 -1.5358232 -0.36100525 4288961280
1.3663124 -1.5526544 -0.36425462 4288961280
1.3629166 -1.5487021 -0.36217156 4288961280
1.3760972 -1.5635511 -0.36407262 4288961280
1.3819251 -1.5700583 -0.36357218 4289091840
1.3805835 -1.5684333 -0.36074832 4289091840
1.3887244 -1.5775608 -0.3599757 4289091840
1.3874806 -1.5760447 -0.35632858 4289091840
1.391644 -1.5806592 -0.3536526 4289091840
1.3842509 -1.5721699 -0.34762949 4289091840
1.3806387 -1.5679674 -0.3421905 4289091840
1.3829393 -1.5704678 -0.33783051 4289091840
1.3768196 -1.5634222 -0.33103105 4288961280
1.3607924 -1.5451472 -0.32154837 4288961280
1.3647155 -1.5494854 -0.31647873 4288961280
1.3772607 -1.563594 -0.31297883 4288961280
1.3884773 -1.5761943 -0.30870453 4289091840
1.3913345 -1.5793198 -0.30214173 4289091840
1.3779045 -1.5639899 -0.29174048 4288961280
1.3624135 -1.5463266 -0.28073046 4288961280
1.3679541 -1.5524918 -0.2738134 4288961280
1.3791597 -1.565073 -0.26762655 4288961280
1.3853509 -1.5719719 -0.26005325 4288961280
1.3708274 -1.5554069 -0.24833447 4288961280
1.3596753 -1.5426619 -0.23712289 4288830720
1.3817667 -1.5675662 -0.23140308 4288961280
1.3854406 -1.5716105 -0.22214301 4288961280
1.3832761 -1.5690427 -0.21168442 4288961280
1.3626412 -1.5455623 -0.19831534 4288830720
1.3687073 -1.5523143 -0.18875229 4288961280
1.3782058 -1.5629506 -0.17933956 4288961280
1.3761836 -1.5605439 -0.16816074 4288961280
1.3584392 -1.5403414 -0.15501814 4288830720
1.3681773 -1.5512464 -0.14493932 4288830720
1.3767833 -1.5608683 -0.13443135 4288961280
1.3692801 -1.5522588 -0.12217756 4288830720
1.3670056 -1.5495669 -0.11034746 4288830720
1.3630064 -1.5449238 -0.098311178 4288830720
1.3610104 -1.5425477 -0.0863683 4288830720
1.3610078 -1.5424267 -0.074479662 4288830720
1.3439344 -1.5229951 -0.061705548 4288700160
1.3595693 -1.5405632 -0.050423197 4288830720
1.3641765 -1.545656 -0.038485438 4288830720
1.3634895 -1.5447603 -0.026316492 4288830720
1.3711388 -1.553292 -0.014230775 4288830720
1.3750231 -1.5575649 -0.0019841958 4288961280
1.3737428 -1.5559976 0.01030076 4288830720
1.3715535 -1.553403 0.02253658 4288830720
1.4085486 -1.5951068 0.035644896 4289091840
1.5525185 -1.757731 0.052877963 4289744640
1.6417081 -1.85841 0.070320085 4290266880
1.5657295 -1.7723932 0.080930121 4289875200
1.6730407 -1.8935364 0.10095786 4290397440
1.6469171 -1.8638701 0.11369451 4290266880
1.4721874 -1.6662856 0.11450632 4289352960
1.5452068 -1.7486635 0.13323335 4289744640
1.6837034 -1.9050062 0.15915464 4290528000
1.6891799 -1.9110485 0.17370273 4290528000
1.6643414 -1.8828453 0.18482211 4290397440
1.574931 -1.7817088 0.18772601 4289875200
1.6958938 -1.9181989 0.21544585 4290528000
1.7058398 -1.9292878 0.23000364 4290658560
1.6949058 -1.9167956 0.24151157 4290528000
1.657531 -1.8744483 0.24865466 4290397440
1.5232903 -1.7227329 0.23985885 4289744640
1.693585 -1.9148769 0.27852842 4290528000
1.6865214 -1.9067609 0.28912309 4290528000
1.6762533 -1.8950293 0.29872948 4290528000
1.6704831 -1.8883771 0.3086876 4290397440
1.6178132 -1.8287898 0.30932364 4290136320
1.6640112 -1.880798 0.32831866 4290397440
1.6523434 -1.8674943 0.33582065 4290397440
1.6030571 -1.8117417 0.33500016 4290136320
1.5618091 -1.7650679 0.33496082 4289875200
1.5643965 -1.7678617 0.34366161 4289875200
1.5670012 -1.7706753 0.35199893 4290005760
1.4404185 -1.6277456 0.33053133 4289352960
1.4398417 -1.6269811 0.33678827 4289352960
1.4294622 -1.6151599 0.34033501 4289222400
1.4322227 -1.6181618 0.34656209 4289222400
1.435014 -1.6211987 0.35241619 4289352960
1.3610005 -1.537618 0.33889636 4288961280
1.351447 -1.5267403 0.34064138 4288830720
1.351097 -1.5262427 0.34426311 4288830720
1.3350856 -1.508087 0.34348208 4288830720
1.3191216 -1.4899879 0.34223917 4288700160
1.3221698 -1.4933258 0.34546447 4288700160
1.3121823 -1.4819689 0.34489501 4288700160
1.3730887 -1.5505285 0.36247957 4288961280
1.3762635 -1.5540067 0.36458302 4288961280
1.3762165 -1.553854 0.36541474 4288961280
1.3762174 -1.5537559 0.36583087 4288961280
1.3184983 -1.488611 0.35058138 4288700160
1.3277442 -1.4989367 0.35259622 4288700160
1.3376919 -1.5100523 0.35437381 4288830720
1.347034 -1.5204849 0.35556218 4288830720
1.3564245 -1.5309716 0.35632673 4288830720
1.3599757 -1.5348792 0.35513425 4288961280
1.440371 -1.6253546 0.3732965 4289352960
1.4342152 -1.6183227 0.3686063 4289352960
1.4346466 -1.6187123 0.36518028 4289352960
1.4442894 -1.6294776 0.36363029 4289352960
1.454634 -1.6410328 0.3617751 4289352960
1.4800993 -1.6696165 0.36311865 4289483520
1.5121782 -1.7056452 0.36545214 4289614080
1.5384144 -1.7350911 0.36574239 4289744640
1.6045407 -1.8094511 0.3746525 4290136320
1.6429716 -1.85262 0.3762604 4290397440
1.6749274 -1.8884943 0.37564203 4290528000
1.6813687 -1.8956409 0.36872593 4290528000
1.6782535 -1.8915001 0.30463004 4290528000
1.6907234 -1.9054329 0.29560661 4290528000
1.699613 -1.9153357 0.28548726 4290528000
1.6711164 -1.8831687 0.26895949 4290397440
1.6719875 -1.8840504 0.25701329 4290397440
1.6863985 -1.9001666 0.24673204 4290528000
1.6839268 -1.8972872 0.23364215 4290528000
1.6142498 -1.8188007 0.21161361 4290136320
1.4864818 -1.6749717 0.18335544 4289483520
1.6606823 -1.8708466 0.19131166 4290397440
1.6710602 -1.8824248 0.17892458 4290397440
1.6684099 -1.8793482 0.16490114 4290397440
1.6464775 -1.8545845 0.14902093 4290266880
1.5412084 -1.7360963 0.12661262 4289744640
1.401263 -1.5786221 0.10334496 4288961280
1.3678626 -1.5409815 0.089145772 4288830720
1.3757864 -1.5498148 0.077700123 4288830720
1.3791137 -1.5534785 0.065819986 4288961280
1.3805572 -1.555024 0.053740002 4288961280
1.3553789 -1.5266372 0.040813651 4288830720
1.3704588 -1.5435154 0.029086094 4288830720
1.3654993 -1.5378627 0.016840922 4288830720
1.3673977 -1.5399202 0.0046798992 4288830720
1.3493192 -1.5195211 -0.0073826276 4288700160
1.356465 -1.5274777 -0.019512767 4288830720
1.3655043 -1.5375619 -0.031795226 4288830720
1.364554 -1.5364171 -0.043868963 4288830720
1.3620964 -1.5335783 -0.055814594 4288830720
1.3762677 -1.549428 -0.068505645 4288830720
1.3818964 -1.5556757 -0.080859557 4288961280
1.381477 -1.5551265 -0.092809632 4288961280
1.373221 -1.5457712 -0.10404815 4288830720
1.3842849 -1.5581248 -0.11668462 4288961280
1.3839692 -1.5576915 -0.12831229 4288961280
1.3765589 -1.5492871 -0.1390695 4288961280
1.3829135 -1.5563471 -0.15107235 4288961280
1.3917162 -1.5661567 -0.16330333 4288961280
1.4015199 -1.5770892 -0.17562273 4289091840
1.4044571 -1.5803074 -0.18698165 4289091840
1.3672553 -1.5384401 -0.19248345 4288830720
1.3899591 -1.5638602 -0.20615964 4288961280
1.3997371 -1.5747603 -0.21791826 4289091840
1.3920658 -1.5660625 -0.22671609 4288961280
1.381447 -1.5540552 -0.23464896 4288961280
1.3490258 -1.5175666 -0.2382983 4288830720
1.4051054 -1.5804553 -0.25756022 4289091840
1.4088708 -1.5845984 -0.26728386 4289091840
1.4074823 -1.5829542 -0.27573901 4289091840
1.4059855 -1.5811878 -0.28384399 4289091840
1.3922601 -1.5656931 -0.28905895 4289091840
1.3830558 -1.5552748 -0.29475957 4288961280
1.3874483 -1.5601194 -0.30300847 4288961280
1.3934009 -1.5667139 -0.31130666 4289091840
1.3936807 -1.5669402 -0.3180069 4289091840
1.3958259 -1.5692593 -0.32478073 4289091840
1.394364 -1.5675294 -0.33034185 4289091840
1.3925502 -1.5654042 -0.3354252 4289091840
1.3926079 -1.5653787 -0.34056681 4289091840
1.3871006 -1.5591083 -0.34392965 4289091840
1.3900093 -1.5622804 -0.34897864 4289091840
1.3853592 -1.5569713 -0.35171357 4288961280
1.3725672 -1.542528 -0.35191932 4288961280
1.3725955 -1.5424675 -0.35498199 4288961280
1.3607296 -1.5290642 -0.35452062 4288961280
1.3670809 -1.5360953 -0.35839602 4288961280
1.348672 -1.515354 -0.35532451 4288830720
1.3485628 -1.515138 -0.35665148 4288830720
1.3517778 -1.5186492 -0.35844541 4288830720
1.363459 -1.531653 -0.36207917 4288961280
1.3569404 -1.5242471 -0.36044303 4288830720
1.3660138 -1.5343233 -0.36253831 4288961280
1.3782769 -1.547974 -0.36504981 4288961280
1.3777944 -1.5473331 -0.36374032 4288961280
1.38229 -1.5522722 -0.36331946 4288961280
1.3857992 -1.5561042 -0.36220342 4289091840
1.394082 -1.5652854 -0.36189669 4289091840
1.387761 -1.5580971 -0.357362 4289091840
1.3920931 -1.5628481 -0.35516703 4289091840
1.3907726 -1.5612631 -0.35110494 4289091840
1.3892022 -1.5593976 -0.34658012 4289091840
1.3881955 -1.5581633 -0.34180278 4289091840
1.3789095 -1.5476522 -0.33461991 4288961280
1.3751397 -1.5433222 -0.32844207 4288961280
1.36713 -1.5342422 -0.32091635 4288961280
1.3677862 -1.53487 -0.31509459 4288961280
1.3788626 -1.547169 -0.31126836 4288961280
1.3931741 -1.5630887 -0.3076987 4289091840
1.3939105 -1.5638026 -0.30069321 4289091840
1.3793002 -1.5473295 -0.29009497 4288961280
1.3653936 -1.5316463 -0.27947339 4288830720
1.3769667 -1.5444943 -0.27378786 4288961280
1.3903867 -1.5594077 -0.26801383 4288961280
1.3885274 -1.5572127 -0.25890797 4288961280
1.3748009 -1.5417328 -0.24738789 4288961280
1.3626174 -1.5279819 -0.23604167 4288830720
1.3864672 -1.5545641 -0.23063107 4288961280
1.3943288 -1.5632479 -0.22206789 4288961280
1.3906318 -1.5589947 -0.21137691 4288961280
1.3635951 -1.5286235 -0.19710685 4288830720
1.3771564 -1.5436836 -0.18863238 4288961280
1.3824248 -1.5494628 -0.17866245 4288961280
1.3823906 -1.5493081 -0.16776548 4288961280
1.3636891 -1.5282699 -0.15454853 4288830720
1.3764231 -1.5423992 -0.14480986 4288830720
1.3849092 -1.5517743 -0.13428909 4288961280
1.3850501 -1.5518142 -0.12273306 4288961280
1.3679767 -1.5326022 -0.10964146 4288830720
1.3724984 -1.537542 -0.098295286 4288830720
1.3683891 -1.5328299 -0.086211801 4288830720
1.371071 -1.5357115 -0.074484959 4288830720
1.3554095 -1.5180843 -0.061772283 4288700160
1.3660462 -1.5298593 -0.050270718 4288830720
1.3741487 -1.5387996 -0.038455103 4288830720
1.3745075 -1.5390829 -0.026297983 4288830720
1.3746883 -1.539167 -0.014105598 4288830720
1.3844856 -1.5499985 -0.0019227884 4288961280
1.3857206 -1.5512599 0.010381933 4288961280
1.3762401 -1.5405474 0.022535371 4288830720
1.4208601 -1.5902849 0.035783414 4289091840
1.5814643 -1.7695988 0.053562388 4289875200
1.6522801 -1.8485765 0.070388712 4290266880
1.6113429 -1.8027052 0.082774848 4290005760
1.6833872 -1.8830408 0.10099938 4290397440
1.6698022 -1.8677241 0.11458587 4290397440
1.5455582 -1.7288228 0.11941209 4289744640
1.5191433 -1.699193 0.13025142 4289614080
1.6881454 -1.8877815 0.1586206 4290397440
1.6899449 -1.8896478 0.17273921 4290397440
1.6667151 -1.8635694 0.18396619 4290397440
1.5819397 -1.7687854 0.18740821 4289875200
1.7017584 -1.9024086 0.21486451 4290528000
1.7073221 -1.9084765 0.22879085 4290528000
1.7003713 -1.9005758 0.24079242 4290528000
1.6302977 -1.8222272 0.24309616 4290136320
1.539256 -1.7204905 0.24084865 4289744640
1.6947877 -1.893922 0.2769925 4290528000
1.6996365 -1.8991928 0.28953791 4290528000
1.6814654 -1.8787793 0.29777911 4290397440
1.664559 -1.8597802 0.30567494 4290397440
1.5782882 -1.7634032 0.29993013 4289875200
1.6749189 -1.8710667 0.3283768 4290397440
1.6430138 -1.8353443 0.33183348 4290266880
1.616871 -1.8060546 0.33573323 4290136320
1.5720456 -1.7559339 0.33500838 4289875200
1.5838996 -1.7690284 0.34571162 4290005760
1.5805727 -1.7651937 0.35277337 4290005760
1.4531598 -1.6230016 0.33131483 4289352960
1.4459784 -1.6148814 0.33606079 4289352960
1.4421283 -1.6104769 0.34114042 4289222400
1.4449053 -1.6134615 0.34737715 4289352960
1.4351885 -1.6025194 0.35020527 4289222400
1.3666244 -1.525986 0.33810812 4288830720
1.3537149 -1.5114943 0.33902147 4288830720
1.337557 -1.4933846 0.33865002 4288700160
1.3339568 -1.4892727 0.34098741 4288700160
1.3951553 -1.5573696 0.35949108 4289091840
1.3857054 -1.5467371 0.35961056 4288961280
1.3789357 -1.5390931 0.35997269 4288961280
1.3755039 -1.5351696 0.36076432 4288961280
1.3819898 -1.5422962 0.36371836 4288961280
1.3786525 -1.5384794 0.36368269 4288961280
1.3852333 -1.5457119 0.36581904 4288961280
1.3852823 -1.5456688 0.36581552 4288961280
1.3913022 -1.5522767 0.36694726 4289091840
1.4039531 -1.5662693 0.36937603 4289091840
1.3433518 -1.4986854 0.35227984 4288830720
1.3593851 -1.5164474 0.35476145 4288830720
1.3721771 -1.530599 0.35594857 4288961280
1.4366326 -1.6022726 0.3698881 4289222400
1.437021 -1.602609 0.36689216 4289222400
1.4374532 -1.6029948 0.36347774 4289222400
1.4478159 -1.6144363 0.36210465 4289352960
1.4575664 -1.6251954 0.36010072 4289352960
1.4864942 -1.6573002 0.36225879 4289483520
1.5095413 -1.6828567 0.36239511 4289614080
1.5484887 -1.7261074 0.36566997 4289744640
1.6117442 -1.7964063 0.37381151 4290136320
1.6444767 -1.8327307 0.37408295 4290266880
1.6727459 -1.8640853 0.37263957 4290397440
1.6807876 -1.8729295 0.36612064 4290528000
1.6820412 -1.8736032 0.30331865 4290397440
1.6998928 -1.8933587 0.29525766 4290528000
1.6977456 -1.8908705 0.28331622 4290528000
1.6787658 -1.8696634 0.26841965 4290397440
1.6636842 -1.8527942 0.25408319 4290266880
1.6874875 -1.8791666 0.24528407 4290397440
1.6883236 -1.879999 0.2327245 4290397440
1.6534967 -1.8411787 0.21529911 4290266880
1.6201171 -1.8039718 0.1983498 4290136320
1.6749183 -1.8648055 0.19168536 4290397440
1.6849611 -1.875875 0.17923076 4290397440
1.6702069 -1.8593781 0.16401361 4290397440
1.6548029 -1.8421609 0.14880243 4290266880
1.5680315 -1.7456181 0.1279567 4289875200
1.421473 -1.5826328 0.10413984 4289091840
1.3861978 -1.5433474 0.08974319 4288961280
1.3917763 -1.5494698 0.078087442 4288961280
1.3981948 -1.5565252 0.066289552 4288961280
1.3896188 -1.5469172 0.053749919 4288961280
1.3743073 -1.5298257 0.041110564 4288830720
1.3870492 -1.5439075 0.029248288 4288830720
1.3850285 -1.5415854 0.016969725 4288830720
1.3834357 -1.539739 0.0047095926 4288830720
1.3694869 -1.5241655 -0.0074431915 4288830720
1.3778807 -1.5334145 -0.019690683 4288830720
1.3825579 -1.5385337 -0.031974006 4288830720
1.3824036 -1.5382856 -0.044144399 4288830720
1.3835449 -1.5394765 -0.056318685 4288830720
1.386873 -1.5430959 -0.068562813 4288961280
1.3954506 -1.5525455 -0.081102163 4288961280
1.3932644 -1.5500396 -0.092969954 4288961280
1.3875414 -1.543606 -0.10442885 4288961280
1.3922677 -1.5487766 -0.11656468 4288961280
1.3979399 -1.5549968 -0.12874125 4288961280
1.3823009 -1.537553 -0.13870768 4288830720
1.3942248 -1.550714 -0.15128937 4288961280
1.3993032 -1.5562732 -0.16309248 4288961280
1.406813 -1.564531 -0.17510293 4288961280
1.4072297 -1.5649129 -0.18609253 4288961280
1.3670833 -1.5202662 -0.19116515 4288830720
1.3969167 -1.5533032 -0.20580877 4288961280
1.4099802 -1.5677223 -0.21805312 4289091840
1.4114498 -1.5692713 -0.22835566 4289091840
1.4028586 -1.5596538 -0.23671632 4288961280
1.3486686 -1.4994313 -0.23664415 4288700160
1.4095078 -1.5668668 -0.25664929 4289091840
1.4191692 -1.577504 -0.26745534 4289091840
1.4188033 -1.577013 -0.27611959 4289091840
1.4159495 -1.573761 -0.2839663 4289091840
1.4066848 -1.563396 -0.29012981 4289091840
1.3870559 -1.5415332 -0.29365599 4288961280
1.3981011 -1.5537012 -0.30332312 4288961280
1.4034292 -1.5595253 -0.3114824 4289091840
1.4076847 -1.5641584 -0.31909293 4289091840
1.4091438 -1.5656885 -0.32572755 4289091840
1.4107755 -1.5674094 -0.3320412 4289091840
1.4020076 -1.5575955 -0.33548725 4289091840
1.4002393 -1.5555447 -0.3401866 4289091840
1.3995423 -1.5546814 -0.34474483 4289091840
1.395414 -1.5500127 -0.34803995 4288961280
1.3885024 -1.5422578 -0.35020205 4288961280
1.3818843 -1.5348285 -0.35199523 4288961280
1.3698933 -1.5214427 -0.35196179 4288961280
1.3677642 -1.5189906 -0.35403031 4288830720
1.3609608 -1.5113566 -0.35445619 4288830720
1.3472983 -1.4961195 -0.3526462 4288830720
1.3531251 -1.5024859 -0.35553139 4288830720
1.3530624 -1.5023229 -0.35645327 4288830720
1.3471111 -1.4956334 -0.3553988 4288830720
1.3639457 -1.5141951 -0.35996002 4288830720
1.3725027 -1.523581 -0.36190686 4288961280
1.381025 -1.5329267 -0.36341432 4288961280
1.38748 -1.5399801 -0.36394066 4288961280
1.3903414 -1.5430502 -0.36308676 4288961280
1.4001375 -1.5538019 -0.36360842 4289091840
1.402078 -1.5558492 -0.36164078 4289091840
1.4004196 -1.5539091 -0.35831994 4289091840
1.3998165 -1.5531374 -0.35485777 4289091840
1.4007272 -1.5540416 -0.35136721 4289091840
1.4057921 -1.5595459 -0.34849745 4289091840
1.3988258 -1.5517253 -0.34223783 4289091840
1.3960946 -1.5485947 -0.33665472 4288961280
1.3928335 -1.5448773 -0.3305769 4288961280
1.3793187 -1.5298072 -0.32174236 4288961280
1.3799798 -1.5304325 -0.31591076 4288961280
1.3969573 -1.5491195 -0.31338754 4288961280
1.4137859 -1.5676384 -0.31031314 4289091840
1.4101555 -1.563509 -0.30231169 4289091840
1.4024876 -1.554911 -0.29315665 4288961280
1.3782955 -1.5280265 -0.28037494 4288961280
1.3894835 -1.5402972 -0.27457958 4288961280
1.4016982 -1.553702 -0.26854029 4288961280
1.4014263 -1.5532883 -0.2597225 4288961280
1.3883028 -1.5386558 -0.24830523 4288961280
1.3795878 -1.5289017 -0.23754658 4288830720
1.3979889 -1.5491449 -0.23115383 4288961280
1.4078913 -1.5599838 -0.22289485 4288961280
1.4112855 -1.5636226 -0.21325812 4289091840
1.3771994 -1.5258085 -0.19790863 4288830720
1.3903537 -1.5402417 -0.18933548 4288961280
1.3991965 -1.5499051 -0.1797961 4288961280
1.3929873 -1.5429232 -0.16808973 4288961280
1.3732053 -1.5209357 -0.15475255 4288830720
1.3929675 -1.5426691 -0.14574815 4288961280
1.4017092 -1.5522164 -0.135189 4288961280
1.3940878 -1.5436743 -0.12287797 4288961280
1.383602 -1.5319675 -0.11032975 4288830720
1.387485 -1.5361426 -0.098881558 4288830720
1.3840209 -1.5321976 -0.086791605 4288830720
1.3860514 -1.5343246 -0.074972712 4288830720
1.3676064 -1.5138267 -0.062082965 4288830720
1.3910586 -1.5396229 -0.051039655 4288830720
1.3891524 -1.5373994 -0.038791839 4288830720
1.3858718 -1.5336578 -0.026508996 4288830720
1.3937234 -1.5422137 -0.014386576 4288961280
1.3968735 -1.5455753 -0.0020985422 4288961280
1.4061685 -1.555723 0.010282286 4288961280
1.3761529 -1.5224557 0.022234106 4288830720
1.4589885 -1.6138136 0.036288809 4289222400
1.6105598 -1.7810558 0.053974539 4290005760
1.6707529 -1.84738 0.070500769 4290266880
1.5176116 -1.678166 0.077397943 4289483520
1.6933712 -1.872068 0.10073351 4290397440
1.6879916 -1.8659873 0.1148676 4290397440
1.6457462 -1.8192159 0.12600717 4290136320
1.5256997 -1.6865829 0.12978417 4289614080
1.6931224 -1.8712254 0.15785915 4290397440
1.6949353 -1.8730847 0.17192943 4290397440
1.6708863 -1.8464067 0.18303959 4290266880
1.5989512 -1.7668972 0.18799652 4290005760
1.7064263 -1.8853401 0.21386488 4290528000
1.7017972 -1.8800925 0.22639582 4290528000
1.696267 -1.8738518 0.23847923 4290397440
1.6502856 -1.8229934 0.24428192 4290266880
1.5526334 -1.7151525 0.24118912 4289744640
1.6894721 -1.8659416 0.27417102 4290397440
1.6890278 -1.8653146 0.28571364 4290397440
1.6805198 -1.8557961 0.29552245 4290397440
1.6271414 -1.7968041 0.29676709 4290136320
1.5885764 -1.7541537 0.29976964 4289875200
1.6798389 -1.8546412 0.32705197 4290397440
1.6477282 -1.8191092 0.33048198 4290266880
1.6240797 -1.7929109 0.33490112 4290136320
1.5763021 -1.7401209 0.3336086 4289875200
1.5975453 -1.7634109 0.34628987 4290005760
1.5161785 -1.6736141 0.33619842 4289614080
1.4593055 -1.6108226 0.330452 4289352960
1.4487568 -1.5990863 0.33442861 4289222400
1.4482028 -1.5983651 0.3402617 4289222400
1.4417061 -1.591097 0.34428835 4289222400
1.441218 -1.5904503 0.34931457 4289222400
1.4341327 -1.5825367 0.35232309 4289222400
1.4277523 -1.5754013 0.35505193 4289222400
1.4081565 -1.5537112 0.35403219 4289091840
1.4012038 -1.5459497 0.35568643 4289091840
1.3883327 -1.531672 0.35538992 4288961280
1.3847853 -1.5276644 0.35701454 4288961280
1.384596 -1.527356 0.35907474 4288961280
1.3844527 -1.527099 0.36072621 4288961280
1.3843564 -1.5268945 0.36196727 4288961280
1.3843075 -1.5267429 0.36279657 4288961280
1.3809954 -1.5229995 0.36235046 4288961280
1.3909774 -1.5338919 0.36494267 4288961280
1.3943855 -1.5375472 0.36539325 4288961280
1.4071163 -1.5514644 0.36783302 4289091840
1.4132736 -1.5581454 0.3681218 4289091840
1.4267694 -1.5729029 0.36985597 4289222400
1.4330274 -1.5796942 0.36926791 4289222400
1.4366829 -1.5836214 0.36756608 4289222400
1.4370699 -1.5839524 0.36459723 4289222400
1.4467869 -1.5945497 0.36352995 4289222400
1.4446087 -1.5920591 0.35905355 4289222400
1.476984 -1.627584 0.36259741 4289352960
1.4961418 -1.6485647 0.36233756 4289483520
1.5193368 -1.673985 0.36248344 4289614080
1.5485669 -1.7060413 0.36344531 4289744640
1.618875 -1.7832768 0.37316227 4290136320
1.6551425 -1.8230647 0.37420624 4290266880
1.6742768 -1.8440061 0.3707245 4290397440
1.6904219 -1.8616585 0.36599281 4290397440
1.6808963 -1.8505647 0.30116588 4290397440
1.6938294 -1.8646837 0.29232123 4290397440
1.694739 -1.865585 0.28099957 4290397440
1.6836016 -1.8532448 0.2674543 4290397440
1.6620438 -1.8294531 0.2522009 4290266880
1.6859276 -1.8556077 0.24348077 4290397440
1.6834115 -1.8527462 0.23055795 4290397440
1.6641802 -1.8315163 0.21527818 4290266880
1.6592411 -1.8259945 0.20177567 4290266880
1.6756717 -1.8439558 0.19053085 4290266880
1.6828239 -1.8517205 0.17784734 4290397440
1.667372 -1.8346488 0.1626773 4290266880
1.6679896 -1.8352344 0.14899732 4290266880
1.6003319 -1.7608117 0.12970017 4289875200
1.4522403 -1.5980351 0.1056565 4289222400
1.4048344 -1.545879 0.090328448 4288961280
1.4108583 -1.5524184 0.078611262 4288961280
1.416647 -1.558699 0.066694938 4288961280
1.4147471 -1.5565343 0.054322116 4288961280
1.3892421 -1.5284446 0.041256115 4288830720
1.3993735 -1.5394952 0.029287327 4288961280
1.4028625 -1.54325 0.017038131 4288961280
1.3987261 -1.5386307 0.0046942621 4288961280
1.3843904 -1.5228125 -0.0075126989 4288830720
1.3901445 -1.5290546 -0.019772274 4288830720
1.3881185 -1.5267539 -0.031922068 4288830720
1.3973879 -1.5368546 -0.044375196 4288961280
1.3936867 -1.5327145 -0.05640031 4288830720
1.4092866 -1.5497633 -0.069273144 4288961280
1.4111875 -1.5517724 -0.081531741 4288961280
1.4056214 -1.5455848 -0.093230098 4288961280
1.403223 -1.5428745 -0.10497342 4288961280
1.4106671 -1.550967 -0.1173931 4288961280
1.4163723 -1.5571502 -0.12964804 4288961280
1.4073486 -1.5471681 -0.14036939 4288961280
1.4092671 -1.5491947 -0.15198317 4288961280
1.4210902 -1.5620897 -0.16462007 4289091840
1.4286427 -1.570297 -0.17673039 4289091840
1.4196631 -1.5603634 -0.18657289 4289091840
1.3792562 -1.5159491 -0.19166978 4288830720
1.4153126 -1.5554289 -0.20722879 4288961280
1.4217552 -1.5624156 -0.21850394 4289091840
1.4178166 -1.5580131 -0.22794874 4289091840
1.4145842 -1.5543852 -0.23720385 4289091840
1.3640577 -1.4988806 -0.23785226 4288830720
1.4290273 -1.5700619 -0.25858283 4289091840
1.4283205 -1.5692027 -0.26749089 4289091840
1.4379728 -1.5797038 -0.27810284 4289222400
1.4256946 -1.5661533 -0.28412437 4289091840
1.4190913 -1.5588267 -0.29085118 4289091840
1.4038682 -1.5420485 -0.29535264 4288961280
1.4104482 -1.5491781 -0.30407804 4289091840
1.4124762 -1.5513153 -0.31151479 4289091840
1.4200896 -1.5595756 -0.31987825 4289091840
1.4218297 -1.5613952 -0.3265897 4289091840
1.4206166 -1.5599767 -0.33224729 4289091840
1.4142247 -1.5528809 -0.33627599 4289091840
1.4089787 -1.5470412 -0.34014598 4289091840
1.4019121 -1.5392063 -0.34313852 4288961280
1.400485 -1.5375522 -0.34709084 4288961280
1.4034308 -1.5406899 -0.35173172 4288961280
1.3790177 -1.5138456 -0.34902894 4288961280
1.37683 -1.5113577 -0.3515 4288830720
1.3792336 -1.5139004 -0.35473734 4288961280
1.3561367 -1.4885025 -0.35094577 4288830720
1.3619542 -1.494785 -0.35422438 4288830720
1.3585231 -1.4909341 -0.35467881 4288830720
1.3684177 -1.5016806 -0.35821301 4288830720
1.3617638 -1.4942983 -0.35698488 4288830720
1.3760511 -1.5098531 -0.36084646 4288830720
1.3728148 -1.5062128 -0.35967597 4288830720
1.3814762 -1.5156024 -0.36120874 4288961280
1.3964162 -1.5318655 -0.36394897 4288961280
1.3992956 -1.5349193 -0.36309341 4288961280
1.4131982 -1.5500418 -0.3646605 4289091840
1.4210739 -1.5585629 -0.36420736 4289091840
1.4126148 -1.5491987 -0.35913199 4289091840
1.4188851 -1.5559598 -0.35739917 4289091840
1.4233204 -1.5607107 -0.35476059 4289091840
1.4193652 -1.5562758 -0.34961113 4289091840
1.4138216 -1.5501026 -0.34369335 4289091840
1.4126432 -1.548707 -0.33846524 4289091840
1.4051305 -1.5403788 -0.33135542 4288961280
1.3961927 -1.5304917 -0.32359108 4288961280
1.3955301 -1.5296602 -0.31741992 4288961280
1.4059489 -1.5409527 -0.31337157 4288961280
1.4228851 -1.5593736 -0.31029499 4289091840
1.4236358 -1.5600847 -0.30323413 4289091840
1.4120455 -1.547295 -0.29324576 4289091840
1.391259 -1.5244474 -0.28118291 4288961280
1.4017686 -1.5358329 -0.27521387 4288961280
1.4140631 -1.5491682 -0.2691527 4289091840
1.418208 -1.5535887 -0.26113039 4289091840
1.4007862 -1.5344248 -0.24890859 4288961280
1.3951663 -1.5281677 -0.23866731 4288961280
1.4170424 -1.5519739 -0.23278174 4288961280
1.420302 -1.5554234 -0.22338858 4289091840
1.4203619 -1.5553739 -0.21321855 4289091840
1.3921026 -1.524368 -0.1987382 4288830720
1.4087044 -1.542401 -0.19057655 4288961280
1.4108829 -1.5446669 -0.18009804 4288961280
1.4147267 -1.5487521 -0.16959077 4288961280
1.385399 -1.516587 -0.1550864 4288830720
1.4147166 -1.5485084 -0.14704384 4288961280
1.4167819 -1.5506483 -0.13572606 4288961280
1.409113 -1.5421526 -0.12336417 4288961280
1.3920852 -1.5234339 -0.11024386 4288830720
1.3964003 -1.5280323 -0.098827034 4288830720
1.4023582 -1.5344239 -0.087335914 4288961280
1.3949558 -1.5262223 -0.074915804 4288830720
1.3892163 -1.519838 -0.062620275 4288830720
1.3999932 -1.531491 -0.050980389 4288830720
1.4109035 -1.5432879 -0.039103869 4288961280
1.3981478 -1.5292428 -0.026516613 4288830720
1.4026721 -1.5340656 -0.014324547 4288961280
1.412596 -1.5447826 -0.0020545046 4288961280
1.4246517 -1.557825 0.01040261 4288961280
1.404575 -1.5357916 0.022585295 4288961280
1.4751163 -1.6126673 0.036514692 4289222400
1.6404797 -1.7930176 0.054678626 4290136320
1.6514376 -1.8048394 0.069353603 4290136320
1.533424 -1.6759248 0.077769093 4289614080
1.6856526 -1.8418977 0.099735864 4290266880
1.6847192 -1.8407395 0.11400971 4290266880
1.6630471 -1.8169566 0.12658921 4290266880
1.5483012 -1.6916456 0.13092168 4289614080
1.6867737 -1.8425628 0.15636429 4290266880
1.6896269 -1.845536 0.17039667 4290397440
1.6576868 -1.8105624 0.18054269 4290136320
1.6091986 -1.7575477 0.18806849 4290005760
1.6911706 -1.846804 0.21071149 4290397440
1.7100177 -1.8672168 0.22611909 4290397440
1.6857021 -1.8405665 0.23558542 4290397440
1.596482 -1.7431602 0.23496749 4289875200
1.5592176 -1.7024078 0.24073927 4289744640
1.6908934 -1.8458174 0.27273604 4290397440
1.6751789 -1.8285533 0.28166676 4290266880
1.6674643 -1.8200115 0.29145691 4290266880
1.5800451 -1.7246076 0.28648379 4289875200
1.5267265 -1.666379 0.2864252 4289614080
1.6771833 -1.8302063 0.32453403 4290266880
1.6482238 -1.7985209 0.32854724 4290136320
1.6217486 -1.7695473 0.33236289 4290005760
1.5796968 -1.723609 0.33225799 4289875200
1.5984011 -1.7438625 0.34433112 4290005760
1.5258837 -1.6647482 0.33623916 4289614080
1.4686466 -1.6022888 0.33048865 4289352960
1.4553562 -1.5877024 0.33385345 4289222400
1.4514583 -1.5833476 0.33889869 4289222400
1.4442539 -1.5753932 0.34274259 4289222400
1.4377551 -1.5682088 0.34630561 4289222400
1.4339658 -1.5639762 0.35007969 4289091840
1.4142004 -1.542351 0.34950322 4289091840
1.4044924 -1.5316784 0.35090312 4288961280
1.4008328 -1.5275924 0.35335976 4288961280
1.4038857 -1.5308146 0.35708317 4288961280
1.3969806 -1.5231979 0.35786819 4288961280
1.3934561 -1.5192623 0.35907704 4288961280
1.3966446 -1.5226339 0.36158204 4288961280
1.3932146 -1.518803 0.36196274 4288961280
1.383834 -1.5084982 0.36037546 4288961280
1.3898318 -1.5149286 0.36233893 4288961280
1.3898793 -1.5148848 0.36233902 4288961280
1.3966413 -1.5221468 0.36365065 4288961280
1.4001195 -1.5258363 0.3636829 4288961280
1.4129812 -1.5397338 0.36569574 4289091840
1.4225605 -1.5500596 0.3664133 4289091840
1.4361925 -1.5647931 0.36770654 4289222400
1.4425384 -1.5716008 0.366685 4289222400
1.4462636 -1.5755582 0.36455438 4289222400
1.4533722 -1.5831954 0.3628208 4289222400
1.4631987 -1.5937878 0.36129504 4289352960
1.4764123 -1.6080627 0.36011398 4289352960
1.4996978 -1.6332883 0.36083925 4289483520
1.5257125 -1.6614788 0.36163032 4289614080
1.5524523 -1.6904552 0.36197957 4289744640
1.6165154 -1.7600044 0.37019068 4290005760
1.6606867 -1.8079225 0.37299579 4290266880
1.6843035 -1.833493 0.37048474 4290397440
1.6851493 -1.8343102 0.36246011 4290397440
1.6691195 -1.8162488 0.29716969 4290266880
1.6892011 -1.8379712 0.28967419 4290397440
1.6901077 -1.8388588 0.27845508 4290397440
1.6718042 -1.8188773 0.26390642 4290266880
1.6726741 -1.8197271 0.25218484 4290266880
1.6859914 -1.8340987 0.24194057 4290266880
1.6868258 -1.8349099 0.22955094 4290266880
1.6657077 -1.8118773 0.21410255 4290266880
1.6545143 -1.7996268 0.19992658 4290136320
1.672946 -1.8195525 0.1890135 4290266880
1.6904715 -1.8384926 0.17750825 4290397440
1.6694361 -1.8155557 0.16183877 4290266880
1.6572057 -1.8021826 0.14710458 4290136320
1.6301806 -1.7727466 0.13123895 4290005760
1.4750695 -1.6042396 0.10660232 4289222400
1.4064398 -1.5296453 0.089854285 4288961280
1.4293572 -1.5544496 0.079108812 4288961280
1.4290899 -1.5540814 0.066834852 4288961280
1.427178 -1.5519283 0.054432914 4288961280
1.4015104 -1.523988 0.041337859 4288830720
1.417804 -1.5415981 0.029457899 4288961280
1.4191452 -1.542977 0.017102849 4288961280
1.4076664 -1.5304415 0.0046807523 4288961280
1.3973886 -1.5192106 -0.0075540799 4288830720
1.4085156 -1.5312104 -0.019932454 4288961280
1.4105411 -1.533332 -0.032263074 4288961280
1.4097054 -1.5323488 -0.04449999 4288961280
1.4154637 -1.5385203 -0.056947928 4288961280
1.4243875 -1.5481259 -0.06959217 4288961280
1.426299 -1.5501221 -0.081902847 4288961280
1.4179875 -1.5410271 -0.093470953 4288961280
1.41649 -1.539325 -0.105312 4288961280
1.4230626 -1.5463773 -0.11769056 4288961280
1.4288027 -1.5525258 -0.12997337 4288961280
1.4190437 -1.5418614 -0.14065425 4288961280
1.426618 -1.5499984 -0.1529012 4288961280
1.4335457 -1.5574329 -0.16502656 4289091840
1.4411446 -1.5655943 -0.17716312 4289091840
1.4348066 -1.5586404 -0.18738693 4289091840
1.3948139 -1.5151908 -0.19262271 4288830720
1.4348724 -1.5585501 -0.20878476 4289091840
1.4391617 -1.5631199 -0.21979839 4289091840
1.4363053 -1.5599408 -0.22947989 4289091840
1.4303526 -1.5534048 -0.23834708 4289091840
1.3889267 -1.5084113 -0.24068289 4288830720
1.4415153 -1.5653411 -0.25920507 4289091840
1.4484369 -1.5727605 -0.26956254 4289222400
1.4532027 -1.5778418 -0.27928558 4289222400
1.4408429 -1.5643593 -0.2853418 4289091840
1.4341941 -1.5570678 -0.29210201 4289091840
1.4255842 -1.5476509 -0.29804546 4289091840
1.4288445 -1.5510987 -0.30611339 4289091840
1.4315512 -1.5539458 -0.31374305 4289091840
1.4363904 -1.5591024 -0.32151908 4289091840
1.4342531 -1.5566987 -0.32737139 4289091840
1.4357101 -1.5581889 -0.33366778 4289091840
1.4259264 -1.5475001 -0.33692503 4289091840
1.4246619 -1.546041 -0.34177163 4289091840
1.4235703 -1.5447687 -0.34625629 4289091840
1.4161088 -1.5365962 -0.34875804 4289091840
1.4157271 -1.5360922 -0.35258111 4289091840
1.3978435 -1.5166312 -0.351574 4288961280
1.3916281 -1.5098093 -0.35304514 4288961280
1.3947139 -1.5130601 -0.35646498 4288961280
1.380824 -1.4979268 -0.35509813 4288830720
1.3773216 -1.4940429 -0.35597062 4288830720
1.3805488 -1.4974453 -0.35817102 4288830720
1.3804839 -1.4972821 -0.35909823 4288830720
1.373787 -1.4899384 -0.35787129 4288830720
1.3738204 -1.4898808 -0.35798225 4288830720
1.3909208 -1.5082976 -0.36213312 4288961280
1.3996377 -1.5176368 -0.3636612 4288961280
1.3989638 -1.5168098 -0.36231121 4288961280
1.4148984 -1.5339576 -0.36483642 4289091840
1.4255476 -1.5453824 -0.36553425 4289091840
1.429175 -1.5492064 -0.36397696 4289091840
1.4309808 -1.5510579 -0.36151978 4289091840
1.4339478 -1.554165 -0.35892552 4289091840
1.432389 -1.5523745 -0.3547743 4289091840
1.4344338 -1.554482 -0.35110521 4289091840
1.4277552 -1.5471517 -0.34490159 4289091840
1.4283427 -1.5476816 -0.34008044 4289091840
1.4209865 -1.5396185 -0.33299366 4289091840
1.4111217 -1.5288427 -0.32500044 4288961280
1.405758 -1.5229357 -0.31773746 4288961280
1.4310143 -1.5501418 -0.31696916 4289091840
1.4386625 -1.5583034 -0.31177062 4289091840
1.4360609 -1.5553802 -0.30396226 4289091840
1.4277599 -1.5462949 -0.29465353 4289091840
1.4068443 -1.5235724 -0.28255421 4288961280
1.4201162 -1.5378107 -0.27707544 4288961280
1.4264321 -1.5445271 -0.26980665 4289091840
1.4366693 -1.5554806 -0.26287985 4289091840
1.4198157 -1.5371522 -0.25071847 4288961280
1.4107921 -1.5272881 -0.2398347 4288961280
1.4260602 -1.5436757 -0.23279536 4288961280
1.4387951 -1.557323 -0.22489011 4289091840
1.4370728 -1.5553472 -0.21438514 4289091840
1.4077209 -1.5235204 -0.19971824 4288961280
1.4186208 -1.5351826 -0.19071944 4288961280
1.4266261 -1.543716 -0.18097769 4288961280
1.4237257 -1.5404679 -0.16960438 4288961280
1.4036949 -1.5187175 -0.15616581 4288830720
1.4237143 -1.5402246 -0.14705744 4288961280
1.4291819 -1.5460132 -0.13606638 4288961280
1.425813 -1.5422589 -0.12406025 4288961280
1.414507 -1.5299348 -0.11134172 4288961280
1.4181746 -1.5337789 -0.099763282 4288961280
1.4180633 -1.5335424 -0.087777987 4288961280
1.4201224 -1.5356491 -0.075819619 4288961280
1.4075571 -1.5219691 -0.063071802 4288830720
1.4218007 -1.5372272 -0.051477596 4288961280
1.4232683 -1.5386941 -0.039215393 4288961280
1.4138297 -1.5283911 -0.026667099 4288961280
1.4278984 -1.5434562 -0.014525282 4288961280
1.4344871 -1.5504479 -0.0021040037 4288961280
1.4371022 -1.5531515 0.010409039 4289091840
1.3980566 -1.5109088 0.022346295 4288830720
1.5075978 -1.6289636 0.037038438 4289352960
1.644791 -1.7768285 0.054467965 4290005760
1.6490119 -1.7812461 0.068814486 4290136320
1.6127203 -1.7419693 0.081168517 4289875200
1.683446 -1.8181109 0.098976307 4290266880
1.6893013 -1.8242873 0.1135899 4290266880
1.6183386 -1.7476317 0.12246194 4289875200
1.5486252 -1.6723349 0.13012099 4289614080
1.6872987 -1.8217149 0.15542302 4290266880
1.6782932 -1.8118699 0.1681979 4290266880
1.6587107 -1.7906247 0.17951138 4290136320
1.6160204 -1.744476 0.1876639 4289875200
1.6951233 -1.8296022 0.20986485 4290266880
1.7046063 -1.8396859 0.22398703 4290397440
1.6828517 -1.8161057 0.23370607 4290266880
1.5903636 -1.7163105 0.23259884 4289875200
1.575876 -1.7005738 0.24175268 4289744640
1.6880915 -1.8213493 0.27056992 4290266880
1.6824235 -1.8151095 0.28109056 4290266880
1.6685792 -1.8000636 0.28981093 4290266880
1.5839872 -1.7088138 0.28538242 4289744640
1.5269579 -1.6472648 0.28466311 4289483520
1.684111 -1.8164006 0.32381046 4290266880
1.6697822 -1.8008393 0.33071581 4290266880
1.6252892 -1.7527984 0.33098435 4290005760
1.5897117 -1.7143651 0.33224285 4289875200
1.5957369 -1.7207313 0.34159568 4289875200
1.5254582 -1.6449468 0.33402929 4289483520
1.4712272 -1.5864496 0.32898089 4289222400
1.4672722 -1.5820819 0.33444837 4289222400
1.450572 -1.5639966 0.33656156 4289222400
1.4500468 -1.5633237 0.34194189 4289222400
1.446867 -1.5597948 0.34629184 4289222400
1.4302901 -1.5418491 0.34699166 4289091840
1.4070451 -1.5167311 0.34555984 4288961280
1.4066783 -1.5162348 0.34923473 4288961280
1.4029965 -1.5121723 0.35167581 4288961280
1.4060696 -1.5153786 0.35538545 4288961280
1.405831 -1.5150223 0.35785484 4288961280
1.4022837 -1.5111073 0.35906371 4288961280
1.4021378 -1.5108525 0.36071181 4288961280
1.408747 -1.5178641 0.36366904 4288961280
1.4053429 -1.514106 0.36363703 4288961280
1.4086951 -1.5176151 0.36491394 4288961280
1.3986814 -1.5067508 0.36232573 4288961280
1.4021316 -1.5103667 0.3627755 4288961280
1.4022765 -1.5104288 0.36194986 4288961280
1.4091794 -1.5177578 0.36242616 4288961280
1.4188164 -1.5280261 0.36315855 4289091840
1.4318603 -1.5419564 0.36430076 4289091840
1.4456277 -1.5566635 0.36515537 4289222400
1.4520603 -1.5634851 0.36370525 4289222400
1.4592125 -1.5710801 0.36197942 4289222400
1.4657395 -1.5780028 0.35964361 4289222400
1.4823947 -1.5958107 0.35929081 4289352960
1.5024632 -1.6172855 0.3592281 4289483520
1.5259479 -1.6424296 0.35941252 4289483520
1.5461218 -1.6640137 0.35824755 4289614080
1.6105818 -1.7331818 0.36652207 4290005760
1.6731085 -1.8002656 0.37340498 4290266880
1.6888912 -1.8171213 0.36915147 4290397440
1.686367 -1.8143084 0.36043969 4290266880
1.6762894 -1.8028487 0.29655987 4290266880
1.6931105 -1.8208169 0.2885136 4290266880
1.6906317 -1.8180587 0.27678919 4290266880
1.6694959 -1.7952678 0.261888 4290266880
1.6737543 -1.7997463 0.25075939 4290266880
1.6864719 -1.8133069 0.24048682 4290266880
1.6906998 -1.817752 0.22862586 4290266880
1.6599375 -1.784633 0.21202645 4290136320
1.6452686 -1.7687942 0.19757092 4290005760
1.6801199 -1.8061144 0.18862036 4290266880
1.6740237 -1.7994788 0.17469557 4290136320
1.6610434 -1.785455 0.1600222 4290136320
1.6540672 -1.777877 0.14590551 4290136320
1.640481 -1.763206 0.1312234 4290005760
1.5034572 -1.6160668 0.10793083 4289352960
1.4316748 -1.5389546 0.090854943 4288961280
1.4417957 -1.5497377 0.079277702 4289091840
1.4476601 -1.5559525 0.067251228 4289091840
1.4396033 -1.5472301 0.054543719 4288961280
1.4233174 -1.5296795 0.04168598 4288961280
1.4369879 -1.5442694 0.029641511 4288961280
1.4281106 -1.5346688 0.017089304 4288961280
1.4264866 -1.5328503 0.0046867207 4288961280
1.4123527 -1.5176125 -0.0076086372 4288830720
1.4208219 -1.526621 -0.01999834 4288961280
1.4255868 -1.5316557 -0.032424014 4288961280
1.4254267 -1.5314075 -0.044736095 4288961280
1.4244031 -1.530233 -0.056961432 4288961280
1.4367907 -1.5434411 -0.069775477 4288961280
1.4393353 -1.5460925 -0.082151353 4288961280
1.4364798 -1.5429528 -0.094120979 4288961280
1.4322455 -1.5383348 -0.10583701 4288961280
1.4431816 -1.5499829 -0.11863246 4289091840
1.444631 -1.5514585 -0.13061036 4289091840
1.4314052 -1.5372003 -0.1410069 4288961280
1.4390255 -1.5452914 -0.15328099 4289091840
1.4589155 -1.5665343 -0.1669257 4289091840
1.4572437 -1.5646619 -0.17804007 4289091840
1.4430064 -1.5493207 -0.18728849 4289091840
1.4131261 -1.5172143 -0.19395155 4288961280
1.4507167 -1.5574238 -0.20978738 4289091840
1.4543509 -1.5612375 -0.22074546 4289091840
1.4555426 -1.5624325 -0.23111954 4289091840
1.4461575 -1.5522932 -0.23949036 4289091840
1.4044669 -1.5075377 -0.24187014 4288830720
1.4600917 -1.5670587 -0.26092267 4289222400
1.4670519 -1.5744319 -0.27133843 4289222400
1.4657534 -1.5729561 -0.27994883 4289222400
1.4627808 -1.5696862 -0.28789678 4289222400
1.4412727 -1.5465599 -0.29171529 4289091840
1.4379545 -1.5429207 -0.29876414 4289091840
1.4455249 -1.5509444 -0.30776694 4289091840
1.44487 -1.5501567 -0.31469509 4289091840
