# .PCD v0.7 - Point Cloud Data file format
VERSION 0.7
FIELDS x y z rgba
SIZE 4 4 4 4
TYPE F F F U
COUNT 1 1 1 1
WIDTH 1104
HEIGHT 1
VIEWPOINT 0 0 0 1 0 0 0
POINTS 1104
DATA ascii
3.3205564 -1.3443044 -0.15490834 4293922560
3.3221767 -1.3448365 -0.13428044 4293922560
3.2993329 -1.3354672 -0.1126569 4293922560
3.3226852 -1.3447946 -0.092493407 4293922560
3.338304 -1.3509909 -0.071774565 4294053120
3.3352249 -1.3496206 -0.050502338 4294053120
3.3158514 -1.3416582 -0.029077377 4293922560
3.3403664 -1.3514518 -0.0079818601 4294053120
3.3419418 -1.3519646 0.013338448 4294053120
3.3216755 -1.343643 0.034433104 4293922560
3.3540106 -1.3565964 0.056102559 4294053120
3.372508 -1.3639516 0.077797428 4294183680
3.3803649 -1.3670028 0.099324018 4294183680
3.3081157 -1.3376654 0.11798501 4293922560
3.3650339 -1.3605529 0.14101025 4294183680
3.3630006 -1.3596057 0.16175324 4294183680
3.3613827 -1.3588265 0.18231186 4294183680
3.2425652 -1.3106792 0.19558772 4293661440
3.370657 -1.3623241 0.22356315 4294183680
3.3757241 -1.3642464 0.24393959 4294183680
3.3616397 -1.3584299 0.26260877 4294183680
3.2472692 -1.3120972 0.27241772 4293792000
3.3889992 -1.3692327 0.30352467 4294314240
3.4026327 -1.3746139 0.32371178 4294314240
3.3943155 -1.3711281 0.34148028 4294314240
3.3484061 -1.3524605 0.35479602 4294183680
3.1413698 -1.2687285 0.34932807 4293400320
3.3825064 -1.3659815 0.39339906 4294314240
3.3793082 -1.3645647 0.40985188 4294314240
3.3668962 -1.3594285 0.42464834 4294183680
3.3321209 -1.3452655 0.43592173 4294053120
3.1882589 -1.2870727 0.43162391 4293530880
3.381592 -1.3649857 0.47263503 4294314240
3.3892982 -1.3679706 0.48806655 4294314240
3.367379 -1.359 0.49862015 4294183680
3.3565812 -1.3545187 0.51011544 4294183680
3.3315408 -1.3442918 0.51872575 4294183680
3.2842844 -1.3251044 0.52302092 4293922560
3.3722081 -1.3604505 0.54834849 4294314240
3.3829651 -1.3646649 0.56083274 4294314240
3.3701925 -1.3593889 0.56876433 4294314240
3.3744712 -1.3609903 0.57888341 4294314240
3.3544765 -1.3528033 0.58412725 4294183680
3.3625121 -1.35592 0.59353346 4294314240
3.3491082 -1.3503923 0.598454 4294183680
3.3539083 -1.3522043 0.60590386 4294183680
3.3321648 -1.3433164 0.6078226 4294183680
3.340564 -1.3465796 0.61449599 4294183680
3.3444946 -1.3480412 0.61964333 4294183680
3.3197694 -1.3379548 0.61873388 4294183680
3.3156965 -1.336192 0.62091058 4294183680
3.3108237 -1.3341074 0.6221984 4294053120
3.315203 -1.3357506 0.62448823 4294183680
3.3429699 -1.346815 0.63045114 4294183680
3.3384435 -1.3448697 0.62959051 4294183680
3.3386025 -1.3448119 0.62886959 4294183680
3.3378232 -1.3443762 0.62723011 4294183680
3.3245044 -1.3388913 0.62250549 4294183680
3.3375447 -1.344021 0.62197596 4294183680
3.3505087 -1.3491191 0.62067342 4294183680
3.3648462 -1.3547691 0.61886108 4294314240
3.3570895 -1.3515244 0.61225361 4294314240
3.3638394 -1.3541194 0.60757065 4294314240
3.3523021 -1.3493538 0.5988856 4294183680
3.3574946 -1.3513218 0.59249693 4294314240
3.354645 -1.3500534 0.58399302 4294183680
3.3498158 -1.3479887 0.57448238 4294183680
3.3447623 -1.3458344 0.56429076 4294183680
3.3621984 -1.3527277 0.55719626 4294183680
3.3829057 -1.3609357 0.54987931 4294314240
3.370332 -1.355756 0.53649712 4294314240
3.3592906 -1.3511935 0.52282053 4294183680
3.3396645 -1.342523 0.42958036 4294053120
3.3645623 -1.3524096 0.4167504 4294183680
3.3746862 -1.3563572 0.40145254 4294183680
3.3491507 -1.3459746 0.38154247 4294183680
3.3372982 -1.3410916 0.3629497 4294053120
3.3516743 -1.3467478 0.34678385 4294183680
3.3613112 -1.3504988 0.32961103 4294183680
3.3330405 -1.3390217 0.3084597 4294053120
3.3213494 -1.3342062 0.28871769 4294053120
3.3368225 -1.3403015 0.27098915 4294053120
3.3544447 -1.3472587 0.25294209 4294053120
3.3565156 -1.3479699 0.23332755 4294053120
3.326925 -1.3359684 0.21141943 4294053120
3.3579886 -1.3483206 0.19311379 4294053120
3.3682568 -1.3523225 0.17314871 4294183680
3.355202 -1.3469613 0.15181112 4294053120
3.3249257 -1.3346889 0.12979424 4293922560
3.3341923 -1.3382889 0.10930214 4294053120
3.3325639 -1.337516 0.08828257 4294053120
3.3342054 -1.3380553 0.06724862 4294053120
3.3145161 -1.3300358 0.045822587 4293922560
3.3277421 -1.3352233 0.024835465 4293922560
3.3333061 -1.3373362 0.0036400727 4294053120
3.2967188 -1.3225408 -0.017410306 4293922560
3.3101141 -1.3277954 -0.038566269 4293922560
3.3288267 -1.3351816 -0.059952363 4293922560
3.3320055 -1.3363371 -0.081137575 4294053120
3.3066046 -1.3260324 -0.10140293 4293922560
3.3232737 -1.3325974 -0.1228005 4293922560
3.345248 -1.3412882 -0.14450876 4294053120
3.3390689 -1.3386912 -0.16494751 4294053120
3.3028698 -1.3240615 -0.18346788 4293922560
3.3262587 -1.3333175 -0.2050264 4294053120
3.3248365 -1.3326284 -0.224971 4293922560
3.323005 -1.3317751 -0.24462868 4293922560
3.3206692 -1.3307201 -0.26396298 4293922560
3.3420167 -1.339154 -0.28500694 4294053120
3.3493366 -1.3419666 -0.3047125 4294053120
3.3549225 -1.3440841 -0.32400385 4294183680
3.3089786 -1.3255607 -0.3377454 4293922560
3.3423598 -1.3388116 -0.35914448 4294053120
3.3456433 -1.3400065 -0.37711391 4294053120
3.3397906 -1.3375425 -0.39362752 4294053120
3.3317981 -1.3342222 -0.40938613 4294053120
3.2646265 -1.3072087 -0.41705409 4293792000
3.3607523 -1.345574 -0.44524977 4294183680
3.3627141 -1.3462384 -0.46093985 4294183680
3.3597286 -1.3449222 -0.47543436 4294183680
3.3610804 -1.3453423 -0.49000412 4294183680
3.3394744 -1.3365746 -0.50059497 4294183680
3.3298576 -1.3326058 -0.51229346 4294053120
3.3218992 -1.3293014 -0.52360177 4294053120
3.3285983 -1.3318617 -0.53662235 4294053120
3.3187401 -1.3277978 -0.54635602 4294053120
3.32932 -1.3319099 -0.55883348 4294183680
3.323524 -1.3294712 -0.5679422 4294053120
3.3294132 -1.3317064 -0.57839787 4294183680
3.3236489 -1.3292809 -0.58616847 4294053120
3.3165245 -1.3263117 -0.59299409 4294053120
3.3076727 -1.3226522 -0.59879184 4294053120
3.2996283 -1.3193161 -0.60400993 4294053120
3.2824156 -1.3123155 -0.60680544 4293922560
3.2793801 -1.3109831 -0.61148417 4293922560
3.2170746 -1.2859612 -0.60431403 4293792000
3.2256694 -1.2892792 -0.60968405 4293792000
3.2380283 -1.2941008 -0.61507994 4293792000
3.2294648 -1.2905612 -0.61579347 4293792000
3.2292447 -1.2903557 -0.61737609 4293792000
3.2245677 -1.2883694 -0.61738783 4293792000
3.2154336 -1.2846032 -0.6158269 4293792000
3.2735066 -1.3076822 -0.62640983 4293922560
3.2924669 -1.3151354 -0.62876439 4294053120
3.2917707 -1.3147371 -0.6266284 4294053120
3.2956443 -1.3161637 -0.62463176 4294053120
3.3076589 -1.3208405 -0.62343735 4294053120
3.3188851 -1.3252015 -0.62134492 4294053120
3.3196268 -1.3253762 -0.61655521 4294053120
3.3224909 -1.3263978 -0.61144072 4294183680
3.3269827 -1.3280689 -0.60590637 4294183680
3.3215728 -1.3257879 -0.59787357 4294053120
3.3173563 -1.3239833 -0.58938897 4294053120
3.3103919 -1.3210825 -0.57976687 4294053120
3.3098378 -1.3207399 -0.57062232 4294053120
3.2948008 -1.3146192 -0.55837452 4294053120
3.3054764 -1.3187568 -0.54985785 4294053120
3.3291194 -1.328066 -0.54276109 4294053120
3.3374422 -1.3312629 -0.53244376 4294183680
3.3308456 -1.3285093 -0.51913941 4294053120
3.3174973 -1.3230637 -0.504273 4294053120
3.3004098 -1.316128 -0.48839143 4293922560
3.3090227 -1.3194404 -0.47579804 4294053120
3.3240395 -1.325305 -0.46349236 4294053120
3.330435 -1.3277317 -0.4493742 4294053120
3.3060546 -1.317891 -0.43068931 4293922560
3.3000243 -1.3153656 -0.4140608 4293922560
3.3244314 -1.3249704 -0.40070331 4294053120
3.3312423 -1.3275615 -0.38462937 4294053120
3.3287222 -1.3264343 -0.36703533 4294053120
3.2939112 -1.3124424 -0.34567797 4293922560
3.300565 -1.3149713 -0.32844564 4293922560
3.3248687 -1.32453 -0.31244326 4294053120
3.3166628 -1.3211386 -0.29295957 4293922560
3.2870288 -1.309214 -0.27148372 4293792000
3.3101978 -1.3183187 -0.25411421 4293922560
3.3212063 -1.3225796 -0.23533958 4293922560
3.3294034 -1.3257202 -0.21600133 4294053120
3.3245292 -1.3236564 -0.19556636 4293922560
3.3097832 -1.3176634 -0.17446378 4293922560
3.3190529 -1.3212305 -0.15447801 4293922560
3.3253164 -1.3236004 -0.1340951 4293922560
3.2995589 -1.3132267 -0.11240304 4293922560
3.3304667 -1.3254035 -0.092495464 4293922560
3.3368318 -1.3278126 -0.071576886 4294053120
3.3373787 -1.3279066 -0.050418653 4294053120
3.318969 -1.3204592 -0.029038513 4293922560
3.3481863 -1.3319582 -0.0079839239 4294053120
3.3595226 -1.3363431 0.013374622 4294053120
3.3257334 -1.3227806 0.034392864 4293922560
3.3491323 -1.3319623 0.055888969 4294053120
3.367775 -1.3392512 0.077505693 4294053120
3.3785877 -1.3434254 0.09903869 4294183680
3.3065679 -1.3146687 0.11765323 4293922560
3.3648286 -1.3377057 0.14067113 4294053120
3.3708673 -1.3399814 0.16175117 4294183680
3.364604 -1.3373675 0.18205909 4294053120
3.2547879 -1.2936015 0.1958645 4293661440
3.3717787 -1.3399695 0.22311436 4294183680
3.3780849 -1.3423505 0.2435392 4294183680
3.3667994 -1.3377419 0.26239654 4294183680
3.1837959 -1.2649181 0.2664752 4293530880
3.3907344 -1.3470005 0.30297041 4294183680
3.394959 -1.3485531 0.32222813 4294314240
3.3861089 -1.3449129 0.33985999 4294183680
3.3397243 -1.3263682 0.35305083 4294053120
3.1265218 -1.2415881 0.34686714 4293269760
3.3794315 -1.3418869 0.39212447 4294183680
3.3701706 -1.3380858 0.4077909 4294183680
3.356391 -1.3324915 0.42233697 4294183680
3.3223724 -1.3188651 0.43363363 4294053120
3.2003162 -1.2703 0.43224415 4293530880
3.3672938 -1.3364475 0.46954083 4294183680
3.3710091 -1.3377979 0.48430327 4294183680
3.3798454 -1.34118 0.49929771 4294314240
3.3469291 -1.3279965 0.50746411 4294183680
3.3393178 -1.324854 0.51872373 4294183680
3.2744782 -1.2990116 0.52024537 4293922560
3.3672101 -1.3356718 0.54626054 4294183680
3.3642149 -1.3343604 0.55642736 4294183680
3.3670473 -1.3353603 0.56691021 4294183680
3.369854 -1.3363497 0.57674533 4294314240
3.3668909 -1.3350517 0.58492172 4294314240
3.3529251 -1.3293917 0.59046423 4294183680
3.3486662 -1.3275807 0.59698164 4294183680
3.3305569 -1.3202803 0.60028768 4294183680
3.331686 -1.3206061 0.60632044 4294183680
3.352936 -1.3289059 0.61533427 4294183680
3.3477116 -1.3267133 0.61879516 4294183680
3.3320899 -1.3204014 0.61958295 4294183680
3.3188462 -1.3150331 0.62005359 4294053120
3.3185413 -1.3147913 0.62219644 4294053120
3.3265936 -1.3178602 0.62517416 4294183680
3.3228552 -1.3162584 0.62520272 4294183680
3.3324857 -1.3199518 0.62700576 4294183680
3.3244007 -1.3166291 0.62473994 4294183680
3.3456001 -1.3249028 0.62722814 4294183680
3.3322496 -1.3194954 0.62250346 4294183680
3.3407385 -1.3227353 0.6211229 4294183680
3.3491495 -1.3259438 0.61897916 4294183680
3.3598511 -1.3300586 0.61650634 4294183680
3.3593268 -1.3297296 0.61123687 4294183680
3.3625021 -1.3308647 0.60591739 4294183680
3.3564386 -1.3283436 0.59823012 4294183680
3.3570528 -1.3284653 0.59104204 4294183680
3.358783 -1.3290287 0.58335376 4294183680
3.3401651 -1.321542 0.57149738 4294183680
3.3396859 -1.321232 0.56212562 4294183680
3.3608327 -1.329476 0.55567586 4294183680
3.3769855 -1.3357434 0.54764235 4294314240
3.3643756 -1.330635 0.53430545 4294183680
3.3579032 -1.3279545 0.52139062 4294183680
3.3345027 -1.3179278 0.42792079 4294053120
3.369611 -1.3316818 0.4164058 4294183680
3.3759787 -1.3340771 0.40067336 4294183680
3.3433788 -1.3210762 0.38000095 4294053120
3.321285 -1.312228 0.36037105 4294053120
3.3588364 -1.3269427 0.34671697 4294053120
3.3539569 -1.324895 0.32812676 4294053120
3.3365459 -1.3178986 0.30806658 4294053120
3.3195558 -1.3110695 0.28789169 4293922560
3.3492143 -1.3226622 0.27136245 4294053120
3.3551974 -1.3249048 0.25241101 4294053120
3.3516352 -1.3233786 0.23244739 4294053120
3.3300118 -1.3147224 0.21112353 4293922560
3.3527856 -1.323593 0.19236684 4294053120
3.3550928 -1.3243839 0.17207207 4294053120
3.3449392 -1.3202567 0.15099554 4294053120
3.3289294 -1.3138193 0.12964776 4293922560
3.3338475 -1.315641 0.10903627 4293922560
3.3375094 -1.3169668 0.088206984 4293922560
3.3283632 -1.3132392 0.066974267 4293922560
3.3222115 -1.3106936 0.045820627 4293922560
3.3224444 -1.3106668 0.024737379 4293922560
3.3361886 -1.3159691 0.0036331159 4293922560
3.2959261 -1.2999713 -0.017367251 4293792000
3.3131456 -1.3066441 -0.038513891 4293922560
3.3272505 -1.3120874 -0.059786696 4293922560
3.3255441 -1.3112959 -0.080793999 4293922560
3.3226466 -1.3100348 -0.10166135 4293922560
3.332655 -1.3138614 -0.12286412 4293922560
3.3409212 -1.3170006 -0.14398926 4294053120
3.3348143 -1.3144743 -0.16435756 4293922560
3.3105311 -1.3047854 -0.18346982 4293922560
3.3209698 -1.3087806 -0.20422824 4293922560
3.3325477 -1.3132237 -0.22497295 4293922560
3.326998 -1.3109182 -0.24435784 4293922560
3.3270605 -1.3108238 -0.26386112 4293922560
3.3497658 -1.3196487 -0.28500891 4294053120
3.3562553 -1.3220851 -0.30463761 4294053120
3.3487992 -1.3190285 -0.3226662 4294053120
3.2908556 -1.29609 -0.33512029 4293922560
3.3438139 -1.3168257 -0.35847172 4294053120
3.3484914 -1.3185477 -0.37656412 4294053120
3.3475306 -1.3180494 -0.39362946 4294053120
3.3358207 -1.3133198 -0.40893474 4294053120
3.267571 -1.2863352 -0.41646713 4293792000
3.3639212 -1.3241407 -0.44464135 4294183680
3.3621967 -1.3233414 -0.4598057 4294183680
3.3628983 -1.3234968 -0.47478506 4294183680
3.3596442 -1.3220956 -0.48866487 4294183680
3.3389139 -1.3138187 -0.49935636 4294053120
3.3311236 -1.310634 -0.51130611 4294053120
3.3282928 -1.3094007 -0.52339941 4294053120
3.3350074 -1.3119221 -0.53641552 4294053120
3.3393829 -1.3135231 -0.54848623 4294183680
3.3453033 -1.315731 -0.56022114 4294183680
3.331419 -1.3101509 -0.56797844 4294053120
3.333838 -1.310982 -0.57783109 4294183680
3.3221571 -1.3062694 -0.58455455 4294053120
3.3196094 -1.305148 -0.59217721 4294053120
3.2932997 -1.2946861 -0.59481579 4293922560
3.2806547 -1.289597 -0.59915286 4293922560
3.2854235 -1.2913527 -0.6059615 4293922560
3.2649572 -1.2831912 -0.60739207 4293922560
3.2734582 -1.2864136 -0.61348695 4293922560
3.2157128 -1.2636064 -0.6064018 4293661440
3.2235191 -1.2665569 -0.61091328 4293792000
3.2195199 -1.2648691 -0.61248302 4293792000
3.2229655 -1.2661059 -0.61475623 4293792000
3.2146115 -1.2627079 -0.6140641 4293661440
3.2717845 -1.2850447 -0.62517446 4293922560
3.2627451 -1.2813761 -0.62291288 4293922560
3.2826638 -1.2890787 -0.62544888 4293922560
3.2819636 -1.2886845 -0.62332308 4293922560
3.2986772 -1.2951267 -0.62376702 4294053120
3.3198872 -1.3033326 -0.62430125 4294053120
3.3200543 -1.3032773 -0.62013292 4294053120
3.3286071 -1.3065131 -0.61679983 4294183680
3.3257799 -1.3052824 -0.61063725 4294053120
3.3299649 -1.3068033 -0.60505384 4294053120
3.3238158 -1.3042692 -0.59690058 4294053120
3.324641 -1.3044716 -0.589324 4294053120
3.3259292 -1.3048556 -0.58114767 4294053120
3.3018568 -1.2952915 -0.56793714 4294053120
3.2978101 -1.2935836 -0.55759901 4293922560
3.3085077 -1.2976584 -0.54909629 4294053120
3.318017 -1.3012666 -0.53970724 4294053120
3.3434911 -1.3111336 -0.53218228 4294183680
3.3385334 -1.3090675 -0.51914132 4294053120
3.3251534 -1.3036997 -0.5042749 4294053120
3.2988024 -1.2932484 -0.48703164 4293922560
3.3111238 -1.2979571 -0.47500607 4293922560
3.3263562 -1.3038055 -0.46274966 4294053120
3.333499 -1.3064827 -0.44875428 4294053120
3.3090589 -1.2967834 -0.43009049 4293922560
3.3034725 -1.2944732 -0.41354153 4293922560
3.3307931 -1.3050555 -0.40054825 4294053120
3.3305919 -1.3048544 -0.38367137 4294053120
3.3448143 -1.310303 -0.36796325 4294053120
3.279264 -1.2845061 -0.3433508 4293792000
3.3082545 -1.2957392 -0.32845554 4293922560
3.3232567 -1.3014922 -0.31157526 4293922560
3.3158741 -1.2984793 -0.29221809 4293922560
3.2853198 -1.2863947 -0.2707203 4293792000
3.3141105 -1.297545 -0.25383142 4293922560
3.3258827 -1.3020312 -0.23513097 4293922560
3.337074 -1.3062892 -0.21600321 4294053120
3.3238194 -1.3009789 -0.19507681 4293922560
3.3140688 -1.2970407 -0.17428996 4293922560
3.3280101 -1.302374 -0.15454088 4293922560
3.3327706 -1.3041141 -0.13408875 4293922560
3.306299 -1.2936349 -0.11237569 4293922560
3.3192356 -1.2985739 -0.091972724 4293922560
3.3407898 -1.3068826 -0.071498871 4293922560
3.3330374 -1.3037275 -0.050238639 4293922560
3.3228836 -1.2996339 -0.029007651 4293922560
3.3335407 -1.3036789 -0.0079312874 4293922560
3.3579407 -1.3130968 0.013336325 4294053120
3.3240733 -1.299732 0.034295522 4293922560
3.3568382 -1.3124186 0.055887084 4294053120
3.3801789 -1.3214188 0.077610373 4294183680
3.3817048 -1.3218907 0.098900989 4294183680
3.3057959 -1.2920994 0.11735461 4293922560
3.3561969 -1.3116738 0.13998774 4294053120
3.3675656 -1.3159925 0.16122098 4294053120
3.3606961 -1.3131846 0.18142954 4294053120
3.1732738 -1.23984 0.19052742 4293400320
3.3572178 -1.3115788 0.22164141 4294053120
3.3728392 -1.317557 0.24260263 4294183680
3.3516786 -1.3091685 0.26061934 4294053120
3.1827555 -1.2430762 0.26577634 4293400320
3.3883185 -1.3232298 0.3020595 4294183680
3.3981206 -1.3269327 0.32178736 4294183680
3.3762662 -1.3182756 0.33809528 4294183680
3.3288555 -1.2996434 0.35109541 4294053120
3.1244378 -1.2197281 0.34584081 4293269760
3.3778172 -1.3185093 0.39103815 4294183680
3.3727643 -1.3164135 0.4071683 4294183680
3.3603044 -1.3114276 0.42185915 4294183680
3.3300016 -1.2994804 0.43363178 4294053120
3.1854799 -1.2429718 0.42925575 4293530880
3.3658578 -1.313225 0.46826479 4294183680
3.3736138 -1.3161273 0.48356616 4294183680
3.36814 -1.3138689 0.49642959 4294183680
3.3670716 -1.3133291 0.50934559 4294183680
3.3331497 -1.2999772 0.51658005 4294053120
3.2635584 -1.272719 0.51732403 4293792000
3.3659253 -1.3125132 0.54480135 4294183680
3.3648064 -1.3119541 0.55525041 4294183680
3.3609638 -1.3103335 0.56459069 4294183680
3.3597376 -1.309733 0.57369858 4294183680
3.3625627 -1.3107117 0.58283281 4294183680
3.352339 -1.306605 0.58900952 4294183680
3.3471529 -1.304462 0.59534609 4294183680
3.334518 -1.299417 0.59962535 4294183680
3.3419392 -1.3021872 0.60679293 4294183680
3.3293927 -1.2971779 0.60961866 4294053120
3.3416102 -1.3018163 0.61625487 4294183680
3.3410773 -1.3014876 0.61983138 4294183680
3.340656 -1.3012022 0.62269711 4294183680
3.3366761 -1.2995313 0.62416279 4294183680
3.3401558 -1.3007654 0.62628514 4294183680
3.3318183 -1.2973981 0.62545401 4294183680
3.3364487 -1.2990804 0.62631518 4294183680
3.3438087 -1.3018248 0.62694734 4294183680
3.3312299 -1.2968076 0.62310815 4294183680
3.3387036 -1.2995962 0.62228221 4294183680
3.3433452 -1.301282 0.62018609 4294183680
3.3522127 -1.304612 0.6181286 4294183680
3.3589139 -1.3070987 0.61492568 4294183680
3.3578293 -1.3065556 0.60956824 4294183680
3.3667631 -1.3099103 0.60529816 4294183680
3.354413 -1.3049849 0.59650314 4294183680
3.3603399 -1.3071694 0.59026843 4294183680
3.352669 -1.3040652 0.5809623 4294183680
3.334923 -1.2970434 0.56929761 4294053120
3.3427241 -1.2999572 0.56135124 4294183680
3.356787 -1.305305 0.55373967 4294183680
3.3759551 -1.3126367 0.54622483 4294183680
3.3581271 -1.305585 0.53209579 4294183680
3.3482592 -1.3016288 0.51870704 4294183680
3.3374984 -1.2966747 0.42732701 4294053120
3.3532398 -1.3026701 0.41343853 4294053120
3.3688743 -1.3086228 0.39891818 4294183680
3.3469973 -1.300006 0.37954333 4294053120
3.3162882 -1.287961 0.35900798 4293922560
3.347029 -1.2997793 0.34471065 4294053120
3.3607731 -1.3049963 0.3280423 4294053120
3.3263187 -1.2915001 0.30642217 4293922560
3.3128037 -1.286135 0.28665087 4293922560
3.3363302 -1.2951488 0.26970264 4293922560
3.349761 -1.3002428 0.25142714 4294053120
3.3453357 -1.298406 0.23148127 4294053120
3.3288314 -1.2918822 0.21056677 4293922560
3.3557878 -1.302223 0.19209898 4294053120
3.358098 -1.3029999 0.1718324 4294053120
3.343262 -1.2971246 0.15057498 4294053120
3.33653 -1.2943941 0.12964596 4293922560
3.340246 -1.2957166 0.108995 4293922560
3.3414001 -1.2960453 0.088107161 4293922560
3.3322318 -1.2923708 0.066897884 4293922560
3.3204713 -1.2876918 0.045691192 4293922560
3.3253651 -1.2894711 0.024701271 4293922560
3.3440061 -1.2965798 0.0036315382 4293922560
3.2979255 -1.278597 -0.017339658 4293792000
3.3113816 -1.2836956 -0.038407002 4293922560
3.3264508 -1.2894183 -0.059637602 4293922560
3.3284695 -1.2900823 -0.080682561 4293922560
3.3031962 -1.2801698 -0.1008367 4293792000
3.3348541 -1.2923192 -0.12266695 4293922560
3.3466804 -1.2967825 -0.14391099 4294053120
3.3414063 -1.29462 -0.16430949 4293922560
3.3134239 -1.2836612 -0.18321395 4293922560
3.3192322 -1.2857931 -0.20365848 4293922560
3.3364227 -1.2923328 -0.22472388 4293922560
3.3206275 -1.2860969 -0.24333659 4293922560
3.3346446 -1.2914064 -0.26386288 4293922560
3.3490343 -1.2968591 -0.28430027 4294053120
3.3555415 -1.2992592 -0.30388185 4294053120
3.3480716 -1.2962476 -0.32186422 4294053120
3.3029966 -1.2786801 -0.33559376 4293922560
3.3531005 -1.2979553 -0.35865188 4294053120
3.3468451 -1.2954147 -0.37552509 4294053120
3.3505213 -1.2967178 -0.39308739 4294053120
3.3341537 -1.2902646 -0.40780312 4294053120
3.2713091 -1.2658302 -0.41599777 4293792000
3.3606627 -1.3002821 -0.443203 4294183680
3.3744795 -1.3055069 -0.46043864 4294183680
3.3659325 -1.3020802 -0.47413555 4294183680
3.3635969 -1.3010565 -0.48813015 4294183680
3.3465159 -1.2943302 -0.49935815 4294053120
3.3341708 -1.2894367 -0.5106132 4294053120
3.3300538 -1.2877253 -0.52248883 4294053120
3.3389087 -1.2910296 -0.53582519 4294053120
3.334075 -1.2890412 -0.54637283 4294053120
3.343586 -1.2925981 -0.55866408 4294053120
3.3307087 -1.287501 -0.56656998 4294053120
3.3322151 -1.2879635 -0.57624054 4294053120
3.3241122 -1.2847126 -0.58357269 4294053120
3.3188798 -1.2825712 -0.5907051 4294053120
3.313216 -1.2802635 -0.59705627 4294053120
3.2963934 -1.2736452 -0.60066253 4293922560
3.2882988 -1.2703997 -0.60511744 4293922560
3.2641098 -1.2609378 -0.6058585 4293922560
3.2809019 -1.267306 -0.61348867 4293922560
3.2230246 -1.2448357 -0.60640353 4293661440
3.2225797 -1.2445477 -0.60935181 4293661440
3.2222459 -1.2443027 -0.61161304 4293661440
3.2220252 -1.2441012 -0.61318493 4293661440
3.2173257 -1.2421706 -0.61319059 4293661440
3.2792203 -1.2659467 -0.62517619 4293922560
3.2664857 -1.2609129 -0.62221479 4293922560
3.2901227 -1.2699174 -0.62545061 4293922560
3.2848268 -1.2677546 -0.62245446 4293922560
3.3139877 -1.2788881 -0.62524319 4294053120
3.3153889 -1.2793087 -0.62204432 4294053120
3.3275955 -1.2838979 -0.62013465 4294053120
3.3223758 -1.2817637 -0.61425215 4294053120
3.329654 -1.2844507 -0.60996521 4294053120
3.3329268 -1.2855922 -0.60422176 4294053120
3.3313627 -1.284868 -0.59690231 4294053120
3.3275859 -1.2832907 -0.58851177 4294053120
3.32427 -1.2818912 -0.57954407 4294053120
3.3139582 -1.2777948 -0.56872934 4294053120
3.3006864 -1.2725579 -0.55682331 4293922560
3.3114054 -1.2765697 -0.5483346 4294053120
3.3268478 -1.2824013 -0.53992015 4294053120
3.3473854 -1.2901953 -0.53159773 4294053120
3.3414903 -1.2878017 -0.51842672 4294053120
3.3280768 -1.2825115 -0.50357759 4294053120
3.3062851 -1.273994 -0.48703334 4293922560
3.3112314 -1.275779 -0.47394824 4293922560
3.3309355 -1.2832488 -0.46233994 4294053120
3.3364284 -1.285243 -0.44813415 4294053120
3.3037069 -1.2725188 -0.42842513 4293922560
3.3067925 -1.2735864 -0.4130224 4293922560
3.3299973 -1.2824012 -0.39954844 4294053120
3.3335021 -1.2836291 -0.38313982 4294053120
3.3431118 -1.287207 -0.36694586 4294053120
3.295984 -1.2689425 -0.34432292 4293792000
3.3156705 -1.2763999 -0.32844922 4293922560
3.3147924 -1.2759408 -0.31008053 4293922560
3.3187358 -1.2773372 -0.29181078 4293922560
3.2834568 -1.2636399 -0.26995668 4293792000
3.3123081 -1.2746212 -0.25312147 4293922560
3.328017 -1.2805439 -0.2347517 4293922560
3.3269305 -1.2800043 -0.2148612 4293922560
3.3173671 -1.2762038 -0.19425943 4293922560
3.3155963 -1.2754014 -0.17397784 4293922560
3.3258369 -1.2792184 -0.15409242 4293922560
3.3309882 -1.2810777 -0.13371564 4293922560
3.2959847 -1.2674962 -0.11177299 4293792000
3.3279622 -1.2796705 -0.092008047 4293922560
3.3390181 -1.2837992 -0.071300812 4293922560
3.3359127 -1.2824832 -0.0501699 4293922560
3.3219202 -1.2769828 -0.028934976 4293922560
3.3562984 -1.2900741 -0.007970022 4294053120
3.3475969 -1.2866073 0.013264657 4293922560
3.3057208 -1.2703931 0.03402923 4293792000
3.3564134 -1.2897499 0.055752762 4294053120
3.3746762 -1.2966435 0.077308416 4294053120
3.3744092 -1.2964175 0.09846437 4294053120
3.2457416 -1.2468702 0.1149664 4293661440
3.3599722 -1.2906256 0.13982768 4294053120
3.3574586 -1.2895373 0.16037436 4294053120
3.3552392 -1.2885623 0.18072586 4294053120
3.1720569 -1.2181023 0.19002406 4293400320
3.3634901 -1.2914848 0.22155325 4294053120
3.3728962 -1.2949729 0.24205877 4294053120
3.3671827 -1.2926565 0.26123226 4294053120
3.2427189 -1.2447609 0.27016613 4293661440
3.3761327 -1.2958455 0.30029511 4294183680
3.3852234 -1.2992109 0.31984404 4294183680
3.3731461 -1.294453 0.33702111 4294183680
3.3269377 -1.2766006 0.35010189 4293922560
3.1092033 -1.1929463 0.34338024 4293139200
3.374388 -1.2945603 0.3897607 4294183680
3.3717661 -1.2934316 0.40613022 4294183680
3.3721607 -1.2934601 0.42239192 4294183680
3.3225441 -1.2743093 0.43168646 4293922560
3.2581666 -1.2495018 0.43805188 4293792000
3.3594487 -1.2882177 0.46632087 4294053120
3.3768013 -1.2947482 0.48293221 4294183680
3.3674135 -1.2910265 0.4952046 4294183680
3.3570995 -1.2869506 0.50669461 4294183680
3.3323505 -1.2773428 0.51529324 4294053120
3.2579868 -1.2487221 0.51527876 4293792000
3.3652062 -1.2896913 0.54345876 4294183680
3.362648 -1.288589 0.55364537 4294183680
3.365247 -1.2894627 0.56403714 4294183680
3.3653874 -1.2893945 0.5733692 4294183680
3.361846 -1.2879159 0.58139735 4294183680
3.3506799 -1.2835172 0.58739352 4294183680
3.3371925 -1.2782303 0.59224039 4294053120
3.3445356 -1.2809216 0.60007232 4294183680
3.3365791 -1.2777539 0.60445774 4294053120
3.3441176 -1.2805197 0.61093545 4294183680
3.3233674 -1.2724547 0.61151481 4294053120
3.3311191 -1.2753022 0.61659569 4294053120
3.3260975 -1.2732598 0.61859149 4294053120
3.3395915 -1.2783045 0.62330317 4294183680
3.3393986 -1.2781101 0.62473565 4294183680
3.3393219 -1.2779604 0.6254524 4294183680
3.3301616 -1.2743351 0.62373084 4294053120
3.3292563 -1.2738689 0.62281811 4294053120
3.3504312 -1.2818497 0.62528855 4294183680
3.3379376 -1.2769501 0.62074161 4294053120
3.3462691 -1.2800169 0.61933339 4294183680
3.3569031 -1.2839636 0.61760211 4294183680
3.3618698 -1.2857424 0.61408377 4294183680
3.3589506 -1.2845054 0.60840189 4294183680
3.3568356 -1.2835763 0.60215914 4294183680
3.3621624 -1.2854924 0.59653729 4294183680
3.3632908 -1.2858032 0.5894596 4294183680
3.3513956 -1.281136 0.57943773 4294183680
3.3474321 -1.2795012 0.57014817 4294183680
3.3520999 -1.2811651 0.56166059 4294183680
3.35972 -1.283957 0.55297881 4294183680
3.3743818 -1.2894392 0.54474485 4294183680
3.3601363 -1.2838759 0.53121883 4294183680
3.3553236 -1.2819172 0.51863378 4294183680
3.3316951 -1.2721233 0.4256275 4294053120
3.3599267 -1.2827822 0.41333273 4294053120
3.3649991 -1.2845987 0.39756575 4294053120
3.3363974 -1.2735622 0.37749371 4294053120
3.315614 -1.2655114 0.35812983 4293922560
3.3490474 -1.2781521 0.34414452 4294053120
3.3539822 -1.2799159 0.3266457 4294053120
3.3158393 -1.2652434 0.30477262 4293922560
3.3076036 -1.2619835 0.28555933 4293922560
3.3382344 -1.2735507 0.26925093 4293922560
3.3395727 -1.2739425 0.25010097 4293922560
3.3339546 -1.2716811 0.23017713 4293922560
3.3269765 -1.2689015 0.20997733 4293922560
3.3515735 -1.2781627 0.19142747 4294053120
3.3571539 -1.2801715 0.17139849 4294053120
3.3535538 -1.2786796 0.15069845 4294053120
3.3262019 -1.2681334 0.12895508 4293922560
3.3502736 -1.2771912 0.10907566 4293922560
3.3359346 -1.2716068 0.08776547 4293922560
3.3248534 -1.2672651 0.066599786 4293922560
3.3245659 -1.2670376 0.045643773 4293922560
3.3247979 -1.2670079 0.024640705 4293922560
3.329397 -1.2686422 0.0036073378 4293922560
3.3061831 -1.25968 -0.017345814 4293792000
3.3154533 -1.2630941 -0.038369589 4293792000
3.330091 -1.2685519 -0.059570685 4293922560
3.3312609 -1.2688793 -0.080570944 4293922560
3.3040595 -1.2584018 -0.10063871 4293792000
3.3477442 -1.2749195 -0.1228675 4293922560
3.3513775 -1.2761841 -0.14379214 4293922560
3.3461764 -1.2740848 -0.16417757 4293922560
3.3170354 -1.2628723 -0.18300496 4293922560
3.33255 -1.2686602 -0.2040202 4293922560
3.330956 -1.2679352 -0.22385526 4293922560
3.3237734 -1.2650832 -0.24302407 4293922560
3.3257208 -1.2657061 -0.2625697 4293922560
3.3488936 -1.2744056 -0.28365433 4294053120
3.3611112 -1.278935 -0.30370751 4294053120
3.3542409 -1.2762017 -0.32173824 4294053120
3.2964368 -1.2540934 -0.33418018 4293792000
3.3429384 -1.271664 -0.35676736 4294053120
3.3555491 -1.2763413 -0.37566212 4294053120
3.3412261 -1.2707748 -0.39112258 4294053120
3.3326976 -1.2674129 -0.40671602 4293922560
3.2786324 -1.246737 -0.41599932 4293792000
3.3652136 -1.2795378 -0.44281358 4294053120
3.3693302 -1.2809829 -0.45871094 4294183680
3.3623409 -1.278206 -0.47257364 4294053120
3.3623793 -1.2781007 -0.48686555 4294183680
3.334655 -1.2674441 -0.49647906 4294053120
3.3332219 -1.2667806 -0.50932997 4294053120
3.3294582 -1.2652315 -0.52123088 4294053120
3.3371329 -1.2680286 -0.53434652 4294053120
3.3414524 -1.2695504 -0.54636127 4294053120
3.3336291 -1.2664591 -0.55575925 4294053120
3.3427742 -1.2698137 -0.56735504 4294053120
3.3396668 -1.2685139 -0.57624209 4294053120
3.3288579 -1.2642896 -0.5831036 4294053120
3.3216889 -1.2614483 -0.58988786 4294053120
3.3081706 -1.2561965 -0.59481907 4293922560
3.3000755 -1.2530047 -0.59999388 4293922560
3.3002563 -1.252955 -0.60596478 4293922560
3.2714052 -1.2418852 -0.60586005 4293922560
3.2836292 -1.2464075 -0.61263114 4293922560
3.2302268 -1.2260227 -0.60640502 4293661440
3.2251766 -1.2239903 -0.60848486 4293661440
3.2294452 -1.2254941 -0.61161458 4293661440
3.2375083 -1.2284374 -0.61475945 4293792000
3.2245126 -1.2233908 -0.61319214 4293661440
3.2819419 -1.2450598 -0.62430227 4293922560
3.2691779 -1.2401004 -0.62134165 4293922560
3.2799778 -1.2440788 -0.62213475 4293922560
3.2967653 -1.2503269 -0.6233263 4293922560
3.3130989 -1.2564017 -0.62368476 4294053120
3.3219626 -1.259643 -0.6218909 4294053120
3.3277342 -1.2617114 -0.61878097 4294053120
3.3297915 -1.2623712 -0.6142537 4294053120
3.3407722 -1.2664132 -0.61064053 4294053120
3.332181 -1.2630365 -0.60274321 4294053120
3.3313377 -1.2625966 -0.59557056 4294053120
3.3363121 -1.2643613 -0.58874291 4294053120
3.3270714 -1.2607393 -0.57874292 4294053120
3.3167341 -1.2567025 -0.56794035 4294053120
3.3038931 -1.251718 -0.5561254 4293922560
3.3100123 -1.2539165 -0.54688585 4293922560
3.325865 -1.259801 -0.53856122 4294053120
3.3438394 -1.2664878 -0.52985477 4294053120
3.336262 -1.2634972 -0.51646566 4294053120
3.3280854 -1.2602804 -0.5024603 4294053120
3.3088198 -1.2528656 -0.48632416 4293922560
3.310384 -1.2533377 -0.47277474 4293922560
3.325654 -1.258998 -0.46058187 4293922560
3.3404315 -1.2644707 -0.4476757 4294053120
3.3072822 -1.2518036 -0.4279367 4293922560
3.295377 -1.2471783 -0.41068301 4293792000
3.3209865 -1.2567492 -0.39758295 4293922560
3.3391593 -1.2635044 -0.3829385 4294053120
3.339309 -1.2634398 -0.3657153 4293922560
3.2943327 -1.2463045 -0.34338701 4293792000
3.3072181 -1.2510588 -0.32688525 4293922560
3.3247006 -1.2575507 -0.31031796 4293922560
3.3197119 -1.2555434 -0.29124951 4293922560
3.2864211 -1.242834 -0.26960158 4293792000
3.3251984 -1.2573764 -0.25354379 4293922560
3.3243158 -1.2569218 -0.23397106 4293922560
3.3249979 -1.2570589 -0.21426076 4293922560
3.3247495 -1.2568439 -0.19426095 4293922560
3.3112118 -1.2516063 -0.17336309 4293792000
3.3252094 -1.2567759 -0.15372252 4293922560
3.3383985 -1.2616389 -0.13371716 4293922560
3.3033164 -1.2482618 -0.1117745 4293792000
3.3306885 -1.2584831 -0.091880351 4293922560
3.3389585 -1.2614862 -0.071142457 4293922560
3.3339772 -1.2594831 -0.050030541 4293922560
3.3246293 -1.2558311 -0.028895566 4293922560
3.3450503 -1.2634225 -0.0079260925 4293922560
3.3505664 -1.2653838 0.013245737 4293922560
3.2999721 -1.2461579 0.033894088 4293792000
3.341423 -1.261688 0.055380691 4293922560
3.3682272 -1.2716856 0.076989047 4294053120
3.3744378 -1.2739075 0.098245904 4294053120
3.3028657 -1.24677 0.11672496 4293792000
3.3521762 -1.2652603 0.13919371 4293922560
3.357327 -1.2670822 0.16001171 4294053120
3.3566349 -1.2666991 0.18039933 4294053120
3.2367375 -1.2213392 0.19346228 4293530880
3.3650751 -1.2696394 0.22116551 4294053120
3.367316 -1.2703625 0.24112259 4294053120
3.3606608 -1.2677299 0.26014847 4294053120
3.2405896 -1.2223219 0.26939014 4293661440
3.3786838 -1.2742827 0.29985538 4294053120
3.3834975 -1.2759753 0.31897241 4294183680
3.3771489 -1.2734587 0.33667266 4294053120
3.3343208 -1.2571894 0.3501004 4293922560
3.19835 -1.2058105 0.35243225 4293530880
3.3759105 -1.2726246 0.38907251 4294183680
3.3708773 -1.2706051 0.40512386 4294053120
3.3619819 -1.2671305 0.42018542 4294053120
3.3299136 -1.2549244 0.43168497 4293922560
3.2570362 -1.2273438 0.43693045 4293661440
3.3715389 -1.2703661 0.46696147 4294183680
3.3759408 -1.2719023 0.48174047 4294183680
3.3850896 -1.2752265 0.49669996 4294183680
3.3469353 -1.2607331 0.50404382 4294053120
3.3386683 -1.2574987 0.51512694 4294053120
3.3275883 -1.2532055 0.52511287 4294053120
3.3634102 -1.2665739 0.54196733 4294183680
3.3747249 -1.2707126 0.55440307 4294183680
3.3588343 -1.2646084 0.56171811 4294183680
3.3599041 -1.2648898 0.57116973 4294183680
3.3646741 -1.2665642 0.58059937 4294183680
3.361783 -1.2653548 0.58803535 4294183680
3.3616724 -1.2651922 0.59526235 4294183680
3.3482504 -1.2600205 0.59941036 4294053120
3.3347397 -1.2548164 0.60278946 4294053120
3.3386056 -1.256151 0.60858124 4294053120
3.3261132 -1.2513314 0.61066723 4294053120
3.3338823 -1.2541342 0.61574316 4294053120
3.3297715 -1.2524683 0.61790603 4294053120
3.3294635 -1.2522328 0.62004149 4294053120
3.3329585 -1.2534276 0.62215441 4294053120
3.3245828 -1.2501587 0.62131858 4294053120
3.3364666 -1.2545073 0.62353063 4294053120
3.341233 -1.2561797 0.62367654 4294053120
3.3486221 -1.2588375 0.62357116 4294183680
3.3407104 -1.2557439 0.61988515 4294053120
3.3444469 -1.2570285 0.61762977 4294053120
3.3458762 -1.2574459 0.61421609 4294053120
3.355463 -1.2609285 0.61156154 4294183680
3.3571484 -1.2614418 0.60673362 4294183680
3.3559487 -1.2608712 0.60067159 4294183680
3.3566663 -1.2610209 0.59424865 4294183680
3.3527095 -1.2594148 0.58630997 4294183680
3.3495622 -1.258113 0.57784319 4294053120
3.3409629 -1.2547642 0.56779176 4294053120
3.3373103 -1.2532735 0.55795097 4294053120
3.358299 -1.2610351 0.55152583 4294183680
3.372581 -1.2662774 0.54325342 4294183680
3.3675609 -1.2642727 0.53121734 4294183680
3.3451309 -1.2557335 0.51591933 4294053120
3.3344033 -1.2509414 0.42503408 4293922560
3.3623123 -1.2612915 0.41271409 4294053120
3.3721476 -1.2648609 0.39753127 4294053120
3.339107 -1.2523501 0.37696719 4293922560
3.3192062 -1.2447691 0.3577272 4293922560
3.3387301 -1.2519718 0.3423292 4293922560
3.3471158 -1.2549974 0.32525921 4294053120
3.3269613 -1.247323 0.30511972 4293922560
3.3108897 -1.2411807 0.28521267 4293792000
3.3350265 -1.25011 0.2683996 4293922560
3.3400991 -1.251893 0.24958897 4293922560
3.3466368 -1.2542245 0.23054221 4293922560
3.3253789 -1.2461405 0.20941395 4293922560
3.3482955 -1.254609 0.19081886 4293922560
3.3506083 -1.2553568 0.1706876 4293922560
3.3487976 -1.2545599 0.15015317 4293922560
3.3289301 -1.2469996 0.12877584 4293922560
3.3326569 -1.2482775 0.10826387 4293922560
3.3291302 -1.2468387 0.087393388 4293922560
3.3283429 -1.2464261 0.06652189 4293922560
3.3187027 -1.2426988 0.045462538 4293792000
3.3227611 -1.2441006 0.024570642 4293792000
3.3362105 -1.2490178 0.0036053825 4293922560
3.2909923 -1.2319736 -0.017228223 4293792000
3.309648 -1.2388397 -0.038218867 4293792000
3.332746 -1.2473669 -0.059488282 4293922560
3.3339186 -1.2476877 -0.08045914 4293922560
3.3150828 -1.2405218 -0.1007541 4293792000
3.3338714 -1.2474339 -0.1220899 4293922560
3.346709 -1.2521186 -0.1432772 4293922560
3.3398805 -1.2494457 -0.16350946 4293922560
3.3084352 -1.2375659 -0.18213023 4293792000
3.322505 -1.2427107 -0.20295918 4293922560
3.3251297 -1.2435745 -0.22297378 4293922560
3.3162339 -1.2401303 -0.24194114 4293792000
3.3170774 -1.2403282 -0.26131302 4293922560
3.3447912 -1.2505716 -0.28268576 4293922560
3.3555574 -1.2544779 -0.30254096 4294053120
3.3466837 -1.2510419 -0.32030958 4293922560
3.2799392 -1.2259774 -0.33177862 4293792000
3.3435011 -1.2496152 -0.35604528 4293922560
3.3418868 -1.2488934 -0.37331241 4293922560
3.3443878 -1.2497092 -0.39063469 4294053120
3.3307219 -1.2444849 -0.40558404 4293922560
3.2315381 -1.2073141 -0.40912512 4293661440
3.3691764 -1.2586125 -0.44236344 4294053120
3.3641117 -1.2566012 -0.45699686 4294053120
3.3558028 -1.2533786 -0.47062123 4294053120
3.359319 -1.2545724 -0.48535663 4294053120
3.3512657 -1.2514459 -0.49785885 4294053120
3.3331275 -1.2445548 -0.50819969 4294053120
3.3251073 -1.2414421 -0.51940948 4293922560
3.3411427 -1.2473096 -0.53381664 4294053120
3.3450921 -1.2486649 -0.54575831 4294053120
3.3371801 -1.2455928 -0.55513269 4294053120
3.3406639 -1.2467741 -0.56575519 4294053120
3.341984 -1.2471477 -0.57537919 4294053120
3.3361716 -1.2448599 -0.58310503 4294053120
3.3336077 -1.2437844 -0.59070808 4294053120
3.3071218 -1.2337852 -0.59332871 4293922560
3.3027055 -1.2320199 -0.59915751 4293922560
3.3075044 -1.2336918 -0.60596615 4293922560
3.2785895 -1.2227904 -0.60586143 4293922560
3.2378769 -1.2074916 -0.60277414 4293661440
3.2280905 -1.203727 -0.60467786 4293661440
3.2368712 -1.2068853 -0.60935462 4293661440
3.2365346 -1.2066441 -0.6116159 4293661440
3.2316985 -1.2047256 -0.61231387 4293661440
3.2223642 -1.2011309 -0.61144316 4293661440
3.2186804 -1.1996427 -0.61093086 4293661440
3.2809651 -1.2227376 -0.62221771 4293922560
3.2954788 -1.2280279 -0.62370747 4293922560
3.3039985 -1.231084 -0.62332767 4293922560
3.3115933 -1.2337949 -0.6220383 4293922560
3.3200188 -1.2368147 -0.62016827 4294053120
3.3267236 -1.239193 -0.61724079 4294053120
3.3274639 -1.2393491 -0.61248267 4294053120
3.3349633 -1.2420225 -0.60824662 4294053120
3.3357191 -1.2421842 -0.60206455 4294053120
3.331244 -1.2403979 -0.59425241 4294053120
3.3343794 -1.2414455 -0.58711636 4294053120
3.3264191 -1.2383624 -0.57736534 4294053120
3.3212245 -1.2363092 -0.56746691 4293922560
3.3111341 -1.2324343 -0.55612677 4293922560
3.3126349 -1.2328736 -0.5461238 4293922560
3.325736 -1.2376294 -0.53736436 4293922560
3.3418946 -1.2435218 -0.52839041 4294053120
3.338933 -1.2422994 -0.51575065 4294053120
3.3271382 -1.2377915 -0.50122076 4293922560
3.3082299 -1.2306384 -0.48517618 4293922560
3.3092003 -1.23088 -0.47157428 4293922560
3.3296003 -1.2383473 -0.46012217 4293922560
3.3267372 -1.2371625 -0.4448677 4293922560
3.3098707 -1.2307712 -0.42733735 4293922560
3.2984571 -1.2264084 -0.41017023 4293792000
3.3301158 -1.2380583 -0.39780647 4293922560
3.3431225 -1.2427728 -0.38255703 4293922560
3.339273 -1.2412213 -0.364914 4293922560
3.2875476 -1.2218775 -0.34193265 4293792000
3.3061697 -1.2286788 -0.32606938 4293792000
3.3213189 -1.2341882 -0.30932671 4293922560
3.3175159 -1.2326553 -0.29042265 4293922560
3.2893481 -1.2220712 -0.26925397 4293792000
3.3100302 -1.2296349 -0.25183716 4293792000
3.3222318 -1.2340472 -0.2333152 4293922560
3.3322687 -1.2376547 -0.2142621 4293922560
3.3218169 -1.2336529 -0.19366714 4293792000
3.3052609 -1.2273853 -0.17267485 4293792000
3.3231122 -1.2338936 -0.15329143 4293792000
3.3325799 -1.2372882 -0.13319375 4293922560
3.3025727 -1.2260289 -0.11150658 4293792000
3.3285952 -1.2355682 -0.091623254 4293922560
3.335947 -1.2381763 -0.070924126 4293922560
3.3375118 -1.2386364 -0.049975526 4293922560
3.3225989 -1.2329822 -0.028815763 4293792000
3.3457024 -1.241434 -0.0079112956 4293922560
3.3396008 -1.2390494 0.013173426 4293922560
3.3191016 -1.2313243 0.034014162 4293792000
3.3436475 -1.2403089 0.055295821 4293922560
3.3671453 -1.2489028 0.076795891 4294053120
3.3733697 -1.2510895 0.098000132 4294053120
3.300705 -1.2240229 0.11639392 4293792000
3.3582742 -1.2452486 0.13914196 4293922560
3.3647358 -1.2475228 0.16001424 4294053120
3.3564804 -1.2443409 0.17999752 4293922560
3.2438006 -1.2024533 0.193461 4293530880
3.3639941 -1.2468832 0.22061254 4294053120
3.3606286 -1.2455145 0.24011983 4294053120
3.3595746 -1.2450026 0.25949779 4294053120
3.2975609 -1.221904 0.27352312 4293792000
3.3767076 -1.2511076 0.29902744 4294053120
3.3848879 -1.254016 0.31840837 4294053120
3.3798442 -1.2520257 0.33620745 4294053120
3.3403931 -1.2372921 0.34997377 4293922560
3.2053227 -1.1871498 0.35243097 4293530880
3.3702164 -1.2480948 0.38757154 4294053120
3.3689053 -1.2474879 0.40400603 4294053120
3.3693089 -1.2475159 0.42018411 4294053120
3.3334463 -1.2341183 0.43120238 4293922560
3.254828 -1.204897 0.43568474 4293661440
3.367727 -1.2465664 0.46541956 4294053120
3.3786473 -1.2504866 0.48107794 4294183680
3.3701639 -1.2472258 0.49343655 4294053120
3.3802145 -1.2508235 0.50794464 4294183680
3.3412981 -1.2363037 0.51441169 4294053120
3.3172057 -1.2272707 0.52233803 4293922560
3.3656316 -1.2450646 0.54114634 4294183680
3.3739324 -1.248014 0.55306852 4294183680
3.3636079 -1.2440745 0.56129354 4294183680
3.3672178 -1.2452886 0.57116842 4294183680
3.3627379 -1.2435114 0.579005 4294183680
3.3653967 -1.2443738 0.58738828 4294183680
3.3551075 -1.2404493 0.59281051 4294053120
3.3509104 -1.2387776 0.59858346 4294053120
3.3336713 -1.2322856 0.60128802 4294053120
3.3458686 -1.2366742 0.60857999 4294053120
3.3287261 -1.2302195 0.60981977 4294053120
3.3281932 -1.2299033 0.61335897 4294053120
3.3370132 -1.2330432 0.61790478 4294053120
3.3320832 -1.2311025 0.61918229 4294053120
3.3402059 -1.233984 0.6221531 4294053120
3.3225708 -1.2273507 0.61959547 4294053120
3.34372 -1.2350433 0.62352931 4294053120
3.3216975 -1.226791 0.61868775 4294053120
3.3559005 -1.2393025 0.62356991 4294183680
3.3433497 -1.2345487 0.61902887 4294053120
3.356323 -1.2392191 0.61847699 4294183680
3.3577695 -1.2396334 0.61506093 4294183680
3.3498065 -1.2365745 0.60920751 4294053120
3.3598168 -1.2401499 0.60589892 4294183680
3.3580949 -1.2393948 0.59975231 4294183680
3.3593297 -1.239731 0.59343052 4294183680
3.3599913 -1.2398556 0.58630872 4294183680
3.3485007 -1.2354968 0.57640815 4294053120
3.3435853 -1.2335644 0.56700546 4294053120
3.3315797 -1.229017 0.55578655 4294053120
3.356317 -1.2380228 0.55000615 4294053120
3.370625 -1.2431805 0.54176217 4294183680
3.3609481 -1.2394923 0.52902639 4294053120
3.3523917 -1.236218 0.51591802 4294053120
3.3323195 -1.2280544 0.42384884 4293922560
3.3506804 -1.2347018 0.41039708 4294053120
3.3701344 -1.2417506 0.39643392 4294053120
3.3324239 -1.227739 0.3753989 4293922560
3.3170676 -1.2219645 0.35672292 4293922560
3.3506398 -1.2342125 0.3428053 4293922560
3.3543727 -1.2354687 0.32525793 4294053120
3.329499 -1.2261903 0.30469114 4293922560
3.3101718 -1.218956 0.28453359 4293792000
3.3422551 -1.2306516 0.26839834 4293922560
3.3470562 -1.2323009 0.2495667 4293922560
3.3445244 -1.2312506 0.22989808 4293922560
3.3232167 -1.2232896 0.20882486 4293792000
3.3424308 -1.2302438 0.19007267 4293922560
3.3481088 -1.2322153 0.17019109 4293922560
3.3480151 -1.2320626 0.14979297 4293922560
3.3210189 -1.2220114 0.12819207 4293792000
3.3398757 -1.2288315 0.10826261 4293922560
3.3363404 -1.2274131 0.087392144 4293922560
3.3224139 -1.2221727 0.066259578 4293792000
3.3152626 -1.2194252 0.045316759 4293792000
3.3427095 -1.2294021 0.024662681 4293922560
3.3387411 -1.2278247 0.0035993685 4293922560
3.28967 -1.2096639 -0.017184822 4293661440
3.3121197 -1.2178016 -0.038165759 4293792000
3.332449 -1.225158 -0.059355345 4293922560
3.3275952 -1.2232562 -0.080133669 4293792000
3.3101766 -1.2167364 -0.10038839 4293792000
3.3317049 -1.2245315 -0.12174793 4293922560
3.3398824 -1.2274189 -0.14267687 4293922560
3.3330417 -1.2247874 -0.16282307 4293922560
3.3137212 -1.2175711 -0.18202858 4293792000
3.3199363 -1.2197373 -0.2023654 4293792000
3.3285747 -1.2227933 -0.22272415 4293922560
3.3158195 -1.2179908 -0.24138984 4293792000
3.3270626 -1.2220027 -0.26153535 4293922560
3.346025 -1.2288488 -0.28218094 4293922560
3.3497176 -1.2300864 -0.3013638 4293922560
3.3492446 -1.2297943 -0.31986427 4293922560
3.2739463 -1.2020321 -0.33045903 4293661440
3.3413875 -1.2266732 -0.35505381 4293922560
3.340626 -1.2262756 -0.37236786 4293922560
3.3516159 -1.2301909 -0.39063591 4294053120
3.3295252 -1.2219654 -0.40456519 4293922560
3.2161469 -1.1802436 -0.40629968 4293530880
3.3600667 -1.2329357 -0.44021744 4294053120
3.3536849 -1.2304754 -0.45459956 4294053120
3.3594444 -1.2324694 -0.47011757 4294053120
3.3619235 -1.2332599 -0.48468724 4294053120
3.3445556 -1.2267708 -0.49579248 4294053120
3.3356788 -1.2233968 -0.50749391 4293922560
3.3369327 -1.2237383 -0.52013463 4294053120
3.3399196 -1.2247152 -0.53247279 4294053120
3.340246 -1.2247163 -0.54379493 4294053120
3.3360355 -1.2230543 -0.55374813 4294053120
3.3391211 -1.224067 -0.56427717 4294053120
3.3362205 -1.2228854 -0.57315117 4294053120
3.3252058 -1.2187302 -0.57993823 4293922560
3.3232169 -1.2178832 -0.58760029 4293922560
3.3179622 -1.2158396 -0.59399289 4293922560
3.2933123 -1.2066905 -0.59616864 4293922560
3.2771876 -1.2006662 -0.59912127 4293792000
3.2856624 -1.2036541 -0.60586262 4293922560
3.2272856 -1.1821554 -0.59951085 4293661440
3.2350533 -1.1848853 -0.60467905 4293661440
3.248476 -1.1896855 -0.61022425 4293792000
3.2481375 -1.1894459 -0.61248875 4293792000
3.238667 -1.1858627 -0.612315 4293661440
3.2385576 -1.1857072 -0.61319458 4293661440
3.2209969 -1.1791635 -0.61005664 4293661440
3.2787917 -1.2002029 -0.62046945 4293792000
3.2744074 -1.1984814 -0.61838853 4293792000
3.2899926 -1.2040679 -0.61935222 4293922560
3.3057814 -1.2097279 -0.61961287 4293922560
3.3142359 -1.2127033 -0.61775839 4293922560
3.3157516 -1.2131394 -0.61388397 4293922560
3.3309305 -1.2185736 -0.61180401 4294053120
3.3287795 -1.2176677 -0.60581523 4294053120
3.338274 -1.2210212 -0.60123193 4294053120
3.3384185 -1.2209547 -0.5942536 4294053120
3.3285065 -1.2172108 -0.58482426 4294053120
3.3298738 -1.2175916 -0.57672435 4294053120
3.3153918 -1.2121779 -0.56525469 4293922560
3.3052733 -1.2083602 -0.5539512 4293922560
3.3114119 -1.2104857 -0.54475081 4293922560
3.3245368 -1.2151641 -0.53601813 4293922560
3.3444414 -1.2223191 -0.5276587 4294053120
3.3423998 -1.2214533 -0.51517874 4294053120
3.3155813 -1.2115344 -0.49840865 4293922560
3.3008692 -1.2060405 -0.4830586 4293792000
3.3032851 -1.2068048 -0.46972203 4293792000
3.3190637 -1.2124498 -0.45768282 4293922560
3.3292325 -1.2160447 -0.44424707 4293922560
3.2946086 -1.2032806 -0.42445514 4293792000
3.287823 -1.2006844 -0.40797162 4293792000
3.314872 -1.2104428 -0.39513689 4293922560
3.3172369 -1.2111871 -0.37878141 4293922560
3.3360565 -1.2179382 -0.36378151 4293922560
3.281002 -1.1977223 -0.34052086 4293661440
3.2991288 -1.2042205 -0.32467806 4293792000
3.3106756 -1.2083161 -0.30767509 4293792000
3.3246446 -1.2132945 -0.29042381 4293922560
3.2875731 -1.1996485 -0.26853263 4293661440
3.3049567 -1.2058727 -0.25091293 4293792000
3.31288 -1.2086444 -0.2321604 4293792000
3.3271623 -1.213735 -0.21347599 4293792000
3.324261 -1.2125572 -0.19339527 4293792000
3.3029754 -1.2046748 -0.17218648 4293792000
3.3179646 -1.2100221 -0.15272669 4293792000
3.3177285 -1.2098167 -0.13231631 4293792000
3.2871261 -1.1985401 -0.1107474 4293661440
3.3178954 -1.2096391 -0.091133393 4293792000
3.3328562 -1.2149732 -0.070707276 4293792000
3.3427136 -1.2184463 -0.049947273 4293922560
3.316494 -1.2087705 -0.028701615 4293792000
3.3367181 -1.2160211 -0.0078733442 4293922560
3.3467658 -1.2195623 0.013172272 4293922560
3.3351538 -1.2152113 0.034103762 4293792000
3.3495972 -1.2203532 0.055274576 4293922560
3.3671224 -1.2266167 0.076630369 4293922560
3.3631601 -1.2250525 0.097494572 4293922560
3.3270068 -1.2117647 0.11706773 4293792000
3.3570242 -1.2225764 0.13879211 4293922560
3.368113 -1.2264935 0.15983135 4293922560
3.3617866 -1.2240691 0.17989545 4293922560
3.2507536 -1.1835265 0.19345988 4293530880
3.3571351 -1.2221344 0.21969201 4293922560
3.3763502 -1.2290077 0.24072534 4294053120
3.3639734 -1.224382 0.2592811 4294053120
3.2905726 -1.1975502 0.27236024 4293792000
3.3792589 -1.2297026 0.29861298 4294053120
3.3883941 -1.232905 0.31805614 4294053120
