# .PCD v0.7 - Point Cloud Data file format
VERSION 0.7
FIELDS x y z rgba
SIZE 4 4 4 4
TYPE F F F U
COUNT 1 1 1 1
WIDTH 1078
HEIGHT 1
VIEWPOINT 0 0 0 1 0 0 0
POINTS 1078
DATA ascii
2.7616551 -0.44115445 0.21913701 4291311360
3.0518942 -0.48737201 0.25821656 4292225280
3.0493312 -0.4868615 0.27396855 4292225280
3.0451477 -0.48609272 0.28923577 4292225280
2.9367001 -0.46869868 0.29378277 4291833600
2.7269032 -0.43515444 0.2863597 4291180800
3.0475233 -0.48616767 0.3344065 4292225280
3.0495884 -0.4863956 0.34889486 4292225280
2.9973316 -0.47796869 0.35658613 4292094720
2.8601379 -0.45601562 0.35298905 4291703040
2.8054183 -0.44720635 0.35826933 4291441920
3.0443337 -0.48515487 0.40116435 4292225280
3.0516875 -0.48622495 0.41427198 4292355840
3.0496938 -0.48580688 0.42566654 4292355840
3.0227108 -0.48141259 0.43299821 4292225280
2.8799779 -0.45860514 0.42273998 4291703040
2.9020875 -0.46202713 0.43563867 4291833600
3.0395582 -0.48379329 0.46577087 4292355840
3.0435088 -0.48432162 0.47545016 4292355840
3.0403972 -0.48372716 0.48348439 4292355840
3.0353172 -0.48282021 0.49062446 4292355840
3.0346766 -0.48261908 0.4978939 4292355840
3.0251341 -0.48100394 0.50310701 4292225280
3.0165262 -0.47953799 0.50784928 4292225280
2.9996064 -0.47675279 0.5105564 4292225280
3.0134299 -0.4788498 0.51786703 4292225280
3.0176022 -0.47941408 0.52294862 4292225280
2.9601748 -0.4702023 0.51672339 4292094720
2.9596813 -0.47002798 0.51971358 4292094720
2.9641521 -0.47064134 0.52296412 4292094720
2.9638577 -0.47049874 0.52476627 4292094720
2.9733951 -0.47191533 0.52768791 4292094720
2.9587119 -0.46949154 0.52570993 4292094720
2.9499702 -0.46801057 0.52416116 4291964160
3.0156453 -0.47832352 0.53514588 4292225280
3.0110056 -0.4774915 0.53306514 4292225280
3.0263896 -0.47983184 0.53387916 4292225280
3.0083308 -0.47687471 0.52819681 4292225280
3.0126059 -0.47745538 0.52580863 4292225280
3.0353549 -0.48096058 0.52598065 4292355840
3.0394866 -0.48151764 0.52228963 4292355840
3.0460579 -0.48246065 0.51838738 4292355840
3.0426912 -0.48183098 0.5121904 4292355840
3.0388169 -0.48112136 0.50532436 4292355840
3.0256531 -0.4789429 0.49636874 4292225280
3.0210474 -0.47811863 0.48827362 4292225280
3.0320225 -0.47975796 0.48210031 4292225280
3.0478528 -0.48216417 0.47606349 4292355840
3.066313 -0.48498508 0.46978542 4292355840
3.047215 -0.48187083 0.45724392 4292355840
3.034071 -0.47969839 0.44516894 4292225280
3.0155747 -0.47616503 0.36597142 4292225280
3.0481522 -0.48120913 0.35625896 4292225280
3.0536354 -0.48197848 0.34282652 4292225280
3.0103638 -0.4750604 0.32374886 4292094720
3.0024109 -0.47371271 0.3083244 4292094720
3.0257089 -0.47729093 0.2956647 4292225280
3.0320468 -0.47819528 0.28088152 4292225280
2.9973848 -0.47263992 0.26216301 4292094720
2.9941545 -0.47203776 0.24607648 4292094720
3.0123603 -0.47481164 0.23138274 4292094720
3.0086184 -0.47412878 0.21468441 4292094720
3.0155292 -0.47512311 0.19848327 4292094720
3.0131214 -0.47465041 0.18143071 4292094720
3.0255356 -0.47651032 0.16500305 4292094720
3.0251675 -0.47635841 0.14763603 4292094720
2.9883823 -0.47047833 0.12856744 4291964160
2.9956076 -0.47152188 0.1113911 4292094720
3.0047905 -0.47287279 0.09406653 4292094720
2.9977651 -0.47167513 0.076127902 4292094720
2.8999729 -0.45621189 0.056480046 4291703040
2.9859557 -0.46963346 0.040292814 4291964160
2.9807794 -0.46872762 0.022406293 4291964160
2.9611812 -0.46555671 0.0045415079 4291964160
2.9704359 -0.46691829 -0.013243622 4291964160
2.9619434 -0.46549273 -0.030931801 4291964160
2.9746294 -0.46739241 -0.048849188 4291964160
2.9342394 -0.46096072 -0.06564755 4291833600
2.9727905 -0.4669193 -0.084181882 4291964160
2.993428 -0.47006497 -0.10246062 4291964160
3.0062661 -0.47198591 -0.12055714 4292094720
2.9492552 -0.46295148 -0.13542677 4291833600
2.9671497 -0.46566576 -0.15340889 4291964160
2.9864008 -0.46859157 -0.17151199 4291964160
2.9795387 -0.4674232 -0.18798797 4291964160
2.860395 -0.44865984 -0.19640745 4291572480
2.9871521 -0.46843073 -0.22168203 4291964160
3.0157468 -0.47281697 -0.2402309 4292094720
3.0118897 -0.472119 -0.25605109 4292094720
2.9657197 -0.46479574 -0.26770881 4291964160
2.7775645 -0.43524721 -0.26496401 4291311360
3.0063603 -0.47097182 -0.30214009 4292094720
2.9973314 -0.46946505 -0.31606486 4292094720
2.9895153 -0.4681485 -0.3296881 4292094720
2.9521399 -0.46220851 -0.33945784 4291964160
2.7804573 -0.43526566 -0.33237201 4291311360
3.0249672 -0.47341123 -0.37520999 4292225280
3.0229728 -0.47300461 -0.38800323 4292225280
3.0159843 -0.47181743 -0.39968166 4292225280
3.0003381 -0.46927768 -0.4096683 4292094720
2.9103329 -0.45512104 -0.40859172 4291833600
2.9864523 -0.46691987 -0.43040049 4292094720
3.0055258 -0.46980458 -0.44382143 4292225280
3.0001774 -0.46887466 -0.45316982 4292094720
2.9881141 -0.46689674 -0.46092859 4292094720
2.9862859 -0.46651694 -0.46970162 4292094720
2.9850228 -0.46622533 -0.47801787 4292094720
2.9572539 -0.46179831 -0.48145077 4291964160
2.9421604 -0.45935011 -0.48628929 4291964160
2.8939497 -0.451738 -0.48492977 4291833600
2.8474867 -0.44440135 -0.4830969 4291703040
2.8466201 -0.44417563 -0.48836631 4291703040
2.882843 -0.44973055 -0.49951288 4291833600
2.8957696 -0.45165285 -0.50611305 4291833600
2.9146228 -0.45449761 -0.51320851 4291833600
2.8096156 -0.43804803 -0.49774507 4291572480
2.8130994 -0.43850055 -0.50086749 4291572480
2.8273816 -0.44063407 -0.50534785 4291572480
2.8223028 -0.43975267 -0.50577623 4291572480
2.8173244 -0.43888709 -0.50562942 4291572480
2.9081368 -0.45292705 -0.52213848 4291833600
2.9130907 -0.45360398 -0.52258456 4291833600
2.8802044 -0.44839483 -0.51562542 4291833600
2.8571446 -0.44471577 -0.50985467 4291703040
2.8341784 -0.44105268 -0.50353789 4291572480
2.8995802 -0.45112699 -0.51233441 4291833600
2.9326665 -0.45617482 -0.51470524 4291964160
2.9619069 -0.46062282 -0.51572126 4292094720
2.9843471 -0.46401241 -0.51487517 4292094720
2.9909697 -0.4649438 -0.51064843 4292094720
3.0013099 -0.46645191 -0.50643533 4292225280
3.002301 -0.46650782 -0.50003284 4292225280
2.9897881 -0.46446753 -0.49082616 4292094720
2.9743972 -0.46198133 -0.48065066 4292094720
2.9777036 -0.46239689 -0.47298527 4292094720
2.9598877 -0.45953572 -0.461456 4291964160
2.9881506 -0.46382165 -0.45657194 4292094720
3.0154347 -0.46795389 -0.45084056 4292225280
3.012038 -0.46732813 -0.4399167 4292225280
3.0131457 -0.46740067 -0.42916283 4292225280
2.97698 -0.46169743 -0.4127292 4292094720
2.973254 -0.46102202 -0.40049696 4292094720
2.9859507 -0.46289042 -0.38999891 4292094720
2.9963593 -0.46440354 -0.37866861 4292094720
2.9906483 -0.46342027 -0.3648513 4292094720
2.9554992 -0.45788071 -0.34720477 4291964160
2.9957685 -0.46401462 -0.33804634 4292094720
3.0087993 -0.46593148 -0.32517719 4292094720
3.0184934 -0.4673312 -0.3114782 4292094720
2.9615324 -0.4584218 -0.29076016 4291964160
2.9732928 -0.46014184 -0.27673405 4291964160
2.9897895 -0.46259323 -0.26270384 4292094720
2.9936445 -0.46308964 -0.24716382 4292094720
2.9482121 -0.45596981 -0.22748323 4291833600
2.9912019 -0.46251309 -0.21444042 4292094720
2.9996774 -0.46372256 -0.1983902 4292094720
2.9849982 -0.46135589 -0.18061785 4291964160
2.8924251 -0.44696426 -0.15850239 4291703040
2.9804718 -0.46045828 -0.14624646 4291964160
2.9931359 -0.46231326 -0.12951237 4291964160
2.9875147 -0.46134615 -0.11179878 4291964160
2.9693482 -0.45844427 -0.093630351 4291964160
3.000351 -0.46312648 -0.076868184 4292094720
3.0102293 -0.46454948 -0.059230376 4292094720
2.9744935 -0.45894024 -0.04076102 4291964160
3.0077851 -0.46397188 -0.023254359 4292094720
3.0263779 -0.46673647 -0.0052932352 4292094720
3.0192466 -0.46553689 0.012799644 4292094720
2.9294059 -0.45159876 0.029997094 4291833600
3.0436046 -0.46908626 0.049258851 4292225280
3.0494788 -0.46988907 0.067495503 4292225280
3.0459964 -0.46925136 0.085468903 4292225280
2.8957098 -0.44602248 0.098415904 4291703040
3.0390413 -0.46797815 0.12098583 4292225280
3.0509109 -0.46970269 0.13918121 4292225280
3.0349543 -0.46714711 0.15594804 4292225280
2.8056388 -0.43178773 0.16032158 4291441920
3.0494812 -0.46917811 0.19128036 4292225280
3.0753589 -0.47305369 0.21001962 4292355840
3.0309191 -0.46612304 0.22367093 4292225280
2.8065522 -0.43155465 0.22246112 4291441920
3.0871878 -0.47456381 0.26093844 4292355840
3.0895307 -0.47482106 0.27729762 4292355840
3.062705 -0.47060019 0.29062423 4292355840
2.8934443 -0.44451895 0.28922147 4291703040
2.776587 -0.42649063 0.291271 4291311360
3.0788038 -0.47276559 0.33750722 4292355840
3.0759444 -0.47222516 0.35156918 4292355840
3.0383544 -0.46635875 0.36110586 4292225280
2.8912029 -0.44369656 0.35647282 4291703040
2.8354378 -0.43505281 0.36174837 4291572480
3.0843592 -0.47310844 0.40603799 4292355840
3.082289 -0.4726896 0.41802147 4292355840
3.0666654 -0.47019473 0.42763186 4292355840
3.0587442 -0.46888065 0.43773305 4292355840
2.9148865 -0.44675177 0.42744625 4291833600
2.932111 -0.44929308 0.43972057 4291964160
3.080446 -0.47190118 0.47157523 4292486400
3.0736356 -0.47075811 0.47969604 4292355840
3.0763693 -0.47107577 0.48873159 4292355840
3.0702949 -0.47004607 0.49579942 4292355840
3.0523512 -0.46720177 0.50032395 4292355840
3.0436442 -0.46577096 0.50571012 4292355840
3.0612042 -0.46835613 0.51486754 4292355840
3.0403564 -0.46507034 0.51698983 4292355840
3.0444348 -0.46559474 0.52269518 4292355840
3.0014596 -0.45893076 0.51968992 4292225280
2.9862466 -0.45650992 0.52077973 4292094720
2.9954896 -0.45782468 0.52549481 4292225280
2.9999595 -0.45841026 0.52877218 4292225280
2.9947913 -0.45752457 0.52973682 4292225280
2.9994657 -0.45814133 0.53181034 4292225280
2.9993751 -0.45803091 0.53241879 4292225280
2.9993894 -0.45793661 0.53241897 4292225280
3.0505176 -0.4656378 0.54081547 4292355840
3.0322406 -0.46275312 0.53632051 4292355840
3.0325716 -0.46270639 0.53447896 4292355840
3.0441794 -0.46437857 0.53397804 4292355840
3.0572329 -0.46627036 0.53307891 4292355840
3.0614944 -0.466822 0.53000867 4292355840
3.0656495 -0.46735731 0.52628726 4292355840
3.0770929 -0.46900237 0.52317029 4292486400
3.0825093 -0.46972919 0.51839226 4292486400
3.0786431 -0.46904275 0.5114525 4292486400
3.0615759 -0.4663476 0.5017792 4292355840
3.056978 -0.46555099 0.49360558 4292355840
3.0484552 -0.46415767 0.48426121 4292355840
3.0838339 -0.46944225 0.48122004 4292486400
3.102325 -0.47215667 0.47484526 4292486400
3.0773561 -0.46826273 0.46132573 4292355840
3.0739977 -0.46765527 0.45058876 4292355840
3.0467675 -0.46289873 0.36939937 4292225280
3.0683279 -0.46607554 0.35827765 4292355840
3.0836515 -0.46830478 0.34586141 4292355840
3.0553589 -0.4639163 0.32825795 4292225280
3.0336473 -0.46052781 0.31122756 4292225280
3.0508177 -0.46303695 0.2978304 4292225280
3.0672746 -0.46543685 0.28386277 4292355840
3.0286548 -0.45948732 0.26463592 4292225280
3.0254338 -0.45890483 0.24839984 4292094720
3.0574701 -0.4636648 0.23460352 4292225280
3.0524976 -0.46281642 0.21758768 4292225280
3.0320745 -0.45962828 0.19937977 4292225280
3.0339911 -0.45982429 0.1825072 4292225280
3.0618298 -0.46394464 0.16680622 4292225280
3.0561094 -0.46298373 0.14898966 4292225280
3.0109825 -0.45605972 0.1294065 4292094720
3.0358517 -0.45972902 0.11275775 4292094720
3.0410964 -0.46042821 0.095092036 4292225280
3.024575 -0.45783517 0.076720528 4292094720
2.8603714 -0.43291244 0.055683605 4291572480
3.0159009 -0.45633623 0.040639307 4292094720
3.0190418 -0.45671746 0.022647265 4292094720
2.9937863 -0.4528074 0.0045647901 4291964160
2.9968357 -0.45317528 -0.013367795 4291964160
3.0071201 -0.45463583 -0.031405631 4292094720
3.0109158 -0.4551158 -0.049425084 4292094720
2.9704852 -0.44891781 -0.066423304 4291964160
3.0130188 -0.45524654 -0.085271008 4292094720
3.0297148 -0.45767298 -0.10363343 4292094720
3.0281267 -0.45733929 -0.1213398 4292094720
2.9278221 -0.44211265 -0.13431084 4291833600
3.0172119 -0.45550495 -0.15588909 4292094720
3.0265934 -0.45682603 -0.17369001 4292094720
3.0089567 -0.4540728 -0.18969297 4292094720
2.9103131 -0.43910944 -0.19968794 4291703040
3.02829 -0.45679948 -0.22455917 4292094720
3.0359366 -0.45785743 -0.24163595 4292225280
3.0431635 -0.45885164 -0.25849766 4292225280
3.0117123 -0.45401973 -0.27164504 4292094720
2.8223836 -0.42541534 -0.26902708 4291441920
3.0265079 -0.45605949 -0.30390579 4292225280
3.0285366 -0.4562704 -0.31908876 4292225280
3.0069518 -0.45292741 -0.33132586 4292094720
2.9219887 -0.44004968 -0.33567572 4291833600
2.825171 -0.42539388 -0.3374427 4291441920
3.0561364 -0.46004263 -0.37875578 4292355840
3.0590298 -0.46038193 -0.39230126 4292355840
3.0520172 -0.45923176 -0.40411627 4292355840
3.0179977 -0.45402265 -0.41172266 4292225280
2.8623002 -0.43053043 -0.40146545 4291703040
3.0175116 -0.45375988 -0.43450645 4292225280
3.0277812 -0.4552075 -0.44672212 4292225280
3.0331638 -0.45592043 -0.4577623 4292225280
3.0240204 -0.45445189 -0.46607134 4292225280
3.0260835 -0.45466608 -0.47555882 4292225280
3.0028205 -0.45107898 -0.48045003 4292225280
2.9854286 -0.44837421 -0.48562053 4292094720
2.9867513 -0.44847807 -0.49324396 4292094720
2.938482 -0.44114342 -0.49197787 4291964160
2.8773344 -0.43188047 -0.48774314 4291703040
2.8959572 -0.43458107 -0.49641547 4291833600
2.9185534 -0.43787593 -0.50527018 4291833600
2.9314828 -0.43972057 -0.51191866 4291964160
2.9308605 -0.4395338 -0.51561826 4291964160
2.858875 -0.42865676 -0.50604844 4291703040
2.8623548 -0.42908645 -0.50921118 4291703040
2.8669059 -0.42967623 -0.51197845 4291703040
2.861819 -0.42882282 -0.51242387 4291703040
2.8480709 -0.42667323 -0.51071066 4291703040
2.9428582 -0.44076559 -0.52792203 4291964160
2.9341848 -0.43937328 -0.52591318 4291964160
2.9158769 -0.43654031 -0.52156758 4291833600
2.9064336 -0.4350341 -0.51821643 4291833600
2.878583 -0.43077624 -0.51099747 4291703040
2.9343076 -0.43901274 -0.51802939 4291964160
2.9732757 -0.44474137 -0.52139127 4292094720
2.9754114 -0.44496408 -0.51762122 4292094720
3.0060031 -0.44943735 -0.51816368 4292225280
3.0200558 -0.45143843 -0.51517302 4292225280
3.0225108 -0.45170677 -0.50957263 4292225280
3.0313032 -0.45292088 -0.50443161 4292225280
3.024658 -0.4518303 -0.49612966 4292225280
3.0287979 -0.45234933 -0.48903707 4292225280
2.9895256 -0.44639149 -0.47444996 4292094720
3.0006354 -0.44795078 -0.46741685 4292094720
3.023073 -0.45119846 -0.46151829 4292225280
3.0415909 -0.45386019 -0.4543635 4292225280
3.0616946 -0.45675698 -0.4468005 4292355840
3.032454 -0.452299 -0.43154228 4292225280
3.0012751 -0.44755399 -0.41574368 4292094720
3.009222 -0.44863904 -0.40500391 4292094720
3.0307751 -0.45174971 -0.39552876 4292225280
3.0372889 -0.45261973 -0.38352513 4292225280
3.009094 -0.44832256 -0.3667886 4292094720
3.0003617 -0.4469237 -0.35218969 4292094720
3.0249484 -0.4504829 -0.34105486 4292225280
3.0399833 -0.45261952 -0.32827577 4292225280
3.0418155 -0.45279151 -0.31362194 4292225280
2.9917173 -0.44524166 -0.29348281 4292094720
3.0094104 -0.44777283 -0.2798703 4292094720
3.0160828 -0.44866487 -0.26479667 4292094720
3.0160942 -0.44856662 -0.24881195 4292094720
2.9794195 -0.4430182 -0.22970805 4291964160
3.0362711 -0.45136338 -0.21750703 4292225280
3.0358863 -0.45120549 -0.20063052 4292225280
3.0350287 -0.45097739 -0.18351418 4292225280
2.9325118 -0.43566027 -0.16058344 4291833600
3.0216348 -0.44878823 -0.14816178 4292094720
3.0273898 -0.44954163 -0.13090128 4292094720
3.0287025 -0.44963571 -0.11326681 4292094720
3.0095387 -0.44669315 -0.09484034 4292094720
3.0312514 -0.44981226 -0.077612028 4292094720
3.0484757 -0.45226461 -0.059955295 4292225280
3.0196478 -0.44789109 -0.041373301 4292094720
3.0391228 -0.45067611 -0.023497218 4292094720
3.0515394 -0.45241427 -0.0053499928 4292225280
3.0505943 -0.45217288 0.012899664 4292225280
2.8808496 -0.42693865 0.029504109 4291572480
3.0660679 -0.45426053 0.049562752 4292225280
3.0845437 -0.45689294 0.068187438 4292355840
3.0679545 -0.45433584 0.085993476 4292225280
2.940773 -0.43542001 0.099827304 4291833600
3.0842214 -0.45653775 0.12264528 4292355840
3.0857849 -0.4566665 0.14062385 4292355840
3.0527241 -0.45167667 0.15670982 4292225280
2.8555171 -0.42242885 0.16299091 4291572480
3.0906713 -0.45708126 0.19366451 4292355840
3.1057 -0.45919895 0.21188344 4292355840
3.0535965 -0.45140043 0.22512949 4292225280
2.8474846 -0.42086393 0.22547576 4291572480
3.1172481 -0.46059504 0.26322594 4292486400
3.1105464 -0.4595027 0.27892289 4292486400
3.1126759 -0.45971406 0.29507074 4292486400
2.9383211 -0.43388832 0.29341516 4291833600
2.8164201 -0.415811 0.29515848 4291441920
3.104691 -0.45822808 0.34002697 4292486400
3.0977106 -0.45709649 0.35372972 4292486400
3.0608239 -0.45155728 0.36343992 4292355840
2.9261491 -0.43160987 0.36043763 4291833600
2.8762078 -0.4241555 0.36659557 4291703040
3.1184471 -0.45974299 0.41014001 4292486400
3.1183324 -0.45962366 0.42251197 4292486400
3.1026778 -0.45721641 0.43224725 4292486400
3.073699 -0.45284885 0.43947583 4292355840
2.9507327 -0.43465123 0.43229535 4291964160
2.8765771 -0.42364356 0.4310562 4291703040
3.1109216 -0.45802265 0.47580031 4292486400
3.1193533 -0.45916107 0.48637024 4292616960
3.1162059 -0.4585965 0.49459663 4292486400
3.0978904 -0.45580241 0.49979648 4292486400
3.0784631 -0.4528462 0.50414211 4292486400
3.0834095 -0.45347291 0.51183832 4292486400
3.0722065 -0.45172691 0.51625699 4292355840
3.0849741 -0.45350245 0.52408344 4292486400
3.0841665 -0.45328388 0.52902293 4292486400
3.0274901 -0.44486323 0.52371806 4292225280
3.0356619 -0.44596478 0.52889585 4292355840
3.0449047 -0.44722307 0.53365809 4292355840
3.0444975 -0.44706509 0.53611857 4292355840
3.03932 -0.44620752 0.53710866 4292355840
3.0527675 -0.44808179 0.54074639 4292355840
3.0487759 -0.44739842 0.54067659 4292355840
3.0439167 -0.44658822 0.53981632 4292355840
3.0294168 -0.44436556 0.53662121 4292225280
3.0865479 -0.45263955 0.54540747 4292486400
3.0683613 -0.44987667 0.54028708 4292355840
3.0887587 -0.452766 0.54129064 4292486400
3.0930536 -0.4532963 0.53882682 4292486400
3.0963497 -0.45368025 0.53554863 4292486400
3.1063695 -0.45504817 0.53278166 4292486400
3.1062205 -0.45492762 0.52763987 4292486400
3.0992451 -0.45380846 0.52073944 4292486400
3.1100271 -0.45528719 0.51619214 4292486400
3.1111295 -0.45534983 0.50941908 4292486400
3.0879924 -0.45186859 0.49815542 4292486400
3.098033 -0.45323861 0.49167073 4292486400
3.1130219 -0.45533127 0.48532966 4292486400
3.1256559 -0.45707899 0.47798219 4292616960
3.1201546 -0.45617685 0.46730256 4292486400
3.0956643 -0.45250186 0.45335332 4292486400
3.0773122 -0.44919828 0.37275574 4292355840
3.1132636 -0.45434421 0.36317611 4292486400
3.1099334 -0.45376143 0.34848681 4292486400
3.0816276 -0.44953871 0.3307732 4292355840
3.0697539 -0.44771227 0.31463194 4292355840
3.0908949 -0.45069656 0.30145198 4292355840
3.0923433 -0.45081121 0.28591606 4292355840
3.0543461 -0.44518146 0.26663026 4292225280
3.0547876 -0.44515064 0.25057092 4292225280
3.0865052 -0.44967255 0.23660511 4292355840
3.0877187 -0.44975317 0.21988241 4292355840
3.0584013 -0.44539145 0.20091754 4292225280
3.0702062 -0.44701365 0.18450001 4292225280
3.088197 -0.44953489 0.16807812 4292355840
3.082478 -0.44860739 0.15012625 4292355840
3.0422614 -0.44266513 0.13061543 4292225280
3.0642776 -0.44577071 0.11369498 4292225280
3.0662198 -0.44595784 0.095776848 4292225280
3.0509343 -0.44364199 0.077303611 4292225280
2.8915386 -0.42039451 0.056219112 4291703040
3.0521524 -0.44362965 0.041067474 4292225280
3.0552976 -0.44399166 0.022874823 4292225280
3.0151763 -0.43807289 0.0045782314 4292094720
3.0231757 -0.43914038 -0.013491862 4292094720
3.0384152 -0.44125786 -0.031726222 4292094720
3.047159 -0.44243205 -0.050000899 4292225280
3.0155938 -0.43775946 -0.067403428 4292094720
3.0463729 -0.44212908 -0.086162545 4292225280
3.051122 -0.44272307 -0.10429024 4292225280
3.0633719 -0.44440392 -0.12266898 4292225280
2.9590178 -0.42918658 -0.1356456 4291833600
3.0435348 -0.4413397 -0.15713081 4292225280
3.0475533 -0.44182727 -0.17475612 4292225280
3.0401947 -0.44066691 -0.19151711 4292225280
2.9414556 -0.42627609 -0.20167114 4291833600
3.0541651 -0.44250017 -0.22629941 4292225280
3.0819626 -0.44642821 -0.24511577 4292355840
3.0698421 -0.44457853 -0.2605561 4292355840
3.0419068 -0.44044167 -0.27415103 4292225280
2.8583136 -0.41379318 -0.27224037 4291572480
3.0665362 -0.44381347 -0.30768415 4292355840
3.0577075 -0.44244143 -0.3219029 4292225280
3.0429897 -0.44021866 -0.3350299 4292225280
2.957936 -0.4278326 -0.33953494 4291964160
2.8649487 -0.41430557 -0.34192404 4291572480
3.0868313 -0.44626594 -0.38224918 4292355840
3.0920835 -0.44692776 -0.39621869 4292355840
3.0919299 -0.4468087 -0.4090721 4292486400
3.0539384 -0.44122756 -0.41628864 4292355840
2.9020107 -0.41920534 -0.40670919 4291833600
3.0524373 -0.44081905 -0.4391782 4292355840
3.050935 -0.44050634 -0.44976574 4292355840
3.0729644 -0.44358748 -0.46339321 4292355840
3.0637953 -0.4421685 -0.4718186 4292355840
3.0570416 -0.44109818 -0.48002952 4292355840
3.0425436 -0.43891203 -0.48641035 4292355840
3.0251212 -0.43630525 -0.49167725 4292225280
3.0127556 -0.43442801 -0.49712703 4292225280
2.9839642 -0.43018553 -0.49918973 4292094720
2.9227495 -0.42127562 -0.49504247 4291833600
2.9306409 -0.42231899 -0.5019502 4291964160
2.9630022 -0.42688394 -0.51255053 4292094720
2.9710555 -0.42794859 -0.51840687 4292094720
2.8852394 -0.41550687 -0.5071367 4291833600
2.8847215 -0.4153403 -0.51020169 4291833600
2.8930738 -0.41644934 -0.51425338 4291833600
2.9024985 -0.41771194 -0.51791137 4291833600
2.8974044 -0.41688672 -0.518372 4291833600
2.9021587 -0.41747716 -0.51999432 4291833600
2.9833827 -0.42905483 -0.53475636 4292094720
2.9737279 -0.42757201 -0.53256691 4292094720
2.9505332 -0.42414507 -0.52733505 4291964160
2.922565 -0.42003411 -0.52065754 4291964160
2.9190631 -0.41943717 -0.51776338 4291833600
2.9699662 -0.42664883 -0.52389675 4292094720
3.0177507 -0.43340963 -0.52876264 4292225280
3.010143 -0.43222061 -0.52323568 4292225280
3.0319874 -0.43525624 -0.52221161 4292225280
3.0597227 -0.43913507 -0.52151585 4292355840
3.0573096 -0.43868983 -0.515019 4292355840
3.0573301 -0.43859345 -0.50834376 4292355840
3.0536065 -0.43796042 -0.50046742 4292355840
3.049953 -0.43733758 -0.49204561 4292355840
3.0341227 -0.43497077 -0.48114195 4292225280
3.0403688 -0.43576622 -0.47322485 4292225280
3.0609703 -0.43861642 -0.46692702 4292355840
3.090766 -0.44278121 -0.46134314 4292486400
3.0785797 -0.44093618 -0.44889256 4292355840
3.0683641 -0.43937385 -0.43630123 4292355840
3.0273683 -0.43340936 -0.41901675 4292225280
3.0494576 -0.43646893 -0.41009283 4292225280
3.0564964 -0.43737519 -0.39856154 4292355840
3.0683591 -0.43897045 -0.38713717 4292355840
3.0450687 -0.43554121 -0.37087914 4292225280
3.0314295 -0.43349239 -0.35555258 4292225280
3.0649056 -0.43817431 -0.34528962 4292355840
3.0698724 -0.43878263 -0.33123967 4292355840
3.0778849 -0.43982542 -0.31709269 4292355840
3.0090547 -0.42989898 -0.29494432 4292094720
3.0356259 -0.43359163 -0.28208497 4292225280
3.0659838 -0.4378227 -0.26897889 4292225280
3.0522025 -0.43575561 -0.2515991 4292225280
3.0243938 -0.43168896 -0.23300521 4292094720
3.0646095 -0.4373228 -0.21936876 4292225280
3.0657001 -0.43737686 -0.2024478 4292225280
3.0505509 -0.4351165 -0.18430705 4292225280
2.9735522 -0.42404497 -0.1627191 4291964160
3.056829 -0.43580881 -0.14978288 4292225280
3.0576515 -0.43582472 -0.13211736 4292225280
3.0599606 -0.4360522 -0.1143592 4292225280
3.040786 -0.4332214 -0.095764451 4292225280
3.0714288 -0.43748146 -0.078600131 4292225280
3.0748146 -0.43786141 -0.060439777 4292225280
3.0410147 -0.4329516 -0.041645616 4292094720
3.0724733 -0.43732464 -0.023757217 4292225280
3.0927346 -0.44010356 -0.0054448112 4292355840
3.080008 -0.43819198 0.012993013 4292225280
2.9258583 -0.41618317 0.029908294 4291703040
3.1112297 -0.44242382 0.050220158 4292355840
3.1198177 -0.44354063 0.068885006 4292486400
3.1041992 -0.44121924 0.086911082 4292355840
2.8706651 -0.40795904 0.097410709 4291572480
3.1142721 -0.44244343 0.12371466 4292355840
3.1269679 -0.4441421 0.14235196 4292486400
3.0978239 -0.43990359 0.15885939 4292355840
2.8915403 -0.41054007 0.16488084 4291703040
3.1295886 -0.44420338 0.19591032 4292486400
3.1300435 -0.4441644 0.21334639 4292486400
3.0887625 -0.43820941 0.22750473 4292355840
2.8923349 -0.41027036 0.22879997 4291703040
3.1534271 -0.44716731 0.26603061 4292616960
3.1605127 -0.44806695 0.28312913 4292616960
3.1256459 -0.44302493 0.29604018 4292486400
2.9782438 -0.42205212 0.29712093 4291964160
2.852282 -0.4041239 0.29863653 4291572480
3.1496389 -0.44611159 0.34462652 4292616960
3.1426308 -0.44501644 0.3585242 4292616960
3.1017575 -0.43913147 0.36795983 4292486400
2.975796 -0.4212161 0.3662062 4291964160
2.9110513 -0.41196433 0.37069663 4291833600
3.1495492 -0.44558167 0.41385871 4292616960
3.1543272 -0.44615367 0.42700255 4292616960
3.1425662 -0.44438875 0.43740615 4292616960
3.113544 -0.44018638 0.44476831 4292486400
2.9953563 -0.4233937 0.43842894 4292094720
2.9171999 -0.41226089 0.43674329 4291833600
3.1468279 -0.44457972 0.48086023 4292616960
3.1484995 -0.44471309 0.49047989 4292616960
3.1335139 -0.44249624 0.49691215 4292616960
3.1376543 -0.44297838 0.50575626 4292616960
3.1279719 -0.44151095 0.51178193 4292616960
3.1241109 -0.44086504 0.51812798 4292616960
3.1070242 -0.43835515 0.52164251 4292486400
3.115886 -0.43950343 0.52886653 4292616960
3.0629523 -0.43194434 0.52495807 4292355840
3.0768857 -0.43380812 0.5317778 4292486400
3.0762708 -0.43362224 0.53548968 4292486400
3.0757563 -0.43345061 0.53858888 4292486400
3.0938818 -0.4359031 0.54431969 4292486400
3.0935729 -0.43576011 0.54619575 4292486400
3.0836155 -0.43425965 0.5457285 4292486400
3.0835211 -0.43414742 0.54635292 4292486400
3.0698781 -0.4321298 0.54394364 4292355840
3.0602438 -0.43067685 0.54160339 4292355840
3.1310825 -0.44053733 0.55277938 4292616960
3.103128 -0.43650842 0.54592431 4292486400
3.1284256 -0.43996409 0.54775256 4292616960
3.1201925 -0.43870777 0.54307854 4292616960
3.1148357 -0.43785611 0.53828055 4292616960
3.1372843 -0.44090927 0.53761005 4292616960
3.1420259 -0.44147527 0.53324825 4292616960
3.143847 -0.4416312 0.52775794 4292616960
3.1409688 -0.44112766 0.52086824 4292616960
3.1314261 -0.43968946 0.51229805 4292616960
3.1228473 -0.43838719 0.50333065 4292616960
3.1289949 -0.4391506 0.49614605 4292616960
3.1489022 -0.44184279 0.49048638 4292616960
3.165478 -0.44406688 0.4836379 4292747520
3.1609683 -0.44333521 0.47298953 4292616960
3.1354949 -0.43966687 0.45877331 4292616960
3.1172459 -0.43647906 0.37724879 4292486400
3.1390498 -0.43943128 0.3658599 4292616960
3.1495097 -0.4407959 0.35259891 4292616960
3.1131446 -0.43561348 0.33385468 4292486400
3.1039419 -0.43423 0.31784606 4292355840
3.1216357 -0.43660584 0.30417424 4292486400
3.1323972 -0.43801209 0.2893497 4292486400
3.0953715 -0.43274271 0.26995724 4292355840
3.0859575 -0.43133169 0.25289449 4292355840
3.1127748 -0.43497992 0.2384014 4292486400
3.128818 -0.43712255 0.22259507 4292486400
3.1083853 -0.43417373 0.20399654 4292355840
3.1044962 -0.43353453 0.18638141 4292355840
3.1221538 -0.43590125 0.16976136 4292486400
3.1206412 -0.43559337 0.1518323 4292486400
3.0774438 -0.42947331 0.13199167 4292225280
3.104434 -0.43314034 0.1150618 4292355840
3.1026828 -0.43279994 0.096810438 4292355840
3.0827065 -0.42992017 0.078021944 4292355840
2.9976165 -0.41797066 0.058160625 4291964160
3.0883572 -0.43051597 0.041495729 4292355840
3.0816023 -0.4294796 0.023034576 4292225280
3.0778139 -0.42885664 0.0046284702 4292225280
3.0777853 -0.42875722 -0.01375981 4292225280
3.0785694 -0.42877087 -0.032145195 4292225280
3.0728526 -0.42788008 -0.050398033 4292225280
3.0255489 -0.42120516 -0.067577638 4292094720
3.0815692 -0.42890158 -0.087108634 4292355840
3.0957906 -0.43078321 -0.10575769 4292355840
3.0986683 -0.43108711 -0.12400214 4292355840
2.9951088 -0.41659939 -0.13720985 4291964160
3.0678034 -0.42660642 -0.15826857 4292225280
3.0876524 -0.42926833 -0.17693397 4292355840
3.0753322 -0.42746142 -0.19359231 4292225280
2.9863811 -0.41501543 -0.20461012 4291964160
3.10113 -0.43085128 -0.22961758 4292355840
3.1170955 -0.43297055 -0.24772638 4292486400
3.1049507 -0.43118843 -0.26333943 4292355840
3.0479033 -0.42317811 -0.2744697 4292225280
2.884342 -0.40039894 -0.27450937 4291703040
3.0972307 -0.42982778 -0.31052577 4292355840
3.0976686 -0.42979187 -0.32586399 4292355840
3.0927656 -0.42901564 -0.34025773 4292355840
2.9879344 -0.41439313 -0.34271359 4292094720
2.9056756 -0.40290418 -0.3465232 4291703040
3.1169062 -0.43206915 -0.38567266 4292486400
3.1231306 -0.43283346 -0.39988497 4292486400
3.1220787 -0.43259001 -0.41273773 4292486400
3.0898314 -0.42802882 -0.42085454 4292355840
2.9416852 -0.40743187 -0.41195288 4291964160
3.0805349 -0.42654869 -0.44287193 4292355840
3.0965748 -0.42867038 -0.45614296 4292486400
3.0901914 -0.42769021 -0.46561784 4292486400
3.0902064 -0.42759496 -0.47550923 4292486400
3.0918584 -0.42772588 -0.4851163 4292486400
3.0783126 -0.42575645 -0.49174348 4292355840
3.0559719 -0.4225727 -0.49630016 4292355840
2.9874935 -0.41301751 -0.49254248 4292094720
3.0098729 -0.41601336 -0.50312483 4292225280
2.962276 -0.40934667 -0.50134677 4291964160
2.9711387 -0.41047603 -0.50849062 4292094720
3.0025392 -0.4147149 -0.51898462 4292225280
3.0115657 -0.4158648 -0.5250656 4292225280
2.9198151 -0.40311339 -0.51281196 4291833600
2.9339259 -0.40496626 -0.51850492 4291964160
2.9471555 -0.40669668 -0.52346581 4291964160
2.9468272 -0.40655732 -0.52541387 4291964160
2.9368482 -0.40508795 -0.52501947 4291964160
2.9279497 -0.40376797 -0.52419984 4291964160
2.9181805 -0.40232855 -0.52260995 4291833600
3.0142076 -0.41545892 -0.53939563 4292225280
2.9948974 -0.41270354 -0.53484917 4292094720
2.976665 -0.41009766 -0.52988988 4292094720
2.9448729 -0.4056268 -0.52192807 4291964160
3.0055792 -0.41388404 -0.529764 4292225280
2.9827664 -0.41064921 -0.5221895 4292094720
3.0594699 -0.42110106 -0.53140056 4292355840
3.0676732 -0.42212999 -0.52794468 4292355840
3.0856721 -0.42450479 -0.52552289 4292486400
3.0836499 -0.42412695 -0.51904583 4292486400
3.0969772 -0.42585802 -0.5145359 4292486400
3.0893526 -0.42471024 -0.50593138 4292486400
3.0828598 -0.42371827 -0.49696591 4292486400
3.0747726 -0.42250776 -0.48721164 4292355840
3.0693901 -0.42166892 -0.47736788 4292355840
3.0869825 -0.4239831 -0.47052509 4292486400
3.1070132 -0.42663053 -0.46339938 4292486400
3.1134524 -0.42741233 -0.45362604 4292486400
3.0954821 -0.42484644 -0.43981344 4292486400
3.0769534 -0.42220509 -0.42555961 4292355840
3.0755167 -0.42190751 -0.413275 4292355840
3.1061537 -0.42600504 -0.40473381 4292486400
3.0979688 -0.42478198 -0.39057136 4292486400
3.0800121 -0.42222095 -0.37484935 4292355840
3.0712988 -0.42092681 -0.35995808 4292355840
3.0910366 -0.42352808 -0.34796527 4292355840
3.1048849 -0.42532191 -0.33476496 4292486400
3.1011786 -0.42471275 -0.31924641 4292355840
3.0588403 -0.41881886 -0.29960918 4292225280
3.0805225 -0.42168364 -0.28605032 4292355840
3.0917482 -0.42311716 -0.27103427 4292355840
3.0882628 -0.42253888 -0.25438619 4292355840
3.0594575 -0.41850033 -0.23553626 4292225280
3.0908239 -0.4226853 -0.22108166 4292355840
3.0968668 -0.42340887 -0.20435895 4292355840
3.0866599 -0.42191276 -0.18635941 4292355840
3.00862 -0.41115552 -0.1645266 4292094720
3.0830669 -0.42121857 -0.15096264 4292355840
3.1123073 -0.42510727 -0.13440336 4292355840
3.1182935 -0.42582127 -0.11648064 4292355840
3.0778193 -0.4201974 -0.096875787 4292225280
3.1026497 -0.42348188 -0.079354882 4292355840
3.1071188 -0.42398873 -0.061046209 4292355840
3.0277834 -0.41307217 -0.041424237 4292094720
3.0557399 -0.41678187 -0.023600038 4292225280
3.1261029 -0.42626721 -0.0055210921 4292486400
3.1211514 -0.42548949 0.013128876 4292355840
2.9619205 -0.40370324 0.030227313 4291833600
3.1410706 -0.42799512 0.050640605 4292486400
3.1645219 -0.43108329 0.069785945 4292616960
3.1493087 -0.42890865 0.088072538 4292486400
2.9205291 -0.39768097 0.098986842 4291703040
3.1405599 -0.4275108 0.12463956 4292486400
3.1552272 -0.42940158 0.14350247 4292486400
3.1151786 -0.42385313 0.15960722 4292355840
2.9275208 -0.39824575 0.16677085 4291833600
3.1558602 -0.42917541 0.19737637 4292616960
3.1750917 -0.4316839 0.21621072 4292616960
3.1347492 -0.42610034 0.2306729 4292486400
2.9371569 -0.39916828 0.23212425 4291833600
3.1832063 -0.43247178 0.26830447 4292616960
3.1897085 -0.4332495 0.28549266 4292747520
3.1794796 -0.43175676 0.30085766 4292616960
3.0191135 -0.40989909 0.30092436 4292094720
2.8920453 -0.39256763 0.30252415 4291703040
3.1856825 -0.43228453 0.34826276 4292747520
3.1835752 -0.43189442 0.36287245 4292747520
3.1278851 -0.42424315 0.37074012 4292486400
3.0205009 -0.40959194 0.37137362 4292094720
2.9517488 -0.40018055 0.37554398 4291964160
3.1914878 -0.432549 0.41900054 4292747520
3.1834929 -0.43136233 0.43058136 4292747520
3.1735733 -0.42991573 0.4413425 4292747520
3.1445131 -0.42587978 0.44880664 4292616960
3.0311201 -0.41043663 0.44327819 4292225280
2.9479828 -0.39909315 0.44097146 4291964160
3.1817019 -0.43060136 0.48577136 4292747520
3.1843398 -0.43085453 0.49563661 4292747520
3.1732442 -0.42925149 0.5027774 4292747520
3.1773729 -0.42970639 0.51171607 4292747520
3.1686466 -0.42842457 0.5179888 4292747520
3.1589005 -0.42700565 0.52344954 4292747520
3.1515663 -0.42591313 0.52866107 4292616960
3.1555352 -0.42634708 0.53513515 4292616960
3.0937543 -0.41790703 0.52978659 4292486400
3.1115994 -0.42021516 0.53731793 4292486400
3.1256282 -0.42200741 0.54360592 4292616960
3.1202219 -0.42117769 0.5459016 4292616960
3.1246858 -0.42167929 0.54927337 4292616960
3.1282783 -0.42206326 0.55185264 4292616960
3.1280732 -0.42193526 0.55311751 4292616960
3.1240718 -0.42129591 0.55306196 4292616960
3.1143224 -0.41988263 0.55134112 4292616960
3.1095631 -0.4191421 0.54985195 4292486400
3.1049113 -0.4184165 0.54773742 4292486400
3.1524889 -0.42472193 0.55412555 4292616960
3.1246164 -0.42087042 0.54664862 4292616960
3.1549292 -0.42484948 0.54865748 4292747520
3.1544592 -0.42468596 0.54466057 4292747520
3.1637349 -0.4258332 0.54168767 4292747520
3.181689 -0.42814681 0.53951687 4292747520
3.1845 -0.42842382 0.53412336 4292747520
3.1806531 -0.42780602 0.52699667 4292747520
3.1760075 -0.42708129 0.51914191 4292747520
3.1635222 -0.42530382 0.50944752 4292747520
3.1696894 -0.42603219 0.50216579 4292747520
3.1847298 -0.4279516 0.49564323 4292747520
3.1968195 -0.42947409 0.48801216 4292747520
3.1880956 -0.42820272 0.47664669 4292747520
3.1664512 -0.4251985 0.46290895 4292616960
3.148277 -0.42212301 0.38067701 4292616960
3.1927602 -0.42798248 0.37178445 4292747520
3.1855206 -0.42691332 0.35631984 4292747520
3.1481571 -0.42181194 0.33731464 4292616960
3.1350176 -0.41995513 0.32074952 4292486400
3.1566856 -0.42275679 0.30731905 4292616960
3.1684575 -0.42423326 0.29242167 4292616960
3.1304293 -0.4190484 0.27277201 4292486400
3.1309011 -0.41901407 0.2563414 4292486400
3.1484382 -0.4212611 0.24091551 4292486400
3.1496749 -0.42132849 0.22388525 4292486400
3.1311324 -0.41875288 0.20530935 4292486400
3.1356642 -0.41926101 0.18808088 4292486400
3.1632423 -0.42284697 0.17183049 4292616960
3.160749 -0.42241579 0.15363404 4292616960
3.1234684 -0.41734076 0.13382781 4292486400
3.1310692 -0.41825825 0.11593821 4292486400
3.1213896 -0.41686949 0.097303323 4292355840
3.0950384 -0.41325724 0.078262478 4292355840
2.9801204 -0.39783397 0.057785112 4291964160
3.1235206 -0.41686317 0.041911393 4292486400
3.128669 -0.41745263 0.023337085 4292486400
3.1406348 -0.41895044 0.0046789176 4292486400
3.1433444 -0.4192141 -0.014083418 4292486400
3.1356094 -0.41808614 -0.032750994 4292486400
3.1139464 -0.41510361 -0.051057857 4292355840
3.0477712 -0.40619522 -0.068035029 4292225280
3.1226585 -0.41607022 -0.088226072 4292486400
3.1269772 -0.41654813 -0.10675825 4292486400
3.12886 -0.41670161 -0.12513024 4292486400
3.0262012 -0.40294737 -0.13854441 4292094720
3.1128044 -0.41437188 -0.16049051 4292355840
3.1237488 -0.41573054 -0.17888281 4292486400
3.1163538 -0.41465035 -0.19604415 4292355840
3.022373 -0.40206248 -0.20693454 4292094720
3.1233592 -0.41538748 -0.23109439 4292486400
3.1329763 -0.41656795 -0.24880181 4292486400
3.1360552 -0.41687939 -0.26578566 4292486400
3.0838861 -0.40985438 -0.27751181 4292355840
2.9241269 -0.38854951 -0.27810016 4291833600
3.1371653 -0.41673362 -0.31430393 4292486400
3.1425145 -0.41734552 -0.33034578 4292486400
3.1326587 -0.41593999 -0.34439701 4292486400
3.0336342 -0.40270856 -0.34770679 4292225280
2.9365215 -0.38973671 -0.34994376 4291833600
3.1626623 -0.41962379 -0.39105043 4292616960
3.158051 -0.41891366 -0.40405643 4292616960
3.1520665 -0.4180218 -0.41639006 4292616960
3.1296027 -0.41494715 -0.42595714 4292486400
2.9675739 -0.39338949 -0.41526568 4291964160
3.12026 -0.41351366 -0.44825083 4292486400
3.1264846 -0.41423962 -0.46020228 4292486400
3.1319332 -0.41486242 -0.47155771 4292616960
3.1298838 -0.41449267 -0.48125631 4292616960
3.1090055 -0.41163218 -0.48743242 4292486400
3.0908091 -0.40912759 -0.49335855 4292486400
3.0906794 -0.40901288 -0.50156021 4292486400
3.0221341 -0.39985421 -0.49788022 4292225280
2.9704883 -0.39293316 -0.49613246 4292094720
2.9929626 -0.39580858 -0.50615859 4292094720
3.0203929 -0.3993372 -0.51653957 4292225280
3.0381253 -0.40158319 -0.52474165 4292225280
3.0559418 -0.40383908 -0.53240693 4292355840
2.9689929 -0.39226463 -0.52106547 4292094720
2.9684589 -0.39209968 -0.52421427 4292094720
2.9777882 -0.39323604 -0.52850783 4292094720
2.9862418 -0.39425614 -0.53204423 4292094720
2.9821086 -0.39361575 -0.53271598 4292094720
2.9819858 -0.39350426 -0.53348339 4292094720
2.9673276 -0.39147681 -0.53102052 4292094720
3.0536697 -0.40275973 -0.54604924 4292355840
3.0353224 -0.40024465 -0.54166448 4292225280
3.0121975 -0.39710143 -0.53581357 4292225280
2.9940541 -0.39461553 -0.53025448 4292094720
3.0499327 -0.40187562 -0.53718346 4292355840
3.0222259 -0.39813077 -0.52870387 4292225280
3.0999749 -0.40826398 -0.53803498 4292486400
3.1035845 -0.40863886 -0.53372544 4292486400
3.1174347 -0.41036025 -0.53053337 4292486400
3.1427858 -0.41359285 -0.52861559 4292616960
3.1298163 -0.41178629 -0.51960218 4292616960
3.1163251 -0.40991193 -0.50996369 4292486400
3.1224778 -0.41061935 -0.50297952 4292486400
3.0988281 -0.40741146 -0.49065256 4292486400
3.1051095 -0.40813577 -0.48256466 4292486400
3.1315534 -0.4115068 -0.47696903 4292616960
3.1496453 -0.41377974 -0.46941322 4292616960
3.1541586 -0.41426951 -0.45921949 4292616960
3.1411018 -0.41245377 -0.44597095 4292616960
3.1078465 -0.4079895 -0.42951372 4292486400
3.1113367 -0.40834579 -0.41778168 4292486400
3.1252863 -0.41007295 -0.40692014 4292486400
3.1387596 -0.41173676 -0.39542761 4292616960
3.1113534 -0.40804306 -0.37838605 4292486400
3.0934107 -0.40559077 -0.36227986 4292355840
3.1329522 -0.41066816 -0.35243228 4292486400
3.1492803 -0.41270348 -0.33931175 4292616960
3.1460142 -0.41217273 -0.3236348 4292486400
3.0898471 -0.40471905 -0.30242869 4292355840
3.1020758 -0.40621763 -0.28784043 4292355840
3.1228065 -0.40882748 -0.27356213 4292486400
3.10885 -0.40689984 -0.25589535 4292355840
3.1004009 -0.40569311 -0.23852685 4292355840
3.1209271 -0.40827411 -0.2230794 4292486400
3.1418262 -0.41090247 -0.20719114 4292486400
3.1415234 -0.4107596 -0.18955687 4292486400
3.0535381 -0.39916483 -0.16688082 4292225280
3.1162572 -0.4072538 -0.15248977 4292355840
3.155834 -0.41231763 -0.13620365 4292486400
3.168376 -0.41385064 -0.11828995 4292616960
3.1161122 -0.4069272 -0.09802898 4292355840
3.1391914 -0.4098351 -0.080250219 4292486400
3.1510885 -0.4112832 -0.06188966 4292486400
3.0678155 -0.40032265 -0.041965395 4292225280
3.05445 -0.39847949 -0.023572437 4292225280
3.1612563 -0.41229692 -0.0056016338 4292486400
3.1612585 -0.41219306 0.013261263 4292486400
3.00686 -0.3919794 0.030631645 4291964160
3.1673069 -0.41277248 0.051006291 4292616960
3.2006874 -0.41701365 0.070504941 4292616960
3.1579821 -0.41135037 0.088239685 4292486400
2.941627 -0.38309577 0.099609055 4291833600
3.1891451 -0.41519621 0.1264374 4292616960
3.1864047 -0.4147349 0.14478683 4292616960
3.1563737 -0.41072565 0.16156444 4292486400
2.9773169 -0.38734776 0.16944037 4291964160
3.1905463 -0.41495883 0.19936727 4292616960
3.1984177 -0.41587663 0.21761391 4292747520
3.1571128 -0.41040677 0.23212248 4292616960
2.9631612 -0.38511845 0.23397847 4291964160
3.2192736 -0.4182691 0.27110934 4292747520
3.229717 -0.41951892 0.28882208 4292878080
3.2056386 -0.41628882 0.30307952 4292747520
3.0540197 -0.39651588 0.3041423 4292225280
2.9327559 -0.38068959 0.30651426 4291833600
3.209826 -0.41651684 0.35061327 4292747520
3.207818 -0.41615158 0.36533532 4292747520
3.181524 -0.41263935 0.37676787 4292747520
3.0563092 -0.3963131 0.37545893 4292225280
3.0012627 -0.38908353 0.38151067 4292094720
3.2362447 -0.41941363 0.42451626 4292878080
3.2233067 -0.41763324 0.43560085 4292878080
3.2008653 -0.4146238 0.44477406 4292747520
3.1803305 -0.41186255 0.45354187 4292747520
3.0609438 -0.39631525 0.44727126 4292355840
2.9924459 -0.38735709 0.44724232 4292094720
3.2263258 -0.41749963 0.49217173 4292878080
3.2191443 -0.41646668 0.5006417 4292878080
3.2139053 -0.41568536 0.50879711 4292878080
3.2180214 -0.41611311 0.51783293 4292878080
3.1859262 -0.41186345 0.52039874 4292747520
3.169683 -0.40966293 0.52482283 4292747520
3.1921537 -0.41246164 0.53502649 4292747520
3.1302063 -0.40436316 0.53044844 4292616960
3.1528552 -0.40718487 0.53944677 4292616960
3.1521244 -0.40698913 0.54386604 4292616960
3.1514933 -0.40680641 0.54766262 4292616960
3.1695342 -0.40903139 0.55406511 4292747520
3.1691086 -0.40887484 0.55662006 4292747520
3.0850558 -0.39794081 0.54384047 4292486400
3.1685822 -0.40860397 0.55981892 4292747520
3.1635993 -0.40786073 0.55959898 4292747520
3.1587269 -0.40713221 0.55873871 4292747520
3.1402862 -0.40465716 0.55483431 4292616960
3.1356325 -0.40395802 0.55270839 4292616960
3.1881351 -0.41061446 0.5599339 4292747520
3.1739287 -0.4086853 0.55481213 4292747520
3.2042723 -0.41248724 0.55677384 4292878080
3.1950114 -0.41119465 0.55120867 4292878080
3.1984351 -0.41153342 0.54718268 4292878080
3.2174041 -0.41387007 0.54512793 4292878080
3.2085681 -0.41263285 0.53772932 4292878080
3.2202876 -0.41403687 0.53312522 4292878080
3.2107551 -0.41271085 0.5243935 4292878080
3.2031696 -0.41163552 0.51540756 4292878080
3.2044561 -0.41169962 0.50725907 4292878080
3.2244232 -0.41416118 0.50140721 4292878080
3.2365379 -0.41561404 0.49366808 4292878080
3.2189925 -0.41326162 0.48087484 4292878080
3.2159972 -0.41277632 0.46975628 4292878080
3.1921494 -0.40907237 0.38565549 4292747520
3.2119391 -0.41150588 0.37371787 4292747520
3.2204895 -0.41249985 0.35993138 4292747520
3.193964 -0.40900546 0.34192899 4292747520
3.1699793 -0.4058378 0.32405394 4292616960
3.180805 -0.40712342 0.30941343 4292616960
3.1990998 -0.40936339 0.29500282 4292747520
3.1713612 -0.40571815 0.27609918 4292616960
3.1669059 -0.4050501 0.25906631 4292616960
3.1795239 -0.40656364 0.24308692 4292616960
3.189678 -0.40776172 0.22652847 4292616960
3.1572764 -0.40352494 0.20684746 4292486400
3.1717215 -0.40527099 0.19007398 4292616960
3.197916 -0.40851584 0.17355818 4292616960
3.1869361 -0.40701541 0.15477096 4292616960
3.1535971 -0.40266329 0.13499524 4292486400
3.1622007 -0.40366271 0.11698076 4292616960
3.1659112 -0.40403771 0.098586649 4292616960
3.1490355 -0.40178812 0.079531826 4292486400
3.1064219 -0.39625934 0.060104799 4292355840
3.1607409 -0.40308422 0.042354174 4292486400
3.1571846 -0.40253314 0.023512993 4292486400
3.1176019 -0.39739406 0.0046534976 4292355840
3.1256182 -0.39831802 -0.013984249 4292486400
3.147819 -0.40104714 -0.03286235 4292486400
3.1490431 -0.40110525 -0.051616538 4292486400
3.0976896 -0.3944737 -0.069128484 4292355840
3.139303 -0.3996709 -0.088640317 4292486400
3.1600723 -0.40221471 -0.10782705 4292486400
3.1649356 -0.40273494 -0.1264993 4292616960
3.0661542 -0.39008066 -0.14029214 4292225280
3.1410103 -0.39949802 -0.16183963 4292486400
3.1478939 -0.40027499 -0.18014406 4292486400
3.1424932 -0.39949119 -0.19755498 4292486400
3.0573246 -0.38857836 -0.20919056 4292225280
3.1682677 -0.40256795 -0.23426594 4292616960
3.1877639 -0.40494388 -0.25299251 4292616960
3.1809371 -0.40397841 -0.2694113 4292616960
3.1237686 -0.39662692 -0.28091133 4292486400
2.9697959 -0.37700137 -0.28225738 4291964160
3.1731031 -0.40268779 -0.31768462 4292616960
3.1706319 -0.40227556 -0.3330659 4292616960
3.1636276 -0.40128893 -0.34755656 4292616960
3.0635276 -0.38850701 -0.35088527 4292225280
2.9811039 -0.3779704 -0.35501415 4291964160
3.1906414 -0.40441352 -0.39422783 4292747520
3.1959527 -0.40498614 -0.40861773 4292747520
3.1928096 -0.40448824 -0.42147595 4292747520
3.1380174 -0.39745435 -0.42678595 4292616960
3.0218937 -0.38266429 -0.42257792 4292225280
3.1609185 -0.40015417 -0.45377111 4292616960
3.1593611 -0.39985797 -0.46470872 4292616960
3.1666753 -0.40068331 -0.47644785 4292616960
3.1655896 -0.40044647 -0.48639867 4292616960
3.1584036 -0.39943883 -0.49482974 4292616960
3.1215558 -0.39468434 -0.49790767 4292486400
3.1312082 -0.39580497 -0.5077759 4292616960
3.0665123 -0.38753727 -0.50483447 4292355840
3.0849836 -0.38977206 -0.51492685 4292486400
3.023591 -0.3819266 -0.51097029 4292225280
3.0461423 -0.38467622 -0.52056545 4292355840
3.0824599 -0.38916075 -0.53202176 4292486400
3.095391 -0.39069369 -0.53889489 4292486400
3.0044587 -0.37913105 -0.52691245 4292225280
3.0127125 -0.3800759 -0.53165281 4292225280
3.0220423 -0.38115573 -0.53598243 4292225280
3.0217044 -0.38101694 -0.53797692 4292225280
3.0117035 -0.37966102 -0.53761476 4292225280
3.0076716 -0.37905723 -0.53768873 4292225280
2.9978859 -0.3777293 -0.53610295 4292094720
3.0891774 -0.38912275 -0.55200267 4292486400
3.0796103 -0.38782012 -0.54917842 4292486400
3.0515866 -0.38419643 -0.54243368 4292355840
3.0334342 -0.38181579 -0.5368467 4292225280
3.0844736 -0.38813534 -0.54287809 4292486400
3.0616398 -0.3851662 -0.53521812 4292355840
3.1345665 -0.39423174 -0.54364914 4292616960
3.1254725 -0.39298841 -0.53709888 4292616960
3.1432517 -0.39512068 -0.53454024 4292616960
3.1588426 -0.39697698 -0.53092772 4292616960
3.1556573 -0.39647517 -0.52351397 4292616960
3.1568544 -0.39652345 -0.51623052 4292616960
3.1581278 -0.39658117 -0.50836027 4292616960
3.1393745 -0.39412665 -0.49672207 4292616960
3.1358714 -0.39358568 -0.48699754 4292616960
3.1568484 -0.3961139 -0.4804762 4292616960
3.1853738 -0.3995868 -0.47440225 4292747520
3.1820378 -0.39906538 -0.46294755 4292747520
3.1670313 -0.39708206 -0.44933084 4292616960
3.1386776 -0.39342806 -0.43346772 4292616960
3.1461186 -0.39425763 -0.42215577 4292616960
3.1699352 -0.39713645 -0.4124496 4292616960
3.1716135 -0.39724317 -0.39928663 4292616960
3.1560357 -0.39519083 -0.38355824 4292616960
3.1331735 -0.39222834 -0.36668515 4292486400
3.158958 -0.39535028 -0.35510772 4292616960
3.1802428 -0.39790797 -0.34240991 4292616960
3.1819236 -0.39801413 -0.32710525 4292616960
3.134619 -0.39199954 -0.30660778 4292486400
3.1468763 -0.39342815 -0.2918056 4292486400
3.165652 -0.39566991 -0.27713355 4292616960
3.1546819 -0.39419666 -0.25950107 4292616960
3.1130934 -0.38890243 -0.23933354 4292355840
3.1572957 -0.39431614 -0.22553261 4292616960
3.1708882 -0.39590836 -0.20896965 4292616960
3.1626825 -0.39478102 -0.19070493 4292616960
3.0845459 -0.38493481 -0.1684694 4292355840
3.161195 -0.39438814 -0.15460084 4292486400
3.1670008 -0.39500794 -0.13659185 4292616960
3.1479244 -0.39252737 -0.11742891 4292486400
3.1391556 -0.39133188 -0.098695442 4292486400
3.1662469 -0.39460227 -0.080899015 4292616960
3.179239 -0.39611572 -0.062414177 4292616960
3.1532941 -0.39278236 -0.043155916 4292486400
3.1783924 -0.39580163 -0.024588235 4292616960
3.1874211 -0.39682037 -0.0056609162 4292616960
3.1834681 -0.39622414 0.013329685 4292616960
3.0428312 -0.37863508 0.030950841 4292094720
3.2103274 -0.39935353 0.051633056 4292747520
3.2248769 -0.40105611 0.070968948 4292747520
3.1940532 -0.39712116 0.089157611 4292616960
2.9914172 -0.3718504 0.10118534 4291964160
3.2202673 -0.40016636 0.12755585 4292747520
3.2274313 -0.40095001 0.14651524 4292747520
3.1874559 -0.39588344 0.1630134 4292616960
3.0122209 -0.37403896 0.17127487 4292094720
3.2315404 -0.4011423 0.20175178 4292747520
