# .PCD v0.7 - Point Cloud Data file format
VERSION 0.7
FIELDS x y z rgba
SIZE 4 4 4 4
TYPE F F F U
COUNT 1 1 1 1
WIDTH 1103
HEIGHT 1
VIEWPOINT 0 0 0 1 0 0 0
POINTS 1103
DATA ascii
3.3800223 0.51962233 -0.33610067 4293400320
3.3848925 0.52047986 -0.35331833 4293400320
3.3872712 0.52095455 -0.36991954 4293400320
3.3778474 0.51961386 -0.38478753 4293400320
3.3586464 0.51676816 -0.39798024 4293400320
3.3949752 0.52246696 -0.41738132 4293530880
3.3983903 0.52310181 -0.43244401 4293530880
3.405148 0.52425152 -0.44748843 4293530880
3.4077115 0.52475578 -0.46151531 4293530880
3.3999729 0.52367347 -0.47360519 4293530880
3.3719437 0.51946473 -0.48219758 4293400320
3.3796408 0.52075928 -0.49527386 4293400320
3.3854816 0.52176809 -0.50756013 4293530880
3.3790092 0.52087927 -0.51741898 4293530880
3.3854456 0.52198035 -0.52866006 4293530880
3.3915093 0.52302438 -0.53927219 4293530880
3.3881929 0.52262187 -0.5477801 4293530880
3.3831708 0.52195603 -0.55535853 4293530880
3.3900297 0.52312326 -0.56424814 4293530880
3.386502 0.52268785 -0.57076329 4293530880
3.3722751 0.52060044 -0.57477802 4293530880
3.3616955 0.51907533 -0.57870078 4293400320
3.3476946 0.51702118 -0.58132154 4293400320
3.3336015 0.51495183 -0.58320886 4293400320
3.3475826 0.51721919 -0.58932376 4293400320
3.3558297 0.51860136 -0.59376305 4293400320
3.3466682 0.51729327 -0.59442872 4293400320
3.3463845 0.51735699 -0.59596908 4293400320
3.3413517 0.51668644 -0.59596425 4293400320
3.358546 0.51945329 -0.59922552 4293400320
3.3537495 0.51881933 -0.59786302 4293400320
3.3583238 0.51963496 -0.59746993 4293400320
3.377984 0.52278566 -0.59904832 4293530880
3.3769648 0.52273655 -0.59624803 4293530880
3.3750107 0.52254266 -0.59258813 4293530880
3.3775301 0.52304137 -0.58902019 4293530880
3.3769019 0.52305269 -0.58421367 4293530880
3.3699374 0.52208239 -0.5776419 4293530880
3.3780026 0.52344054 -0.57297051 4293530880
3.3711154 0.5224818 -0.56509614 4293530880
3.3771417 0.52352446 -0.5587312 4293530880
3.3629186 0.52142775 -0.54838955 4293400320
3.3433695 0.5185042 -0.53662938 4293400320
3.341815 0.51837063 -0.52719277 4293400320
3.3599534 0.52129233 -0.52020717 4293400320
3.379189 0.52438539 -0.51268107 4293530880
3.3882427 0.52589935 -0.50293344 4293530880
3.3651259 0.52241963 -0.48788595 4293400320
3.3456578 0.5195049 -0.47296163 4293400320
3.3424356 0.51911211 -0.45987895 4293269760
3.3613541 0.5221585 -0.44925901 4293400320
3.3682625 0.52333999 -0.4364233 4293400320
3.3753891 0.52455586 -0.42306554 4293400320
3.3307581 0.51772714 -0.40290993 4293269760
3.3481324 0.52053553 -0.38992003 4293269760
3.3702395 0.52408093 -0.37686452 4293400320
3.3742287 0.52480984 -0.3612414 4293400320
3.3659458 0.5236299 -0.34392422 4293400320
3.3241508 0.51723486 -0.32305068 4293269760
3.3406715 0.51991302 -0.30761161 4293269760
3.347085 0.5210188 -0.29078484 4293269760
3.3434925 0.52056724 -0.27275443 4293269760
3.3210864 0.51718551 -0.25302956 4293139200
3.3423035 0.52059716 -0.23635571 4293269760
3.3497789 0.52186936 -0.21829413 4293269760
3.3398046 0.52042288 -0.19887181 4293269760
3.3471916 0.52168167 -0.18028073 4293269760
3.343997 0.52129138 -0.16090006 4293269760
3.3482988 0.52206969 -0.14169876 4293269760
3.3426516 0.5212968 -0.12193085 4293269760
3.3282189 0.51915306 -0.10182825 4293139200
3.3493257 0.52255321 -0.082662813 4293269760
3.36235 0.52469337 -0.063006222 4293269760
3.3564858 0.52388632 -0.042885095 4293269760
3.3478742 0.52264994 -0.02276884 4293269760
3.361474 0.52488124 -0.0027489972 4293269760
3.3584957 0.52452427 0.017351113 4293269760
3.3108318 0.51718676 0.036899067 4293139200
3.379416 0.52800906 0.057827268 4293400320
3.3926477 0.53018564 0.078234039 4293400320
3.3749146 0.52752304 0.097816184 4293269760
3.2609224 0.50981015 0.11372623 4293008640
3.3924961 0.5304895 0.13817637 4293400320
3.3927515 0.53063864 0.15790026 4293400320
3.3619816 0.52593428 0.17583348 4293269760
3.1054907 0.48590988 0.18013054 4292486400
3.3934133 0.53106976 0.21597105 4293400320
3.3894644 0.53056085 0.23460247 4293400320
3.3710616 0.5277887 0.25185436 4293400320
3.1244617 0.48928049 0.25034589 4292486400
3.4254057 0.53651762 0.29270256 4293530880
3.4151268 0.53501755 0.30969253 4293530880
3.3994324 0.53266829 0.32571602 4293400320
3.2701871 0.51252162 0.32976982 4293008640
3.0453835 0.47738719 0.32206777 4292225280
3.4115031 0.5348891 0.37715352 4293530880
3.4024258 0.53357536 0.39205405 4293530880
3.3571491 0.52658308 0.40209752 4293400320
3.3279076 0.52210349 0.41327664 4293269760
3.2094655 0.50362492 0.41227943 4292878080
3.4045124 0.53434098 0.45138708 4293530880
3.4045968 0.53446376 0.46494138 4293530880
3.3957891 0.53319049 0.47672167 4293530880
3.3665895 0.52871406 0.48495734 4293400320
3.3372509 0.52421391 0.4924112 4293269760
3.2786098 0.51510811 0.49468139 4293139200
3.3915291 0.53295827 0.52243215 4293530880
3.3947399 0.53357214 0.53305036 4293530880
3.3935797 0.533499 0.5423755 4293530880
3.3942375 0.53371167 0.5513646 4293530880
3.3865962 0.53261918 0.55835181 4293530880
3.3815 0.53192657 0.56508249 4293530880
3.3857319 0.53270125 0.57271391 4293530880
3.3674488 0.52993304 0.57584631 4293400320
3.3627825 0.52930695 0.58059579 4293400320
3.3668334 0.53005302 0.58617198 4293530880
3.3461988 0.52691215 0.58674663 4293400320
3.3407369 0.52615964 0.58926511 4293400320
3.3402543 0.52619117 0.59196687 4293400320
3.3447509 0.52700716 0.59486085 4293400320
3.3444986 0.52707517 0.59621668 4293400320
3.3443642 0.5271616 0.59689504 4293400320
3.3642609 0.53040618 0.60044944 4293530880
3.3546345 0.52899653 0.59803325 4293400320
3.3683245 0.53126377 0.59906965 4293530880
3.3492024 0.5283556 0.59357518 4293400320
3.3630011 0.53064072 0.59322119 4293400320
3.376698 0.53291065 0.59212995 4293530880
3.3831196 0.534033 0.58904898 4293530880
3.3863597 0.53465348 0.58471406 4293530880
3.3857343 0.5346638 0.57902664 4293530880
3.3924954 0.53584069 0.57391721 4293530880
3.3883007 0.53528726 0.56628352 4293530880
3.3883843 0.53540957 0.55871654 4293530880
3.3907449 0.53589177 0.55087221 4293530880
3.378629 0.53408569 0.54006547 4293530880
3.3659456 0.53218913 0.52861261 4293400320
3.3901072 0.53611845 0.52230155 4293530880
3.3921909 0.53655726 0.51191109 4293530880
3.392513 0.53671741 0.50066108 4293530880
3.3438945 0.52972078 0.40871519 4293269760
3.3696833 0.53391463 0.39679438 4293400320
3.3868864 0.53674948 0.3832241 4293400320
3.3859794 0.53671479 0.36710218 4293400320
3.3502066 0.53115225 0.34696952 4293269760
3.3585775 0.53258759 0.33115566 4293269760
3.3781178 0.53579497 0.31593582 4293400320
3.3625174 0.53342897 0.29706234 4293269760
3.3336272 0.52895314 0.27692086 4293269760
3.3448963 0.53084898 0.25990304 4293269760
3.360184 0.53338343 0.24276875 4293269760
3.3715746 0.53530014 0.22494097 4293400320
3.3342505 0.52948159 0.20376369 4293269760
3.3568339 0.533176 0.18610659 4293269760
3.3695402 0.5353027 0.16749853 4293269760
3.3652923 0.53473628 0.14781749 4293269760
3.3275263 0.52884251 0.12674873 4293139200
3.3497272 0.53247881 0.10791667 4293269760
3.3476593 0.53225791 0.088067718 4293269760
3.3582861 0.53405565 0.068406552 4293269760
3.3305078 0.52974546 0.047991533 4293139200
3.3436849 0.5319491 0.028201524 4293269760
3.33969 0.53142112 0.0081812497 4293269760
3.3011811 0.5253998 -0.011678122 4293139200
3.3230155 0.52898192 -0.031638656 4293139200
3.3456686 0.53269577 -0.051839031 4293269760
3.3516302 0.53375292 -0.07189589 4293269760
3.3137493 0.52782708 -0.090745643 4293139200
3.3418787 0.53241527 -0.11124655 4293269760
3.3622437 0.53576809 -0.1316545 4293269760
3.3687887 0.53691953 -0.15153666 4293269760
3.3175228 0.52885562 -0.16839623 4293139200
3.3433578 0.53308177 -0.18883851 4293269760
3.3485148 0.5340119 -0.20808478 4293269760
3.3561511 0.53533787 -0.22733058 4293269760
3.3267534 0.53075582 -0.24370043 4293139200
3.3597369 0.53612626 -0.26439083 4293269760
3.3743935 0.5385738 -0.2836073 4293400320
3.3716815 0.53824955 -0.30111685 4293400320
3.3605547 0.53658158 -0.31747177 4293269760
3.3533516 0.53553945 -0.3337532 4293269760
3.380476 0.53998023 -0.35317972 4293400320
3.3792696 0.53989637 -0.36938298 4293400320
3.3747628 0.53928506 -0.38478753 4293400320
3.3506749 0.5355438 -0.39739862 4293269760
3.3820713 0.54067087 -0.4161751 4293400320
3.3926892 0.54247761 -0.43211341 4293530880
3.4020357 0.54408169 -0.44748843 4293530880
3.3997028 0.54381812 -0.46085194 4293530880
3.3968642 0.54347354 -0.47360519 4293530880
3.3541942 0.53675467 -0.48009843 4293400320
3.361891 0.5380947 -0.49312374 4293400320
3.3726165 0.53992009 -0.5060944 4293400320
3.382122 0.54155076 -0.51836997 4293530880
3.3774676 0.54091436 -0.52789742 4293530880
3.3786502 0.54121262 -0.53771973 4293530880
3.3763151 0.54094738 -0.54636002 4293530880
3.3751991 0.54087728 -0.55455786 4293530880
3.3732839 0.5406791 -0.56197572 4293530880
3.3708229 0.54039323 -0.56864172 4293530880
3.3691847 0.54023921 -0.57477802 4293530880
3.3586142 0.53865248 -0.57870078 4293400320
3.3485181 0.53714114 -0.58199811 4293400320
3.3256798 0.53358483 -0.58235699 4293269760
3.3484032 0.53733855 -0.59000939 4293400320
3.3305314 0.53457785 -0.58982801 4293400320
3.3165181 0.53243548 -0.58961451 4293269760
3.3259602 0.53405851 -0.59287572 4293400320
3.3431466 0.53692591 -0.59683222 4293400320
3.333374 0.53546381 -0.59528089 4293400320
3.345808 0.53756899 -0.59699553 4293400320
3.3601015 0.5399738 -0.59833574 4293400320
3.3748808 0.54245764 -0.59904832 4293530880
3.3689988 0.54162079 -0.59538859 4293530880
3.3767729 0.54297942 -0.59344292 4293530880
3.374212 0.54267639 -0.58898294 4293530880
3.3737972 0.54271835 -0.58421367 4293530880
3.3814399 0.54405683 -0.58014709 4293530880
3.3700271 0.54232913 -0.57214397 4293530880
3.3742046 0.54311019 -0.56613481 4293530880
3.3568423 0.54042369 -0.55588424 4293400320
3.3500764 0.53944248 -0.54679865 4293400320
3.3451672 0.53875977 -0.53741264 4293400320
3.3398347 0.53800857 -0.52736592 4293400320
3.3519797 0.54007304 -0.51945096 4293400320
3.3686128 0.54286158 -0.51154768 4293400320
3.3825331 0.54521388 -0.50254893 4293530880
3.3581161 0.54138643 -0.48731869 4293400320
3.3464851 0.53961921 -0.47351503 4293400320
3.329572 0.53699929 -0.45853177 4293269760
3.3484676 0.54015476 -0.44794968 4293400320
3.3553638 0.54137534 -0.43515337 4293400320
3.3536603 0.54120862 -0.4207302 4293400320
3.3237643 0.53649116 -0.40243518 4293269760
3.3313124 0.53781688 -0.38831952 4293269760
3.3484855 0.54069728 -0.37477785 4293269760
3.3612964 0.54287434 -0.36018941 4293400320
3.3578053 0.54241866 -0.34340951 4293400320
3.3122368 0.53516436 -0.3221904 4293139200
3.3336532 0.53873211 -0.30724916 4293269760
3.3390746 0.53971589 -0.2903572 4293269760
3.3364668 0.53940195 -0.27243304 4293269760
3.3130949 0.53573018 -0.25265419 4293139200
3.3392136 0.5400613 -0.23635571 4293269760
3.3466816 0.54137701 -0.21829413 4293269760
3.3418593 0.54070467 -0.19917835 4293269760
3.3440952 0.54117423 -0.18028073 4293269760
3.3211825 0.53757334 -0.15995029 4293139200
3.3487403 0.54214185 -0.14184873 4293269760
3.3346252 0.5399642 -0.12175076 4293269760
3.3313551 0.53954208 -0.10201865 4293139200
3.3412902 0.54125887 -0.082540922 4293269760
3.3454185 0.54203552 -0.062747061 4293269760
3.3493285 0.542777 -0.042833328 4293269760
3.3398366 0.54134649 -0.022735244 4293269760
3.3510983 0.54327989 -0.0027430539 4293269760
3.3664982 0.54588509 0.017408593 4293269760
3.3176329 0.53806841 0.037009176 4293139200
3.385165 0.5491302 0.057979401 4293400320
3.3841617 0.54907662 0.078110799 4293400320
3.3767173 0.54797763 0.097959302 4293400320
3.2539508 0.52815986 0.11358848 4292878080
3.3706086 0.54720366 0.1374124 4293269760
3.3945324 0.55119705 0.15812993 4293400320
3.3539314 0.54471248 0.17557546 4293269760
3.0927525 0.50239408 0.17955841 4292355840
3.3902617 0.5508315 0.21597105 4293400320
3.3863156 0.55029958 0.23460247 4293400320
3.3679292 0.54742026 0.25185436 4293400320
3.1028626 0.50443661 0.24884655 4292486400
3.4084523 0.55422664 0.29152486 4293530880
3.4119518 0.55490571 0.30969253 4293530880
3.3962715 0.55246502 0.32571602 4293400320
3.2671456 0.53156573 0.32976982 4293008640
3.1378512 0.51063067 0.33215579 4292616960
3.408329 0.55475616 0.37715352 4293530880
3.3965728 0.55295223 0.3917442 4293530880
3.3633425 0.54765087 0.40321466 4293400320
3.3159921 0.54004776 0.41218069 4293269760
3.1966856 0.52072042 0.41102049 4292878080
3.4062347 0.55496454 0.45203644 4293530880
3.3965344 0.55349362 0.46427289 4293530880
3.387737 0.55216926 0.47603482 4293530880
3.3670838 0.54891157 0.48548096 4293400320
3.3541322 0.54690838 0.49536377 4293400320
3.2853148 0.53579324 0.49615565 4293139200
3.393245 0.55350477 0.52318436 4293530880
3.3866973 0.55254591 0.5322839 4293530880
3.3836021 0.55215007 0.54128581 4293530880
3.3813257 0.55188769 0.54978013 4293530880
3.3883059 0.55313623 0.55915552 4293530880
3.3734748 0.55082387 0.56426811 4293530880
3.3728366 0.55082846 0.57106578 4293530880
3.3545728 0.5479539 0.57418066 4293400320
3.3682473 0.55029625 0.58208299 4293530880
3.3500712 0.54743475 0.58379906 4293400320
3.3678401 0.55044693 0.59109366 4293530880
3.3424759 0.54640925 0.59012336 4293400320
3.3419924 0.54643798 0.59282905 4293400320
3.3367636 0.54569066 0.59399569 4293400320
3.3365114 0.54575706 0.59534955 4293400320
3.3363764 0.54584259 0.59602696 4293400320
3.365973 0.55079323 0.60131752 4293530880
3.3514955 0.54853237 0.59803325 4293400320
3.37392 0.5523113 0.60062695 4293530880
3.3681498 0.55147541 0.59749252 4293530880
3.3598526 0.55022526 0.59322119 4293400320
3.3735507 0.55257738 0.59213251 4293530880
3.3702252 0.55214137 0.587354 4293530880
3.3831871 0.55437404 0.58471406 4293530880
3.3874271 0.55517811 0.5798595 4293530880
3.3854225 0.55495876 0.57325792 4293530880
3.3802562 0.55422091 0.56546915 4293530880
3.3764415 0.55370438 0.55726975 4293530880
3.3690524 0.55260134 0.54786175 4293530880
3.3618135 0.55152243 0.53788209 4293400320
3.3588872 0.55115074 0.52799946 4293400320
3.3820481 0.55506027 0.52154934 4293530880
3.3841274 0.5555107 0.51117396 4293530880
3.3844461 0.55567217 0.49993986 4293530880
3.3412397 0.54927427 0.40877494 4293269760
3.3576941 0.5520876 0.39575467 4293400320
3.3787985 0.55566669 0.38266879 4293400320
3.3739648 0.55498064 0.36614391 4293400320
3.3430519 0.55000365 0.34655455 4293269760
3.3446999 0.55038267 0.33009791 4293269760
3.3666821 0.55410856 0.31516293 4293400320
3.3518333 0.55177283 0.29639745 4293269760
3.3304887 0.54836661 0.27692086 4293269760
3.3501971 0.55171967 0.26056027 4293269760
3.3520985 0.55214095 0.24241288 4293269760
3.3595376 0.55347472 0.22434923 4293269760
3.3261845 0.54808718 0.20346247 4293139200
3.3519001 0.55243278 0.18600835 4293269760
3.3663642 0.55492526 0.16749853 4293269760
3.3621197 0.5543341 0.14781749 4293269760
3.3234799 0.54807049 0.12671407 4293139200
3.3416371 0.55117267 0.10775767 4293269760
3.3395698 0.55093944 0.087937862 4293269760
3.3401043 0.55113542 0.068100452 4293269760
3.325973 0.54891104 0.047971461 4293139200
3.3217833 0.54832673 0.02804327 4293139200
3.332505 0.5502041 0.0081713628 4293139200
3.2979867 0.54461151 -0.011677849 4293139200
3.32481 0.54914826 -0.031685665 4293139200
3.322778 0.54891986 -0.051533032 4293139200
3.3435314 0.55245626 -0.071789995 4293269760
3.3095093 0.54694152 -0.090715259 4293139200
3.3387198 0.55187672 -0.11124655 4293269760
3.3492064 0.55371821 -0.1312681 4293269760
3.3567328 0.55507088 -0.15113725 4293269760
3.3094585 0.54736036 -0.16814591 4293139200
3.3401952 0.55255181 -0.18883851 4293269760
3.3502703 0.55432659 -0.20839104 4293269760
3.3480535 0.55406785 -0.22699688 4293269760
3.3236902 0.5501433 -0.2437067 4293139200
3.3516383 0.55487752 -0.26400346 4293269760
3.3711984 0.55822456 -0.2836073 4293400320
3.3734021 0.55869836 -0.30155608 4293400320
3.3662121 0.55761617 -0.31830773 4293400320
3.3665164 0.55777526 -0.33538121 4293400320
3.3625524 0.55722708 -0.35164037 4293400320
3.3711624 0.55876267 -0.36884639 4293400320
3.3666618 0.55812538 -0.38422811 4293400320
3.352397 0.55586874 -0.39798024 4293400320
3.3863502 0.56160796 -0.41709721 4293530880
3.384577 0.56142312 -0.4314895 4293530880
3.389025 0.56227034 -0.4462004 4293530880
3.3847399 0.56166863 -0.45925942 4293530880
3.3924079 0.56305063 -0.47343323 4293530880
3.3461258 0.55547702 -0.4793987 4293400320
3.3604531 0.55796391 -0.49338129 4293400320
3.3717122 0.55994219 -0.50643963 4293400320
3.3652542 0.55897838 -0.51627505 4293400320
3.3618784 0.55852616 -0.52596051 4293400320
3.3763294 0.56103599 -0.53786153 4293530880
3.3730302 0.56059664 -0.54634768 4293530880
3.3676667 0.55981398 -0.55384672 4293530880
3.3647928 0.5594449 -0.56109464 4293400320
3.362752 0.55921412 -0.56782019 4293400320
3.3553782 0.55809623 -0.57296765 4293400320
3.3505566 0.55740237 -0.5778622 4293400320
3.3414428 0.55599409 -0.58132154 4293400320
3.3322349 0.55456954 -0.58406073 4293400320
3.3316102 0.55457318 -0.58760971 4293400320
3.3234737 0.55332607 -0.58913904 4293400320
3.3182175 0.55255812 -0.59047896 4293269760
3.3179348 0.55261815 -0.59200901 4293269760
3.3177686 0.5526976 -0.59286648 4293269760
3.3253405 0.55406636 -0.59441268 4293400320
3.3338764 0.55559623 -0.59543407 4293400320
3.3471835 0.55792195 -0.59660411 4293400320
3.3513582 0.55872601 -0.59544075 4293400320
3.3629558 0.56076813 -0.59488797 4293530880
3.35953 0.56030536 -0.5909763 4293400320
3.3564124 0.55989379 -0.58643544 4293400320
3.3618276 0.56090564 -0.58269703 4293530880
3.3596506 0.56065094 -0.57695937 4293400320
3.3629189 0.56130493 -0.57148272 4293400320
3.3622253 0.56129771 -0.56466395 4293400320
3.3633709 0.56159759 -0.55749774 4293400320
3.3468766 0.55895156 -0.54679865 4293400320
3.333204 0.55677575 -0.53600276 4293400320
3.3463891 0.55908626 -0.52890623 4293400320
3.3351266 0.55731231 -0.51733369 4293400320
3.3679724 0.56290972 -0.51193976 4293400320
3.3597817 0.56164926 -0.4996464 4293400320
3.350023 0.56012613 -0.48660958 4293400320
3.3296089 0.55682039 -0.47157815 4293269760
3.3215003 0.55557162 -0.45785818 4293269760
3.3315744 0.55736428 -0.4461166 4293269760
3.3472612 0.56009674 -0.43451837 4293400320
3.3535855 0.56126326 -0.42112389 4293400320
3.3107891 0.55420768 -0.40124834 4293269760
3.3281224 0.5572167 -0.38831952 4293269760
3.3501799 0.56101787 -0.37532699 4293269760
3.3531725 0.56162733 -0.3596634 4293400320
3.3507845 0.56133562 -0.34302017 4293269760
3.3041539 0.55363059 -0.32171246 4293139200
3.3255467 0.5573225 -0.3067961 4293269760
3.3358736 0.55916089 -0.2903572 4293269760
3.3283525 0.55800766 -0.27203131 4293269760
3.3079538 0.55469465 -0.25250432 4293139200
3.3310912 0.55868202 -0.2360072 4293269760
3.3385496 0.56004077 -0.21797284 4293269760
3.3386521 0.56016582 -0.19917835 4293269760
3.3310373 0.55899578 -0.1797493 4293269760
3.3278449 0.55856752 -0.16042517 4293139200
3.3321347 0.55939519 -0.14128099 4293269760
3.3363504 0.5602107 -0.12193085 4293269760
3.313072 0.556409 -0.10155631 4293139200
3.3259037 0.55867141 -0.082239844 4293139200
3.3422036 0.56151742 -0.062747061 4293269760
3.3166263 0.55732733 -0.042455915 4293139200
3.3366261 0.5607959 -0.022735244 4293269760
3.350199 0.56318533 -0.0027449571 4293269760
3.3521559 0.56362259 0.017351113 4293269760
3.3045807 0.55573016 0.036899067 4293139200
3.368104 0.5665217 0.057742745 4293269760
3.3773665 0.56818879 0.078029044 4293400320
3.3685389 0.56681246 0.097816184 4293269760
3.2547605 0.54777253 0.11372623 4293008640
3.3673632 0.56683224 0.1374124 4293269760
3.3715618 0.56764787 0.15721127 4293400320
3.345777 0.56341475 0.17531745 4293269760
3.0946956 0.52123368 0.17984447 4292355840
3.3771532 0.56891656 0.21534351 4293400320
3.3781331 0.5691908 0.23426135 4293400320
3.3548486 0.56537592 0.25111824 4293269760
3.1038032 0.52316874 0.2491622 4292486400
3.4090958 0.5747382 0.29186133 4293530880
3.4047322 0.57411259 0.30933562 4293530880
3.3782697 0.56975955 0.32430246 4293400320
3.263993 0.55059177 0.32976982 4293008640
3.1250157 0.52724916 0.33111665 4292616960
3.3952367 0.57295018 0.37606779 4293530880
3.3981922 0.57355875 0.39230976 4293530880
3.3786998 0.57037795 0.40544727 4293400320
3.3030024 0.55770576 0.41096297 4293139200
3.1935976 0.53933609 0.41102049 4292878080
3.3931668 0.57314909 0.45073771 4293530880
3.398138 0.57409859 0.46494138 4293530880
3.3795791 0.5710724 0.47534794 4293530880
3.3638287 0.56851959 0.48548096 4293400320
3.3211591 0.56141537 0.49096879 4293269760
3.2772613 0.55410069 0.49541852 4293139200
3.3850887 0.57244092 0.52243215 4293530880
3.3834205 0.57226813 0.5322839 4293530880
3.3851974 0.57267809 0.54206556 4293530880
3.3741589 0.57091969 0.54914635 4293530880
3.3762674 0.57138556 0.5577088 4293530880
3.3653443 0.56964576 0.56345373 4293530880
3.3510928 0.56734174 0.56793427 4293400320
3.3610451 0.56913531 0.57584631 4293400320
3.3552647 0.5682649 0.58040172 4293400320
3.3468249 0.56694365 0.58379906 4293400320
3.354861 0.56841338 0.58938694 4293400320
3.3295226 0.56422788 0.58840686 4293400320
3.3474927 0.56738132 0.59438103 4293400320
3.3335276 0.56512207 0.59399569 4293400320
3.3332751 0.56518698 0.59534955 4293400320
3.3530152 0.5686425 0.59958106 4293400320
3.3529973 0.56874782 0.5995813 4293400320
3.339504 0.56656694 0.59647244 4293400320
3.3473399 0.56800455 0.59647417 4293400320
3.3561394 0.56960618 0.59594053 4293400320
3.3697083 0.57201803 0.59553969 4293530880
3.3654022 0.57139581 0.59127659 4293530880
3.3766673 0.5734176 0.58904898 4293530880
3.3711531 0.57259017 0.58320093 4293530880
3.374414 0.5732531 0.57819384 4293530880
3.362684 0.57136905 0.56996161 4293530880
3.3807399 0.57454634 0.56610048 4293530880
3.3731582 0.57336688 0.55726975 4293530880
3.3657756 0.57222074 0.54786175 4293530880
3.3536742 0.57027179 0.53710228 4293400320
3.3507483 0.56988257 0.527233 4293400320
3.3885031 0.57641327 0.52305377 4293530880
3.3857086 0.57604736 0.51191109 4293530880
3.3811512 0.57538128 0.49993986 4293530880
3.3330896 0.56789798 0.40817568 4293269760
3.3618519 0.57290727 0.39663142 4293400320
3.3837364 0.57674605 0.38360208 4293400320
3.3657732 0.57379311 0.36561155 4293400320
3.3388867 0.56931746 0.34646073 4293269760
3.3512478 0.5715335 0.33106717 4293269760
3.357903 0.57277709 0.31464815 4293400320
3.3436515 0.57045424 0.29596281 4293269760
3.3174129 0.56608492 0.27610317 4293139200
3.3420115 0.57039052 0.2601777 4293269760
3.3488247 0.57166159 0.24241288 4293269760
3.3513379 0.57219899 0.22402048 4293269760
3.3229349 0.56745696 0.20346247 4293139200
3.3387823 0.57027113 0.18546163 4293269760
3.3443677 0.57133335 0.16656686 4293269760
3.3588331 0.5739131 0.14781749 4293269760
3.3162131 0.56673801 0.12656076 4293139200
3.330833 0.56934422 0.1075144 4293269760
3.3412302 0.57122946 0.088067718 4293269760
3.3319092 0.56974363 0.067999892 4293269760
3.3128626 0.56659389 0.047829166 4293139200
3.3211436 0.56811756 0.028065337 4293139200
3.3194716 0.56793886 0.0081473803 4293139200
3.2987776 0.56450492 -0.011692096 4293139200
3.2991817 0.56468076 -0.031472247 4293139200
3.3212943 0.56857288 -0.051560525 4293139200
3.3265822 0.56958568 -0.071496114 4293139200
3.3013401 0.56537044 -0.090580091 4293139200
3.3305223 0.57047576 -0.11108227 4293269760
3.3409989 0.57237828 -0.13107491 4293269760
3.3485186 0.57377481 -0.15091535 4293269760
3.3111353 0.56747621 -0.16839623 4293139200
3.3296857 0.57076311 -0.18842916 4293269760
3.337146 0.57214993 -0.20777851 4293269760
3.3447685 0.57356489 -0.22699688 4293269760
3.3105981 0.56781244 -0.24298519 4293139200
3.3483486 0.57439542 -0.26400346 4293269760
3.3629777 0.57701373 -0.28319377 4293400320
3.3651807 0.57750058 -0.30111685 4293400320
3.3534801 0.57560104 -0.31741554 4293269760
3.3445733 0.57418042 -0.3335228 4293269760
3.354347 0.57596684 -0.35112727 4293400320
3.3639302 0.57772112 -0.36841711 4293400320
3.3594353 0.57705784 -0.38378057 4293400320
3.3393128 0.57370937 -0.39681703 4293269760
3.3732371 0.57964683 -0.41589096 4293400320
3.3691716 0.57905722 -0.4299483 4293400320
3.3817823 0.58133394 -0.44568518 4293530880
3.3843439 0.58188373 -0.45965788 4293530880
3.3717506 0.57982761 -0.47101384 4293400320
3.3428328 0.57496285 -0.4793987 4293400320
3.3514915 0.5765605 -0.49255037 4293400320
3.3537695 0.57706088 -0.50424105 4293400320
3.3619401 0.57857555 -0.51627505 4293400320
3.3621697 0.57872379 -0.52652466 4293400320
3.3632679 0.57902157 -0.53630906 4293400320
3.3609483 0.578731 -0.54492766 4293400320
3.3638036 0.57933146 -0.55375713 4293530880
3.3566144 0.57820183 -0.56028306 4293400320
3.3594368 0.57879668 -0.56782019 4293400320
3.3617876 0.57931048 -0.57462871 4293530880
3.3472521 0.57691395 -0.5778622 4293400320
3.3284342 0.57377827 -0.57963014 4293400320
3.3153524 0.57163042 -0.58167553 4293269760
3.3109968 0.57098651 -0.58455086 4293269760
3.3104863 0.57100558 -0.58741659 4293269760
3.3197949 0.57271856 -0.5913434 4293400320
3.3049536 0.57026511 -0.59027565 4293269760
3.3096397 0.57118076 -0.59199852 4293269760
3.3133218 0.57192343 -0.59284991 4293269760
3.3305829 0.57501066 -0.59543407 4293400320
3.3438761 0.57741392 -0.59660411 4293400320
3.3441637 0.57757169 -0.59475023 4293400320
3.3547781 0.57951349 -0.59402853 4293400320
3.3513541 0.57903045 -0.59012151 4293400320
3.3628042 0.58111751 -0.58813375 4293530880
3.3487895 0.57880402 -0.58101183 4293400320
3.3515539 0.57939029 -0.57613885 4293400320
3.3595915 0.58088845 -0.57148272 4293400320
3.344316 0.57835549 -0.56221259 4293400320
3.3454549 0.57866067 -0.55507749 4293400320
3.3348081 0.57692695 -0.54536682 4293400320
3.3201716 0.57450229 -0.53443623 4293269760
3.3137465 0.57349771 -0.52426618 4293269760
3.336693 0.57757699 -0.51808983 4293400320
3.3509932 0.58016074 -0.50986403 4293400320
3.3590355 0.58166182 -0.50003088 4293400320
3.3395286 0.57839197 -0.48556644 4293400320
3.3194807 0.57502723 -0.47061017 4293269760
3.3094201 0.5733915 -0.45664573 4293269760
3.3282707 0.57676524 -0.4461166 4293269760
3.3400319 0.57891148 -0.43401039 4293269760
3.3502586 0.58079243 -0.42112389 4293400320
3.3026123 0.57263947 -0.40065491 4293139200
3.3248196 0.57659757 -0.38831952 4293269760
3.3419578 0.57967788 -0.37477785 4293269760
3.338722 0.57922465 -0.35846931 4293269760
3.3463554 0.58065724 -0.34290725 4293269760
3.2959683 0.57202077 -0.32123452 4293139200
3.3222435 0.57668835 -0.3067961 4293269760
3.3188159 0.57620084 -0.2891598 4293269760
3.3201344 0.57653719 -0.2716296 4293269760
3.3115399 0.57515192 -0.25302956 4293139200
3.3179512 0.57637286 -0.23531015 4293139200
3.3214653 0.5770908 -0.21707325 4293139200
3.3252809 0.57786137 -0.19857813 4293269760
3.3051107 0.57446319 -0.17852782 4293139200
3.3107567 0.57555163 -0.15976033 4293139200
3.3101163 0.57554746 -0.14048721 4293139200
3.3342712 0.57985532 -0.12197626 4293269760
3.3097739 0.57570219 -0.10155631 4293139200
3.3199828 0.5775854 -0.082175255 4293139200
3.3388755 0.58098024 -0.062747061 4293269760
3.323174 0.57835567 -0.042582143 4293139200
3.3234506 0.57851136 -0.022668049 4293139200
3.3468609 0.58269477 -0.0027449571 4293269760
3.3438895 0.58228564 0.017325591 4293269760
3.2963612 0.57411605 0.036844015 4293139200
3.3515437 0.58383548 0.057516176 4293269760
3.3641498 0.58614033 0.077801265 4293269760
3.3602555 0.58557063 0.097673066 4293269760
3.2278843 0.56260759 0.11289976 4292878080
3.3541601 0.58472556 0.13701032 4293269760
3.3681974 0.5872817 0.15721127 4293400320
3.3424375 0.58289838 0.17531745 4293269760
3.0817709 0.53753966 0.17927235 4292355840
3.3737812 0.58858293 0.21534351 4293400320
3.3796735 0.58972031 0.23460247 4293400320
3.3475678 0.58422655 0.2508238 4293269760
3.0820436 0.53798634 0.24766286 4292355840
3.3968549 0.59304816 0.29110423 4293530880
3.3944647 0.59274077 0.30871129 4293530880
3.3797963 0.59028882 0.32477364 4293400320
3.3179541 0.57959533 0.33555713 4293269760
3.1218908 0.54544717 0.33111665 4292616960
3.4051483 0.5950473 0.37754321 4293530880
3.3801117 0.59078163 0.39061314 4293400320
3.3567326 0.58680409 0.40321466 4293400320
3.3045857 0.57779503 0.41157183 4293269760
3.1767199 0.55554098 0.40925795 4292747520
3.3858631 0.59222531 0.45021823 4293530880
3.3947356 0.59388715 0.46494138 4293530880
3.3859515 0.59246004 0.47672167 4293530880
3.3604593 0.5881083 0.48548096 4293400320
3.3475318 0.58595431 0.49536377 4293400320
3.2642348 0.57147962 0.49394429 4293139200
3.371958 0.59044826 0.52092779 4293530880
3.3761353 0.59128904 0.53167075 4293530880
3.3720739 0.59068692 0.54050606 4293530880
3.3707752 0.59056854 0.54914635 4293530880
3.3680201 0.59019494 0.55690503 4293530880
3.3668275 0.59009492 0.56426811 4293530880
3.3623033 0.5894109 0.5704065 4293530880
3.3431039 0.58615351 0.57334787 4293400320
3.3442791 0.5864678 0.57908267 4293400320
3.3434651 0.58643335 0.58379906 4293400320
3.3514924 0.58794981 0.58938694 4293400320
3.3421605 0.58642095 0.59123403 4293400320
3.3256965 0.58363986 0.59110463 4293400320
3.3204777 0.58283156 0.59226537 4293400320
3.3250756 0.58374625 0.59448242 4293400320
3.3409154 0.58663529 0.59801841 4293400320
3.3408971 0.58674026 0.59801871 4293400320
3.3361466 0.58601397 0.59647244 4293400320
3.3439739 0.58749717 0.59647417 4293400320
3.3614953 0.59068435 0.59749252 4293530880
3.3566155 0.58993566 0.59382313 4293530880
3.37075 0.59252894 0.5928126 4293530880
3.3684158 0.59222776 0.58820146 4293530880
3.3677599 0.5922215 0.58320093 4293530880
3.3622768 0.59136617 0.57669473 4293530880
3.3690121 0.59265995 0.5716098 4293530880
3.3687103 0.59271592 0.56465477 4293530880
3.3649001 0.59215456 0.55646598 4293530880
3.3672469 0.59267658 0.54865396 4293530880
3.3502948 0.58980131 0.53710228 4293400320
3.3522372 0.5902518 0.52799946 4293400320
3.380219 0.59528828 0.52230155 4293530880
3.3774247 0.59490556 0.51117396 4293530880
3.3728688 0.59421235 0.49921864 4293530880
3.3199844 0.58537138 0.40697715 4293269760
3.3545821 0.59158015 0.39616853 4293400320
3.3715487 0.59468144 0.38260081 4293400320
3.3699014 0.59450006 0.3664234 4293400320
3.3257544 0.58681959 0.34543967 4293269760
3.3429985 0.58997059 0.33057806 4293269760
3.3545473 0.59211737 0.31464261 4293400320
3.3403094 0.58971244 0.29595625 4293269760
3.3091891 0.58432549 0.27568674 4293139200
3.3239417 0.58703816 0.25902125 4293269760
3.3268127 0.58765298 0.24105074 4293269760
3.3332465 0.58889747 0.22302325 4293269760
3.2960196 0.5824272 0.20200454 4293139200
3.3354414 0.58950132 0.18544829 4293269760
3.3416076 0.59069937 0.16658159 4293269760
3.3376768 0.59011269 0.14701793 4293269760
3.3089569 0.58514214 0.12639365 4293139200
3.3176553 0.58678776 0.10717843 4293139200
3.3155928 0.58653039 0.087460481 4293139200
3.3246331 0.5882374 0.067899123 4293139200
3.3020706 0.58435231 0.047699861 4293139200
3.3152061 0.58678424 0.028020751 4293139200
3.3219664 0.58808845 0.0081380224 4293139200
3.2816842 0.58106363 -0.011667623 4293008640
3.2945914 0.58345574 -0.03148558 4293139200
3.3122551 0.5866912 -0.051498547 4293139200
3.3232441 0.58874536 -0.071523882 4293139200
3.2942114 0.58370864 -0.09050376 4293139200
3.3147349 0.58745265 -0.11069633 4293139200
3.3344924 0.59106225 -0.13098167 4293269760
3.3407302 0.59227616 -0.15074711 4293269760
3.289124 0.58323348 -0.16747665 4293139200
3.3139038 0.58773488 -0.18775725 4293139200
3.3298607 0.59067279 -0.20756683 4293269760
3.3414056 0.59282899 -0.22703087 4293269760
3.3058834 0.58663386 -0.24291752 4293139200
3.3449805 0.59368002 -0.26403838 4293269760
3.3546879 0.59551167 -0.28281558 4293400320
3.35689 0.5960114 -0.30071327 4293400320
3.3412812 0.59334832 -0.31661528 4293269760
3.3314068 0.59170282 -0.33258039 4293269760
3.3558657 0.59615576 -0.35167637 4293400320
3.3507526 0.59535599 -0.36737987 4293400320
3.3511584 0.59553671 -0.38325691 4293400320
3.3359473 0.5929417 -0.3968524 4293269760
3.3698366 0.59907448 -0.41592637 4293400320
3.3618672 0.59776664 -0.4294841 4293400320
3.378372 0.60081083 -0.44571978 4293530880
3.3809299 0.60137534 -0.45969191 4293530880
3.3683491 0.59924668 -0.47104701 4293400320
3.3346701 0.59336311 -0.4787432 4293400320
3.3383653 0.59412879 -0.49114817 4293400320
3.3529596 0.59683484 -0.50465906 4293400320
3.3488116 0.59620506 -0.514808 4293400320
3.3636396 0.59895396 -0.5273155 4293400320
3.3511181 0.59683293 -0.53493875 4293400320
3.347832 0.59635615 -0.54337531 4293400320
3.3512313 0.59707034 -0.5522694 4293400320
3.3483658 0.5966683 -0.5594939 4293400320
3.3424468 0.5957219 -0.56554067 4293400320
3.3399451 0.5953843 -0.57149166 4293400320
3.3438692 0.59619218 -0.57787937 4293400320
3.3153672 0.59121794 -0.57795382 4293269760
3.3120012 0.59072506 -0.58168864 4293269760
3.3076496 0.59005612 -0.58456188 4293269760
3.3022907 0.58920717 -0.58656418 4293269760
3.3115902 0.59097379 -0.59048557 4293269760
3.2967641 0.58843488 -0.58941323 4293269760
3.2965982 0.58851206 -0.5902645 4293269760
3.3138492 0.59169918 -0.59354389 4293269760
3.3003433 0.58939463 -0.59062207 4293269760
3.3404944 0.59667337 -0.59659833 4293400320
3.331085 0.59510064 -0.59301555 4293400320
3.3465359 0.59796947 -0.59315777 4293400320
3.3431146 0.59746653 -0.58925259 4293400320
3.3497016 0.59875232 -0.58641839 4293400320
3.3599567 0.6006943 -0.58351958 4293530880
3.3441968 0.59798515 -0.57543331 4293400320
3.3464844 0.5985027 -0.5698036 4293400320
3.3457882 0.59848666 -0.56300068 4293400320
3.3358958 0.5968253 -0.55401993 4293400320
3.3217154 0.594396 -0.54374081 4293269760
3.3216732 0.59449613 -0.53518128 4293269760
3.3103929 0.59258461 -0.52422494 4293269760
3.3284509 0.59592503 -0.51728898 4293400320
3.3427343 0.59859067 -0.50907463 4293400320
3.3517396 0.60031193 -0.49939895 4293400320
3.3458917 0.59937304 -0.48693001 4293400320
3.3161199 0.59414738 -0.47055286 4293269760
3.3148472 0.5940268 -0.45779768 4293269760
3.3200209 0.5950616 -0.44539818 4293269760
3.3317673 0.59727496 -0.43330821 4293269760
3.3419807 0.59921426 -0.4204388 4293400320
3.2904701 0.59008515 -0.3995142 4293139200
3.3028715 0.59241623 -0.3860715 4293139200
3.333679 0.59805006 -0.37414908 4293269760
3.3353374 0.59845579 -0.35838664 4293269760
3.3361106 0.59870267 -0.34211877 4293269760
3.2877269 0.59012628 -0.32066929 4293139200
3.3090711 0.59406471 -0.30579934 4293139200
3.3154485 0.59531718 -0.2890662 4293269760
3.3167646 0.59566104 -0.27153328 4293269760
3.2885485 0.59070033 -0.25143009 4293139200
3.3096726 0.59460205 -0.23486039 4293139200
3.310034 0.59477431 -0.21644247 4293139200
3.3179719 0.59630829 -0.19823691 4293139200
3.3105817 0.59508747 -0.17889701 4293139200
3.3024747 0.5937373 -0.15941273 4293139200
3.3102789 0.59524775 -0.1405247 4293139200
3.3148849 0.59618348 -0.12127604 4293139200
3.3027663 0.59411108 -0.10132862 4293139200
3.3215218 0.59759259 -0.082178861 4293139200
3.3167779 0.59684664 -0.06227567 4293139200
3.314867 0.59661031 -0.042397987 4293139200
3.3085976 0.59558928 -0.02246766 4293139200
3.338527 0.60108519 -0.0026165289 4293269760
3.3377819 0.60105932 0.017436998 4293269760
3.2890604 0.59239239 0.036924403 4293139200
3.3392653 0.60154307 0.057491101 4293269760
3.3544061 0.60437936 0.077783473 4293269760
3.3381307 0.60155523 0.097257234 4293269760
3.2869208 0.59243345 0.11520861 4293139200
3.344243 0.60287368 0.13687371 4293269760
3.3637717 0.60650325 0.15729481 4293400320
3.3429329 0.60285437 0.17565137 4293269760
3.1801698 0.5736053 0.18530767 4292747520
3.3605039 0.60624105 0.21484396 4293400320
3.365289 0.60721344 0.23397098 4293400320
3.3343222 0.60173416 0.25021303 4293269760
3.0739784 0.55485046 0.24738286 4292355840
3.396708 0.61321306 0.29151583 4293530880
3.3860812 0.61140448 0.30838859 4293400320
3.3759408 0.60968298 0.32485792 4293400320
3.3096516 0.59781873 0.33517873 4293269760
3.1098759 0.56183439 0.33028981 4292486400
3.3820853 0.61112183 0.37548742 4293400320
3.3721805 0.60944146 0.39021042 4293400320
3.3532827 0.60613495 0.40332448 4293400320
3.2963049 0.59594268 0.41106832 4293139200
3.1783347 0.57471782 0.40998629 4292747520
3.3862839 0.61242974 0.45083997 4293530880
3.382467 0.61184919 0.463837 4293530880
3.3639491 0.60860866 0.47420657 4293400320
3.3482339 0.60587412 0.48430398 4293400320
3.3392186 0.6043511 0.49472964 4293400320
3.2569823 0.5895732 0.49343574 4293139200
3.3645966 0.60916245 0.52040577 4293530880
3.3677988 0.60985148 0.53097999 4293530880
3.3686032 0.61010647 0.54057735 4293530880
3.3711917 0.61068469 0.54984701 4293530880
3.3645532 0.60959131 0.55696714 4293530880
3.3633618 0.60948461 0.56432539 4293530880
3.3442848 0.60613608 0.56798637 4293400320
3.3309312 0.60382384 0.57189566 4293400320
3.3532968 0.60798705 0.5812844 4293400320
3.3303268 0.60393047 0.58214062 4293400320
3.3431957 0.60637265 0.58856487 4293400320
3.3130629 0.60101479 0.58671588 4293269760
3.3174286 0.60191441 0.59026253 4293400320
3.3170617 0.60195547 0.59227979 4293400320
3.311965 0.60113806 0.59275687 4293269760
3.3462 0.60746044 0.59958398 4293400320
3.3277714 0.60422295 0.5962795 4293400320
3.3327157 0.6052289 0.5964635 4293400320
3.3318138 0.60517323 0.59490186 4293400320
3.3493168 0.60846102 0.59591931 4293400320
3.3580115 0.61014956 0.59465396 4293530880
3.353713 0.6094774 0.59038955 4293530880
3.3465307 0.60828072 0.58494121 4293400320
3.3546004 0.60985637 0.58147341 4293530880
3.3627024 0.61143845 0.57730836 4293530880
3.3655508 0.61206555 0.57155073 4293530880
3.365129 0.6120981 0.56456923 4293530880
3.3614435 0.6115368 0.5563944 4293530880
3.3540738 0.61030489 0.54699177 4293400320
3.3419945 0.60821545 0.53623879 4293400320
3.3439329 0.60867673 0.527143 4293400320
3.3631303 0.61228031 0.52009857 4293530880
3.3739555 0.61436063 0.51107067 4293530880
3.3742721 0.61452776 0.49983045 4293530880
3.3262069 0.60691047 0.40817568 4293269760
3.3461142 0.61065143 0.39559251 4293400320
3.3630593 0.61385298 0.38204888 4293400320
3.3516293 0.61187547 0.36483148 4293400320
3.3222008 0.60661083 0.34544665 4293269760
3.3345301 0.60897034 0.33010241 4293269760
3.3460634 0.61118525 0.31419379 4293269760
3.3393342 0.61006451 0.29619968 4293269760
3.3008244 0.6031363 0.27529943 4293139200
3.3240139 0.60748148 0.25932169 4293269760
3.3232534 0.60745037 0.2410704 4293269760
3.3061221 0.60442632 0.2214672 4293139200
3.2640166 0.59683454 0.20028132 4293008640
3.3132088 0.60593706 0.1844361 4293139200
3.3227062 0.60778189 0.16584581 4293269760
3.3233781 0.60801268 0.14657632 4293269760
3.2906685 0.60213524 0.12586316 4293139200
3.3003373 0.60401165 0.10676906 4293139200
3.3169572 0.60716105 0.087628588 4293139200
3.3161538 0.60712165 0.067839161 4293139200
3.2837789 0.60130113 0.047528952 4293008640
3.3018172 0.60471135 0.027982427 4293139200
3.3036516 0.60515451 0.0081489524 4293139200
3.269237 0.59895676 -0.011587104 4293008640
3.2874217 0.60239512 -0.031399697 4293139200
3.3037865 0.60550112 -0.051368665 4293139200
3.3059134 0.60599828 -0.071171947 4293139200
3.2818298 0.60169011 -0.090203628 4293008640
3.3098478 0.60693443 -0.11059278 4293139200
3.3203046 0.60895973 -0.13050351 4293139200
3.3322341 0.61125582 -0.15046249 4293269760
3.2905078 0.60370857 -0.16766366 4293139200
3.3152595 0.60835737 -0.18797056 4293139200
3.3231442 0.60991216 -0.20730403 4293269760
3.3231003 0.61001205 -0.22596194 4293269760
3.3037207 0.60656184 -0.24295107 4293139200
3.3315856 0.61178607 -0.26319385 4293269760
3.3471677 0.61475611 -0.28241402 4293269760
3.349369 0.61526918 -0.30029055 4293400320
3.3230064 0.61053437 -0.31515074 4293269760
3.3229377 0.61062968 -0.33201995 4293269760
3.3385673 0.61361021 -0.35016778 4293269760
3.3422668 0.61439872 -0.36677155 4293269760
3.3475611 0.61548066 -0.38318539 4293400320
3.3186903 0.61028028 -0.39515328 4293269760
3.3525498 0.61661565 -0.41416696 4293400320
3.3621602 0.61849248 -0.42991334 4293400320
3.3698671 0.62001961 -0.44500664 4293400320
3.3675506 0.61970276 -0.45829725 4293400320
3.3559616 0.61767918 -0.46975327 4293400320
3.3310871 0.61320913 -0.47867906 4293400320
3.3250444 0.61220473 -0.4896524 4293269760
3.3357356 0.61428154 -0.50254637 4293400320
3.3500731 0.61703062 -0.51549757 4293400320
3.3503029 0.61718178 -0.52573389 4293400320
3.3475134 0.61677665 -0.53488499 4293400320
3.3442299 0.61628026 -0.54332441 4293400320
3.3383448 0.61530423 -0.55069053 4293400320
3.3350573 0.61480659 -0.55782592 4293400320
3.3427277 0.61632919 -0.56615633 4293400320
3.3314984 0.61436695 -0.57062316 4293400320
3.3266933 0.61358893 -0.57549697 4293400320
3.2994678 0.60867453 -0.5757727 4293269760
3.3035846 0.6095413 -0.58081055 4293269760
3.3137698 0.61152822 -0.58625382 4293400320
3.2900088 0.60725021 -0.58499628 4293269760
3.2934864 0.60799909 -0.587879 4293269760
3.3028886 0.60984206 -0.59113801 4293269760
3.3027208 0.60991836 -0.59199661 4293269760
3.3063936 0.61070406 -0.59285045 4293269760
3.3139322 0.61220413 -0.5937022 4293400320
3.3368804 0.61655194 -0.59660989 4293400320
3.3323226 0.61581802 -0.59389561 4293400320
3.338069 0.61698842 -0.59232092 4293400320
3.3346488 0.61646461 -0.58842599 4293400320
3.3373501 0.6170724 -0.58492386 4293400320
3.3514674 0.61979157 -0.58271706 4293530880
3.3444474 0.61860204 -0.57614726 4293400320
3.3380041 0.61751866 -0.56902897 4293400320
3.3334253 0.61677992 -0.56158793 4293400320
3.332273 0.61667496 -0.55408412 4293400320
3.3278141 0.61595798 -0.54540199 4293400320
3.308351 0.612463 -0.53369111 4293269760
3.311651 0.61318147 -0.52507764 4293269760
3.3151107 0.61392981 -0.51586586 4293269760
3.3390968 0.61848032 -0.50917077 4293400320
3.3519826 0.62097597 -0.50008237 4293400320
3.3276484 0.61657608 -0.48491171 4293400320
3.3037436 0.61225414 -0.46942219 4293269760
3.2839553 0.60869366 -0.45414603 4293139200
3.3115284 0.61391205 -0.44487092 4293269760
3.328135 0.61709881 -0.43344256 4293269760
3.3295543 0.6174702 -0.41947347 4293269760
3.2906654 0.61036509 -0.40011936 4293139200
3.2943845 0.61116201 -0.38565153 4293139200
3.31636 0.61534655 -0.37277046 4293269760
3.3268092 0.61739349 -0.35802585 4293269760
3.3236656 0.61691815 -0.34138578 4293269760
3.2852385 0.60989231 -0.32095131 4293139200
3.3028696 0.61327285 -0.30574095 4293139200
3.299443 0.61274379 -0.28817156 4293139200
3.303344 0.61357564 -0.27092215 4293139200
3.2849586 0.6102674 -0.25162625 4293139200
3.2923288 0.61174363 -0.23408657 4293139200
3.3046579 0.61414188 -0.21653429 4293139200
3.3047509 0.61426657 -0.19787468 4293139200
3.2971509 0.61296111 -0.17858182 4293139200
3.2939606 0.61247504 -0.15939543 4293139200
3.3080525 0.61520278 -0.14080858 4293139200
3.3036644 0.61449414 -0.12122609 4293139200
3.27951 0.6101079 -0.10095544 4293008640
3.2992253 0.6138829 -0.081951559 4293139200
3.3062837 0.6153037 -0.062385242 4293139200
3.3032894 0.61485386 -0.042537507 4293139200
3.2928495 0.61301762 -0.02262843 4293139200
3.313894 0.61704314 -0.0028472533 4293139200
3.3243146 0.61909151 0.017135557 4293269760
3.2979786 0.61429411 0.036815103 4293139200
3.3022087 0.61518937 0.056663521 4293139200
3.3107762 0.61689311 0.076602064 4293139200
3.1926084 0.59497875 0.092873618 4292747520
3.1693752 0.59075207 0.11096572 4292747520
3.3131011 0.61764938 0.13549167 4293139200
3.3404722 0.62286067 0.15611827 4293269760
3.3392973 0.62275016 0.17539479 4293269760
3.1718047 0.59161735 0.18477845 4292747520
3.3480206 0.62459463 0.2140235 4293269760
3.3567271 0.62632805 0.23337518 4293400320
3.3493106 0.62505311 0.25135911 4293269760
3.0706379 0.57314664 0.24715373 4292355840
3.3832221 0.63160169 0.29042435 4293400320
3.3735907 0.62991327 0.30733889 4293400320
3.3683591 0.62904596 0.32423818 4293400320
3.2962747 0.6156913 0.33395317 4293139200
3.1016095 0.57943177 0.32955366 4292486400
3.3832974 0.63216573 0.37579876 4293530880
3.3680873 0.62943321 0.38993463 4293400320
3.3349974 0.62335777 0.40134266 4293269760
3.2878454 0.61465132 0.41024894 4293139200
3.1563532 0.59017193 0.40739715 4292747520
3.371886 0.63058168 0.4492076 4293530880
3.3739195 0.63107169 0.46297082 4293530880
3.3739226 0.63118196 0.47593942 4293530880
3.3445926 0.62580377 0.48412198 4293400320
3.3268321 0.62258875 0.49325758 4293400320
3.2573268 0.60968739 0.49386302 4293139200
3.3609338 0.62918919 0.52024621 4293530880
3.3635876 0.62979537 0.53074288 4293530880
3.364933 0.6301567 0.54043472 4293530880
3.3539302 0.62820524 0.54749531 4293400320
3.3463321 0.6268909 0.55443192 4293400320
3.3509641 0.62786758 0.56274503 4293400320
3.3454809 0.62694901 0.56870615 4293400320
3.3321381 0.62455696 0.57263458 4293400320
3.335098 0.62522018 0.57867855 4293400320
3.3266845 0.6237511 0.58206755 4293400320
3.3308208 0.62463498 0.58696634 4293400320
3.3350649 0.6255393 0.59120822 4293400320
3.3137929 0.62165725 0.5902223 4293400320
3.3085835 0.62078756 0.59138578 4293269760
3.333952 0.62565589 0.59732997 4293400320
3.3241343 0.62392163 0.5962792 4293400320
3.3289533 0.62493432 0.59715354 4293400320
3.3242104 0.62415206 0.59561419 4293400320
3.3368583 0.62663537 0.59648913 4293400320
3.3359463 0.62657261 0.59423721 4293400320
3.3455958 0.62849385 0.59316385 4293400320
3.3548553 0.63034242 0.5913102 4293530880
3.3428361 0.6281929 0.58502084 4293400320
3.3557384 0.63072664 0.58240652 4293530880
3.3502634 0.62980652 0.57591438 4293400320
3.352134 0.63026726 0.57002038 4293530880
3.3565555 0.6312077 0.56388539 4293530880
3.3606331 0.63208383 0.55702043 4293530880
3.3455043 0.62934715 0.54635489 4293400320
3.3334343 0.62718505 0.53562629 4293400320
3.3353665 0.62765706 0.52655637 4293400320
3.3545384 0.631374 0.51953965 4293400320
3.3702075 0.63443279 0.51127714 4293530880
3.3569076 0.6320383 0.49802938 4293400320
3.3128984 0.62422806 0.40697715 4293269760
3.3474207 0.63084179 0.39616933 4293400320
3.3731391 0.63579834 0.38360208 4293400320
3.3431628 0.63025683 0.36429656 4293400320
3.3147402 0.62500644 0.34503612 4293269760
3.3309662 0.6281743 0.33009791 4293269760
3.3327017 0.62860996 0.31326848 4293269760
3.3308694 0.62837279 0.29575849 4293269760
3.3021152 0.6230557 0.27569431 4293139200
3.2933207 0.62150341 0.25719357 4293139200
3.1533084 0.59518343 0.22897811 4292616960
2.6702478 0.50409317 0.17905462 4291050240
2.6221073 0.49509045 0.16105628 4290789120
2.9299979 0.55331981 0.16326693 4291833600
3.2256422 0.60925615 0.16115953 4292878080
3.3040242 0.6241684 0.14586332 4293139200
3.2626736 0.61646289 0.12490964 4293008640
3.285655 0.62091208 0.10639022 4293139200
3.3022499 0.62415552 0.087314531 4293139200
3.2978649 0.62343401 0.067517184 4293139200
3.2837865 0.62087947 0.047558807 4293139200
3.2871256 0.62161779 0.027865436 4293139200
3.2952821 0.62326747 0.0081135109 4293139200
3.2608955 0.61686969 -0.011594276 4293008640
3.2737746 0.6194126 -0.03132838 4293008640
3.29533 0.62359822 -0.051318835 4293139200
3.3110852 0.62668747 -0.071387589 4293139200
3.2722926 0.61945164 -0.090066448 4293008640
3.2915645 0.62320697 -0.11012944 4293139200
3.3118305 0.62715179 -0.13034074 4293139200
3.3198211 0.62877303 -0.15009443 4293269760
3.2820666 0.62172908 -0.16744502 4293139200
3.2930584 0.62391847 -0.18694504 4293139200
3.3195727 0.62905002 -0.20733732 4293269760
3.3055887 0.6265077 -0.22504677 4293139200
3.3001683 0.62558776 -0.24298519 4293139200
3.3240843 0.63022953 -0.26291877 4293269760
3.3337758 0.63217545 -0.28162223 4293269760
3.3457651 0.63455784 -0.3003262 4293400320
3.3292124 0.63152683 -0.31611514 4293269760
3.3193605 0.62976605 -0.33205563 4293269760
3.3349724 0.63283658 -0.35020363 4293269760
3.3386672 0.63364631 -0.36680737 4293269760
3.3293107 0.63197893 -0.38154289 4293269760
3.3238966 0.63105941 -0.39623541 4293269760
3.3440607 0.63499647 -0.41359913 4293400320
3.3585362 0.63785458 -0.4299483 4293400320
3.3564916 0.63757545 -0.44375315 4293400320
3.350287 0.6365059 -0.45647377 4293400320
3.3562353 0.63774526 -0.47033191 4293400320
3.3129027 0.62961912 -0.47661197 4293269760
3.3183429 0.63076103 -0.4892244 4293269760
3.3295662 0.63300282 -0.50218904 4293400320
3.3377159 0.63466084 -0.51418018 4293400320
3.3333867 0.63394618 -0.52367258 4293400320
3.3390474 0.63513142 -0.53413564 4293400320
3.3357689 0.63461637 -0.54256094 4293400320
3.3304343 0.63370991 -0.55000341 4293400320
3.3314557 0.6340127 -0.55784833 4293400320
3.3259335 0.63307005 -0.56394172 4293400320
3.3182127 0.6317085 -0.56898105 4293400320
3.3051767 0.62933433 -0.57241017 4293269760
3.2910621 0.62675393 -0.57494205 4293269760
