# .PCD v0.7 - Point Cloud Data file format
VERSION 0.7
FIELDS x y z rgba
SIZE 4 4 4 4
TYPE F F F U
COUNT 1 1 1 1
WIDTH 1084
HEIGHT 1
VIEWPOINT 0 0 0 1 0 0 0
POINTS 1084
DATA ascii
2.1596932 -1.1811352 0.27509263 4290136320
2.138572 -1.1694968 0.26100668 4290136320
2.1187353 -1.1585625 0.24700853 4290005760
2.1249378 -1.1618673 0.23584621 4290005760
2.0840385 -1.1394196 0.21939468 4289875200
1.9443326 -1.0629579 0.19334824 4289352960
2.0690162 -1.1310375 0.1934548 4289744640
2.1250324 -1.1615722 0.18584959 4290005760
2.1258464 -1.1619304 0.17286989 4290005760
2.1349676 -1.1668288 0.16031539 4290005760
2.0508852 -1.1207913 0.14106148 4289744640
1.9038513 -1.0403608 0.11879381 4289222400
1.8209037 -0.99495977 0.10187007 4288830720
1.7973074 -0.9819932 0.088845417 4288700160
1.7929311 -0.97952902 0.076857403 4288700160
1.8022033 -0.98452115 0.065339118 4288700160
1.8025379 -0.98463047 0.053363055 4288700160
1.8006604 -0.98353142 0.041274611 4288700160
1.7853653 -0.97510433 0.028949616 4288700160
1.7797688 -0.97197509 0.016891288 4288700160
1.7913096 -0.97820473 0.0049377196 4288700160
1.7626358 -0.96247458 -0.0070161507 4288569600
1.7695417 -0.96617335 -0.018956995 4288569600
1.7738312 -0.96844304 -0.030924285 4288700160
1.7822607 -0.97297251 -0.043015305 4288700160
1.7690642 -0.96569622 -0.054505952 4288569600
1.7846591 -0.97413635 -0.066839889 4288700160
1.7938863 -0.97909975 -0.079027161 4288700160
1.8044506 -0.98479217 -0.091317542 4288830720
1.7810751 -0.97196221 -0.1017083 4288700160
1.7917389 -0.97770852 -0.11384881 4288700160
1.7927936 -0.97821105 -0.12532994 4288700160
1.7987467 -0.98138589 -0.13706078 4288700160
1.7899388 -0.97650737 -0.14749968 4288700160
1.8100324 -0.9873957 -0.16022676 4288830720
1.8150035 -0.99003357 -0.17159204 4288830720
1.8209112 -0.99318182 -0.18292187 4288830720
1.8009162 -0.98220247 -0.1913667 4288830720
1.7981708 -0.98063183 -0.2013012 4288830720
1.8097773 -0.98688769 -0.2126682 4288830720
1.8193001 -0.99200636 -0.22367026 4288830720
1.8149977 -0.98958647 -0.23275235 4288830720
1.7944827 -0.97832799 -0.23936683 4288830720
1.8147137 -0.98928374 -0.25114381 4288830720
1.8225157 -0.99346268 -0.26105759 4288830720
1.8194437 -0.991714 -0.26914316 4288830720
1.8284019 -0.99652231 -0.27873039 4288961280
1.8150851 -0.98919034 -0.28458881 4288830720
1.7958983 -0.9786607 -0.28906584 4288830720
1.8050245 -0.98356038 -0.29772732 4288830720
1.808535 -0.9853996 -0.30517235 4288830720
1.8120686 -0.98725104 -0.31229803 4288830720
1.809137 -0.98558015 -0.31795394 4288830720
1.8115551 -0.98682374 -0.32418218 4288830720
1.8102286 -0.98602736 -0.32937041 4288830720
1.8021978 -0.9815796 -0.332932 4288830720
1.8081875 -0.98476827 -0.33869132 4288830720
1.7981225 -0.97921348 -0.34104243 4288830720
1.8017962 -0.98114067 -0.34558725 4288830720
1.7955368 -0.97765911 -0.34782067 4288830720
1.7986522 -0.97928214 -0.35145813 4288830720
1.7899836 -0.97448963 -0.35237557 4288830720
1.7802572 -0.96912193 -0.35264862 4288830720
1.7843487 -0.97127658 -0.35523868 4288830720
1.7928257 -0.97581786 -0.35829678 4288830720
1.7797374 -0.96862149 -0.35662514 4288830720
1.7856556 -0.97176981 -0.35833925 4288830720
1.785669 -0.97170436 -0.35845038 4288830720
1.785404 -0.97148746 -0.35808584 4288830720
1.7941298 -0.97616237 -0.35910162 4288830720
1.8001198 -0.97934818 -0.35914198 4288830720
1.8126369 -0.98608422 -0.36004949 4288961280
1.8060044 -0.98240262 -0.35672867 4288830720
1.804119 -0.98130351 -0.35393867 4288830720
1.8105386 -0.98472166 -0.35235745 4288830720
1.8087126 -0.98365486 -0.34875405 4288830720
1.8017789 -0.97981066 -0.34377721 4288830720
1.7967337 -0.97699398 -0.33878657 4288830720
1.8008542 -0.9791612 -0.33513239 4288830720
1.7974406 -0.97723204 -0.32968718 4288830720
1.7879962 -0.9720245 -0.32279128 4288830720
1.7805899 -0.96792573 -0.31594142 4288700160
1.7805912 -0.96785396 -0.31006545 4288700160
1.8006291 -0.97867239 -0.30725265 4288830720
1.8099768 -0.98367941 -0.30215934 4288830720
1.803057 -0.97984523 -0.2939977 4288830720
1.7841101 -0.96947622 -0.28364426 4288700160
1.7786759 -0.96645093 -0.27521729 4288700160
1.795007 -0.97525144 -0.26979727 4288830720
1.7981266 -0.97687322 -0.2620002 4288830720
1.8115232 -0.98407751 -0.25532746 4288830720
1.7809391 -0.96739084 -0.24225584 4288700160
1.7834231 -0.96866757 -0.23354903 4288700160
1.8019618 -0.9786635 -0.22657464 4288830720
1.8116382 -0.98384517 -0.21808518 4288830720
1.8095201 -0.98262131 -0.20789365 4288830720
1.7718705 -0.96210444 -0.19361304 4288700160
1.7899836 -0.97186679 -0.1853195 4288700160
1.7900283 -0.97181827 -0.17484713 4288700160
1.7960078 -0.97499144 -0.16472659 4288700160
1.7751198 -0.96357989 -0.15205239 4288700160
1.7923335 -0.97285104 -0.14249645 4288700160
1.7927949 -0.9730286 -0.13134453 4288700160
1.7968169 -0.97513843 -0.12028235 4288700160
1.7921886 -0.97255379 -0.10851477 4288700160
1.7836154 -0.96782881 -0.096475795 4288700160
1.7846056 -0.96829361 -0.084898777 4288700160
1.7890806 -0.97064888 -0.073360153 4288700160
1.7677143 -0.95898491 -0.060794841 4288569600
1.7822345 -0.96678972 -0.049443185 4288700160
1.7760309 -0.9633522 -0.037408497 4288700160
1.7508032 -0.94959712 -0.025143666 4288569600
1.7826226 -0.96678275 -0.013626721 4288700160
1.8159175 -0.98476601 -0.0016691341 4288830720
1.818344 -0.98600799 0.010558438 4288830720
1.8083307 -0.98050463 0.022651017 4288830720
1.8230069 -0.98838818 0.035059147 4288830720
1.88275 -1.020703 0.048793521 4289091840
1.9618574 -1.0635099 0.063902572 4289352960
1.9061249 -1.0332203 0.074707642 4289091840
2.0118229 -1.0904324 0.092084825 4289614080
2.0242567 -1.0970894 0.10586948 4289614080
2.0567627 -1.1146231 0.12088024 4289744640
1.9964277 -1.0818446 0.13012658 4289483520
2.0517392 -1.1117339 0.14673264 4289744640
2.0818732 -1.1279775 0.16191687 4289875200
2.0715966 -1.1223252 0.17390604 4289744640
1.9936028 -1.0799897 0.1794821 4289483520
2.1478467 -1.1634606 0.20621748 4290136320
2.1644406 -1.1723614 0.22053003 4290136320
2.1271114 -1.1520557 0.22898741 4290005760
2.0586905 -1.1149149 0.23324291 4289744640
1.938386 -1.0496835 0.23031124 4289352960
2.1887345 -1.1851643 0.27184761 4290266880
2.179431 -1.1800381 0.28213108 4290266880
2.148608 -1.1632619 0.28910723 4290136320
2.1040218 -1.1390373 0.29352918 4290005760
2.0447786 -1.1068822 0.29507142 4289744640
2.188597 -1.1846453 0.32596606 4290266880
2.1587532 -1.1684037 0.3311604 4290136320
2.1289198 -1.1521703 0.3357197 4290005760
2.0857713 -1.1287336 0.33749232 4289875200
2.0978441 -1.1351817 0.34768552 4290005760
2.0388641 -1.1031839 0.34553254 4289744640
1.9620514 -1.0615424 0.3394689 4289483520
1.8867342 -1.0207164 0.33275008 4289091840
1.8772811 -1.0155261 0.33698264 4289091840
1.8852444 -1.0197573 0.34394655 4289091840
1.8932453 -1.0240083 0.35056502 4289222400
1.8882699 -1.0212406 0.35438403 4289222400
1.8023481 -0.97469795 0.34239069 4288830720
1.8914915 -1.0228293 0.36324415 4289222400
1.789248 -0.9674682 0.34691632 4288830720
1.7801834 -0.96249455 0.34804687 4288700160
1.7885146 -0.9669264 0.35216922 4288830720
1.7795689 -0.96201783 0.3524794 4288700160
1.7793509 -0.9618277 0.35409552 4288700160
1.775728 -0.95979732 0.35461697 4288700160
1.7790987 -0.96154696 0.35611892 4288700160
1.7669367 -0.95490205 0.35409337 4288700160
1.7790962 -0.96140122 0.35652426 4288700160
1.7878537 -0.96606106 0.35785365 4288830720
1.7923425 -0.96841383 0.35790539 4288830720
1.8812716 -1.0163864 0.37433472 4289091840
1.8858998 -1.0188104 0.37348488 4289222400
1.8940607 -1.0231422 0.37288415 4289222400
1.8866791 -1.0190781 0.36878887 4289222400
1.8784866 -1.0145768 0.36412859 4289091840
1.8790233 -1.0147904 0.3607485 4289091840
1.9583286 -1.0575408 0.37190557 4289483520
1.9633418 -1.0601684 0.36834568 4289483520
1.9892545 -1.07408 0.36820298 4289614080
2.0230558 -1.0922487 0.36893696 4289744640
2.0989811 -1.1331557 0.37661144 4290005760
2.1419182 -1.1562488 0.37757468 4290136320
2.1787519 -1.1760439 0.37676945 4290266880
2.1912084 -1.1826788 0.37114909 4290266880
2.1844487 -1.1789417 0.36183044 4290266880
2.1541855 -1.1620446 0.29548186 4290136320
2.1697636 -1.17036 0.28672054 4290136320
2.1787839 -1.1751372 0.27664751 4290266880
2.1541009 -1.161737 0.2620714 4290136320
2.1223788 -1.1445427 0.24665169 4290005760
2.1230123 -1.1447983 0.23488823 4290005760
2.1109023 -1.1381825 0.22152086 4290005760
2.0634756 -1.1125267 0.20454802 4289744640
2.0487587 -1.104509 0.19095577 4289744640
2.0398607 -1.0996294 0.17783739 4289614080
2.0108516 -1.0839097 0.16300242 4289614080
1.9990615 -1.0774735 0.14963622 4289483520
1.9409188 -1.0460565 0.13307646 4289222400
1.8373889 -0.99018472 0.11428487 4288830720
1.820823 -0.98118335 0.10154402 4288830720
1.8104714 -0.97553188 0.089213677 4288830720
1.8080338 -0.97414511 0.077260196 4288700160
1.8095697 -0.97489929 0.065399148 4288830720
1.8056442 -0.97271121 0.053286333 4288700160
1.8078794 -0.97384208 0.041309327 4288700160
1.7502443 -0.94272506 0.028290585 4288569600
1.7953089 -0.96692532 0.01698502 4288700160
1.7937219 -0.96599782 0.0049287714 4288700160
1.774549 -0.9556005 -0.0070412899 4288569600
1.7787451 -0.95778799 -0.018995486 4288700160
1.7821671 -0.95955843 -0.030971618 4288700160
1.7953792 -0.96659929 -0.04319527 4288700160
1.7905865 -0.96394646 -0.054995093 4288700160
1.8022057 -0.97012854 -0.067284219 4288700160
1.8110813 -0.97483289 -0.079533108 4288830720
1.8149881 -0.97686225 -0.091561228 4288830720
1.7935134 -0.96523148 -0.10209571 4288700160
1.8015742 -0.96949661 -0.11411291 4288700160
1.8064349 -0.97203916 -0.12588552 4288700160
1.8146933 -0.97640955 -0.13784006 4288830720
1.8076681 -0.97255623 -0.14849119 4288830720
1.8102944 -0.97389591 -0.15974495 4288830720
1.8319206 -0.98545611 -0.17264566 4288830720
1.8377595 -0.98852265 -0.18403269 4288961280
1.8159919 -0.97674036 -0.19236068 4288830720
1.8126185 -0.97485256 -0.20227933 4288830720
1.8284116 -0.98327231 -0.2141811 4288830720
1.8297383 -0.98391163 -0.22424498 4288830720
1.8239696 -0.98073578 -0.23316617 4288830720
1.8019129 -0.96880305 -0.23960096 4288830720
1.8291903 -0.98339468 -0.25235006 4288830720
1.8361381 -0.9870556 -0.26218066 4288961280
1.8398113 -0.98895568 -0.27129909 4288961280
1.8370066 -0.98737371 -0.27916041 4288961280
1.83311 -0.98520505 -0.28651008 4288961280
1.8039581 -0.96946436 -0.28944904 4288830720
1.8150831 -0.97536957 -0.29844403 4288830720
1.8229592 -0.97952813 -0.30663806 4288830720
1.8299835 -0.98322839 -0.31439292 4288961280
1.8294209 -0.9828521 -0.32050699 4288961280
1.8346789 -0.98560262 -0.32728708 4288961280
1.8202922 -0.97780031 -0.33015931 4288830720
1.8165821 -0.97573382 -0.33453339 4288830720
1.8182408 -0.97655112 -0.3395029 4288830720
1.8168324 -0.97572118 -0.34350702 4288830720
1.8118258 -0.97295904 -0.34641778 4288830720
1.8098878 -0.97184509 -0.34949788 4288830720
1.8043271 -0.96878618 -0.35145813 4288830720
1.7999717 -0.96637475 -0.35322744 4288830720
1.8083543 -0.97080207 -0.35708785 4288830720
1.7986565 -0.96552306 -0.35696113 4288830720
1.8062911 -0.96954829 -0.35985279 4288830720
1.7940283 -0.96289349 -0.35835853 4288830720
1.8026555 -0.96745092 -0.36061344 4288830720
1.7991097 -0.9654752 -0.36001316 4288830720
1.8100493 -0.97127259 -0.36188766 4288830720
1.804126 -0.96802115 -0.35996741 4288830720
1.813989 -0.97323984 -0.3607716 4288830720
1.8148789 -0.97364384 -0.35936195 4288830720
1.8160386 -0.97419256 -0.35758349 4288830720
1.8169295 -0.97459692 -0.35533187 4288830720
1.8162451 -0.97415638 -0.35235745 4288830720
1.8187573 -0.97543019 -0.34958908 4288830720
1.8220049 -0.97709829 -0.34654424 4288961280
1.823262 -0.97769862 -0.34270877 4288961280
1.8065283 -0.96865243 -0.33513239 4288830720
1.8072299 -0.96895546 -0.33044162 4288830720
1.8014631 -0.96579069 -0.32420114 4288830720
1.7940978 -0.96176952 -0.31733856 4288830720
1.7983971 -0.96400148 -0.31218275 4288830720
1.8147922 -0.97271639 -0.30869707 4288830720
1.8156773 -0.97311741 -0.30215934 4288830720
1.8209502 -0.97586977 -0.29598317 4288830720
1.7987679 -0.96390933 -0.28507692 4288830720
1.7914743 -0.95992845 -0.27632755 4288700160
1.8030515 -0.96605891 -0.27015579 4288830720
1.8125309 -0.97106463 -0.26327017 4288830720
1.8170004 -0.97338569 -0.25529578 4288830720
1.794484 -0.9612509 -0.24333236 4288700160
1.7954395 -0.96169013 -0.23438489 4288700160
1.8120141 -0.97049469 -0.22712377 4288830720
1.8162712 -0.97270131 -0.21795698 4288830720
1.8141077 -0.97146934 -0.20776691 4288830720
1.7867868 -0.95676661 -0.19463052 4288700160
1.7983317 -0.96287578 -0.18559983 4288700160
1.8033388 -0.96548384 -0.17559484 4288700160
1.8131641 -0.97067088 -0.16577862 4288830720
1.7901235 -0.95826381 -0.15285674 4288700160
1.8021418 -0.96462446 -0.14282699 4288700160
1.8096789 -0.96858573 -0.13216582 4288830720
1.8160268 -0.97190982 -0.12118717 4288830720
1.8037018 -0.96524078 -0.10886952 4288700160
1.7870048 -0.95623332 -0.096356146 4288700160
1.7918961 -0.9587782 -0.084978417 4288700160
1.7992013 -0.96261418 -0.073543914 4288700160
1.7663696 -0.94497716 -0.060558219 4288569600
1.789999 -0.95754617 -0.049502973 4288700160
1.7484306 -0.93523878 -0.03671176 4288569600
1.7893767 -0.95706862 -0.025617111 4288700160
1.8061746 -0.96598023 -0.013763501 4288700160
1.8192451 -0.97289711 -0.0016669544 4288830720
1.8202791 -0.97337651 0.010536565 4288830720
1.8215755 -0.97399616 0.022745453 4288830720
1.8419605 -0.98482168 0.035312708 4288830720
1.962026 -1.0489365 0.050688796 4289352960
2.082072 -1.1130313 0.067605883 4289744640
2.0234866 -1.0816311 0.079059117 4289614080
2.1706502 -1.160208 0.099043556 4290136320
2.1654341 -1.1573325 0.11289854 4290136320
2.0947967 -1.1194952 0.12273014 4289875200
2.0338342 -1.0868337 0.13214976 4289614080
2.1988165 -1.1749076 0.15675884 4290266880
2.2049882 -1.1781163 0.17095533 4290266880
2.1822572 -1.1658831 0.18262245 4290136320
2.0520573 -1.0962402 0.18416655 4289744640
2.2251322 -1.1886096 0.21296924 4290397440
2.2328231 -1.1926277 0.22678554 4290397440
2.22821 -1.1900737 0.23912035 4290397440
2.170547 -1.1591886 0.24514654 4290136320
1.995424 -1.065583 0.2363466 4289483520
2.223609 -1.1873469 0.27531523 4290397440
2.2319496 -1.1917106 0.28802601 4290397440
2.2062063 -1.1778764 0.29592901 4290266880
2.1787863 -1.163149 0.30300894 4290266880
2.1051877 -1.1237732 0.3028388 4289875200
2.2132654 -1.1813771 0.32860944 4290397440
2.1852014 -1.1663091 0.33416957 4290266880
2.1534846 -1.1492939 0.33853176 4290136320
2.1389349 -1.1414425 0.34501261 4290136320
2.1044223 -1.1229399 0.34768552 4290005760
2.1069493 -1.1242033 0.35595503 4290005760
1.9594804 -1.0454395 0.3379645 4289352960
1.9508004 -1.0407296 0.34297377 4289352960
1.9500087 -1.0402286 0.3489438 4289352960
1.8746012 -0.99992698 0.34093615 4289091840
1.8817619 -1.0036706 0.34735 4289091840
1.889835 -1.0079002 0.35356966 4289091840
1.8770657 -1.0010142 0.35547072 4289091840
1.8765373 -1.0006568 0.35924658 4289091840
1.863017 -0.99337196 0.36009103 4289091840
1.7648894 -0.94097853 0.34397897 4288700160
1.7689028 -0.94304699 0.34721974 4288700160
1.8497902 -0.98609549 0.36524397 4288961280
1.7640626 -0.94032425 0.34995693 4288700160
1.76043 -0.93831682 0.3504642 4288700160
1.8536457 -0.98792648 0.3698824 4288961280
1.8570877 -0.98968601 0.37099776 4289091840
1.8614644 -0.99194336 0.37186605 4289091840
1.8702527 -0.9965511 0.37317801 4289091840
1.8660696 -0.99424684 0.37146458 4289091840
1.8706439 -0.99660856 0.37105834 4289091840
1.8752835 -0.99900478 0.37022343 4289091840
1.8756397 -0.99911886 0.36810532 4289091840
1.8717084 -0.99694926 0.36472097 4289091840
1.8765353 -0.9994446 0.36261544 4289091840
1.9429508 -1.0347393 0.371858 4289352960
1.9522686 -1.0396228 0.36959815 4289352960
1.9607766 -1.0440743 0.36671689 4289483520
2.0498226 -1.0914069 0.37823048 4289744640
2.0759068 -1.1052115 0.37739447 4289875200
2.1199081 -1.1285523 0.37918007 4290005760
2.1640728 -1.1519765 0.38029042 4290136320
2.2113152 -1.1770353 0.38120821 4290397440
2.2191546 -1.1811186 0.37471068 4290397440
2.2210817 -1.1820549 0.36675134 4290397440
2.1884675 -1.1641281 0.29924875 4290266880
2.2158093 -1.178583 0.29189289 4290397440
2.2293339 -1.1856868 0.28218409 4290397440
2.2017066 -1.1709044 0.26702869 4290266880
2.1798859 -1.1592119 0.25254565 4290136320
2.1953466 -1.167345 0.24213462 4290266880
2.2039592 -1.1718358 0.23056597 4290266880
2.1383286 -1.1368542 0.21130787 4290005760
2.0511737 -1.090435 0.19058546 4289744640
2.1662564 -1.1515275 0.18826859 4290136320
2.179183 -1.1583112 0.17609754 4290136320
2.1788445 -1.1580435 0.16258575 4290136320
2.1280482 -1.1309597 0.14545247 4290005760
1.9661033 -1.0448143 0.12191016 4289352960
1.8488724 -0.98244172 0.10278732 4288961280
1.8298019 -0.97223443 0.089885555 4288830720
1.8186522 -0.96623695 0.077472061 4288830720
1.8335754 -0.97409171 0.066060491 4288830720
1.8314976 -0.97291404 0.05388109 4288830720
1.8229938 -0.96832329 0.041525066 4288830720
1.8196282 -0.96646237 0.029320579 4288830720
1.8096063 -0.96106648 0.017067019 4288700160
1.8130965 -0.96284711 0.00496651 4288700160
1.7815388 -0.94601667 -0.0070470353 4288700160
1.796432 -0.95385265 -0.019124692 4288700160
1.8009744 -0.95619202 -0.031201117 4288700160
1.8084008 -0.96006215 -0.043373246 4288700160
1.7961723 -0.95349777 -0.054995093 4288700160
1.8201865 -0.96617246 -0.067744203 4288830720
1.8253289 -0.96882862 -0.079909541 4288830720
1.8285906 -0.97048616 -0.091960631 4288830720
1.8070465 -0.95897931 -0.10254628 4288700160
1.8151298 -0.96319598 -0.11461412 4288830720
1.8335415 -0.97289228 -0.12737733 4288830720
1.8236114 -0.96754986 -0.13808692 4288830720
1.8210406 -0.96611255 -0.14912477 4288830720
1.8370755 -0.97454554 -0.1616044 4288830720
1.8462079 -0.97931582 -0.17345145 4288961280
1.8444141 -0.97829008 -0.18412517 4288961280
1.8350389 -0.97324353 -0.19377433 4288830720
1.8305764 -0.97080314 -0.20364869 4288830720
1.8385034 -0.97493303 -0.21469422 4288830720
1.8477371 -0.9797551 -0.22574742 4288961280
1.8340424 -0.9724198 -0.23372559 4288830720
1.8154243 -0.9624753 -0.24064784 4288830720
1.839274 -0.97504556 -0.25295317 4288961280
1.8506241 -0.98098803 -0.26342851 4288961280
1.8578087 -0.98472172 -0.27310234 4288961280
1.8549887 -0.98315233 -0.28101781 4288961280
1.837584 -0.97385389 -0.28631768 4288961280
1.8174499 -0.96311033 -0.29070854 4288830720
1.8251075 -0.9670949 -0.29916072 4288830720
1.8330057 -0.97120619 -0.30737093 4288961280
1.8278177 -0.96838385 -0.31304622 4288830720
1.8394828 -0.97449005 -0.32126963 4288961280
1.8363355 -0.97274894 -0.32656604 4288961280
1.8332911 -0.97106242 -0.33148521 4288961280
1.8372424 -0.97308141 -0.33728829 4288961280
1.8396713 -0.97429383 -0.34243867 4288961280
1.8338869 -0.97115666 -0.3456558 4288961280
1.8344054 -0.97135752 -0.34964699 4288961280
1.8202485 -0.96378791 -0.35040829 4288830720
1.8211883 -0.96421224 -0.3536422 4288830720
1.8182908 -0.96260506 -0.35571578 4288830720
1.8139797 -0.96024978 -0.35708785 4288830720
1.81374 -0.96004993 -0.35883844 4288830720
1.8213969 -0.96402967 -0.3617371 4288830720
1.8177998 -0.96205264 -0.36198112 4288830720
1.8133961 -0.95964915 -0.36163744 4288830720
1.82177 -0.96400732 -0.36341751 4288830720
1.8243823 -0.9653163 -0.36362267 4288961280
1.8353542 -0.97104794 -0.36506319 4288961280
1.8239818 -0.96495771 -0.3616347 4288961280
1.8275551 -0.96677464 -0.36075047 4288961280
1.8374363 -0.97192788 -0.3606756 4288961280
1.8347726 -0.9704451 -0.35770956 4288961280
1.8340887 -0.97000968 -0.35471672 4288961280
1.837793 -0.97189492 -0.35215363 4288961280
1.8363853 -0.97107661 -0.34819734 4288961280
1.8367766 -0.9712097 -0.34417957 4288961280
1.8330803 -0.9691816 -0.33900478 4288961280
1.8128445 -0.95840973 -0.33044162 4288830720
1.815791 -0.95989448 -0.32576767 4288830720
1.8075327 -0.95545614 -0.31872484 4288830720
1.803983 -0.9535073 -0.31218275 4288830720
1.8204286 -0.96212655 -0.30869707 4288830720
1.8344375 -0.96945679 -0.30433622 4288961280
1.8353568 -0.9698689 -0.29740134 4288961280
1.8119229 -0.95741272 -0.28627288 4288830720
1.7985775 -0.95028883 -0.27656448 4288700160
1.8141382 -0.95843744 -0.27097568 4288830720
1.8260511 -0.96465784 -0.26441315 4288830720
1.8314158 -0.96741831 -0.25652492 4288830720
1.8123457 -0.95727199 -0.24499397 4288830720
1.8097965 -0.95585275 -0.23552811 4288830720
1.8220322 -0.96224189 -0.22767289 4288830720
1.8386155 -0.97092593 -0.21995579 4288830720
1.8364534 -0.96971041 -0.20967551 4288830720
1.7982802 -0.94948143 -0.19527657 4288700160
1.8099934 -0.95559317 -0.18622561 4288700160
1.8199642 -0.9607842 -0.17666562 4288830720
1.8175498 -0.95943666 -0.16566572 4288830720
1.7966368 -0.94832498 -0.15293851 4288700160
1.8175186 -0.95927405 -0.14360027 4288830720
1.8306329 -0.96612221 -0.13328278 4288830720
1.841078 -0.97156072 -0.12247907 4288830720
1.8231294 -0.96201575 -0.10970197 4288830720
1.8210397 -0.96083993 -0.097887799 4288830720
1.8298808 -0.96543133 -0.086511575 4288830720
1.8149818 -0.95749784 -0.073959671 4288700160
1.815807 -0.95786023 -0.062060744 4288700160
1.8275445 -0.96397847 -0.050385125 4288830720
1.8035717 -0.9512611 -0.037752543 4288700160
1.7537602 -0.92491853 -0.025029646 4288569600
1.8227754 -0.96124333 -0.013847091 4288830720
1.8357214 -0.96799678 -0.0016768551 4288830720
1.8333611 -0.96667856 0.010579509 4288830720
1.8442059 -0.97232264 0.022956904 4288830720
1.8624483 -0.98186582 0.035595208 4288961280
2.0109231 -1.0600597 0.051791612 4289483520
2.1721194 -1.1449473 0.070311971 4290136320
2.0887225 -1.1009039 0.081355937 4289744640
2.2157123 -1.1677476 0.10078752 4290266880
2.1951656 -1.1568308 0.11409531 4290266880
2.0306642 -1.0700586 0.11860546 4289614080
1.9853702 -1.0461112 0.12860256 4289352960
2.2238801 -1.1716952 0.15805632 4290266880
2.2306588 -1.1751771 0.1724118 4290397440
2.209754 -1.1640753 0.18435282 4290266880
2.0584095 -1.0842658 0.18416655 4289744640
2.2522569 -1.1862845 0.2149002 4290397440
2.2610233 -1.1908112 0.22894125 4290528000
2.2496438 -1.1847277 0.2406757 4290397440
2.2084939 -1.1629683 0.24866286 4290266880
1.9971982 -1.0516222 0.23582703 4289483520
2.2453363 -1.1821889 0.27714789 4290397440
2.2471547 -1.1830561 0.28909376 4290397440
2.2313964 -1.1746703 0.29838476 4290397440
2.1932952 -1.1545249 0.30408609 4290266880
2.1831386 -1.1490909 0.31308392 4290266880
2.2332723 -1.1753891 0.3305575 4290397440
2.2086089 -1.16232 0.33670783 4290266880
2.1801696 -1.1472658 0.34167013 4290266880
2.1367874 -1.1243511 0.34360373 4290005760
2.1021719 -1.1060525 0.34624311 4289875200
2.1012089 -1.1054616 0.3538911 4289875200
1.9620384 -1.0321642 0.33736274 4289352960
1.9568307 -1.0293462 0.34297377 4289352960
1.9516652 -1.0265507 0.34816405 4289352960
1.8760259 -0.98669016 0.34014392 4289091840
1.8753477 -0.98625833 0.34509948 4289091840
1.8869425 -0.99228036 0.3519409 4289091840
1.869771 -0.98317546 0.35299852 4289091840
1.8692442 -0.98282355 0.3567481 4289091840
1.8644103 -0.98020715 0.35925043 4289091840
1.8561465 -0.97578806 0.36065093 4288961280
1.8514339 -0.97323638 0.36230066 4288961280
1.8511438 -0.97300965 0.36438569 4288961280
1.8387092 -0.96639997 0.36364222 4288961280
1.838546 -0.96624053 0.36488852 4288961280
1.829729 -0.96153337 0.36398593 4288961280
1.8418995 -0.96785522 0.3668308 4288961280
1.8506479 -0.97237802 0.3685672 4288961280
1.8551029 -0.97464442 0.36901578 4288961280
1.8596238 -0.97694504 0.36904213 4288961280
1.8676983 -0.98111212 0.36933392 4289091840
1.8723505 -0.98348087 0.36850691 4289091840
1.8683441 -0.98130155 0.36554524 4289091840
1.8609072 -0.97732091 0.36150053 4288961280
1.9440269 -1.0208963 0.37450156 4289352960
1.9489465 -1.0234016 0.371858 4289352960
1.9495599 -1.0236456 0.36794999 4289352960
2.021318 -1.0612422 0.37687692 4289614080
2.0430381 -1.072564 0.37581918 4289744640
2.0779395 -1.0908034 0.37660226 4289875200
2.1308203 -1.1184776 0.37995982 4290005760
2.1794975 -1.143941 0.3818233 4290266880
2.2268891 -1.168726 0.38271263 4290397440
2.2259982 -1.1681693 0.37471068 4290397440
2.2323122 -1.1713933 0.36747256 4290397440
2.2078981 -1.1580112 0.300978 4290266880
2.2394209 -1.1744548 0.29409689 4290397440
2.2484169 -1.1790825 0.2837252 4290397440
2.2254157 -1.1669315 0.26907501 4290397440
2.2033427 -1.1552689 0.25447905 4290266880
2.2192981 -1.163546 0.24402452 4290266880
2.2256353 -1.1667793 0.2321185 4290397440
2.0983455 -1.0999641 0.20671996 4289875200
1.9745919 -1.0350127 0.18290643 4289352960
2.1814594 -1.1433581 0.18900771 4290136320
2.2180998 -1.1624736 0.17869204 4290266880
2.2166028 -1.1616002 0.16489547 4290266880
2.162468 -1.1331445 0.14735132 4290136320
1.9960487 -1.0458599 0.12338702 4289483520
1.848942 -0.9687072 0.10247567 4288830720
1.8291523 -0.9582656 0.089577869 4288830720
1.8264265 -0.95676446 0.077564463 4288830720
1.8343706 -0.9608525 0.065886334 4288830720
1.8357892 -0.96152204 0.053841624 4288830720
1.8224846 -0.95448065 0.041386094 4288830720
1.8143668 -0.95015651 0.029146103 4288700160
1.8151749 -0.95050704 0.017067019 4288700160
1.8171173 -0.95145142 0.0049622548 4288700160
1.7914499 -0.93794012 -0.0070645032 4288700160
1.7977577 -0.94117075 -0.019080106 4288700160
1.8065149 -0.94568294 -0.031201117 4288700160
1.8086023 -0.94670337 -0.043245051 4288700160
1.806928 -0.94575465 -0.055154759 4288700160
1.8224363 -0.95379883 -0.067619972 4288830720
1.8367146 -0.96119803 -0.08016146 4288830720
1.8345873 -0.96001136 -0.091979355 4288830720
1.8151126 -0.94974792 -0.10268826 4288700160
1.8273631 -0.95608485 -0.11503289 4288830720
1.8352644 -0.96014541 -0.12710625 4288830720
1.8403794 -0.96274769 -0.13892952 4288830720
1.8279434 -0.95616901 -0.14923131 4288830720
1.8437989 -0.96438897 -0.16169883 4288830720
1.8556422 -0.97050929 -0.17380363 4288961280
1.8570976 -0.97119623 -0.18482335 4288961280
1.840096 -0.96223134 -0.19371305 4288830720
1.8408384 -0.96254593 -0.20416296 4288830720
1.8454918 -0.96490526 -0.21485016 4288830720
1.8466587 -0.96544152 -0.22492462 4288961280
1.8375852 -0.9606244 -0.23345987 4288830720
1.8280317 -0.95555693 -0.24157694 4288830720
1.8486695 -0.96627092 -0.25346676 4288961280
1.8607048 -0.97248715 -0.26405245 4288961280
1.8611077 -0.97262329 -0.27274963 4288961280
1.8548484 -0.96927798 -0.28013626 4288961280
1.8549222 -0.96924233 -0.2881344 4288961280
1.8247032 -0.95337921 -0.2909753 4288830720
1.8364298 -0.95943272 -0.30009526 4288830720
1.8423661 -0.96246046 -0.30799502 4288961280
1.8391422 -0.96070272 -0.31402177 4288961280
1.8503031 -0.9664588 -0.3221705 4288961280
1.8396366 -0.96081382 -0.326152 4288961280
1.843559 -0.96278882 -0.33232188 4288961280
1.8459506 -0.96396393 -0.33785018 4288961280
1.8357245 -0.95855039 -0.34065869 4288961280
1.8405668 -0.96100527 -0.34585366 4288961280
1.8341758 -0.95759511 -0.34853387 4288961280
1.8315649 -0.95615882 -0.35150838 4288961280
1.8242303 -0.95225686 -0.35314956 4288830720
1.8225542 -0.95130908 -0.35545945 4288830720
1.822252 -0.95107847 -0.35761937 4288830720
1.809798 -0.94450611 -0.35696375 4288830720
1.8139862 -0.94661933 -0.35916385 4288830720
1.8138709 -0.94648671 -0.36009455 4288830720
1.8216641 -0.95048034 -0.36217576 4288830720
1.8268268 -0.9531011 -0.36331239 4288830720
1.8317982 -0.95562154 -0.36398482 4288961280
1.8301169 -0.95467132 -0.36290893 4288961280
1.8289605 -0.95399505 -0.36151367 4288830720
1.8298411 -0.95438123 -0.360098 4288961280
1.8422236 -0.96076584 -0.36051041 4288961280
1.8434614 -0.96133775 -0.35830548 4288961280
1.8408476 -0.95990115 -0.35493627 4288961280
1.8402184 -0.95949948 -0.35154119 4288961280
1.8471769 -0.96305388 -0.34917372 4288961280
1.8358599 -0.95708025 -0.34295708 4288961280
1.8345459 -0.9563219 -0.33823964 4288961280
1.8249807 -0.95126283 -0.33163792 4288830720
1.8254205 -0.95141917 -0.32649523 4288830720
1.8080612 -0.94229919 -0.31784457 4288830720
1.8147057 -0.94568956 -0.31307954 4288830720
1.8349996 -0.9561919 -0.31021795 4288830720
1.8435645 -0.9605813 -0.30491674 4288961280
1.8444879 -0.96098882 -0.29796863 4288961280
1.8130786 -0.94455194 -0.28558114 4288830720
1.8075988 -0.94162494 -0.27710336 4288830720
1.8284841 -0.95243156 -0.27228501 4288830720
1.8274685 -0.95182961 -0.2638109 4288830720
1.8372481 -0.95684987 -0.2565566 4288830720
1.8107851 -0.94299543 -0.24403614 4288830720
1.8152728 -0.94526005 -0.23552008 4288830720
1.8355418 -0.95574135 -0.22866131 4288830720
1.8354205 -0.95560491 -0.21890378 4288830720
1.842072 -0.95899439 -0.20967551 4288830720
1.7949522 -0.93439186 -0.19432069 4288700160
1.8246778 -0.94979316 -0.18716393 4288830720
1.8235322 -0.94912404 -0.17647217 4288830720
1.8219303 -0.94821751 -0.16555861 4288830720
1.8011056 -0.93730748 -0.15285146 4288700160
1.8212239 -0.94770443 -0.14345433 4288830720
1.8252686 -0.9497363 -0.1324871 4288830720
1.8248035 -0.94942141 -0.12102634 4288830720
1.8255638 -0.94974416 -0.10951363 4288830720
1.8113179 -0.94226044 -0.097068466 4288700160
1.8073783 -0.94013888 -0.085187308 4288700160
1.811229 -0.94206965 -0.073581837 4288700160
1.801242 -0.93680316 -0.06137535 4288700160
1.8087373 -0.94062924 -0.049714677 4288700160
1.8189844 -0.9458856 -0.037959162 4288700160
1.8210834 -0.94690442 -0.025911303 4288700160
1.8179663 -0.94521111 -0.013768489 4288700160
1.8260218 -0.94932646 -0.0016629143 4288830720
1.8367587 -0.95483518 0.010566832 4288830720
1.8296276 -0.95105511 0.022706071 4288830720
1.8548297 -0.96408129 0.035341647 4288830720
2.0437553 -1.0621972 0.052476928 4289614080
2.1723461 -1.1289428 0.070105202 4290136320
2.0572362 -1.0690396 0.079885587 4289614080
2.2327166 -1.1601386 0.10125182 4290266880
2.2070611 -1.1467197 0.11436438 4290266880
1.9362446 -1.0059347 0.11274645 4289222400
1.9745983 -1.0257818 0.12751552 4289352960
2.2338076 -1.160349 0.15827872 4290266880
2.244621 -1.1658764 0.17296302 4290397440
2.2133951 -1.149569 0.18409467 4290266880
2.0859241 -1.0832814 0.18606046 4289744640
2.2600551 -1.1736226 0.21498817 4290397440
2.2637527 -1.1754524 0.22852026 4290397440
2.2480214 -1.1671941 0.2397705 4290397440
2.191855 -1.1379447 0.24603876 4290136320
2.0121186 -1.0445508 0.23686618 4289483520
2.2504587 -1.1681905 0.27693534 4290397440
2.2489817 -1.1673341 0.28844893 4290397440
2.2241886 -1.1543765 0.29651654 4290397440
2.1921916 -1.1376824 0.30300894 4290266880
2.1348696 -1.1078488 0.3052308 4290005760
2.2265041 -1.1553118 0.3285538 4290397440
2.1986432 -1.1407675 0.33416957 4290266880
2.1632133 -1.1222984 0.33798227 4290136320
2.147696 -1.1141622 0.34430817 4290005760
2.1085801 -1.093786 0.34624311 4289875200
2.1120038 -1.0954777 0.35462824 4289875200
1.9592426 -1.0161638 0.33585832 4289352960
1.9584086 -1.0156531 0.34220734 4289352960
1.9576129 -1.0151625 0.34816405 4289352960
1.87736 -0.97347075 0.33935171 4289091840
1.8810622 -0.97531539 0.34509948 4289091840
1.8804288 -0.97491205 0.34966063 4289091840
1.8632083 -0.96590984 0.35069111 4288961280
1.8626831 -0.96556324 0.35441619 4288961280
1.8490851 -0.95844078 0.3552154 4288961280
1.8451753 -0.95634067 0.35743052 4288961280
1.8404511 -0.9538188 0.3590579 4288961280
1.8314154 -0.94906306 0.35940775 4288830720
1.8268168 -0.94660717 0.3601934 4288830720
1.8266543 -0.94645017 0.3614279 4288830720
1.8353 -0.95085663 0.36398593 4288961280
1.8265207 -0.94623536 0.36266384 4288830720
1.8440394 -0.95523751 0.36613646 4288961280
1.852005 -0.95928997 0.36728153 4288961280
1.8565383 -0.96156418 0.36731181 4288961280
1.8690094 -0.96794891 0.36847174 4289091840
1.8736746 -0.97029036 0.36764863 4289091840
1.8784045 -0.97266489 0.3663986 4289091840
1.8700703 -0.96827483 0.36217853 4289091840
1.9455649 -1.0072865 0.37366092 4289352960
1.9504976 -1.0097626 0.37102517 4289352960
1.9511112 -1.0100026 0.3671259 4289352960
2.0318477 -1.0517153 0.3776913 4289614080
2.0492525 -1.0606427 0.37581918 4289744640
2.079875 -1.0764093 0.37581003 4289875200
2.1373007 -1.1060439 0.37995982 4290005760
2.166188 -1.1209068 0.37834111 4290136320
2.2208362 -1.1490964 0.38051534 4290397440
2.2286222 -1.1530361 0.37401515 4290397440
2.2374473 -1.1575129 0.36720145 4290397440
2.2098203 -1.1426525 0.30032742 4290266880
2.2342463 -1.1551937 0.29252842 4290397440
2.2482262 -1.1623324 0.2828418 4290397440
2.228061 -1.1518183 0.26857889 4290266880
2.2038388 -1.1392087 0.25376546 4290266880
2.2214789 -1.1482388 0.24352455 4290266880
2.223146 -1.149012 0.23115678 4290266880
2.0690756 -1.0692997 0.20321919 4289744640
1.9628837 -1.0143416 0.18127139 4289352960
2.1984046 -1.135962 0.18989922 4290136320
2.2229633 -1.1485635 0.17854171 4290266880
2.2126462 -1.143145 0.1641029 4290266880
2.1828527 -1.1276654 0.14829014 4290136320
2.0137072 -1.0402044 0.12410185 4289483520
1.8553215 -0.95831454 0.10251805 4288830720
1.8332849 -0.94685918 0.089508563 4288830720
1.8227313 -0.94133586 0.0771733 4288700160
1.825496 -0.94269109 0.065369196 4288830720
1.8298963 -0.94489056 0.053506423 4288830720
1.8142068 -0.93671691 0.041073482 4288700160
1.8126808 -0.93585688 0.029030934 4288700160
1.8264749 -0.9429059 0.017121321 4288830720
1.8164644 -0.93766576 0.0049454691 4288700160
1.7909797 -0.92443925 -0.0070412899 4288569600
1.7987678 -0.92838758 -0.019033095 4288700160
1.8140035 -0.93617892 -0.031235719 4288700160
1.8096451 -0.93385762 -0.043139156 4288700160
1.8002865 -0.92895651 -0.054785896 4288700160
1.8155277 -0.93674886 -0.067159981 4288700160
1.8322828 -0.94532102 -0.079726309 4288830720
1.8336471 -0.945952 -0.091654345 4288830720
1.8180981 -0.9378581 -0.10254628 4288700160
1.8308955 -0.94438678 -0.11490694 4288830720
1.8355672 -0.94672346 -0.12674305 4288830720
1.8371665 -0.94747531 -0.13826792 4288830720
1.8243901 -0.9408136 -0.14849119 4288830720
1.8483064 -0.95307338 -0.1616044 4288830720
1.8568363 -0.95739794 -0.17339006 4288961280
1.8582976 -0.95807749 -0.18438409 4288961280
1.8456709 -0.95149422 -0.19371305 4288830720
1.8373412 -0.94712698 -0.20315963 4288830720
1.8453178 -0.95116544 -0.2141811 4288830720
1.854295 -0.95571899 -0.22517268 4288961280
1.8499314 -0.95339638 -0.23431872 4288830720
1.826516 -0.94125623 -0.24064784 4288830720
1.8505106 -0.95354778 -0.25295317 4288961280
1.8619292 -0.95935756 -0.26342851 4288961280
1.8656305 -0.96119052 -0.27258712 4288961280
1.8590572 -0.95773 -0.27992442 4288961280
1.8623786 -0.95936704 -0.28841949 4288961280
1.8305397 -0.94289315 -0.29102507 4288830720
1.8406515 -0.94802845 -0.29987743 4288830720
1.8398008 -0.94751716 -0.30663806 4288830720
1.8512838 -0.95335746 -0.31514111 4288961280
1.8527001 -0.95401317 -0.32161459 4288961280
1.8516248 -0.95338589 -0.32728708 4288961280
1.8493953 -0.95216435 -0.33236825 4288961280
1.8484561 -0.95160741 -0.33728829 4288961280
1.8438041 -0.94913924 -0.34112605 4288961280
1.8458869 -0.95013803 -0.34580728 4288961280
1.8491066 -0.95172179 -0.3503114 4288961280
1.8344861 -0.94412386 -0.35100734 4288830720
1.8410635 -0.94743574 -0.3553336 4288961280
1.8381457 -0.94586122 -0.35741946 4288961280
1.83293 -0.94310445 -0.35863048 4288830720
1.8326869 -0.94290656 -0.36038864 4288830720
1.8290031 -0.94093859 -0.36104554 4288830720
1.8323895 -0.942608 -0.36267447 4288830720
1.824455 -0.93845391 -0.36163744 4288830720
1.8285003 -0.94046199 -0.3625493 4288830720
1.8355066 -0.94399267 -0.36362267 4288961280
1.8421651 -0.94734401 -0.3641974 4288961280
1.8438615 -0.94814312 -0.36336094 4288961280
1.8438841 -0.94808149 -0.36176836 4288961280
1.8407505 -0.94639713 -0.35913697 4288961280
1.8459558 -0.94900006 -0.35770956 4288961280
1.8510499 -0.95154542 -0.3558284 4288961280
1.8521888 -0.9520573 -0.35276228 4288961280
1.8475758 -0.94961274 -0.34819734 4288961280
1.8400716 -0.94568264 -0.34270877 4288961280
1.8486378 -0.95001179 -0.33981153 4288961280
1.828506 -0.93959343 -0.33127812 4288830720
1.8177556 -0.93399709 -0.32414547 4288830720
1.8165116 -0.93328577 -0.31836879 4288830720
1.8237636 -0.93693924 -0.3136951 4288830720
1.8317426 -0.94096571 -0.30873531 4288830720
1.8491297 -0.94982398 -0.30491674 4288961280
1.8421308 -0.94615573 -0.29669225 4288830720
1.8185509 -0.93397254 -0.28558114 4288830720
1.8095285 -0.92926687 -0.27656448 4288700160
1.8251829 -0.93723363 -0.27097568 4288830720
1.8371675 -0.94331479 -0.26441315 4288830720
1.8383774 -0.94386303 -0.25594205 4288830720
1.8162484 -0.93242943 -0.24403614 4288830720
1.8143495 -0.93138254 -0.23469225 4288700160
1.8324645 -0.94060898 -0.22759138 4288830720
1.8464588 -0.94771904 -0.21955799 4288830720
1.8404636 -0.94456893 -0.20886247 4288830720
1.8038614 -0.92571217 -0.19469801 4288700160
1.8210052 -0.93443781 -0.18622561 4288700160
1.8201665 -0.93393517 -0.17561689 4288700160
1.8270463 -0.93739271 -0.16552439 4288830720
1.80038 -0.92363977 -0.15233059 4288700160
1.8333887 -0.94050133 -0.14397848 4288830720
1.8340904 -0.94078845 -0.13272731 4288830720
1.8216704 -0.93434542 -0.12045546 4288700160
1.8151276 -0.9309175 -0.10856036 4288700160
1.8178116 -0.93222195 -0.09712375 4288700160
1.8146864 -0.9305473 -0.085274778 4288700160
1.8173313 -0.93183142 -0.073607937 4288700160
1.7947825 -0.92019838 -0.060971536 4288700160
1.8069867 -0.92638385 -0.049517367 4288700160
1.8176428 -0.93177485 -0.037817232 4288700160
1.821637 -0.93375009 -0.025841335 4288700160
1.8200289 -0.93285358 -0.013742713 4288700160
1.833764 -0.93982071 -0.0016649502 4288830720
1.8412746 -0.94359702 0.010561005 4288830720
1.8312565 -0.93839037 0.022658048 4288830720
1.8766439 -0.96157378 0.03564994 4288961280
2.0716143 -1.0613925 0.053032573 4289744640
2.1710172 -1.1122355 0.069852002 4290005760
2.0678773 -1.0593138 0.08005777 4289614080
2.2260983 -1.1402776 0.10064869 4290266880
2.2217066 -1.1379399 0.11477778 4290266880
2.0057349 -1.0272415 0.11644236 4289483520
1.9660014 -1.0068139 0.12657939 4289352960
2.2405303 -1.1473147 0.15827872 4290266880
2.2433832 -1.1486866 0.17234901 4290397440
2.2156165 -1.1343814 0.18372661 4290266880
2.0797772 -1.0647501 0.18495569 4289744640
2.2584293 -1.1561222 0.21418914 4290397440
2.2621927 -1.157959 0.22767787 4290397440
2.2486694 -1.1509476 0.23912035 4290397440
2.1431928 -1.096876 0.23985492 4290005760
2.027024 -1.037341 0.23790532 4289614080
2.2486269 -1.1506584 0.27588025 4290397440
2.2314727 -1.1417918 0.2853452 4290266880
2.2109921 -1.1312248 0.29387361 4290266880
2.1806946 -1.1156371 0.30051625 4290136320
2.1412878 -1.0953918 0.3052308 4290005760
2.2270069 -1.1391537 0.32764307 4290266880
2.2140753 -1.1324512 0.33550656 4290266880
2.1732428 -1.1114801 0.33853176 4290136320
2.1071005 -1.0775689 0.33678788 4289875200
2.114917 -1.0814824 0.34624311 4289875200
2.047286 -1.0468175 0.34273148 4289614080
1.9739321 -1.009232 0.33736274 4289352960
1.9598935 -1.0019767 0.34144092 4289352960
1.9546992 -0.99924374 0.3466045 4289352960
1.8829998 -0.96251631 0.33935171 4289091840
1.8779241 -0.95984739 0.34349197 4289091840
1.8737772 -0.95765358 0.34738037 4288961280
1.8688042 -0.95503801 0.35069111 4288961280
1.8515943 -0.94616961 0.35125145 4288961280
1.8423485 -0.94137192 0.35286164 4288961280
1.829653 -0.93481255 0.35336262 4288830720
1.8293054 -0.9345625 0.35581514 4288830720
1.8202449 -0.92986149 0.35614634 4288830720
1.8200201 -0.92967457 0.35777923 4288830720
1.8154721 -0.92727959 0.35814029 4288830720
1.8197588 -0.92939699 0.3598237 4288830720
1.8241091 -0.93154651 0.36110124 4288830720
1.8285238 -0.93372858 0.3619695 4288830720
1.8365116 -0.93773484 0.36311927 4288830720
1.8454424 -0.94222182 0.36402419 4288961280
1.8579483 -0.94853336 0.36519533 4288961280
1.8713989 -0.9553262 0.36610374 4288961280
1.8752635 -0.95722473 0.36469188 4289091840
1.8844579 -0.96184337 0.36387348 4289091840
1.8849366 -0.96201301 0.36093417 4289091840
1.9563476 -0.99838156 0.37102517 4289352960
1.9657481 -1.003101 0.36877406 4289352960
2.030031 -1.0358236 0.37622541 4289614080
2.0553973 -1.0486853 0.37581918 4289744640
2.0905087 -1.0665168 0.37660226 4289875200
2.1168981 -1.079896 0.37520784 4289875200
2.1726818 -1.1082671 0.37834111 4290136320
2.2230899 -1.1338918 0.37976313 4290397440
2.2269843 -1.1357899 0.37262338 4290397440
2.2363992 -1.1405032 0.36593273 4290397440
2.2058148 -1.1243423 0.2988877 4290266880
2.2323902 -1.1377999 0.2914125 4290266880
2.2421224 -1.1426715 0.28123155 4290397440
2.2247577 -1.1337337 0.26737991 4290266880
2.1954477 -1.1187105 0.25204447 4290136320
2.2157156 -1.1289506 0.24216761 4290266880
2.2298026 -1.13604 0.23115678 4290266880
2.1737349 -1.1073885 0.21286125 4290136320
2.1343772 -1.0872537 0.19652042 4289875200
2.2029324 -1.1220886 0.1897224 4290136320
2.2164257 -1.1288738 0.17748535 4290266880
2.2249184 -1.1331112 0.16452062 4290266880
2.1777325 -1.1089942 0.14750084 4290136320
2.0481291 -1.0429136 0.12584661 4289614080
1.8813748 -0.95792741 0.10364751 4288961280
1.8489294 -0.94133425 0.090003088 4288830720
1.8308094 -0.93203646 0.077284098 4288830720
1.8478812 -0.9406544 0.065973416 4288830720
1.8369372 -0.93501073 0.053552102 4288830720
1.8363677 -0.93464822 0.041451212 4288830720
1.8278424 -0.93023682 0.029186457 4288700160
1.8227086 -0.92755204 0.017035067 4288700160
1.8193103 -0.92575073 0.0049384483 4288700160
1.7979434 -0.91480708 -0.0070475931 4288700160
1.8066738 -0.91917771 -0.019059759 4288700160
1.8190477 -0.92540121 -0.031229205 4288700160
1.8247365 -0.92822313 -0.043369252 4288700160
1.8171885 -0.9243117 -0.055135436 4288700160
1.8312168 -0.93137479 -0.06753847 4288830720
1.8483014 -0.93999112 -0.080183648 4288830720
1.8474269 -0.93947333 -0.092067964 4288830720
1.8260561 -0.92853338 -0.10268826 4288700160
1.8371732 -0.93411368 -0.11495741 4288830720
1.8434439 -0.93722916 -0.12690772 4288830720
1.8417962 -0.93631858 -0.13820343 4288830720
1.8365262 -0.93356693 -0.14903374 4288830720
1.8506963 -0.94069684 -0.16133142 4288830720
1.8596343 -0.94516647 -0.17313416 4288830720
1.868691 -0.94969571 -0.18486319 4288961280
1.8541223 -0.94221836 -0.1940206 4288830720
1.8430569 -0.93652242 -0.20318484 4288830720
1.8554909 -0.9427672 -0.21472067 4288830720
1.8606559 -0.94531792 -0.22527246 4288961280
1.8575134 -0.94364798 -0.23457871 4288961280
1.8364627 -0.9328813 -0.24123813 4288830720
1.8598032 -0.94466424 -0.25346676 4288961280
1.867715 -0.94860911 -0.2634607 4288961280
1.8767354 -0.95311642 -0.27339366 4288961280
1.8660166 -0.94759905 -0.28013626 4288961280
1.8616736 -0.94532001 -0.28745246 4288961280
1.8268596 -0.92756999 -0.28957587 4288830720
1.841959 -0.93516374 -0.29919767 4288830720
1.8534558 -0.94092745 -0.30799502 4288961280
1.8614424 -0.94490838 -0.31592786 4288961280
1.8579137 -0.94304377 -0.32156038 4288961280
1.8463027 -0.93707728 -0.32537577 4288961280
1.8525784 -0.94018924 -0.33195025 4288961280
1.8566961 -0.94220567 -0.33778444 4288961280
1.8589791 -0.94329071 -0.34291098 4288961280
1.8516396 -0.93949336 -0.34585366 4288961280
1.8452095 -0.93615788 -0.34853387 4288961280
1.842582 -0.93475211 -0.35150838 4288961280
1.8355491 -0.93111181 -0.35321629 4288830720
1.8335153 -0.9300077 -0.35545945 4288830720
1.8332105 -0.9297806 -0.35761937 4288830720
1.8294661 -0.9278093 -0.35868621 4288830720
1.8248934 -0.92541814 -0.35916385 4288830720
1.8247765 -0.92528683 -0.36009455 4288830720
1.8247236 -0.92518795 -0.36061609 4288830720
1.8247218 -0.92511499 -0.36072528 4288830720
1.8428088 -0.93421215 -0.36398482 4288961280
1.8323319 -0.92882848 -0.36117733 4288830720
1.8478597 -0.93662673 -0.36306727 4288961280
1.8542107 -0.93977267 -0.36271402 4288961280
1.8523058 -0.93873399 -0.36031824 4288961280
1.8497818 -0.93738186 -0.35738656 4288961280
1.8542329 -0.93956429 -0.35538191 4288961280
1.8541244 -0.93943608 -0.35208252 4288961280
1.8547541 -0.93968195 -0.34851247 4288961280
1.8492972 -0.93684423 -0.34340459 4288961280
1.8455645 -0.93488044 -0.33823964 4288961280
1.8359412 -0.92993319 -0.33163792 4288830720
1.828391 -0.92603672 -0.32507434 4288830720
1.8189183 -0.92116725 -0.31784457 4288830720
1.827153 -0.92526543 -0.31334552 4288830720
1.8471299 -0.93530881 -0.31040502 4288830720
1.8548598 -0.93914968 -0.30495414 4288961280
1.8513722 -0.93731081 -0.29729608 4288961280
1.8307552 -0.92680061 -0.28664482 4288830720
1.8175174 -0.92002738 -0.27696154 4288830720
1.8435661 -0.93314046 -0.27289313 4288830720
1.8428605 -0.93271053 -0.26444587 4288830720
1.8538173 -0.93818289 -0.25732625 4288830720
1.8193071 -0.92064613 -0.24372226 4288700160
1.8223577 -0.92211795 -0.23502919 4288830720
1.8443539 -0.93317527 -0.22838891 4288830720
1.8521779 -0.93706083 -0.21958512 4288830720
1.8474348 -0.93458831 -0.20903209 4288830720
1.8164655 -0.91884977 -0.19547728 4288700160
1.8307995 -0.92602831 -0.1866723 4288830720
1.8397189 -0.93046725 -0.17697732 4288830720
1.8443563 -0.93273985 -0.16659746 4288830720
1.812937 -0.9167788 -0.15293851 4288700160
1.8420817 -0.93144423 -0.14423251 4288830720
1.8520085 -0.93639064 -0.13362691 4288830720
1.8380905 -0.92928112 -0.12118115 4288830720
1.8249764 -0.92257899 -0.10882607 4288700160
1.8329554 -0.92654032 -0.097642779 4288830720
1.8305625 -0.92525852 -0.08576604 4288700160
1.8227295 -0.92122746 -0.073607937 4288700160
1.8170631 -0.91829193 -0.06154564 4288700160
1.8337673 -0.92666143 -0.050102443 4288700160
1.8369588 -0.92820179 -0.038105953 4288830720
1.8359711 -0.92763031 -0.025967564 4288830720
1.8388211 -0.9289977 -0.013843505 4288830720
1.8436713 -0.93137544 -0.0016689901 4288830720
1.8556668 -0.93736202 0.010612049 4288830720
1.842126 -0.93044949 0.022725075 4288830720
1.9085959 -0.96394789 0.036149617 4289091840
2.1077526 -1.06445 0.053798016 4289744640
2.180892 -1.1013007 0.069962077 4290005760
2.0650926 -1.0427433 0.079713404 4289614080
2.2282443 -1.1250368 0.10044765 4290266880
2.2300935 -1.1258826 0.11487023 4290266880
2.1800463 -1.1005299 0.12618756 4290136320
1.993224 -1.0061398 0.1279525 4289352960
2.2345078 -1.1278468 0.15738639 4290266880
2.2255971 -1.1232616 0.1704769 4290266880
2.1816223 -1.1009815 0.1803727 4290136320
1.9984043 -1.0084395 0.17719363 4289352960
2.252975 -1.1368128 0.21304007 4290397440
2.2540603 -1.1372716 0.22618867 4290397440
2.2264571 -1.1232568 0.23605838 4290266880
2.0778532 -1.0482037 0.23185503 4289744640
2.0410254 -1.0295449 0.23884055 4289614080
2.2378063 -1.128718 0.27374125 4290266880
2.2269819 -1.1231705 0.28392932 4290266880
2.2009492 -1.1099544 0.29167426 4290136320
2.1274433 -1.0728009 0.29231149 4289875200
2.0761511 -1.0468541 0.29507142 4289744640
2.2256377 -1.1221418 0.32647422 4290266880
2.2117863 -1.1150709 0.33416957 4290266880
2.1796815 -1.0987995 0.33853176 4290136320
2.117763 -1.0675023 0.33749232 4289875200
2.1256003 -1.0713691 0.3469643 4289875200
2.0568831 -1.0366524 0.34332117 4289744640
1.9665359 -0.99104071 0.3351061 4289352960
1.9656979 -0.99054092 0.34144092 4289352960
1.9569594 -0.98606038 0.3459807 4289352960
1.8806397 -0.94753081 0.33792573 4288961280
1.8755513 -0.9448933 0.34204522 4288961280
1.8705132 -0.94228142 0.34575161 4288961280
1.865528 -0.93969661 0.34904298 4288961280
1.8526723 -0.93314803 0.35041863 4288961280
1.835476 -0.92441434 0.35050789 4288830720
1.8306673 -0.92192042 0.35251516 4288830720
1.8215187 -0.91724139 0.35325506 4288830720
1.8168324 -0.91481006 0.35442978 4288830720
1.8210067 -0.9168402 0.35691702 4288830720
1.8164452 -0.91447204 0.35727513 4288830720
1.8207444 -0.91656476 0.35895658 4288830720
1.8163106 -0.91426128 0.35849687 4288830720
1.8207377 -0.91641796 0.35936517 4288830720
1.8296279 -0.92082059 0.36069131 4288830720
1.8377037 -0.92481267 0.36142871 4288830720
1.8555241 -0.93370759 0.36364338 4288961280
1.8637326 -0.93776476 0.36352891 4288961280
1.8728869 -0.9422971 0.36315584 4288961280
1.8777044 -0.94464701 0.36150053 4288961280
1.8905095 -0.95101464 0.36093417 4289091840
1.9621313 -0.98696649 0.37102517 4289352960
1.9627475 -0.98719925 0.3671259 4289352960
2.0316243 -1.0217621 0.37541103 4289614080
2.0614722 -1.0366924 0.37581918 4289744640
2.0834551 -1.0476654 0.37422559 4289744640
2.136806 -1.0744087 0.37762052 4290005760
2.1623273 -1.0871561 0.37542865 4290136320
2.2128763 -1.1124834 0.3769047 4290266880
2.2280312 -1.1200145 0.37170038 4290266880
2.2123256 -1.1120325 0.3609274 4290266880
2.1967871 -1.103664 0.29678813 4290136320
2.2209978 -1.1157401 0.28907189 4290266880
2.235723 -1.1230494 0.27960339 4290266880
2.2265022 -1.11833 0.26680195 4290266880
2.1889443 -1.0993793 0.25055826 4290136320
2.207412 -1.1085677 0.24055004 4290136320
