# .PCD v0.7 - Point Cloud Data file format
VERSION 0.7
FIELDS x y z rgba
SIZE 4 4 4 4
TYPE F F F U
COUNT 1 1 1 1
WIDTH 1078
HEIGHT 1
VIEWPOINT 0 0 0 1 0 0 0
POINTS 1078
DATA ascii
2.9882927 -0.48246595 0.35411698 4292094720
2.8452702 -0.45927489 0.34974739 4291572480
2.7905757 -0.45035464 0.35496098 4291441920
3.034307 -0.48961392 0.39845973 4292225280
3.0465543 -0.49149558 0.41219109 4292355840
3.0215709 -0.4873684 0.42037168 4292225280
2.9790041 -0.48040575 0.42537469 4292094720
2.8651376 -0.46194437 0.4191632 4291703040
2.7970376 -0.4508712 0.41853201 4291441920
3.0344336 -0.48906219 0.46360537 4292355840
3.0286257 -0.48803011 0.47175229 4292225280
3.0313725 -0.48837715 0.48067337 4292355840
3.0121524 -0.48518389 0.48551288 4292225280
3.002543 -0.48354018 0.49126068 4292225280
3.0123751 -0.48502871 0.49961159 4292225280
2.991477 -0.48156726 0.50226551 4292225280
2.9993708 -0.4827432 0.50913268 4292225280
2.9427302 -0.47352892 0.50437927 4291964160
2.9517832 -0.47489217 0.51020247 4292094720
2.9648175 -0.47689545 0.51614249 4292094720
2.9691875 -0.47750372 0.51998872 4292094720
2.9687915 -0.47734487 0.52239251 4292094720
2.9733598 -0.47798431 0.52505565 4292094720
2.9683042 -0.47707579 0.52540213 4292094720
2.9400105 -0.47243151 0.52101117 4291964160
2.9633672 -0.476091 0.52514416 4292094720
2.9401431 -0.47226313 0.52041495 4291964160
2.9403634 -0.47220346 0.51922238 4291964160
2.9877474 -0.47972 0.52570832 4292225280
2.9784467 -0.47812936 0.52158749 4292094720
3.0026355 -0.48191676 0.52269417 4292225280
3.0117486 -0.48328212 0.52052706 4292225280
3.0158887 -0.48384857 0.51687181 4292225280
3.0370448 -0.48714527 0.51548219 4292355840
3.0327039 -0.48634961 0.50913739 4292355840
3.0337009 -0.48641038 0.50309759 4292355840
3.0205414 -0.48420054 0.4941515 4292225280
3.0159369 -0.48336315 0.48606756 4292225280
3.0132647 -0.48283574 0.4777467 4292225280
3.0339479 -0.4860518 0.47251898 4292355840
3.0426333 -0.48734373 0.46479234 4292355840
3.0372088 -0.48637435 0.45436549 4292355840
3.0269129 -0.48462492 0.44273719 4292225280
3.0055578 -0.48056138 0.36336628 4292225280
3.028311 -0.48410043 0.35255921 4292225280
3.0396736 -0.48581648 0.33987427 4292225280
3.013021 -0.48145428 0.32263345 4292225280
2.9884584 -0.47742787 0.30549797 4292094720
3.0107613 -0.48089212 0.29281259 4292094720
3.0165422 -0.4817152 0.27805358 4292225280
2.9862878 -0.4767817 0.25979292 4292094720
2.9654253 -0.47335005 0.2423245 4291964160
3.0017738 -0.47905451 0.22916912 4292094720
3.0080991 -0.47996366 0.21323949 4292094720
2.9975076 -0.47817248 0.19589877 4292094720
2.9892819 -0.47675946 0.17859879 4292094720
3.0210741 -0.48173109 0.16335247 4292094720
3.012423 -0.48024988 0.14561024 4292094720
2.9820199 -0.47530049 0.12688144 4291964160
2.9836149 -0.47545466 0.10953572 4291964160
2.9902563 -0.47641307 0.092203364 4292094720
2.9915977 -0.47652638 0.074556798 4292094720
2.9229341 -0.46548557 0.055485863 4291833600
2.9726758 -0.4733111 0.038700048 4291964160
2.9734166 -0.47332913 0.020932773 4291964160
2.9783218 -0.47401026 0.0031335657 4291964160
2.9451373 -0.46862724 -0.014541749 4291833600
2.9684207 -0.47223416 -0.032429151 4291964160
2.9655395 -0.47167584 -0.050120797 4291964160
2.9455423 -0.46839473 -0.067336351 4291833600
2.9612567 -0.4707953 -0.085276335 4291964160
2.9851103 -0.47448927 -0.10359771 4291964160
2.9902632 -0.47520828 -0.12133282 4292094720
2.9417202 -0.46739134 -0.13650739 4291833600
2.9598293 -0.47017068 -0.1544563 4291964160
2.9771194 -0.47281864 -0.17240292 4291964160
2.973042 -0.47207105 -0.18900438 4291964160
2.942946 -0.46719128 -0.20355819 4291833600
2.9794247 -0.47288528 -0.22253449 4291964160
3.0015168 -0.47629291 -0.24051858 4292094720
2.9939945 -0.47499841 -0.25594977 4292094720
2.9779875 -0.47235805 -0.2702544 4292094720
2.8359041 -0.44971541 -0.27200416 4291572480
2.98704 -0.47359502 -0.30161887 4292094720
3.004792 -0.47631067 -0.31828588 4292094720
2.9958141 -0.47478691 -0.33181703 4292094720
2.9495842 -0.46735835 -0.34059602 4291964160
2.7470925 -0.43516639 -0.32980844 4291311360
3.0118389 -0.477027 -0.37500495 4292225280
3.0206199 -0.47831807 -0.38912988 4292225280
3.0144489 -0.47724032 -0.40090761 4292225280
2.9899902 -0.47326708 -0.40968141 4292094720
2.9527211 -0.46726725 -0.41599855 4291964160
2.97997 -0.4714829 -0.43089464 4292094720
2.9846251 -0.47212118 -0.44215587 4292094720
2.9880817 -0.47256956 -0.45276791 4292094720
2.9840713 -0.4718366 -0.46173424 4292094720
2.9915955 -0.4729284 -0.47197041 4292225280
2.9800701 -0.47100747 -0.47865355 4292094720
2.9705791 -0.46940908 -0.48505849 4292094720
2.9484227 -0.46580946 -0.48875988 4291964160
2.8705351 -0.45340413 -0.48242941 4291703040
2.897831 -0.45762295 -0.49309844 4291833600
2.8417389 -0.44866762 -0.48896229 4291703040
2.8545885 -0.45060429 -0.49603799 4291703040
2.8772519 -0.45408988 -0.50430143 4291833600
2.8912387 -0.45620438 -0.51051283 4291833600
2.894613 -0.4566431 -0.51428092 4291833600
2.7946184 -0.44076961 -0.49900422 4291572480
2.898736 -0.45710596 -0.51957124 4291833600
2.7989607 -0.44127369 -0.50301749 4291572480
2.8983998 -0.45686561 -0.52165508 4291833600
2.8896329 -0.45538989 -0.52023995 4291833600
2.8702707 -0.45224455 -0.51631516 4291833600
2.8568444 -0.45003617 -0.5128656 4291703040
2.8435161 -0.44784427 -0.50885022 4291703040
2.8844697 -0.45420524 -0.51393211 4291833600
2.8664739 -0.45127836 -0.50790167 4291703040
2.9437964 -0.46336377 -0.51809496 4291964160
2.9654825 -0.46668437 -0.51777554 4292094720
2.9794135 -0.46878296 -0.51545101 4292094720
2.9807928 -0.46890527 -0.51033521 4292094720
2.98754 -0.46987236 -0.50553405 4292225280
2.9951177 -0.47096977 -0.5002616 4292225280
2.9826047 -0.46890679 -0.49107251 4292094720
2.9777026 -0.46804154 -0.48261592 4292094720
2.9570723 -0.46470386 -0.47112793 4292094720
2.9604301 -0.46513847 -0.46297097 4292094720
2.9855924 -0.46899992 -0.45760879 4292094720
3.0023708 -0.47154251 -0.45030895 4292225280
3.0038557 -0.47168148 -0.44014558 4292225280
2.9861047 -0.46879911 -0.42672634 4292094720
2.9579377 -0.46428218 -0.41150936 4291964160
2.9643066 -0.46518961 -0.40071684 4292094720
2.9865706 -0.46859193 -0.39150888 4292094720
2.9881525 -0.46874696 -0.37905559 4292094720
2.9650891 -0.46503475 -0.36314902 4291964160
2.9559312 -0.46350566 -0.34868574 4291964160
2.9836042 -0.4677543 -0.33809543 4292094720
2.9946296 -0.46939054 -0.32506561 4292094720
2.9952388 -0.46939304 -0.31049314 4292094720
2.9436612 -0.46121475 -0.29042569 4291964160
2.9647081 -0.46442214 -0.27735889 4291964160
2.9766147 -0.46619603 -0.26296645 4291964160
2.9807673 -0.46675444 -0.24752046 4292094720
2.9440799 -0.46091563 -0.22859122 4291964160
2.9797177 -0.46640569 -0.215037 4291964160
2.9815395 -0.46659887 -0.19860613 4291964160
2.9904301 -0.46789855 -0.18237467 4292094720
2.9302161 -0.45838198 -0.16202524 4291833600
2.9650187 -0.46373755 -0.14690492 4291964160
2.9796338 -0.46593267 -0.13034439 4291964160
2.9735708 -0.46489245 -0.11269283 4291964160
2.9657929 -0.46358442 -0.094940402 4291964160
3.0014803 -0.46907309 -0.078318626 4292094720
3.0105305 -0.47039545 -0.060655873 4292094720
2.9633615 -0.46293032 -0.042024232 4291964160
2.9962389 -0.46797672 -0.024577055 4292094720
3.0118582 -0.47032478 -0.00667577 4292094720
3.0102196 -0.4699761 0.011350745 4292094720
2.9154661 -0.45508534 0.028439097 4291833600
3.0352581 -0.47370034 0.047716878 4292225280
3.0453751 -0.47518626 0.065997049 4292225280
3.040904 -0.47439462 0.083919607 4292225280
2.8768401 -0.44869855 0.096362062 4291703040
3.0333953 -0.47303572 0.11935636 4292225280
3.0458121 -0.47487912 0.13754593 4292225280
3.0074425 -0.46880111 0.15314357 4292094720
2.8016064 -0.4366127 0.15866342 4291441920
3.0536902 -0.4758254 0.19013974 4292225280
3.0515168 -0.47539234 0.20700644 4292225280
3.0123048 -0.4691875 0.22090569 4292094720
2.8064566 -0.43702227 0.22102624 4291441920
3.0732095 -0.47848853 0.25837162 4292355840
3.079071 -0.47930628 0.27497306 4292355840
3.0625165 -0.47663316 0.28921279 4292355840
2.8883941 -0.44943073 0.28730616 4291703040
2.7617481 -0.42962867 0.28829646 4291311360
3.0697615 -0.47747555 0.33513314 4292355840
3.0623834 -0.4762322 0.34863979 4292355840
3.0206494 -0.46964493 0.35762104 4292225280
2.8910611 -0.44939658 0.35504597 4291703040
2.8353131 -0.44063798 0.36031649 4291572480
3.0733554 -0.47755629 0.4032144 4292355840
3.0683639 -0.47668439 0.41476044 4292355840
3.0615616 -0.47553134 0.42554143 4292355840
3.0336142 -0.47109327 0.43276975 4292225280
2.9059248 -0.45116317 0.42473653 4291833600
2.8367662 -0.44033116 0.42408353 4291572480
3.0655696 -0.47576946 0.46793079 4292355840
3.0646269 -0.47552666 0.47691947 4292355840
3.0527325 -0.47358388 0.48361579 4292355840
3.0520144 -0.4733761 0.49148348 4292355840
3.0482352 -0.47269326 0.49827492 4292355840
3.0483086 -0.47260821 0.5051049 4292355840
3.0225058 -0.46850994 0.50700778 4292225280
2.9793487 -0.46172234 0.50527608 4292094720
2.9873385 -0.46286622 0.51155132 4292225280
3.0012603 -0.46492884 0.51827377 4292225280
3.0045571 -0.46534404 0.52257788 4292225280
3.0001605 -0.46456692 0.52492934 4292225280
3.0085225 -0.46576622 0.52889508 4292225280
3.0082231 -0.4656235 0.53072268 4292225280
3.0128951 -0.46625036 0.53280222 4292225280
3.0079367 -0.46538603 0.53255242 4292225280
3.0030839 -0.46453819 0.53169167 4292225280
2.9798396 -0.4608447 0.52695495 4292094720
2.9761677 -0.46018049 0.52506095 4292094720
3.0274932 -0.46802279 0.53221095 4292355840
3.0191627 -0.46663654 0.52823049 4292225280
3.0298941 -0.46819779 0.52695554 4292355840
3.0440166 -0.47028238 0.52562088 4292355840
3.0469167 -0.47063157 0.52171022 4292355840
3.0565014 -0.47201324 0.51831043 4292355840
3.0592718 -0.47234154 0.51312727 4292355840
3.064769 -0.47309059 0.50778377 4292355840
3.0564852 -0.47171125 0.49957266 4292355840
3.0470083 -0.47014812 0.49062511 4292355840
3.0394623 -0.46888351 0.48145944 4292355840
3.0699425 -0.47348714 0.47768626 4292486400
3.0845988 -0.47564736 0.47077 4292486400
3.0771461 -0.4743962 0.45991746 4292486400
3.0600958 -0.47166544 0.4471809 4292355840
3.0371561 -0.46747875 0.36685115 4292225280
3.0693762 -0.47233856 0.35701275 4292355840
3.0797856 -0.47383881 0.34404418 4292355840
3.0393662 -0.46751574 0.32515839 4292225280
3.0197093 -0.46438992 0.3084113 4292225280
3.0518842 -0.46923873 0.29654059 4292225280
3.0527663 -0.46927252 0.28113595 4292225280
3.0215142 -0.46436504 0.26261795 4292225280
3.0104983 -0.46257049 0.24578257 4292094720
3.0385783 -0.46678564 0.23176773 4292225280
3.0441542 -0.46754074 0.21559918 4292225280
3.0327947 -0.46569362 0.19802494 4292225280
3.0295057 -0.46508682 0.18083736 4292225280
3.0423687 -0.46696052 0.16435628 4292225280
3.0526896 -0.46844307 0.14742278 4292225280
3.0173302 -0.46291307 0.128268 4292094720
3.0189338 -0.46305785 0.11073264 4292094720
3.0265749 -0.46412888 0.093239523 4292094720
3.0279226 -0.46423396 0.075394772 4292094720
2.9730363 -0.45571467 0.056385841 4291964160
3.003613 -0.46030313 0.039069194 4292094720
3.0136869 -0.46174648 0.021198386 4292094720
3.0008197 -0.45967317 0.003157119 4292094720
2.9814277 -0.4566009 -0.014705678 4291964160
2.9948463 -0.45855638 -0.032685447 4292094720
3.0018435 -0.45952743 -0.050686102 4292094720
2.9867651 -0.45711765 -0.068214707 4291964160
2.996136 -0.45845196 -0.086199917 4292094720
3.0170293 -0.46154928 -0.10460757 4292094720
3.0354552 -0.46426764 -0.1230524 4292225280
2.98192 -0.45597517 -0.13824463 4291964160
2.9899056 -0.45709661 -0.15588105 4292094720
3.0089989 -0.4599162 -0.17408772 4292094720
3.0103612 -0.46002358 -0.19120012 4292094720
2.9643593 -0.45289087 -0.20484965 4291964160
3.0156512 -0.46063033 -0.2250326 4292094720
3.0424607 -0.46462566 -0.24357501 4292225280
3.0439959 -0.4647584 -0.259985 4292225280
3.0131841 -0.45995083 -0.27319691 4292094720
2.8768609 -0.43903461 -0.27567896 4291703040
3.0222132 -0.46112797 -0.30489004 4292225280
3.0399647 -0.4637365 -0.3217158 4292225280
3.017592 -0.46022123 -0.33392215 4292225280
2.984673 -0.45509866 -0.34433156 4292094720
2.7829623 -0.4242332 -0.33380842 4291441920
3.043025 -0.4637984 -0.37854049 4292225280
3.046895 -0.4642874 -0.39215502 4292355840
3.0505073 -0.46473694 -0.40533152 4292355840
3.034826 -0.46224612 -0.41544381 4292225280
2.9178188 -0.44431838 -0.41070515 4291833600
3.0149662 -0.45902014 -0.43555596 4292225280
3.0245001 -0.46037254 -0.44765311 4292225280
3.0267088 -0.46060908 -0.45820132 4292225280
3.0248871 -0.46023205 -0.46762168 4292225280
3.0128639 -0.45830268 -0.47489145 4292225280
3.0149891 -0.45852709 -0.4838196 4292225280
2.97452 -0.45227158 -0.4852587 4292094720
2.949656 -0.44839239 -0.48851824 4291964160
2.919946 -0.44377801 -0.49028507 4291964160
2.8539486 -0.43364891 -0.4851895 4291703040
2.8764729 -0.43697947 -0.49448696 4291833600
2.8951712 -0.43972728 -0.50263071 4291833600
2.9129744 -0.44233799 -0.51009667 4291964160
2.9211226 -0.44348112 -0.51531911 4291964160
2.9400752 -0.44626471 -0.5218814 4291964160
2.9435425 -0.44669598 -0.52511382 4291964160
2.939322 -0.44596013 -0.52636552 4291964160
2.9478602 -0.44716111 -0.52929133 4292094720
2.9389799 -0.44571862 -0.5284766 4291964160
2.919497 -0.44266832 -0.52513784 4291964160
2.9059582 -0.44052103 -0.52225858 4291833600
2.9061506 -0.44045696 -0.52124166 4291833600
2.8733423 -0.43538979 -0.51371962 4291833600
2.8552325 -0.43255281 -0.5082612 4291703040
2.9109366 -0.44090351 -0.51531023 4291964160
2.9698286 -0.44973382 -0.52220118 4292094720
2.9964108 -0.45366612 -0.52269983 4292225280
3.009387 -0.45553619 -0.52016312 4292225280
3.0117497 -0.45579848 -0.51516646 4292225280
3.0224128 -0.45731729 -0.51097 4292225280
3.0199981 -0.45685622 -0.50395888 4292225280
3.0162652 -0.45619595 -0.49616313 4292225280
2.9985149 -0.4534153 -0.4855476 4292225280
2.9891207 -0.45189992 -0.47580123 4292094720
3.0051119 -0.45422426 -0.46953148 4292225280
3.0210986 -0.45654708 -0.46263021 4292225280
3.0432165 -0.45979589 -0.45602047 4292355840
3.0447209 -0.45992798 -0.44572818 4292355840
3.0259938 -0.45700294 -0.43203387 4292225280
2.9978201 -0.45265207 -0.41667902 4292094720
3.003221 -0.4533743 -0.40560862 4292094720
3.0231431 -0.4562892 -0.39594325 4292225280
3.0291002 -0.45709452 -0.383901 4292225280
3.0079865 -0.45381323 -0.36806837 4292094720
2.9923658 -0.45136234 -0.3526631 4292094720
3.0233676 -0.45594731 -0.34229025 4292225280
3.0256135 -0.4561924 -0.32813057 4292225280
3.0299661 -0.45675522 -0.31380776 4292225280
2.9787791 -0.44894269 -0.29362351 4292094720
3.0092843 -0.45344973 -0.28127357 4292094720
3.0084023 -0.45322385 -0.26553309 4292094720
3.0169473 -0.45441872 -0.25029707 4292094720
2.989114 -0.45013204 -0.2318771 4292094720
3.0109916 -0.45333555 -0.21709611 4292094720
3.0271914 -0.45568269 -0.20146385 4292225280
3.0207462 -0.45461902 -0.18405549 4292094720
2.9614742 -0.44560274 -0.16360417 4291964160
3.0052049 -0.45209396 -0.14876023 4292094720
3.0198426 -0.45420438 -0.1319827 4292094720
3.0187235 -0.45394325 -0.1142996 4292094720
3.0010631 -0.45119393 -0.095981091 4292094720
3.0278904 -0.45513648 -0.078934208 4292094720
3.0365281 -0.45634234 -0.061122101 4292225280
3.0085292 -0.45203996 -0.042625062 4292094720
3.0271709 -0.45474955 -0.024806174 4292094720
3.053117 -0.45855567 -0.0067594741 4292225280
3.0504875 -0.45806694 0.011493966 4292225280
2.9467475 -0.44239041 0.028720548 4291833600
3.0617001 -0.45956367 0.048092116 4292225280
3.0856647 -0.46306798 0.066811912 4292355840
3.0490491 -0.45747659 0.084073156 4292225280
2.9268506 -0.43904233 0.097949661 4291833600
3.0746415 -0.4611297 0.12087238 4292355840
3.0767572 -0.46135265 0.1388213 4292355840
3.0427191 -0.45615247 0.15480302 4292225280
2.8416262 -0.42590183 0.16078657 4291572480
3.0850382 -0.46231049 0.19192205 4292355840
3.091733 -0.46321914 0.20954837 4292355840
3.0435944 -0.45590922 0.22300282 4292225280
2.8424809 -0.42567998 0.22366421 4291572480
3.1094568 -0.46558857 0.26118708 4292486400
3.1103826 -0.46563131 0.27752334 4292486400
3.0795147 -0.46091279 0.29056203 4292355840
2.9244299 -0.43759841 0.29063186 4291833600
2.8025734 -0.41926742 0.29229689 4291441920
3.1000252 -0.4636966 0.33813724 4292486400
3.088695 -0.46190524 0.35132414 4292486400
3.0606639 -0.45761609 0.36203596 4292355840
2.9358499 -0.43885329 0.36022449 4291964160
2.8761053 -0.42982823 0.36517441 4291703040
3.1084542 -0.46447545 0.40745717 4292486400
3.1132445 -0.46509463 0.42045218 4292486400
3.0753374 -0.45933267 0.42707959 4292355840
3.0686276 -0.45823413 0.43737602 4292355840
2.9457035 -0.43977603 0.43016729 4291964160
2.8813579 -0.43007404 0.43036526 4291703040
3.0970387 -0.46218809 0.47231522 4292486400
3.0987282 -0.46234307 0.4817985 4292486400
3.1023452 -0.46278551 0.49103725 4292486400
3.0879326 -0.46053717 0.49682629 4292486400
3.0755 -0.45858499 0.50228691 4292486400
3.0583615 -0.45593157 0.50632489 4292355840
3.0720224 -0.45787206 0.51485467 4292486400
3.0141809 -0.44915089 0.51072985 4292225280
3.0280201 -0.4511182 0.51805681 4292355840
3.0409696 -0.45295191 0.52466464 4292355840
3.0452363 -0.45349091 0.52918273 4292355840
3.0447276 -0.45331803 0.53225344 4292355840
2.9695773 -0.44202834 0.52159739 4292094720
2.9741533 -0.44261476 0.52425778 4292094720
2.9690874 -0.4417654 0.52460241 4292094720
3.0388541 -0.45205423 0.53755045 4292355840
3.0388682 -0.45195872 0.53755069 4292355840
3.0292451 -0.45042926 0.53521526 4292355840
3.0207009 -0.44906077 0.5324443 4292225280
3.0161576 -0.44828764 0.52975625 4292225280
3.0637431 -0.4552651 0.53555459 4292486400
3.0754657 -0.45690843 0.53440672 4292486400
3.0701079 -0.45601246 0.52965885 4292486400
3.0783732 -0.45714083 0.52663112 4292486400
3.1021259 -0.46056914 0.52558094 4292486400
3.099056 -0.46001217 0.5193404 4292486400
3.0951929 -0.45933747 0.51237243 4292486400
3.0962911 -0.4593994 0.50563133 4292486400
3.0692499 -0.45528468 0.49377215 4292355840
3.0792809 -0.45667261 0.48733574 4292486400
3.1040356 -0.46024403 0.4825654 4292486400
3.1107945 -0.46114451 0.47435072 4292486400
3.1180239 -0.46211421 0.46561566 4292616960
3.1048927 -0.46006477 0.45332605 4292486400
3.0722444 -0.45456845 0.37076318 4292355840
3.0983562 -0.45833111 0.36006773 4292486400
3.1048546 -0.45918968 0.34654137 4292486400
3.0775418 -0.45504567 0.32895315 4292355840
3.0588822 -0.45218325 0.31213754 4292355840
3.0769601 -0.45475453 0.29871619 4292355840
3.0885131 -0.45635983 0.2841787 4292355840
3.0626101 -0.45242804 0.26595607 4292355840
3.0408537 -0.44911066 0.2480441 4292225280
3.0725582 -0.45369303 0.23415485 4292355840
3.0799472 -0.45468161 0.21794368 4292355840
3.0788965 -0.45442334 0.20085874 4292355840
3.0513196 -0.45024875 0.18198213 4292225280
3.0776398 -0.45403153 0.16611716 4292355840
3.0889671 -0.4555999 0.14904521 4292355840
3.058527 -0.45100516 0.12990619 4292225280
3.0532069 -0.4501178 0.11189319 4292225280
3.0624154 -0.45137328 0.094262563 4292225280
3.0632157 -0.45138848 0.076208472 4292225280
2.9993827 -0.44187626 0.056838084 4292094720
3.0386333 -0.44755995 0.039492 4292225280
3.0437708 -0.44821483 0.021393621 4292225280
3.03214 -0.4463993 0.0031896257 4292225280
3.0088596 -0.44286889 -0.014825345 4292094720
3.0288689 -0.44571394 -0.033025485 4292094720
3.0420623 -0.44755426 -0.051318146 4292225280
3.0269661 -0.44523036 -0.06907019 4292094720
3.037328 -0.44665334 -0.087306321 4292225280
3.0572433 -0.44948098 -0.10590671 4292225280
3.0618372 -0.45005396 -0.1240101 4292225280
3.0131905 -0.44279838 -0.13956922 4292094720
3.0300672 -0.44517821 -0.15783407 4292225280
3.0491652 -0.44788346 -0.17625451 4292225280
3.0416291 -0.4466739 -0.19301397 4292225280
2.9793189 -0.43741849 -0.20569973 4291964160
3.0446708 -0.44691688 -0.22699611 4292225280
3.0687907 -0.45035666 -0.2454647 4292355840
3.0683324 -0.45018673 -0.26183096 4292355840
3.0220077 -0.44328523 -0.27375361 4292225280
2.9118781 -0.42702442 -0.27878755 4291833600
3.0632484 -0.44913352 -0.30875647 4292355840
3.0600748 -0.4485659 -0.32355744 4292355840
3.0526829 -0.44738004 -0.33750668 4292225280
2.9858322 -0.43747801 -0.34416068 4292094720
2.8227272 -0.41347262 -0.33827919 4291572480
3.0835462 -0.45159808 -0.38324264 4292355840
3.0807052 -0.45107955 -0.39615676 4292355840
3.0806355 -0.45096722 -0.40897375 4292355840
3.0575652 -0.44748691 -0.41818768 4292355840
2.952702 -0.43203348 -0.41524899 4291964160
3.0553749 -0.44696417 -0.44100475 4292355840
3.0493975 -0.44598866 -0.45094076 4292355840
3.0616376 -0.44767895 -0.46308106 4292355840
3.0627208 -0.44773659 -0.47305378 4292355840
3.0491138 -0.44564608 -0.48018235 4292355840
3.027401 -0.44237146 -0.48538437 4292225280
3.0191138 -0.44106087 -0.49210042 4292225280
2.9893291 -0.43660933 -0.49465355 4292094720
2.9556746 -0.43159449 -0.49584806 4292094720
2.8896084 -0.4218474 -0.49082023 4291833600
2.9121418 -0.42504406 -0.50017893 4291833600
2.9298713 -0.42753801 -0.50820833 4291964160
2.9525566 -0.43075436 -0.51657397 4292094720
2.9665523 -0.4327012 -0.52287382 4292094720
2.9796655 -0.43451849 -0.52844471 4292094720
2.8794808 -0.41980723 -0.51323718 4291833600
2.8791611 -0.41966763 -0.51514208 4291833600
2.9738028 -0.43337509 -0.53348136 4292094720
2.9785533 -0.43397194 -0.53512287 4292094720
2.9687953 -0.43245402 -0.53353685 4292094720
2.9455028 -0.42896464 -0.52890146 4291964160
2.9369278 -0.4276211 -0.52630037 4291964160
2.9089658 -0.42345437 -0.519633 4291833600
2.8908441 -0.4207226 -0.51414973 4291833600
2.9466019 -0.42874834 -0.52116704 4291964160
2.9943681 -0.43560746 -0.52605534 4292225280
3.0139112 -0.43835646 -0.52529281 4292225280
3.0363951 -0.44153219 -0.52437222 4292355840
3.0469425 -0.44297037 -0.5207302 4292355840
3.0416105 -0.44209862 -0.51376599 4292355840
3.046046 -0.44264758 -0.50786114 4292355840
3.0559931 -0.44399759 -0.50225848 4292355840
3.0519221 -0.44330978 -0.49376336 4292355840
3.0249445 -0.43929389 -0.48108253 4292225280
3.0311835 -0.44010538 -0.47319108 4292225280
3.0520866 -0.44304651 -0.46696699 4292355840
3.0738056 -0.44610491 -0.46020165 4292355840
3.0704274 -0.44551846 -0.44909868 4292355840
3.0517073 -0.44270542 -0.43532437 4292355840
3.024327 -0.43863696 -0.41999602 4292225280
3.0332813 -0.43984202 -0.40931052 4292225280
3.0581417 -0.44335395 -0.40017706 4292355840
3.0548503 -0.44278169 -0.38682619 4292355840
3.0380926 -0.44025722 -0.37142742 4292225280
3.0224726 -0.43789876 -0.35589999 4292225280
3.06335 -0.44372979 -0.34651381 4292355840
3.0705366 -0.44467649 -0.33271158 4292355840
3.0660532 -0.44393218 -0.31726766 4292355840
3.0246878 -0.43784621 -0.29788834 4292225280
3.0355301 -0.43932307 -0.28347841 4292225280
3.0484607 -0.44110173 -0.26883355 4292225280
3.0461664 -0.44067585 -0.25249991 4292225280
3.0203061 -0.43683976 -0.23409157 4292094720
3.0457394 -0.44042686 -0.21940908 4292225280
3.0534995 -0.44145593 -0.20303625 4292225280
3.0569358 -0.44185925 -0.18609713 4292225280
3.0015762 -0.43376073 -0.16567414 4292094720
3.0453551 -0.43999764 -0.15061527 4292225280
3.0506923 -0.44067577 -0.13321325 4292225280
3.0500019 -0.44048259 -0.11538164 4292225280
3.0372775 -0.43855092 -0.097053207 4292225280
3.0628858 -0.44215688 -0.079775237 4292225280
3.0717928 -0.44334948 -0.061776258 4292355840
3.03106 -0.43737447 -0.042904235 4292094720
3.0673807 -0.44252467 -0.025112035 4292225280
3.0790575 -0.44411606 -0.0068081324 4292355840
3.0818098 -0.44441903 0.011604508 4292355840
2.9070199 -0.41910979 0.028316369 4291703040
3.0935817 -0.44592839 0.048553526 4292355840
3.11972 -0.44960287 0.067493476 4292486400
3.0942097 -0.44582969 0.085246295 4292355840
2.8607459 -0.41208428 0.095665462 4291572480
3.1104698 -0.4479835 0.12217776 4292486400
3.1169696 -0.44882473 0.14051636 4292486400
3.0838804 -0.44396293 0.15676369 4292355840
2.8865564 -0.41545093 0.1631888 4291703040
3.1168845 -0.44852594 0.19373891 4292486400
3.1111581 -0.447606 0.21068728 4292486400
3.0797668 -0.44299257 0.22546102 4292355840
2.8824143 -0.41450065 0.22661228 4291703040
3.1434269 -0.45196158 0.26381588 4292616960
3.1505125 -0.45288399 0.280864 4292616960
3.125514 -0.44919226 0.29464969 4292486400
2.9781563 -0.42791057 0.29571635 4291964160
2.842386 -0.40830341 0.29619512 4291572480
3.1357152 -0.45036912 0.34173852 4292616960
3.1336324 -0.44997299 0.35613045 4292616960
3.0917914 -0.44386581 0.36540651 4292486400
2.9707863 -0.42639205 0.36419988 4291964160
2.9207952 -0.41912207 0.37053043 4291833600
3.1346691 -0.44973353 0.41054422 4292616960
3.1434748 -0.45089996 0.42417356 4292616960
3.1152287 -0.44674912 0.43224981 4292486400
3.0336287 -0.43494585 0.43202838 4292225280
2.9854467 -0.42794064 0.43559831 4292094720
2.9220078 -0.41875044 0.43606326 4291833600
3.1505795 -0.45142832 0.48006839 4292616960
3.1346364 -0.4490445 0.48696616 4292616960
3.1284623 -0.44806141 0.49475038 4292616960
3.1055059 -0.44467416 0.4992305 4292486400
3.1152565 -0.44597316 0.50834572 4292616960
3.089298 -0.44215754 0.51101136 4292486400
3.1117504 -0.44527474 0.52106792 4292616960
3.0636113 -0.43828553 0.51866102 4292355840
3.0725691 -0.43947056 0.52522939 4292486400
3.0767369 -0.43996948 0.53038353 4292486400
3.0849025 -0.44103992 0.5356186 4292486400
3.0105455 -0.43030733 0.52584064 4292225280
3.0101421 -0.43015379 0.52827144 4292225280
3.023495 -0.43196657 0.53249937 4292225280
3.0145204 -0.43058729 0.53217489 4292225280
3.0144284 -0.43047765 0.53278536 4292225280
3.0833831 -0.44023177 0.54495978 4292486400
3.078629 -0.43945369 0.54347587 4292486400
3.0700803 -0.43813398 0.54068595 4292486400
3.0470054 -0.43474084 0.53472018 4292355840
3.094635 -0.44144064 0.54049581 4292486400
3.1102748 -0.44357234 0.53999639 4292616960
3.1146774 -0.44409975 0.53689045 4292616960
3.1190546 -0.44462308 0.53313702 4292616960
3.1330881 -0.44652292 0.53037703 4292616960
3.1348922 -0.44667822 0.52490026 4292616960
3.1261511 -0.44533017 0.51705909 4292616960
3.1214943 -0.44456455 0.5093165 4292616960
3.1187825 -0.44407618 0.50131351 4292616960
3.1337309 -0.44610333 0.49553025 4292616960
3.1389575 -0.44674492 0.48758131 4292616960
3.1604202 -0.44969758 0.48150799 4292747520
3.1421995 -0.44700021 0.46883035 4292616960
3.1359384 -0.44600579 0.45747215 4292616960
3.1082675 -0.44140473 0.37479389 4292486400
3.1290789 -0.44425797 0.363332 4292486400
3.145859 -0.4465372 0.35082141 4292616960
3.1077113 -0.44101584 0.33189866 4292486400
3.0939744 -0.43896228 0.31545264 4292355840
3.1254585 -0.44332761 0.3031677 4292486400
3.1295762 -0.44380763 0.2877143 4292486400
3.0948763 -0.43878064 0.2685326 4292355840
3.0809226 -0.43669826 0.25110105 4292355840
3.1087198 -0.44053671 0.23671193 4292486400
3.1161275 -0.44148284 0.22031914 4292486400
3.0983908 -0.43886477 0.20196299 4292355840
3.1013365 -0.43917838 0.18480924 4292355840
3.1144047 -0.44092569 0.16796131 4292486400
3.1180165 -0.44133279 0.15032233 4292486400
3.0937505 -0.43779236 0.13129327 4292355840
3.088433 -0.43693581 0.1130906 4292355840
3.0936964 -0.43757707 0.095147431 4292355840
3.0945015 -0.43758714 0.076924302 4292355840
3.0256681 -0.42774621 0.057290543 4292094720
3.0738642 -0.43446067 0.039918385 4292355840
3.0790076 -0.43508467 0.021625308 4292355840
3.0822196 -0.4354353 0.0032408943 4292355840
3.0618026 -0.43244636 -0.015072306 4292225280
3.0700314 -0.43350616 -0.033444032 4292225280
3.0812397 -0.43498626 -0.051932976 4292355840
3.0532696 -0.43093279 -0.069608688 4292225280
3.0606544 -0.43187293 -0.087899506 4292225280
3.0885117 -0.43570238 -0.10689689 4292355840
3.0902212 -0.43583995 -0.12505125 4292355840
3.0533102 -0.43052855 -0.14130597 4292225280
3.0648222 -0.43204999 -0.15950724 4292225280
3.0803952 -0.43414336 -0.17790686 4292355840
3.0866783 -0.43492597 -0.19570528 4292355840
3.0193605 -0.42533386 -0.20828623 4292094720
3.0896902 -0.43514371 -0.23015606 4292355840
3.1044936 -0.43712598 -0.24810858 4292486400
3.1084018 -0.43757266 -0.26502416 4292486400
3.0580759 -0.43038189 -0.27678496 4292225280
2.9567103 -0.4160088 -0.28283912 4291964160
3.0939579 -0.43522835 -0.31158644 4292355840
3.1010497 -0.43612319 -0.32761127 4292486400
3.0936317 -0.43497631 -0.3417435 4292486400
3.026705 -0.42545986 -0.34857568 4292225280
2.8536096 -0.40101835 -0.34168991 4291572480
3.1195459 -0.43831107 -0.38738802 4292486400
3.1166844 -0.43780541 -0.40044361 4292486400
3.1186464 -0.43797788 -0.41366905 4292486400
3.0925083 -0.43420255 -0.42260855 4292486400
2.9983294 -0.42087239 -0.42130858 4292094720
3.0853806 -0.43299738 -0.44495872 4292486400
3.0852633 -0.43287918 -0.45585844 4292486400
3.082387 -0.43237388 -0.46582517 4292486400
3.0975862 -0.43440533 -0.47803435 4292486400
3.0839529 -0.43239099 -0.48525831 4292486400
3.0768785 -0.43129763 -0.49290004 4292486400
3.0587881 -0.42866012 -0.49814585 4292355840
3.0299411 -0.42451596 -0.50095016 4292225280
2.9864748 -0.4183248 -0.50059211 4292094720
2.9252267 -0.40964487 -0.49645072 4291964160
2.9516735 -0.41325474 -0.50654078 4291964160
2.9791677 -0.41700974 -0.51632279 4292094720
2.9930775 -0.41886088 -0.52322161 4292225280
3.0061007 -0.42058715 -0.52939755 4292225280
2.9144914 -0.40766782 -0.51645261 4291964160
2.92382 -0.40887907 -0.52070063 4291964160
2.9371474 -0.41064936 -0.52507359 4291964160
2.9135206 -0.4072502 -0.52222902 4291964160
2.9182768 -0.40782169 -0.52385437 4291964160
3.0092964 -0.4204531 -0.54035991 4292225280
2.994761 -0.4183251 -0.53729331 4292225280
2.971554 -0.4149864 -0.53205717 4292094720
2.9533241 -0.41234472 -0.52711254 4292094720
2.9303155 -0.40903687 -0.52073121 4291964160
2.9861252 -0.41673726 -0.52771318 4292094720
3.0251565 -0.42209175 -0.53101736 4292225280
3.0496018 -0.42540801 -0.53106636 4292355840
3.0711365 -0.42831665 -0.529926 4292486400
3.0875609 -0.43051118 -0.52722836 4292486400
3.091028 -0.43089741 -0.52167416 4292486400
3.0804069 -0.4293189 -0.5131585 4292486400
3.0815754 -0.42938501 -0.50603759 4292486400
3.0759599 -0.42850554 -0.49723449 4292486400
3.0646353 -0.42683092 -0.48698545 4292355840
3.0565994 -0.42561537 -0.47675803 4292355840
3.0898616 -0.43015328 -0.47234952 4292486400
3.109668 -0.43281525 -0.46517989 4292486400
3.1112039 -0.43293226 -0.45468077 4292486400
3.1013136 -0.43145865 -0.44202915 4292486400
3.0552909 -0.42495713 -0.42393985 4292355840
3.0740843 -0.4274773 -0.41446823 4292355840
3.0793395 -0.42811313 -0.40261266 4292355840
3.0907965 -0.42961127 -0.39104936 4292486400
3.0740421 -0.42718601 -0.37550697 4292355840
3.068264 -0.42628783 -0.36098874 4292355840
3.0940108 -0.42977175 -0.34968811 4292486400
3.10219 -0.43081298 -0.33585912 4292486400
3.1040504 -0.43097597 -0.32092977 4292486400
3.0440495 -0.42254657 -0.29954305 4292225280
3.0695903 -0.42599982 -0.28641829 4292355840
3.0795982 -0.42729506 -0.27135101 4292355840
3.0911345 -0.42880192 -0.25601211 4292355840
3.0495684 -0.42293891 -0.23616052 4292225280
3.0858011 -0.42787257 -0.22210801 4292355840
3.0985231 -0.42954287 -0.20585667 4292355840
3.0974233 -0.42929557 -0.18840297 4292355840
3.0376832 -0.42091784 -0.16752551 4292225280
3.0761373 -0.4261556 -0.15200874 4292355840
3.0984251 -0.42915058 -0.13518336 4292355840
3.104404 -0.42988446 -0.11734066 4292355840
3.0774057 -0.42604968 -0.0982517 4292355840
3.0980899 -0.42882055 -0.080622762 4292355840
3.1079986 -0.43009815 -0.062450126 4292355840
3.0420082 -0.42086777 -0.043019686 4292225280
3.0972188 -0.42841664 -0.025332499 4292355840
3.1106172 -0.43017629 -0.0068694893 4292355840
3.1111946 -0.43016136 0.011708336 4292355840
2.9470549 -0.4073633 0.028684283 4291833600
3.1337671 -0.43309319 0.049145669 4292486400
3.1609128 -0.43675068 0.068330184 4292616960
3.1403265 -0.43380877 0.086446896 4292486400
2.9066627 -0.4014219 0.097121485 4291703040
3.1417351 -0.43381181 0.12330664 4292486400
3.141293 -0.43365487 0.14149927 4292486400
3.1014099 -0.42805099 0.15752847 4292355840
2.9364049 -0.4051736 0.16587017 4291833600
3.1570191 -0.4355379 0.19607352 4292616960
3.1562164 -0.4353306 0.21356362 4292616960
3.1120908 -0.42914554 0.22764193 4292486400
2.9321895 -0.40423277 0.23033535 4291833600
3.1884599 -0.4394877 0.26737598 4292747520
3.1895986 -0.43954697 0.28411603 4292747520
3.1655614 -0.43613535 0.29818085 4292616960
3.0141213 -0.41516548 0.29904255 4292094720
2.8969462 -0.39892641 0.30163077 4291703040
3.185565 -0.4385992 0.34688589 4292747520
3.1678045 -0.43605486 0.35971996 4292616960
3.1277812 -0.43044576 0.36935765 4292486400
3.016494 -0.41502786 0.36949924 4292225280
2.9566097 -0.406692 0.37476656 4291964160
3.1717098 -0.43620083 0.4150556 4292747520
3.1833646 -0.43770608 0.42920452 4292747520
3.1462431 -0.43250123 0.43619683 4292616960
3.0881057 -0.4244085 0.43942419 4292486400
3.0310342 -0.41646582 0.44188645 4292225280
2.9567418 -0.4061594 0.44088554 4291964160
3.1766686 -0.43629074 0.48364943 4292747520
3.1695147 -0.43520859 0.49198219 4292747520
3.154995 -0.43311498 0.49853995 4292747520
3.1599011 -0.43368989 0.50755709 4292747520
3.1461668 -0.431705 0.51297086 4292616960
3.1338646 -0.4299174 0.51795846 4292616960
3.0816691 -0.42265555 0.51561892 4292486400
3.0993361 -0.4249824 0.52428043 4292486400
3.1073151 -0.42597902 0.53073525 4292486400
3.042433 -0.41698259 0.52405226 4292355840
3.036942 -0.41613331 0.52687347 4292355840
3.0452197 -0.41717163 0.53146285 4292355840
3.0545728 -0.4183566 0.53562981 4292355840
3.0493867 -0.41754875 0.53662252 4292355840
3.0589466 -0.41876101 0.53957564 4292355840
3.0403094 -0.41611087 0.53692275 4292355840
3.0354428 -0.41534719 0.53606206 4292355840
3.1192021 -0.42671549 0.55018872 4292616960
3.1008883 -0.42410892 0.54566729 4292486400
3.0963442 -0.42338744 0.54293376 4292486400
3.1440187 -0.42980909 0.5486716 4292616960
3.1250427 -0.42711246 0.54212177 4292616960
3.1320143 -0.4279646 0.53944218 4292616960
3.1587164 -0.43151319 0.53947645 4292747520
3.1678848 -0.43266368 0.53583151 4292747520
3.1737084 -0.4333564 0.530967 4292747520
3.1707394 -0.43284756 0.52400625 4292747520
3.1612024 -0.43144181 0.51537567 4292747520
3.1487167 -0.42963389 0.50571477 4292616960
3.1514447 -0.42990333 0.49792913 4292616960
3.179702 -0.43365631 0.49350864 4292747520
3.1917875 -0.4352009 0.48589304 4292747520
3.1819999 -0.43376106 0.47438309 4292747520
3.1663311 -0.43151969 0.461532 4292747520
3.1374526 -0.42691246 0.37800789 4292616960
3.1739447 -0.43177569 0.36824268 4292747520
3.1858349 -0.43328837 0.35499209 4292747520
3.1535869 -0.42879492 0.33652505 4292616960
3.1349304 -0.42615229 0.31936988 4292486400
3.1615262 -0.42966455 0.30641904 4292616960
3.1545501 -0.42861071 0.28977787 4292616960
3.1358855 -0.4259685 0.27187127 4292486400
3.1120598 -0.42262614 0.25343528 4292486400
3.14342 -0.42678258 0.23916206 4292486400
3.1549654 -0.42824557 0.22288589 4292616960
3.1394627 -0.4260349 0.20447575 4292486400
3.1306531 -0.42473382 0.18640764 4292486400
3.1483295 -0.427028 0.16965559 4292616960
3.1591392 -0.42838922 0.15218322 4292616960
3.1249626 -0.42364711 0.13251299 4292486400
3.1217139 -0.42310166 0.11421911 4292486400
3.1074769 -0.42106655 0.095497906 4292355840
3.0573585 -0.41416854 0.075947374 4292225280
3.0102026 -0.40767533 0.056957658 4292094720
3.1149895 -0.42177144 0.040421743 4292486400
3.1151843 -0.42169324 0.021864133 4292486400
3.13168 -0.42382243 0.0032918733 4292486400
3.1234221 -0.42259923 -0.015362288 4292486400
3.1220081 -0.42230293 -0.033981111 4292486400
3.121376 -0.42211255 -0.052564494 4292486400
3.0943694 -0.41835415 -0.070486285 4292355840
3.1017542 -0.41924906 -0.089005411 4292355840
3.1135218 -0.42073613 -0.1076721 4292486400
3.1352892 -0.42357427 -0.12677005 4292486400
3.0943778 -0.41793987 -0.14308827 4292355840
3.1058881 -0.41939136 -0.16151126 4292355840
3.115267 -0.42055419 -0.17977259 4292486400
3.1034 -0.41884717 -0.196603 4292355840
3.050463 -0.41159585 -0.21025886 4292225280
3.1065779 -0.41906834 -0.23122369 4292486400
3.1445322 -0.42408639 -0.25110263 4292616960
3.148427 -0.42450675 -0.26821712 4292616960
3.1079142 -0.41893712 -0.28106606 4292486400
2.9926324 -0.40328762 -0.28604153 4292094720
3.1237996 -0.42087135 -0.31433475 4292486400
3.1356463 -0.422364 -0.33099589 4292486400
3.1178904 -0.41986704 -0.34414226 4292486400
3.0616302 -0.41218415 -0.35231054 4292355840
2.8982198 -0.39007375 -0.34674898 4291703040
3.1483524 -0.42365801 -0.3906469 4292616960
3.1565452 -0.42465654 -0.40523508 4292616960
3.1535757 -0.42415237 -0.41796198 4292616960
3.133292 -0.42131889 -0.42783377 4292616960
3.0331278 -0.40774149 -0.42585191 4292225280
3.1192384 -0.41922203 -0.44947615 4292486400
3.1245813 -0.41983762 -0.46129295 4292616960
3.1230843 -0.41953361 -0.47159246 4292616960
3.1284802 -0.42015612 -0.4824104 4292616960
3.1246157 -0.41953424 -0.49125776 4292616960
3.1126244 -0.41782123 -0.49822205 4292486400
3.0993977 -0.41594318 -0.50435019 4292486400
3.0744247 -0.41248918 -0.50789279 4292486400
3.0260193 -0.40589181 -0.50680959 4292225280
2.9695964 -0.39822185 -0.50357252 4292094720
2.9970281 -0.40180549 -0.51390749 4292225280
3.0147634 -0.40408698 -0.52206904 4292225280
3.0374651 -0.40703341 -0.5305512 4292355840
3.0504892 -0.40868118 -0.53678 4292355840
2.9451318 -0.39446175 -0.52146006 4291964160
2.9730086 -0.39810216 -0.52903211 4292094720
2.9677975 -0.39730838 -0.53012407 4292094720
2.9587874 -0.39600632 -0.5299139 4292094720
2.9586658 -0.39589512 -0.53067523 4292094720
2.9488912 -0.39449185 -0.52908784 4291964160
3.0400903 -0.40660337 -0.54498518 4292355840
3.0168672 -0.40339899 -0.53973413 4292225280
2.9976504 -0.40073225 -0.53459185 4292225280
2.965843 -0.39638299 -0.5266192 4292094720
3.0314658 -0.40506318 -0.53529334 4292355840
3.0597942 -0.40875399 -0.53666425 4292355840
3.08915 -0.41258049 -0.5375194 4292486400
3.1116881 -0.41549435 -0.53649014 4292616960
3.1183631 -0.41628793 -0.53205889 4292616960
3.1218417 -0.41665435 -0.52644998 4292616960
3.1346931 -0.4182722 -0.52178073 4292616960
3.1172929 -0.41585115 -0.5114904 4292616960
3.1116858 -0.41500524 -0.50260437 4292486400
3.1007521 -0.41344911 -0.49232757 4292486400
3.0972357 -0.41288325 -0.48270711 4292486400
3.1207409 -0.41592145 -0.47668582 4292616960
3.1383593 -0.41817343 -0.46909383 4292616960
3.144814 -0.41893631 -0.4592225 4292616960
3.1253593 -0.416246 -0.44509771 4292616960
3.1097653 -0.41407144 -0.43115094 4292486400
3.1060879 -0.41348535 -0.41844594 4292486400
3.1228168 -0.41561723 -0.40796834 4292486400
3.1244683 -0.41574076 -0.39499119 4292486400
3.1060908 -0.41319811 -0.37911627 4292486400
3.098268 -0.41206139 -0.36422515 4292486400
3.1339002 -0.41670713 -0.35391116 4292486400
3.1470325 -0.41835776 -0.34043959 4292616960
3.1400402 -0.41733125 -0.32438916 4292616960
3.0938199 -0.41108945 -0.30419546 4292355840
3.1095324 -0.41308337 -0.28991136 4292486400
3.109432 -0.41297489 -0.27375862 4292486400
3.117295 -0.41392457 -0.25797012 4292486400
3.0905313 -0.41027406 -0.23913959 4292355840
3.1149294 -0.41342002 -0.22402319 4292486400
3.1284149 -0.41511559 -0.20767425 4292486400
3.1285708 -0.41504091 -0.19014323 4292486400
3.0826499 -0.40885106 -0.16986787 4292355840
3.1161959 -0.41320834 -0.15386328 4292486400
3.1592968 -0.41883114 -0.13772795 4292616960
3.1660583 -0.41963181 -0.11957442 4292616960
3.1221769 -0.41371697 -0.099599667 4292486400
3.1453919 -0.41669962 -0.081786595 4292486400
3.143162 -0.41630846 -0.06310378 4292486400
3.0390801 -0.40242156 -0.042939346 4292225280
3.0544612 -0.40436685 -0.024955569 4292225280
3.147372 -0.41657954 -0.0069425278 4292486400
3.152313 -0.41713819 0.011855979 4292486400
2.9880419 -0.39529562 0.029062025 4291964160
3.1776133 -0.42029524 0.0497959 4292616960
3.1956892 -0.42259055 0.069030017 4292747520
3.157949 -0.41750067 0.086867183 4292616960
2.9366977 -0.38814151 0.098049849 4291833600
3.1756535 -0.41964972 0.12454195 4292616960
3.1913075 -0.42162263 0.14363977 4292747520
3.1424687 -0.41507041 0.15948963 4292486400
2.9674234 -0.39184418 0.16749214 4291964160
3.2008073 -0.42258614 0.19863768 4292747520
3.193409 -0.42151141 0.21591181 4292747520
3.1471713 -0.41530836 0.23002847 4292616960
2.9730451 -0.39222443 0.23336145 4291964160
3.2146804 -0.42402658 0.26936537 4292747520
3.2246976 -0.42525014 0.28701824 4292878080
3.2016132 -0.42210606 0.30134106 4292747520
3.0539844 -0.4025363 0.3027598 4292225280
2.9327538 -0.38645652 0.30511957 4291833600
3.2136841 -0.42340299 0.34967512 4292878080
3.2037907 -0.42200029 0.36352175 4292747520
3.172581 -0.41778916 0.37435374 4292747520
3.051342 -0.40171912 0.37347516 4292225280
3.0150032 -0.39683881 0.38186559 4292225280
3.2174609 -0.42340565 0.42071199 4292878080
3.2281201 -0.4247095 0.43489709 4292878080
3.2007699 -0.42100981 0.44340673 4292747520
3.1229258 -0.41066724 0.44403112 4292486400
3.0805128 -0.40499061 0.44874611 4292355840
3.0012355 -0.39446783 0.44716808 4292094720
3.2124915 -0.42215362 0.48872089 4292878080
3.196512 -0.41995275 0.49578592 4292878080
3.1956692 -0.41974223 0.5045715 4292878080
3.1858761 -0.41835546 0.51133049 4292747520
3.1907191 -0.41889197 0.51982689 4292878080
3.1783922 -0.41717288 0.5249058 4292747520
3.1310325 -0.41085434 0.52346653 4292616960
3.1438096 -0.41243315 0.53138644 4292616960
3.152761 -0.41350886 0.53807509 4292747520
3.0819533 -0.40411842 0.53044379 4292486400
3.0950167 -0.40573463 0.53652549 4292486400
3.0944977 -0.40556851 0.53963876 4292486400
3.0940821 -0.40541577 0.54213333 4292486400
3.0898645 -0.40476453 0.54332018 4292486400
3.0896614 -0.40463951 0.5445686 4292486400
3.0934727 -0.40504029 0.54588211 4292486400
3.0846949 -0.40379161 0.54433256 4292486400
3.1587534 -0.41339144 0.55672979 4292747520
3.1453114 -0.4115302 0.55305147 4292616960
3.1358833 -0.41019505 0.5494374 4292616960
3.1933703 -0.41761699 0.55684775 4292878080
3.1743872 -0.41503048 0.55025071 4292747520
3.1725764 -0.41469112 0.54600203 4292747520
3.1858974 -0.4163304 0.54369628 4292747520
3.213383 -0.41982043 0.5431028 4292878080
3.2133539 -0.41971231 0.5371809 4292878080
3.2095146 -0.41910616 0.53000134 4292878080
3.2106514 -0.41915017 0.52302843 4292878080
3.1942561 -0.41690418 0.51262861 4292878080
3.1862266 -0.4157514 0.50303358 4292747520
3.2106135 -0.41883057 0.49791992 4292878080
3.2227056 -0.42030343 0.49021953 4292878080
3.2217517 -0.42007324 0.47993606 4292878080
3.2060876 -0.41792417 0.46696389 4292878080
3.1871517 -0.41477481 0.38369697 4292747520
3.2099035 -0.41763121 0.37212679 4292747520
3.2115407 -0.41773775 0.35758126 4292747520
3.1791041 -0.41341013 0.33898732 4292747520
3.1797876 -0.41339326 0.32368875 4292747520
3.1975398 -0.41559619 0.30967066 4292747520
3.2043996 -0.41638157 0.29412887 4292747520
3.1808012 -0.41320702 0.27555215 4292616960
3.1668596 -0.41128898 0.2576977 4292616960
3.1794767 -0.41282246 0.24171965 4292616960
3.1811512 -0.41293365 0.22456451 4292616960
3.1844475 -0.41325527 0.20724604 4292616960
3.1716852 -0.41149178 0.18870606 4292616960
3.1893871 -0.41368309 0.17173664 4292747520
3.1888955 -0.41351241 0.15350047 4292616960
3.1524312 -0.40867516 0.13357723 4292486400
3.1568329 -0.40914029 0.11541703 4292616960
3.1619267 -0.40969482 0.097096913 4292616960
3.1490238 -0.40791613 0.078161858 4292486400
3.0925436 -0.40049103 0.058469143 4292355840
3.1567655 -0.40870768 0.040934339 4292616960
3.1569624 -0.40862718 0.022142485 4292616960
3.1574867 -0.40858904 0.0033198514 4292616960
3.1360717 -0.40571064 -0.015408332 4292486400
3.1413219 -0.40628481 -0.034161042 4292486400
3.1397374 -0.40597433 -0.052828915 4292486400
3.1218252 -0.40355182 -0.071053334 4292486400
3.1467748 -0.40667355 -0.090224929 4292486400
3.1535873 -0.40744877 -0.10897049 4292616960
3.1569259 -0.40777445 -0.12754245 4292616960
3.0992696 -0.40021807 -0.14319932 4292355840
3.1409667 -0.40550095 -0.16320598 4292486400
3.1552932 -0.40724602 -0.1819386 4292616960
3.1483529 -0.40624419 -0.19929378 4292486400
3.1003067 -0.39993656 -0.21352662 4292355840
3.1653481 -0.40822673 -0.23541334 4292616960
3.1842654 -0.41056162 -0.25407583 4292747520
3.1815729 -0.41010791 -0.2708281 4292616960
3.135154 -0.40401572 -0.28330711 4292486400
2.9313853 -0.37764093 -0.27996621 4291833600
3.1637044 -0.40748641 -0.31810117 4292616960
3.1715956 -0.40839785 -0.33452889 4292616960
3.1676116 -0.4077791 -0.34935731 4292616960
3.1112835 -0.40041938 -0.35774484 4292486400
2.9388585 -0.37811545 -0.35133675 4291833600
3.1891625 -0.41023761 -0.39540204 4292747520
3.1910167 -0.41037053 -0.40934116 4292747520
3.1849031 -0.4094784 -0.42178512 4292747520
3.1507187 -0.40497622 -0.42987829 4292616960
3.0776978 -0.39548242 -0.43177316 4292355840
3.1540337 -0.40519449 -0.45413646 4292616960
3.1691782 -0.40703708 -0.467513 4292747520
3.1558759 -0.40522364 -0.47617358 4292616960
3.1652813 -0.4063282 -0.48770577 4292747520
3.1584709 -0.40534982 -0.49619484 4292747520
3.1390038 -0.40274698 -0.50205439 4292616960
3.1215079 -0.40039858 -0.50755399 4292616960
3.1051662 -0.39819965 -0.51257324 4292486400
3.0704117 -0.39363965 -0.5138455 4292355840
3.0188217 -0.38692272 -0.51152265 4292225280
3.0364809 -0.38908911 -0.5202688 4292355840
3.0493312 -0.39063802 -0.52764589 4292355840
3.0769286 -0.39407635 -0.53702772 4292486400
2.9899313 -0.38282973 -0.52571839 4292094720
3.0089331 -0.38516742 -0.53234339 4292225280
2.9987254 -0.38376325 -0.53319538 4292225280
3.0032744 -0.3842493 -0.53604591 4292225280
3.0079274 -0.38474855 -0.53829759 4292225280
2.9980373 -0.38338655 -0.53732085 4292225280
3.0891976 -0.39495379 -0.55383033 4292486400
3.0795238 -0.39361781 -0.55162728 4292486400
3.0660515 -0.39179695 -0.54810905 4292355840
3.0282652 -0.38686869 -0.53963429 4292225280
3.0149984 -0.38507688 -0.53493327 4292225280
3.0757933 -0.39274979 -0.54270083 4292486400
3.1041512 -0.39627525 -0.54402339 4292486400
3.1335387 -0.39993057 -0.54482192 4292616960
3.1380088 -0.40040261 -0.54061061 4292616960
3.157027 -0.40273166 -0.5382399 4292747520
3.1546357 -0.40232733 -0.5315696 4292747520
3.1586006 -0.40273431 -0.52535468 4292747520
3.1568725 -0.40241504 -0.51758498 4292747520
3.1463783 -0.40097806 -0.50781584 4292616960
3.1354494 -0.39948648 -0.49745268 4292616960
3.1368458 -0.39956683 -0.48850325 4292616960
3.1603856 -0.40246913 -0.4823691 4292747520
3.1878474 -0.40586978 -0.4761233 4292747520
3.1854939 -0.40547121 -0.46480405 4292747520
3.1601496 -0.40214515 -0.44970533 4292616960
3.1445599 -0.40006271 -0.43563884 4292616960
3.1467957 -0.40025023 -0.42360309 4292616960
3.1684756 -0.40291205 -0.41361409 4292747520
3.1740878 -0.40352851 -0.40095463 4292747520
3.1517816 -0.40059382 -0.38439646 4292616960
3.128309 -0.39751229 -0.36747301 4292486400
3.1648684 -0.40206409 -0.35713264 4292616960
3.1718495 -0.40285441 -0.34285933 4292616960
3.1848569 -0.40441018 -0.32876524 4292747520
3.124799 -0.39668328 -0.30700418 4292486400
3.1494269 -0.39971575 -0.29340413 4292616960
3.1592262 -0.40086392 -0.27792796 4292616960
3.149405 -0.39952087 -0.26042578 4292616960
3.1304598 -0.39702052 -0.24204187 4292486400
3.1598384 -0.40065297 -0.22707729 4292616960
3.1684003 -0.40164295 -0.21016566 4292616960
3.1735201 -0.40219596 -0.19272566 4292616960
3.0608339 -0.38781178 -0.16853237 4292225280
3.1621518 -0.4005622 -0.15601112 4292616960
3.1669626 -0.40107593 -0.13795298 4292616960
3.1573873 -0.39976668 -0.1191513 4292616960
3.1400697 -0.39747733 -0.10009057 4292486400
3.1797395 -0.40240601 -0.082613871 4292616960
3.1769688 -0.40195885 -0.063731022 4292616960
3.1572881 -0.39937142 -0.044577759 4292616960
3.1783941 -0.40194678 -0.02595108 4292616960
3.1923933 -0.4036217 -0.0070341588 4292616960
3.1923919 -0.40352488 0.012000237 4292616960
3.0279949 -0.38263857 0.029430464 4292094720
3.2137382 -0.4060303 0.050326739 4292747520
3.2318237 -0.40821895 0.069760583 4292747520
3.1980164 -0.40384889 0.087905213 4292747520
2.996423 -0.37828287 0.099968359 4291964160
3.2117536 -0.40539011 0.12586518 4292747520
3.2235329 -0.40678021 0.14498357 4292747520
3.1923978 -0.40275168 0.16190256 4292747520
3.0271122 -0.38179284 0.17073181 4292094720
3.231935 -0.40754691 0.20042099 4292878080
3.2344198 -0.40776217 0.21852157 4292878080
3.1930799 -0.40244976 0.23320918 4292747520
3.0227618 -0.38087615 0.23708509 4292094720
3.2591913 -0.41058972 0.27289063 4292878080
3.2696202 -0.4118048 0.29079872 4293008640
3.2289968 -0.40658632 0.30369258 4292878080
3.099726 -0.39020294 0.30706352 4292355840
2.977396 -0.37470153 0.309531 4291964160
