# .PCD v0.7 - Point Cloud Data file format
VERSION 0.7
FIELDS x y z rgba
SIZE 4 4 4 4
TYPE F F F U
COUNT 1 1 1 1
WIDTH 1090
HEIGHT 1
VIEWPOINT 0 0 0 1 0 0 0
POINTS 1090
DATA ascii
1.0909258 -0.91810226 0.251378 4286741760
1.0875441 -0.91519791 0.25029874 4286741760
1.0889639 -0.91633421 0.25003156 4286741760
1.0969638 -0.92300701 0.25097528 4286741760
1.0903612 -0.91739309 0.24828517 4286741760
1.0984689 -0.92415559 0.24865067 4286741760
1.1017408 -0.92684931 0.24761501 4286741760
1.0992866 -0.92472559 0.2450029 4286741760
1.0955662 -0.92153722 0.24183576 4286741760
1.0921478 -0.9186033 0.23847012 4286741760
1.0887578 -0.91569352 0.23485088 4286741760
1.0967247 -0.92233527 0.23339513 4286741760
1.0968175 -0.9223544 0.22997031 4286741760
1.1040907 -0.92841154 0.22776066 4286741760
1.1125013 -0.93542421 0.22546823 4286872320
1.1130226 -0.93580282 0.22128534 4286872320
1.1018559 -0.92635506 0.21456861 4286741760
1.1065472 -0.9302398 0.21072 4286741760
1.1244423 -0.94492656 0.17731157 4286872320
1.1364599 -0.95496464 0.17264248 4286872320
1.1441076 -0.96132958 0.16700192 4286872320
1.1152769 -0.9370451 0.15598148 4286741760
1.1210647 -0.94184774 0.1497694 4286872320
1.129581 -0.94894207 0.14366525 4286872320
1.1366831 -0.95484751 0.13712154 4286872320
1.1105468 -0.93283284 0.12654544 4286741760
1.1095725 -0.93195498 0.11887895 4286741760
1.0524919 -0.8839553 0.10547312 4286480640
0.92679816 -0.77833939 0.086355992 4285958400
0.9274286 -0.77881914 0.079795159 4285958400
1.012428 -0.85014421 0.079787523 4286350080
1.2172425 -1.0220633 0.087022632 4287264000
1.2802163 -1.0748711 0.082059078 4287525120
1.3167984 -1.1055149 0.074576698 4287655680
1.1529549 -0.96789873 0.056622688 4286872320
1.0148697 -0.85192269 0.042151842 4286350080
0.96222186 -0.80767643 0.032631885 4286088960
0.99347442 -0.83385623 0.026084319 4286219520
0.97682941 -0.81983316 0.018140029 4286219520
1.0320699 -0.86614025 0.011213806 4286350080
1.1133275 -0.93427402 0.0035059631 4286741760
1.4135908 -1.1861712 -0.0064603528 4288047360
1.4644451 -1.2287656 -0.017989384 4288308480
1.4804369 -1.2421045 -0.029585594 4288308480
1.4870552 -1.2475777 -0.041135926 4288439040
1.4717486 -1.2346573 -0.051968507 4288308480
1.4895675 -1.249526 -0.063932583 4288439040
1.5033242 -1.2609853 -0.075892203 4288439040
1.4950967 -1.254004 -0.086701527 4288439040
1.470919 -1.2336465 -0.096249573 4288308480
1.4847305 -1.2451507 -0.10810023 4288439040
1.4839051 -1.2443789 -0.1188629 4288439040
1.454317 -1.2194891 -0.12697238 4288308480
1.3793944 -1.1565903 -0.13023879 4287916800
1.3478205 -1.1300443 -0.13670118 4287786240
1.3389474 -1.1225333 -0.14503326 4287786240
1.3373615 -1.1211321 -0.15392292 4287786240
1.1937344 -1.0006633 -0.1453288 4287133440
1.434186 -1.2021483 -0.18394405 4288177920
1.4624946 -1.2257986 -0.19689302 4288308480
1.445644 -1.2115979 -0.20361882 4288177920
1.4040546 -1.1766666 -0.20627603 4288047360
1.3188266 -1.1051707 -0.20153633 4287655680
1.4490346 -1.2142069 -0.22973561 4288308480
1.4627711 -1.2256392 -0.24003305 4288308480
1.4631875 -1.2259098 -0.24795261 4288308480
1.4498895 -1.2146909 -0.25320134 4288308480
1.3530912 -1.1335226 -0.24303052 4287916800
1.4455184 -1.2108742 -0.26652998 4288308480
1.4592505 -1.2222992 -0.27571943 4288308480
1.4630642 -1.2254155 -0.28279915 4288308480
1.4662143 -1.2279755 -0.28945637 4288308480
1.4679472 -1.2293484 -0.29552132 4288439040
1.4787183 -1.2382897 -0.30311203 4288439040
1.4713527 -1.232043 -0.30664974 4288439040
1.471199 -1.2318357 -0.31131044 4288439040
1.4678962 -1.2289919 -0.31493407 4288439040
1.4577292 -1.2204016 -0.31668261 4288308480
1.4486486 -1.2127221 -0.31824952 4288308480
1.404911 -1.1760324 -0.3117145 4288047360
1.4189616 -1.1877183 -0.31756938 4288177920
1.3607392 -1.1389115 -0.30680865 4287916800
1.3680824 -1.1449845 -0.31038588 4287916800
1.3641379 -1.1416103 -0.31104511 4287916800
1.3715711 -1.1477576 -0.31393668 4287916800
1.3601679 -1.1381427 -0.31214881 4287916800
1.3639193 -1.1412088 -0.31346759 4287916800
1.3533678 -1.132308 -0.31113249 4287916800
1.4143932 -1.1832899 -0.32487503 4288177920
1.4069625 -1.1769981 -0.32250434 4288177920
1.4399073 -1.2044814 -0.32899007 4288308480
1.4525782 -1.215003 -0.33042151 4288308480
1.4729302 -1.2319477 -0.33317515 4288439040
1.4759105 -1.2343616 -0.33157963 4288439040
1.4762765 -1.234589 -0.32900462 4288439040
1.4808633 -1.2383457 -0.32697672 4288439040
1.4805096 -1.2379709 -0.32346883 4288439040
1.4734524 -1.2319912 -0.31813946 4288439040
1.4671869 -1.2266741 -0.31264788 4288439040
1.464807 -1.2246062 -0.30764738 4288308480
1.4430674 -1.2063545 -0.29830468 4288308480
1.4437189 -1.206822 -0.29331639 4288308480
1.4512025 -1.2130002 -0.28934821 4288308480
1.46746 -1.2265109 -0.286704 4288308480
1.4779928 -1.2352353 -0.2825034 4288439040
1.4787478 -1.2357875 -0.2760635 4288439040
1.4593673 -1.2195133 -0.26563734 4288308480
1.456341 -1.2169068 -0.25799164 4288308480
1.4757875 -1.2330774 -0.2539511 4288439040
1.4778742 -1.2347419 -0.24652703 4288439040
1.4748713 -1.2321545 -0.2379819 4288308480
1.3814105 -1.1540006 -0.21511669 4287916800
1.33771 -1.1174228 -0.20054016 4287786240
1.3385826 -1.1180804 -0.19267064 4287786240
1.3496635 -1.1272639 -0.18598293 4287786240
1.3838644 -1.1557554 -0.18199177 4287916800
1.4533913 -1.2137443 -0.18178251 4288308480
1.4826772 -1.2381222 -0.17569974 4288439040
1.4846697 -1.2397069 -0.16598356 4288439040
1.4849261 -1.2398418 -0.15587611 4288439040
1.47119 -1.2282945 -0.14422293 4288308480
1.4973431 -1.2500497 -0.13623376 4288439040
1.4900393 -1.2438729 -0.12492017 4288439040
1.4914821 -1.2449977 -0.11424597 4288439040
1.4641836 -1.2221326 -0.10143585 4288308480
1.4810522 -1.2361336 -0.091650993 4288308480
1.4832516 -1.2378901 -0.080718368 4288308480
1.4695547 -1.2263808 -0.068920419 4288308480
1.2627729 -1.0537488 -0.04966167 4287394560
1.0828248 -0.90352947 -0.034340706 4286611200
0.97221744 -0.81118476 -0.023398044 4286088960
0.95790392 -0.799191 -0.015703678 4286088960
0.97570717 -0.8139925 -0.0084921923 4286088960
0.99418366 -0.82935369 -0.00099864206 4286219520
1.0976022 -0.91556758 0.0073488187 4286611200
1.2861333 -1.0727627 0.018504295 4287525120
1.2341599 -1.0293461 0.027230289 4287264000
1.2075781 -1.0071112 0.035884272 4287133440
1.2208003 -1.0180734 0.045579195 4287264000
1.0234226 -0.85341793 0.045966379 4286350080
0.97181201 -0.81032872 0.050965957 4286088960
0.9493472 -0.79154634 0.056882005 4286088960
0.92302912 -0.76955366 0.062142305 4285958400
0.85682297 -0.71431023 0.06396883 4285566720
1.1377423 -0.94844449 0.093192942 4286872320
1.1434215 -0.95311803 0.10184802 4286872320
1.1501044 -0.95862734 0.11056873 4286872320
1.1332346 -0.94450581 0.11683355 4286872320
1.1362797 -0.94698328 0.12492641 4286872320
1.1503401 -0.95864004 0.13420799 4286872320
1.1571614 -0.96426296 0.14263625 4287002880
1.1475046 -0.95615494 0.14885801 4286872320
1.1384138 -0.94851941 0.1548681 4286872320
1.1337283 -0.9445551 0.16121879 4286872320
1.1476855 -0.95612246 0.17009558 4286872320
1.1434984 -0.95257342 0.17615227 4286872320
1.1407727 -0.95024204 0.18219654 4286872320
1.1219712 -0.93452108 0.18534975 4286872320
1.1247303 -0.93675941 0.19176714 4286872320
1.1348438 -0.94512224 0.19928785 4286872320
1.1230145 -0.9352107 0.20272279 4286872320
1.1252047 -0.93697488 0.20841023 4286872320
1.1260794 -0.93764329 0.21363062 4286872320
1.1170145 -0.93003589 0.21668637 4286741760
1.1071683 -0.92177898 0.2192636 4286741760
1.1135432 -0.92702711 0.22478586 4286741760
1.1062695 -0.92091298 0.22729246 4286741760
1.1096491 -0.92366731 0.23171084 4286741760
1.1013995 -0.91674185 0.23341861 4286741760
1.1006876 -0.91609073 0.2364257 4286741760
1.1035768 -0.91843671 0.23993744 4286741760
1.1027687 -0.91770554 0.24237205 4286741760
1.0973912 -0.91317213 0.24350691 4286741760
1.0971591 -0.91292065 0.24548782 4286741760
1.1004289 -0.9155829 0.24797051 4286741760
1.1004331 -0.91552782 0.24943274 4286741760
1.1040947 -0.91851556 0.2514362 4286741760
1.1002219 -0.91523516 0.25143033 4286741760
1.0971448 -0.91261721 0.25130725 4286741760
1.1030266 -0.91745108 0.25294173 4286741760
1.1041331 -0.91831273 0.25318637 4286741760
1.1072301 -0.92082965 0.25359002 4286741760
1.1094154 -0.92258811 0.25348583 4286741760
1.1062824 -0.91992384 0.25187105 4286741760
1.1100667 -0.92301172 0.251535 4286741760
1.110913 -0.92365646 0.25023395 4286741760
1.1005617 -0.91499144 0.24613386 4286741760
1.0970625 -0.91202396 0.24330229 4286741760
1.1087601 -0.92168969 0.24353923 4286741760
1.1050543 -0.91855037 0.24009348 4286741760
1.0978564 -0.91250908 0.23563799 4286741760
1.1020683 -0.91595131 0.2333651 4286741760
1.0983646 -0.91281474 0.22914551 4286741760
1.1026329 -0.91630334 0.22632173 4286741760
1.1181954 -0.92917669 0.22548497 4286872320
1.1260492 -0.93564302 0.22274835 4286872320
1.1110278 -0.92310268 0.21526226 4286741760
1.1157436 -0.9269616 0.21139494 4286741760
1.137598 -0.94466382 0.17851008 4286872320
1.1489141 -0.9539997 0.17368293 4286872320
1.1568545 -0.96053159 0.16803958 4287002880
1.1192582 -0.92925608 0.15577625 4286741760
1.124833 -0.9338249 0.14954229 4286741760
1.1429677 -0.94881946 0.14466217 4286872320
1.1604019 -0.96323067 0.13930446 4287002880
0.99790007 -0.8282876 0.11315952 4286219520
0.8878634 -0.73690671 0.094666123 4285697280
0.94552702 -0.78471607 0.094297819 4285958400
1.1535705 -0.95731527 0.10697012 4286872320
1.1942862 -0.99104071 0.10226406 4287133440
1.2016591 -0.99709505 0.094249621 4287133440
1.2089512 -1.0030817 0.086020581 4287133440
1.2518573 -1.038615 0.079863816 4287394560
1.3268809 -1.1007887 0.074797116 4287655680
1.1216893 -0.93050098 0.054833017 4286741760
1.0257226 -0.85083705 0.042409018 4286350080
1.0462031 -0.8677702 0.035322331 4286480640
0.96140289 -0.79738188 0.025134185 4286088960
1.0965183 -0.90938771 0.020281496 4286611200
1.3160697 -1.0914009 0.014252702 4287655680
1.4671009 -1.2165715 0.0046242326 4288308480
1.4571694 -1.2082586 -0.0065992842 4288177920
1.4720483 -1.2205179 -0.017965389 4288308480
1.4719795 -1.2203828 -0.029242788 4288308480
1.4723591 -1.2206196 -0.040499344 4288308480
1.4703978 -1.2189157 -0.051635202 4288308480
1.4934379 -1.237936 -0.063752197 4288439040
1.4935167 -1.2379222 -0.074994564 4288439040
1.4962355 -1.2400964 -0.086308651 4288439040
1.4851468 -1.2308272 -0.09667033 4288308480
1.4920815 -1.2364954 -0.10806844 4288439040
1.4961406 -1.2397799 -0.11922057 4288439040
1.4941987 -1.2380916 -0.12977964 4288439040
1.3793759 -1.1428764 -0.12956589 4287916800
1.3580539 -1.1251383 -0.13703154 4287786240
1.3549045 -1.1224573 -0.14600994 4287786240
1.3606097 -1.1271114 -0.15579854 4287786240
1.3866577 -1.148616 -0.16795534 4287916800
1.4802287 -1.2260455 -0.18888365 4288308480
1.4969355 -1.2398041 -0.20050669 4288439040
1.5112538 -1.251583 -0.21178143 4288439040
1.4991994 -1.2415204 -0.21914016 4288439040
1.465852 -1.2138271 -0.22287294 4288308480
1.5068266 -1.2476771 -0.23769388 4288439040
1.5164701 -1.2555817 -0.24759226 4288569600
1.5167358 -1.2557213 -0.25573522 4288569600
1.5225182 -1.2604281 -0.26455057 4288569600
1.5055485 -1.2462999 -0.26905856 4288439040
1.4878792 -1.2315944 -0.2729679 4288439040
1.4993535 -1.2410129 -0.28188124 4288439040
1.5056 -1.2461034 -0.28956896 4288439040
1.5049409 -1.2454782 -0.29562137 4288439040
1.5088096 -1.2486 -0.30223626 4288569600
1.5098168 -1.2493536 -0.30794901 4288569600
1.5063533 -1.2464079 -0.31238672 4288569600
1.5041937 -1.2445414 -0.31671527 4288569600
1.5067892 -1.2466091 -0.32167917 4288569600
1.4983416 -1.2395408 -0.32389739 4288439040
1.4770328 -1.2218345 -0.32288462 4288439040
1.4662423 -1.2128308 -0.32372013 4288308480
1.4599605 -1.2075573 -0.32513827 4288308480
1.4547716 -1.2031887 -0.32639983 4288308480
1.4583402 -1.2060629 -0.32924139 4288308480
1.4505699 -1.19956 -0.32913429 4288308480
1.4466459 -1.1962385 -0.32950264 4288308480
1.4541576 -1.2023731 -0.33209115 4288308480
1.44654 -1.195998 -0.33083758 4288308480
1.4734855 -1.2181985 -0.33710074 4288439040
1.4629349 -1.2093984 -0.33439472 4288308480
1.4690174 -1.2143492 -0.33509842 4288308480
1.4720178 -1.2167516 -0.33470172 4288439040
1.4862887 -1.2284691 -0.33645961 4288439040
1.5005579 -1.2401838 -0.3377915 4288439040
1.5027467 -1.2419134 -0.33598804 4288569600
1.5083885 -1.2464962 -0.33455119 4288569600
1.5077386 -1.2458793 -0.33132029 4288569600
1.5028017 -1.2417203 -0.32677454 4288569600
1.5053551 -1.2437507 -0.32348284 4288569600
1.4983065 -1.2378478 -0.31776589 4288439040
1.4862089 -1.2277746 -0.31066704 4288439040
1.4784911 -1.2213206 -0.30418718 4288439040
1.479528 -1.2220989 -0.29917973 4288439040
1.4897981 -1.2305034 -0.29565307 4288439040
1.5054258 -1.2433317 -0.29274958 4288439040
1.5089953 -1.2462 -0.2870889 4288569600
1.503126 -1.2412734 -0.2793158 4288439040
1.4897399 -1.2301406 -0.26991612 4288439040
1.4801574 -1.2221496 -0.26100779 4288308480
1.4882489 -1.2287521 -0.25492629 4288439040
1.4932564 -1.2328075 -0.24796174 4288439040
1.4916179 -1.2313761 -0.23959728 4288439040
1.3758425 -1.1357272 -0.21328811 4287916800
1.3374878 -1.1039957 -0.19961305 4287786240
1.3439007 -1.109218 -0.19258016 4287786240
1.3591843 -1.1217608 -0.18647283 4287786240
1.3910228 -1.1479644 -0.18213744 4287916800
1.4646318 -1.208634 -0.18239959 4288308480
1.4940311 -1.2328157 -0.17629141 4288439040
1.4915529 -1.2306921 -0.16605222 4288439040
1.4866842 -1.2265965 -0.15541437 4288308480
1.4677558 -1.210902 -0.14330053 4288308480
1.4967091 -1.2347095 -0.13563286 4288439040
1.4997625 -1.2371492 -0.12524576 4288439040
1.4875789 -1.2270205 -0.11351627 4288308480
1.4528263 -1.1982783 -0.10028245 4288177920
1.4803275 -1.2208829 -0.091288127 4288308480
1.4782096 -1.2190583 -0.080182202 4288308480
1.4735966 -1.2151761 -0.068904914 4288308480
1.4635054 -1.2067773 -0.057408046 4288177920
1.4576542 -1.2018757 -0.04613639 4288177920
1.2284037 -1.0127876 -0.029533366 4287264000
0.99574554 -0.82091427 -0.016337669 4286219520
1.002836 -0.82670695 -0.0087804142 4286219520
0.98822355 -0.81460869 -0.0010817613 4286219520
1.1214683 -0.92438531 0.0073647508 4286741760
1.2885404 -1.0620288 0.01832472 4287525120
1.2361153 -1.0187542 0.027021248 4287264000
1.2259339 -1.0102985 0.036133602 4287264000
1.2175348 -1.0033125 0.045117799 4287133440
1.223827 -1.008433 0.05458096 4287264000
1.2134043 -0.99978077 0.063208528 4287133440
1.1774284 -0.97007644 0.070090443 4287002880
0.96248794 -0.79293746 0.064390458 4286088960
0.94987541 -0.78249669 0.07047943 4285958400
1.0066665 -0.82922745 0.08195889 4286219520
1.1342468 -0.93426007 0.10043139 4286872320
1.1568743 -0.95283699 0.11056939 4286872320
1.1379659 -0.93720347 0.11664429 4286872320
1.1522591 -0.94891429 0.12596057 4286872320
1.1638235 -0.95837647 0.1350145 4287002880
1.1735592 -0.96633172 0.14384845 4287002880
1.1609758 -0.95590907 0.14977036 4287002880
1.1457691 -0.94332802 0.15501115 4286872320
1.1354147 -0.93474323 0.16057676 4286872320
1.1502088 -0.94686198 0.16954477 4286872320
1.1529032 -0.94901925 0.17664368 4286872320
1.1434325 -0.94116312 0.18164283 4286872320
1.1343306 -0.93361163 0.18639314 4286872320
1.1302091 -0.93015981 0.19168015 4286872320
1.1373105 -0.93594438 0.19866817 4286872320
1.1353676 -0.93428564 0.20387767 4286872320
1.1350195 -0.9339394 0.20913064 4286872320
1.1315629 -0.93103558 0.21355544 4286872320
1.1262723 -0.92662323 0.21735208 4286872320
1.1122836 -0.91505551 0.21914214 4286741760
1.1189638 -0.92049235 0.22472179 4286741760
1.1116542 -0.91442066 0.22723247 4286741760
1.1150495 -0.91715485 0.23165445 4286741760
1.1174312 -0.91905493 0.2356168 4286741760
1.1170653 -0.91869527 0.23873332 4286741760
1.1087576 -0.91180438 0.23985279 4286741760
1.1187949 -0.9199999 0.244664 4286741760
1.1065351 -0.90986019 0.24431224 4286741760
1.1101065 -0.91273826 0.24715185 4286741760
1.0981675 -0.90286416 0.24623749 4286741760
1.109587 -0.91219431 0.2502692 4286741760
1.1056559 -0.90890437 0.25055692 4286741760
1.1055678 -0.90877372 0.25141805 4286741760
1.108395 -0.91103935 0.25264931 4286741760
1.1121882 -0.91409862 0.25380737 4286741760
1.1084124 -0.91093695 0.25294185 4286741760
1.105758 -0.90869725 0.25203675 4286741760
1.110996 -0.91294336 0.25263339 4286741760
1.1078463 -0.91029674 0.25102672 4286741760
1.1154531 -0.91648847 0.25155818 4286741760
1.119835 -0.92002982 0.25105438 4286872320
1.1165612 -0.91728133 0.24854046 4286741760
1.1168553 -0.91746426 0.2465356 4286741760
1.1171839 -0.91767544 0.24424995 4286741760
1.1134602 -0.91455805 0.24080238 4286741760
1.113852 -0.91482133 0.23797308 4286741760
1.1074091 -0.90947145 0.23342514 4286741760
1.110554 -0.91199577 0.23063684 4286741760
1.1186619 -0.91859514 0.22857608 4286741760
1.1274303 -0.92573613 0.22632851 4286872320
1.1315027 -0.92902052 0.22283119 4286872320
1.1240523 -0.92284423 0.21682379 4286872320
1.121146 -0.92039907 0.21148746 4286741760
1.1389041 -0.93462336 0.17786004 4286872320
1.1541113 -0.94704223 0.17363361 4286872320
1.1697685 -0.95982873 0.16910185 4287002880
1.1230248 -0.92141515 0.15555175 4286741760
1.1045625 -0.90620929 0.14614354 4286741760
0.93756807 -0.76915377 0.11809617 4285958400
0.89716959 -0.73596483 0.10718685 4285827840
0.96467429 -0.79128951 0.10886625 4286088960
0.97976315 -0.80361491 0.10396229 4286088960
1.2142339 -0.99586719 0.12051299 4287133440
1.2015035 -0.98536313 0.11087771 4287133440
1.2031223 -0.9866274 0.10252308 4287133440
1.2024324 -0.98599851 0.093853824 4287133440
1.2186189 -0.99920744 0.086287759 4287133440
1.2540082 -1.028159 0.079611674 4287264000
1.3255275 -1.0867281 0.074355736 4287655680
1.1876345 -0.97361463 0.057771575 4287002880
1.0082319 -0.82648861 0.041479688 4286219520
1.0125566 -0.82998049 0.03401554 4286219520
1.0946205 -0.8971898 0.028471662 4286611200
1.4587609 -1.1955757 0.02684072 4288177920
1.4751464 -1.2089275 0.015886379 4288308480
1.4793818 -1.2123208 0.0046272501 4288308480
1.4573721 -1.1942079 -0.006582486 4288177920
1.4644177 -1.1999043 -0.017801357 4288177920
1.4741703 -1.2078179 -0.029161561 4288308480
1.4795943 -1.2121843 -0.040519722 4288308480
1.4728167 -1.2065542 -0.051489335 4288308480
1.4859135 -1.2172054 -0.063144937 4288308480
1.4996765 -1.2284007 -0.074961774 4288439040
1.495685 -1.2250528 -0.08588285 4288308480
1.4845444 -1.21585 -0.096187957 4288308480
1.491514 -1.2214799 -0.10753027 4288308480
1.4991384 -1.2276452 -0.11890829 4288439040
1.4901158 -1.2201784 -0.12882654 4288308480
1.3923212 -1.1400265 -0.13017596 4287916800
1.3671207 -1.1193206 -0.13730624 4287786240
1.3532299 -1.1078767 -0.14515173 4287786240
1.3617021 -1.1147413 -0.15519804 4287786240
1.3709506 -1.1222405 -0.16527921 4287786240
1.465412 -1.1994884 -0.18612084 4288308480
1.4960262 -1.2244687 -0.19944938 4288439040
1.5082488 -1.2343935 -0.21037264 4288439040
1.5041771 -1.2309822 -0.21883944 4288439040
1.4822726 -1.2129784 -0.22431467 4288308480
1.5133834 -1.2383575 -0.23760986 4288439040
1.5215832 -1.2449875 -0.24726248 4288569600
1.5244467 -1.2472506 -0.25582954 4288569600
1.5247898 -1.2474513 -0.2637015 4288569600
1.5099651 -1.2352438 -0.2685802 4288439040
1.4881431 -1.217314 -0.27173293 4288439040
1.4954877 -1.2232436 -0.27983192 4288439040
1.5044926 -1.2305303 -0.28799397 4288439040
1.5125247 -1.2370205 -0.29571167 4288569600
1.5132623 -1.2375443 -0.30169952 4288569600
1.5077782 -1.2329804 -0.30608281 4288439040
1.5095885 -1.2343817 -0.31158024 4288439040
1.5092028 -1.2339872 -0.31626937 4288439040
1.4963769 -1.2234217 -0.3179467 4288439040
1.502846 -1.228632 -0.32333493 4288439040
1.4867703 -1.2154115 -0.32347536 4288439040
1.4940411 -1.2212771 -0.32829571 4288439040
1.4698844 -1.2014536 -0.32579726 4288308480
1.4726582 -1.2036437 -0.32884619 4288308480
1.4664426 -1.1984867 -0.3294996 4288308480
1.4624484 -1.1951456 -0.33025372 4288308480
1.4699451 -1.2011951 -0.33321834 4288308480
1.4622389 -1.1948212 -0.33234841 4288308480
1.4622108 -1.1947217 -0.33282977 4288308480
1.4720309 -1.2026682 -0.33516356 4288308480
1.4652423 -1.1970451 -0.33332521 4288308480
1.4891846 -1.216527 -0.3380776 4288439040
1.4855398 -1.2134717 -0.33616281 4288439040
1.4976004 -1.2232451 -0.33739936 4288439040
1.502733 -1.2273587 -0.33666208 4288439040
1.5036031 -1.2279905 -0.33456886 4288439040
1.507648 -1.231215 -0.33278316 4288439040
1.5126357 -1.2352091 -0.33080041 4288569600
1.5041667 -1.2282146 -0.32549915 4288439040
1.5101895 -1.2330533 -0.32295981 4288569600
1.5020698 -1.2263451 -0.31702888 4288439040
1.49682 -1.2219806 -0.31137535 4288439040
1.475585 -1.2045673 -0.30212232 4288308480
1.4739393 -1.2031468 -0.29660738 4288308480
1.4869431 -1.2136837 -0.29365641 4288439040
1.5053835 -1.2286564 -0.29132029 4288439040
1.5158272 -1.237101 -0.28698632 4288569600
1.5030648 -1.2266066 -0.27794379 4288439040
1.4798908 -1.2076175 -0.2668229 4288308480
1.4715561 -1.2007393 -0.25822189 4288308480
1.4926704 -1.2178898 -0.25443038 4288439040
1.4937055 -1.2186562 -0.24681769 4288439040
1.4817152 -1.2087961 -0.2368343 4288308480
1.359243 -1.1088113 -0.20967411 4287786240
1.3312489 -1.0859052 -0.19769774 4287655680
1.339542 -1.0925997 -0.19100165 4287655680
1.3625989 -1.1113349 -0.18600903 4287786240
1.396584 -1.13898 -0.18195018 4287916800
1.4569749 -1.1881554 -0.18053381 4288177920
1.4857351 -1.2115315 -0.17442696 4288308480
1.4909589 -1.2157133 -0.16514322 4288308480
1.4892201 -1.2142177 -0.1548842 4288308480
1.4705167 -1.1988912 -0.1428317 4288308480
1.4947385 -1.2185606 -0.13475215 4288308480
1.4973702 -1.2206278 -0.12439191 4288308480
1.4831384 -1.2089487 -0.11257906 4288308480
1.467124 -1.1958182 -0.10072704 4288177920
1.475783 -1.2027987 -0.09051282 4288308480
1.473333 -1.200725 -0.079474322 4288308480
1.4816095 -1.2073926 -0.068885379 4288308480
1.4548993 -1.1855499 -0.056734458 4288177920
1.4726694 -1.1999532 -0.046323609 4288308480
1.4643396 -1.1930894 -0.034971435 4288177920
1.2344121 -1.0056884 -0.020100161 4287264000
1.0487115 -0.85434151 -0.0090893423 4286350080
1.0766871 -0.87707567 -0.001122084 4286480640
1.2013123 -0.97853339 0.0079089087 4287133440
1.2946876 -1.0545249 0.018386884 4287525120
1.2420119 -1.0115556 0.027081227 4287264000
1.2286805 -1.0006336 0.03610225 4287133440
1.2233415 -0.99622154 0.045177344 4287133440
1.2377933 -1.0079257 0.055002216 4287264000
1.2164773 -0.99050468 0.063127272 4287133440
1.2158214 -0.98990709 0.07209181 4287133440
1.1817474 -0.96210277 0.078741387 4287002880
1.1519978 -0.93782234 0.085127063 4286872320
1.1519454 -0.93771946 0.093397729 4286872320
1.0374339 -0.84444934 0.091473296 4286350080
0.9647873 -0.78526622 0.091819204 4286088960
0.89897704 -0.73165452 0.091752909 4285827840
1.1560572 -0.94082516 0.12583067 4286872320
1.1758054 -0.95683533 0.13581221 4287002880
1.1831224 -0.96272784 0.14438717 4287002880
1.166653 -0.94926548 0.1498418 4287002880
1.1493298 -0.93511015 0.15480667 4286872320
1.155663 -0.94020259 0.16271593 4286872320
1.1626223 -0.94580376 0.17061186 4286872320
1.1578759 -0.94188201 0.17661305 4286872320
1.1558062 -0.94013804 0.18278535 4286872320
1.1448076 -0.93113196 0.1872686 4286872320
1.1355891 -0.92357486 0.19172366 4286872320
1.1457995 -0.93181914 0.19924535 4286872320
1.1369292 -0.924546 0.20323166 4286872320
1.1442622 -0.93044949 0.20987439 4286872320
1.1407871 -0.9275642 0.21431422 4286872320
1.1393065 -0.92630094 0.21886209 4286872320
1.120645 -0.91106987 0.21977752 4286741760
1.1242884 -0.91397333 0.22475383 4286741760
1.1276745 -0.9166671 0.22944582 4286872320
1.1234199 -0.91315001 0.23231642 4286741760
1.1304071 -0.91877049 0.23725061 4286872320
1.1181965 -0.90878755 0.23786758 4286741760
1.1293416 -0.9177866 0.24317108 4286872320
1.1253963 -0.91452157 0.24496232 4286872320
1.1207845 -0.91071552 0.24630442 4286741760
1.1222719 -0.91186559 0.24869283 4286741760
1.1140985 -0.90516651 0.24864 4286741760
1.1177572 -0.90808076 0.25092921 4286741760
1.1176298 -0.90791893 0.2520797 4286741760
1.121363 -0.91089326 0.2538088 4286741760
1.1136682 -0.90458465 0.25265303 4286741760
1.1174796 -0.9076221 0.25380862 4286741760
1.1216536 -0.91095376 0.25475025 4286741760
1.1178992 -0.90784639 0.25359383 4286741760
1.1231629 -0.91206247 0.25418434 4286741760
1.1169403 -0.90695119 0.25188002 4286741760
1.12076 -0.90999436 0.25154659 4286741760
1.1213379 -0.91040516 0.25018671 4286741760
1.1333503 -0.92009878 0.25106603 4286872320
1.1221688 -0.91096276 0.24651603 4286741760
1.1301546 -0.91738665 0.24589337 4286872320
1.1225865 -0.91118485 0.24160162 4286741760
1.1191512 -0.90833813 0.23794556 4286741760
1.1195749 -0.9086237 0.23484191 4286741760
1.1235042 -0.91175401 0.23218854 4286741760
1.1239837 -0.91208464 0.22854044 4286741760
1.136354 -0.92206365 0.2270011 4286872320
1.1437948 -0.92804164 0.22414377 4286872320
1.1332399 -0.91941863 0.21751715 4286872320
1.1338068 -0.91981959 0.21281664 4286872320
1.1355455 -0.92088145 0.17649719 4286872320
1.1636451 -0.94360858 0.17424004 4286872320
1.0710516 -0.86846799 0.15409879 4286480640
1.0298676 -0.83502018 0.14197318 4286350080
1.0342689 -0.83853483 0.13619491 4286350080
1.1646672 -0.94419479 0.14600632 4286872320
1.1773087 -0.95438188 0.13998853 4287002880
1.1391034 -0.92335165 0.12794077 4286872320
1.152578 -0.93421406 0.12171838 4286872320
1.2126918 -0.9828757 0.11978722 4287133440
1.2166357 -0.98600888 0.11173912 4287133440
1.2125095 -0.98260176 0.1028298 4287133440
1.2197726 -0.98842412 0.094751887 4287133440
1.2296346 -0.99635178 0.086650252 4287133440
1.2582042 -1.0194358 0.079493828 4287264000
1.3241159 -1.0727705 0.073917836 4287655680
1.293493 -1.0478932 0.062615521 4287525120
1.0316552 -0.83571774 0.042235836 4286350080
1.1269025 -0.91281646 0.037669852 4286741760
1.3840733 -1.1210586 0.03581978 4287916800
1.4711293 -1.1914948 0.02692846 4288177920
1.4766279 -1.1958715 0.015814548 4288308480
1.4786881 -1.197463 0.0045898999 4288308480
1.4534041 -1.1769121 -0.006547289 4288177920
1.46258 -1.1842663 -0.017709481 4288177920
1.4702816 -1.1904259 -0.028962385 4288177920
1.475342 -1.1944464 -0.040228214 4288308480
1.4681456 -1.1885438 -0.051099893 4288177920
1.4802567 -1.1982714 -0.062624417 4288308480
1.4951355 -1.2102381 -0.074399516 4288308480
1.4890001 -1.2051942 -0.085113339 4288308480
1.4835838 -1.2007332 -0.09569031 4288308480
1.485893 -1.2025249 -0.10663818 4288308480
1.4984841 -1.2126369 -0.11831477 4288308480
1.4911742 -1.2066439 -0.12832923 4288308480
1.3911651 -1.1256452 -0.12947263 4287916800
1.3619721 -1.1019533 -0.1361621 4287786240
1.3582785 -1.0988941 -0.1450244 4287786240
1.3518924 -1.0936573 -0.15337169 4287786240
1.359562 -1.0997913 -0.16315186 4287786240
1.458928 -1.1800956 -0.18444356 4288177920
1.4953778 -1.2095014 -0.19844346 4288308480
1.5066555 -1.2185447 -0.20918027 4288439040
1.5037429 -1.2161111 -0.21776545 4288439040
1.4823409 -1.1987257 -0.22328769 4288308480
1.5040683 -1.2162179 -0.23505451 4288439040
1.5179858 -1.2273929 -0.24553543 4288439040
1.5190513 -1.2281755 -0.25374258 4288439040
1.5228283 -1.2311503 -0.26214081 4288439040
1.5142319 -1.2241217 -0.26808909 4288439040
1.4833202 -1.1990553 -0.26959434 4288308480
1.4976742 -1.2105806 -0.27893865 4288439040
1.499034 -1.211602 -0.28561464 4288439040
1.5001845 -1.212454 -0.29193419 4288439040
1.5121241 -1.2220249 -0.30006877 4288439040
1.5100539 -1.2202735 -0.30511642 4288439040
1.504347 -1.2155837 -0.30905065 4288439040
1.5057627 -1.2166494 -0.31407616 4288439040
1.4999473 -1.2118728 -0.31721735 4288439040
1.4937755 -1.2068087 -0.31988192 4288439040
1.4875895 -1.2017338 -0.32214043 4288439040
1.4865377 -1.200807 -0.32511869 4288439040
1.4758533 -1.1920997 -0.32558873 4288308480
1.4612261 -1.1802089 -0.32476464 4288308480
1.4686617 -1.1861382 -0.32845092 4288308480
1.4548044 -1.1748711 -0.32698599 4288308480
1.4546747 -1.174691 -0.32820821 4288308480
1.4584267 -1.1776451 -0.32992408 4288308480
1.4644101 -1.1824005 -0.33176249 4288308480
1.4644333 -1.1823432 -0.331864 4288308480
1.4711877 -1.1877202 -0.3331008 4288308480
1.477834 -1.1930091 -0.33391854 4288308480
1.4901872 -1.2029042 -0.3356227 4288439040
1.5000151 -1.2107596 -0.3363466 4288439040
1.5021709 -1.2124219 -0.33494446 4288439040
1.5039781 -1.2138025 -0.33306786 4288439040
1.5024074 -1.2124568 -0.33005461 4288439040
1.5041258 -1.2137656 -0.32737857 4288439040
1.5060607 -1.2152488 -0.32436073 4288439040
1.5009319 -1.2110325 -0.31945333 4288439040
1.4945767 -1.2058272 -0.31394506 4288439040
1.485454 -1.19839 -0.30753729 4288308480
1.4780141 -1.1923113 -0.30117452 4288308480
1.4686037 -1.1846437 -0.29412025 4288308480
1.4859608 -1.1985677 -0.29205671 4288308480
1.4999118 -1.2097427 -0.28886878 4288439040
1.4994265 -1.2092736 -0.28251687 4288439040
1.5014216 -1.2108047 -0.27630308 4288439040
1.4784704 -1.1922194 -0.26528078 4288308480
1.4707001 -1.1858773 -0.25682408 4288308480
1.4881467 -1.1998678 -0.25243026 4288308480
1.4956689 -1.2058554 -0.2459418 4288308480
1.4771262 -1.1908292 -0.23495118 4288308480
1.3610288 -1.0971632 -0.20892446 4287786240
1.3228419 -1.0663111 -0.1954872 4287655680
1.3381307 -1.0785657 -0.18986298 4287655680
1.361292 -1.0971637 -0.18491438 4287786240
1.4178988 -1.1427138 -0.18381275 4288047360
1.4561653 -1.173478 -0.17953654 4288177920
1.4843785 -1.1961373 -0.17339723 4288308480
1.4853138 -1.1968139 -0.16369177 4288308480
1.48429 -1.1959121 -0.15359154 4288308480
1.4619894 -1.1778685 -0.14128107 4288177920
1.4909189 -1.2010986 -0.13371867 4288308480
1.4917314 -1.2016759 -0.12328222 4288308480
1.4853774 -1.1964805 -0.11215924 4288308480
1.4514947 -1.1691126 -0.099125907 4288177920
1.4782374 -1.1905761 -0.090175219 4288308480
1.4722688 -1.1856927 -0.078980751 4288177920
1.4668058 -1.1812171 -0.067812815 4288177920
1.4563158 -1.172694 -0.056458455 4288177920
1.4738885 -1.1867681 -0.046077978 4288177920
1.471669 -1.1849047 -0.034914389 4288177920
1.4543767 -1.1709067 -0.023503629 4288177920
1.3541684 -1.0901597 -0.011618552 4287655680
1.1617182 -0.93516946 -0.0011503326 4286872320
1.3316588 -1.0719007 0.0087891174 4287655680
1.3191016 -1.0617245 0.018708758 4287525120
1.2439712 -1.001189 0.027056506 4287264000
1.2375864 -0.9959861 0.036253121 4287264000
1.2400086 -0.99787128 0.045638155 4287264000
1.2495778 -1.0055072 0.05532613 4287264000
1.2261007 -0.9865523 0.063387886 4287133440
1.2298334 -0.98949206 0.072640471 4287133440
1.1881735 -0.95591211 0.078855999 4287002880
1.1814979 -0.95048034 0.086954817 4287002880
1.1674502 -0.93911892 0.094267346 4286872320
1.1968905 -0.96273929 0.10509565 4287002880
1.1901374 -0.95724577 0.11279159 4287002880
1.1398588 -0.91674691 0.11584671 4286741760
1.1138378 -0.89576167 0.1207192 4286741760
1.0054806 -0.80856752 0.11564095 4286219520
1.0881008 -0.874951 0.13221823 4286611200
1.1057379 -0.88907593 0.1414023 4286611200
1.0498966 -0.84412211 0.14079762 4286480640
1.1687713 -0.93963742 0.16384138 4286872320
1.1769272 -0.94613355 0.1719521 4287002880
1.1686116 -0.93938828 0.17746431 4287002880
1.1629173 -0.93475062 0.18309578 4286872320
1.1544474 -0.92788291 0.18800671 4286872320
1.1476074 -0.92232597 0.19288945 4286872320
1.1509099 -0.92492062 0.19923966 4286872320
1.1538575 -0.92722982 0.20533337 4286872320
1.1560714 -0.92894906 0.21108758 4286872320
1.1470915 -0.92167413 0.21452777 4286872320
1.1485188 -0.92276156 0.21963534 4286872320
1.1336212 -0.91073364 0.22131588 4286872320
1.1372784 -0.91361302 0.22631893 4286872320
1.1329763 -0.91009843 0.22947609 4286872320
1.1325505 -0.90969783 0.23313698 4286872320
1.131874 -0.90909588 0.23647322 4286872320
1.1272997 -0.90536368 0.23870619 4286741760
1.1309952 -0.90827322 0.24240988 4286872320
1.1294024 -0.90693575 0.24470414 4286741760
1.1329709 -0.90974277 0.24783547 4286872320
1.1313899 -0.90841484 0.24955596 4286872320
1.1193358 -0.89867842 0.24865322 4286741760
1.1230115 -0.90157163 0.25094014 4286741760
1.1267241 -0.90449393 0.25295049 4286741760
1.1304747 -0.90744632 0.25468019 4286872320
1.1265837 -0.90426481 0.25439101 4286741760
1.1188924 -0.8980335 0.25294173 4286741760
1.1269262 -0.9044233 0.254749 4286741760
1.1269947 -0.90442008 0.25445715 4286741760
1.1253699 -0.90305805 0.25348583 4286741760
1.1298735 -0.90661359 0.25359541 4286872320
1.1337124 -0.90963548 0.25325146 4286872320
1.1342946 -0.91004395 0.2518791 4286872320
1.1348343 -0.91041833 0.25020149 4286872320
1.1312885 -0.90751541 0.24733701 4286872320
1.1316215 -0.90772402 0.2450382 4286872320
1.1240165 -0.90156573 0.24075267 4286741760
1.1244121 -0.90182495 0.23791802 4286741760
1.1325374 -0.90828335 0.23641901 4286872320
1.124934 -0.90212739 0.23136342 4286741760
1.1369731 -0.91172338 0.23006406 4286872320
1.148634 -0.92101479 0.2283417 4286872320
1.1530277 -0.92447823 0.22485416 4286872320
1.137985 -0.91235852 0.21736217 4286872320
1.1328295 -0.90816683 0.21159217 4286741760
1.0113877 -0.81041348 0.15645836 4286219520
1.1843047 -0.94890887 0.17649834 4287002880
1.2516418 -1.0027971 0.17923419 4287264000
1.3505055 -1.0819358 0.18530013 4287655680
1.3120469 -1.0510576 0.17196262 4287525120
1.2011031 -0.96212047 0.14986853 4287002880
1.1789935 -0.94434923 0.13953319 4287002880
1.1539011 -0.92419118 0.12899788 4286872320
1.16082 -0.92967296 0.12201793 4286872320
1.2184318 -0.97575003 0.11979527 4287133440
1.2262869 -0.98197734 0.11210413 4287133440
1.225258 -0.98109025 0.10343171 4287133440
1.2286617 -0.98375231 0.095004164 4287133440
1.2385712 -0.99162269 0.086881414 4287264000
1.2571403 -1.0064247 0.079066351 4287264000
1.3310999 -1.0655656 0.073973581 4287655680
1.384277 -1.1080633 0.066712327 4287786240
1.3719426 -1.0981194 0.055921417 4287786240
1.4772308 -1.1823173 0.049169526 4288177920
1.4634653 -1.1712245 0.037718687 4288177920
1.4692651 -1.1757903 0.026791643 4288177920
1.4739655 -1.1794759 0.015736971 4288177920
1.4669424 -1.1737804 0.0045583607 4288177920
1.4411465 -1.1530654 -0.0064344471 4288047360
1.4649706 -1.1720517 -0.017626261 4288177920
1.4609969 -1.1687973 -0.028614318 4288177920
1.470608 -1.1764103 -0.039879408 4288177920
1.4564209 -1.1649864 -0.050421506 4288177920
1.4782047 -1.182335 -0.062210094 4288177920
1.4859759 -1.1884742 -0.07356143 4288308480
1.4890184 -1.1908308 -0.084678575 4288308480
1.4782764 -1.1821638 -0.094863459 4288177920
1.4858998 -1.1881837 -0.10610009 4288308480
1.486859 -1.1888741 -0.11680698 4288308480
1.4834169 -1.1860455 -0.12702292 4288308480
1.3998016 -1.11912 -0.12962705 4287916800
1.3645165 -1.0908399 -0.13573873 4287786240
1.3576931 -1.085315 -0.14424381 4287786240
1.3582823 -1.0857161 -0.1533353 4287786240
1.3589882 -1.0862104 -0.16227919 4287786240
1.4575852 -1.1649419 -0.18336758 4288177920
1.483332 -1.185443 -0.19587888 4288308480
1.502902 -1.2010056 -0.2076371 4288308480
1.5038623 -1.2016954 -0.21671794 4288308480
1.4707232 -1.1751392 -0.22045644 4288177920
1.5034198 -1.2011871 -0.23380835 4288439040
1.5169439 -1.2119144 -0.2441733 4288439040
1.5146065 -1.209969 -0.2517713 4288439040
1.515309 -1.2104523 -0.25958145 4288439040
1.513986 -1.2093174 -0.26674762 4288439040
1.4794959 -1.1816919 -0.26759911 4288308480
1.4900557 -1.1900494 -0.27617988 4288308480
1.4983847 -1.1966245 -0.2841146 4288439040
1.5015905 -1.1991074 -0.29080114 4288439040
1.50073 -1.198343 -0.2963762 4288439040
1.5056049 -1.2021582 -0.30275726 4288439040
1.5083634 -1.2042831 -0.30839059 4288439040
1.5013007 -1.198567 -0.31164685 4288439040
1.5049161 -1.201376 -0.31674731 4288439040
1.4938886 -1.1924959 -0.31837973 4288439040
1.4907575 -1.1899197 -0.3212885 4288308480
1.4896894 -1.1889906 -0.32425824 4288308480
1.4712631 -1.174208 -0.32303464 4288308480
1.4573385 -1.1630199 -0.32236484 4288177920
1.4648099 -1.1689072 -0.3260389 4288308480
1.4607787 -1.1656152 -0.32677728 4288177920
1.4675769 -1.1709642 -0.32955724 4288308480
1.4605674 -1.1652963 -0.3288525 4288177920
1.456689 -1.1621271 -0.32846218 4288177920
1.4703506 -1.1729506 -0.33164182 4288308480
1.4665756 -1.1698638 -0.33050182 4288308480
1.4847891 -1.184316 -0.33392239 4288308480
1.4787301 -1.1794071 -0.33148929 4288308480
1.4978524 -1.1945817 -0.33429888 4288439040
1.4917333 -1.189625 -0.33107293 4288308480
1.496039 -1.1929817 -0.32977509 4288439040
1.4971573 -1.1937966 -0.32738146 4288439040
1.5024991 -1.1979787 -0.32551718 4288439040
1.5074822 -1.2018745 -0.32317433 4288439040
1.4915304 -1.1890799 -0.31599694 4288308480
1.4920835 -1.1894443 -0.31198853 4288308480
1.4798216 -1.1795933 -0.30497479 4288308480
1.4730703 -1.174136 -0.29880327 4288308480
1.4639268 -1.1667728 -0.29185587 4288177920
1.4772615 -1.177325 -0.28903663 4288308480
1.4953698 -1.1916798 -0.28669915 4288308480
1.5064825 -1.2004583 -0.28257507 4288439040
1.4937768 -1.1902568 -0.27367017 4288308480
1.4773625 -1.177102 -0.26390493 4288308480
1.4644468 -1.166736 -0.25460187 4288177920
1.4785876 -1.1779262 -0.24970599 4288308480
1.4918424 -1.1884091 -0.24423982 4288308480
1.4675002 -1.1689426 -0.23240532 4288177920
1.337207 -1.0650883 -0.20438103 4287655680
1.3249432 -1.0552522 -0.19495785 4287655680
1.3296504 -1.058933 -0.18785669 4287655680
1.36308 -1.0854863 -0.18437575 4287786240
1.4323486 -1.1405748 -0.18490957 4288047360
1.459118 -1.1618162 -0.17915618 4288177920
1.483566 -1.1812067 -0.17259365 4288308480
1.4774866 -1.1762905 -0.16217218 4288177920
1.4795703 -1.1778735 -0.15249488 4288177920
1.4618406 -1.1636839 -0.14071539 4288177920
1.4812596 -1.1790663 -0.13234474 4288177920
1.4800044 -1.1779913 -0.12185742 4288177920
1.4814247 -1.1790456 -0.11145677 4288177920
1.4465975 -1.1512529 -0.098448277 4288047360
1.4664279 -1.1669594 -0.089159332 4288177920
1.4674624 -1.1677073 -0.078479983 4288177920
1.4615333 -1.1629144 -0.067379944 4288177920
1.4554079 -1.1579658 -0.056287754 4288177920
1.465953 -1.1662806 -0.045746755 4288177920
1.470763 -1.1700318 -0.034863103 4288177920
1.4631845 -1.1639279 -0.023669697 4288177920
1.4714403 -1.1704197 -0.012702232 4288177920
1.4793365 -1.1766247 -0.0015965992 4288177920
1.4666344 -1.1664466 0.009496117 4288177920
1.3362484 -1.0626792 0.018736135 4287655680
1.2606051 -1.0024576 0.027169358 4287264000
1.2512305 -0.99493855 0.036361001 4287264000
1.2458392 -0.99058771 0.045518007 4287264000
1.2572962 -0.99963289 0.055285834 4287264000
1.2318664 -0.97935134 0.063268743 4287133440
1.227293 -0.97565258 0.072032496 4287133440
1.1944237 -0.9494614 0.078784525 4287002880
1.1852171 -0.94208229 0.086706236 4287002880
1.1709205 -0.9306584 0.093992867 4286872320
1.2185986 -0.9684909 0.10638491 4287133440
1.3886001 -1.1035298 0.13085303 4287786240
1.3680569 -1.0871339 0.13826004 4287786240
1.4571882 -1.1578879 0.15705754 4288177920
1.3945912 -1.1080766 0.15951416 4287916800
1.2844274 -1.0204797 0.15522768 4287394560
1.1471536 -0.91135669 0.1459097 4286872320
1.0736949 -0.85294241 0.14322108 4286480640
1.1336113 -0.90048182 0.15807128 4286741760
1.1653967 -0.92567074 0.16937235 4286872320
1.16997 -0.92924345 0.17674269 4286872320
1.168414 -0.92794764 0.18300641 4286872320
1.1445631 -0.90894675 0.18543521 4286872320
1.1593019 -0.92059213 0.19385521 4286872320
1.1670173 -0.92665905 0.20099697 4286872320
1.1698133 -0.9288193 0.20711574 4286872320
1.1637022 -0.92390758 0.2114073 4286872320
1.1614108 -0.92202884 0.21611352 4286872320
1.1549492 -0.91683984 0.21975957 4286872320
1.1428199 -0.90715271 0.22200008 4286872320
1.1423432 -0.90671575 0.22619919 4286872320
1.1421676 -0.90651786 0.23019519 4286872320
1.1453259 -0.908966 0.23460741 4286872320
1.1480139 -0.91104048 0.23867074 4286872320
1.1434138 -0.90733141 0.24093772 4286872320
1.1393962 -0.90408498 0.2430246 4286872320
1.1385667 -0.90336853 0.24549676 4286872320
1.1330807 -0.89895779 0.24666582 4286741760
1.136373 -0.90151167 0.24945296 4286872320
1.1332481 -0.89897454 0.25054139 4286741760
1.1292206 -0.89572185 0.25112742 4286741760
1.1368083 -0.90168238 0.25400561 4286872320
1.1328583 -0.89849138 0.25401348 4286741760
1.1289482 -0.8953324 0.25372776 4286741760
1.1366524 -0.90138423 0.25575519 4286872320
1.1357399 -0.90060252 0.25554621 4286872320
1.1399927 -0.90391648 0.25619906 4286872320
1.1323833 -0.89782494 0.25388893 4286741760
1.1415952 -0.90507036 0.25504985 4286872320
1.1423001 -0.90557075 0.25400379 4286872320
1.1392471 -0.90309215 0.25182852 4286872320
1.1437302 -0.90658736 0.25102201 4286872320
1.1440305 -0.90676683 0.24899711 4286872320
1.1327747 -0.89778751 0.24418992 4286741760
1.1366465 -0.90079808 0.24237417 4286872320
1.1403294 -0.90365839 0.24021815 4286872320
1.1376657 -0.9014895 0.23644483 4286872320
1.1246471 -0.89111596 0.23029329 4286741760
1.1359652 -0.90002578 0.22886184 4286741760
1.15119 -0.91202956 0.22786276 4286872320
1.1670678 -0.92454892 0.22661759 4286872320
1.1423965 -0.90494603 0.21727753 4286872320
1.1299127 -0.89499933 0.21015772 4286741760
1.375236 -1.0889051 0.2117625 4287786240
1.4584942 -1.1547539 0.21635741 4288177920
1.4840591 -1.174919 0.21153444 4288308480
1.4372879 -1.1378171 0.19629586 4288047360
1.3732995 -1.087091 0.17915823 4287786240
1.2354181 -0.97788227 0.15343681 4287133440
1.1883627 -0.94057542 0.13999063 4287002880
1.1592498 -0.91747355 0.12899502 4286872320
1.1586149 -0.91691196 0.12122094 4286872320
1.2277104 -0.97153038 0.12014662 4287133440
1.2319701 -0.97483838 0.11209955 4287133440
1.227806 -0.97148061 0.10316361 4287133440
1.2233958 -0.96792871 0.094155058 4287133440
1.2443103 -0.98441219 0.08687517 4287264000
1.2698129 -1.0045233 0.079488128 4287264000
1.3247912 -1.0479478 0.073275648 4287525120
1.4527875 -1.1491224 0.069681965 4288047360
1.4749683 -1.1665916 0.05983359 4288177920
1.4781594 -1.1690401 0.048962895 4288177920
1.471822 -1.1639528 0.037747886 4288177920
1.4690111 -1.1616547 0.026651619 4288177920
1.4698101 -1.1622117 0.015607736 4288177920
1.4728538 -1.164543 0.0045424649 4288177920
1.4470963 -1.1441036 -0.0064447583 4288047360
1.4560648 -1.1511199 -0.017452551 4288047360
1.4677608 -1.1602914 -0.028629174 4288177920
1.4664353 -1.1591688 -0.03959839 4288177920
1.4620563 -1.1556327 -0.050399233 4288177920
1.4779897 -1.1681513 -0.061930984 4288177920
1.4857975 -1.1742464 -0.073230825 4288177920
1.4876328 -1.1756209 -0.084227599 4288177920
1.4723006 -1.1634294 -0.094062567 4288177920
1.4797733 -1.1692588 -0.1051942 4288177920
1.4881792 -1.175825 -0.11639097 4288308480
1.4859271 -1.1739697 -0.1266709 4288177920
1.4141035 -1.1171527 -0.13036677 4287916800
1.3708284 -1.082895 -0.1357567 4287786240
1.3522424 -1.068144 -0.14302118 4287655680
1.3575289 -1.0722506 -0.15256284 4287655680
1.3579323 -1.0724999 -0.16142488 4287655680
1.4371784 -1.1350155 -0.17998748 4288047360
1.4849145 -1.1726394 -0.19520533 4288308480
1.4956868 -1.18107 -0.20570935 4288308480
1.4948866 -1.180362 -0.21445313 4288308480
1.4813291 -1.1695814 -0.22104417 4288308480
1.496847 -1.1817571 -0.23173478 4288308480
1.5038958 -1.1872454 -0.24097885 4288308480
1.5193127 -1.1993388 -0.25141123 4288439040
1.5163122 -1.196893 -0.25857753 4288439040
1.5024902 -1.1859059 -0.26352301 4288308480
1.4769293 -1.1656556 -0.26592398 4288308480
1.4861052 -1.1728219 -0.2741982 4288308480
1.4957134 -1.1803282 -0.28232071 4288308480
1.4964221 -1.1808112 -0.28848386 4288308480
1.4970291 -1.181214 -0.29430151 4288308480
1.5070552 -1.1890481 -0.30167052 4288439040
1.5053227 -1.1876044 -0.30636811 4288439040
1.4931828 -1.1779507 -0.30854994 4288308480
1.496714 -1.1806601 -0.31358519 4288308480
1.494934 -1.1791798 -0.31714943 4288308480
1.4903685 -1.1755028 -0.31973869 4288308480
1.4864279 -1.1723189 -0.3220706 4288308480
1.4699366 -1.1592376 -0.32126829 4288308480
1.4592065 -1.1507012 -0.32130167 4288177920
1.4705811 -1.159596 -0.3258251 4288308480
1.4528266 -1.1455221 -0.32350957 4288177920
1.4596572 -1.1508335 -0.32627603 4288177920
1.452616 -1.145208 -0.32556146 4288177920
1.4701558 -1.1589611 -0.32997638 4288308480
1.466311 -1.1558554 -0.32921052 4288177920
1.4837812 -1.1695511 -0.33284089 4288308480
1.4853771 -1.1707335 -0.33251637 4288308480
1.4913721 -1.1753826 -0.33278236 4288308480
1.490397 -1.1745381 -0.33110026 4288308480
1.4912211 -1.1751117 -0.3294307 4288308480
1.4944901 -1.1776117 -0.32791057 4288308480
1.4925212 -1.1759841 -0.32485709 4288308480
1.4933273 -1.1765432 -0.3220309 4288308480
1.4978991 -1.180069 -0.31963009 4288308480
1.4927136 -1.1759077 -0.31477857 4288308480
1.4855144 -1.1701608 -0.30917016 4288308480
1.4804869 -1.1661252 -0.30369079 4288308480
1.4704809 -1.158169 -0.29688674 4288177920
1.461892 -1.1513299 -0.29008871 4288177920
1.4699808 -1.1576256 -0.28626639 4288177920
1.4887848 -1.172358 -0.28409886 4288308480
1.5004603 -1.1814756 -0.28012404 4288308480
1.4871702 -1.1709353 -0.27117816 4288308480
1.4708731 -1.1580288 -0.2615073 4288177920
1.4584934 -1.1482078 -0.25236914 4288177920
1.4753225 -1.1613816 -0.24797502 4288177920
1.4748049 -1.1608992 -0.24030466 4288177920
1.439491 -1.1330284 -0.22688487 4288047360
1.3334557 -1.0494999 -0.20283522 4287655680
1.3084139 -1.029724 -0.19160423 4287525120
1.3311504 -1.04755 -0.1871655 4287655680
1.3662393 -1.0750937 -0.18391244 4287786240
1.4425079 -1.135036 -0.18531999 4288047360
1.4517374 -1.1422244 -0.17738366 4288047360
1.4752975 -1.1606865 -0.17079349 4288177920
1.469979 -1.1564275 -0.16055582 4288177920
1.4680161 -1.1548086 -0.15055643 4288177920
1.4622817 -1.1502233 -0.14005747 4288177920
1.4804757 -1.1644593 -0.1316112 4288177920
1.4841926 -1.1673073 -0.1215835 4288177920
1.4699516 -1.1560321 -0.11002739 4288177920
1.4654207 -1.1523943 -0.099211909 4288177920
1.4682348 -1.1545326 -0.088798508 4288177920
1.4620459 -1.1495918 -0.077769615 4288177920
1.4602486 -1.1481043 -0.066948906 4288047360
1.445716 -1.1366047 -0.055593077 4288047360
1.4564855 -1.1449976 -0.045178048 4288047360
1.4627483 -1.1498467 -0.034448139 4288177920
1.4651552 -1.1516643 -0.023525994 4288177920
1.4710162 -1.1561964 -0.012572428 4288177920
1.4750164 -1.1592655 -0.0015158576 4288177920
1.4780631 -1.1615849 0.0095957676 4288177920
1.3745211 -1.0801432 0.019249571 4287786240
1.2664056 -0.99511808 0.027229667 4287264000
1.2530566 -0.98456508 0.036307249 4287264000
1.2555006 -0.98642153 0.045721196 4287264000
1.2651578 -0.9939447 0.055437651 4287264000
1.2453893 -0.97835082 0.063730396 4287133440
1.2360793 -0.97097427 0.072275542 4287133440
1.2019967 -0.94414037 0.078978866 4287002880
1.2016585 -0.94381362 0.087564223 4287002880
1.180228 -0.92692167 0.094362706 4286872320
1.2437609 -0.97675562 0.1081437 4287133440
1.4064809 -1.1044722 0.13199776 4287916800
1.4192829 -1.1144532 0.14284709 4287916800
1.5004669 -1.1781244 0.16105166 4288308480
1.5023528 -1.1795291 0.17112257 4288308480
1.4885256 -1.1685973 0.17913795 4288308480
1.3234005 -1.0388954 0.16761595 4287525120
1.283321 -1.007367 0.17045647 4287394560
1.2116134 -0.95101726 0.16822731 4287133440
1.2542981 -0.98445749 0.18151195 4287264000
1.1630635 -0.91279143 0.1749438 4286872320
1.0489876 -0.82320952 0.16359177 4286350080
0.8808921 -0.69124919 0.14209875 4285697280
1.166818 -0.91556031 0.19426434 4286872320
1.1692574 -0.91741508 0.20050518 4286872320
1.1678784 -0.91627383 0.20586944 4286872320
1.175211 -0.92196697 0.21256238 4286872320
1.171882 -0.91929603 0.21710378 4286872320
1.1677285 -0.91597843 0.22121231 4286872320
1.1452401 -0.89828014 0.22148769 4286872320
1.1461183 -0.89891082 0.22594202 4286872320
1.1500695 -0.90195143 0.23075923 4286872320
1.1535212 -0.90459991 0.23523523 4286872320
1.1487095 -0.90076828 0.23775084 4286872320
1.1508602 -0.90239644 0.24142347 4286872320
1.1424229 -0.89572269 0.24257927 4286872320
1.143056 -0.89616114 0.24535896 4286872320
1.1422013 -0.89543307 0.24753335 4286872320
1.1437119 -0.8965593 0.24993277 4286872320
1.135474 -0.89004397 0.24990004 4286741760
1.1469358 -0.89897019 0.25391302 4286872320
1.1351749 -0.88969433 0.25249058 4286741760
1.1389594 -0.89260274 0.25422111 4286741760
1.1427832 -0.89554149 0.25566766 4286872320
1.1427709 -0.89547396 0.25595856 4286872320
1.1391987 -0.89261693 0.25515229 4286741760
1.1431431 -0.89564961 0.25572965 4286872320
1.1345203 -0.88883626 0.2531997 4286741760
1.1422218 -0.89481205 0.25401506 4286872320
1.1453418 -0.89719814 0.25350505 4286872320
1.1528776 -0.90304285 0.25366291 4286872320
1.1461606 -0.89772338 0.25038928 4286872320
1.1400545 -0.89288294 0.24697863 4286741760
1.1429163 -0.8950665 0.24522832 4286872320
1.1400207 -0.89274096 0.2419582 4286741760
