# .PCD v0.7 - Point Cloud Data file format
VERSION 0.7
FIELDS x y z rgba
SIZE 4 4 4 4
TYPE F F F U
COUNT 1 1 1 1
WIDTH 1131
HEIGHT 1
VIEWPOINT 0 0 0 1 0 0 0
POINTS 1131
DATA ascii
3.06898 1.9625274 0.51580757 4294183680
3.0577972 1.9555041 0.52649516 4294183680
2.9947433 1.9153312 0.52739459 4293922560
3.0945237 1.9792231 0.55636168 4294314240
3.0860803 1.9739523 0.56565148 4294314240
3.0866528 1.9744444 0.57590604 4294314240
3.0812678 1.9711291 0.58437234 4294314240
3.087868 1.9754758 0.59442693 4294314240
3.0776782 1.9690897 0.60056347 4294314240
3.0653961 1.9613657 0.60553771 4294183680
3.0802174 1.9709712 0.61514145 4294314240
3.0646195 1.9611276 0.61797702 4294314240
3.0606425 1.9587148 0.62238705 4294183680
3.0566359 1.9562833 0.6260494 4294183680
3.0635214 1.9608186 0.63120264 4294314240
3.0630367 1.9606413 0.63411009 4294314240
3.0626562 1.9605311 0.63629347 4294314240
3.062381 1.9604893 0.63775045 4294314240
3.0547445 1.9557387 0.63692826 4294183680
3.058002 1.9579581 0.63761812 4294183680
3.0570893 1.9575106 0.63669205 4294183680
3.057241 1.9577445 0.63523829 4294183680
3.068881 1.965331 0.63540733 4294314240
3.0763035 1.9702202 0.63394415 4294314240
3.0800767 1.9727753 0.63097566 4294314240
3.081892 1.9740783 0.62686008 4294314240
3.0816526 1.9740671 0.62159127 4294314240
3.0885909 1.9786513 0.61702412 4294314240
3.0858686 1.9770522 0.60980558 4294314240
3.086803 1.977795 0.60259873 4294314240
3.0724881 1.9687744 0.59175956 4294314240
3.0638537 1.9633907 0.58138371 4294183680
3.0708213 1.9679983 0.57328463 4294314240
3.0749071 1.9707613 0.5639506 4294314240
3.0894454 1.9802203 0.55580944 4294314240
3.0896006 1.9804685 0.54439873 4294314240
3.0638382 1.9641153 0.52791387 4294183680
3.053118 1.958216 0.43529516 4294183680
3.075321 1.9725988 0.42230672 4294183680
3.083997 1.9783137 0.40683097 4294183680
3.0497751 1.9565303 0.38541222 4294053120
3.0435309 1.9526805 0.3673017 4294053120
3.0652006 1.9667273 0.35203785 4294183680
3.0653744 1.9669936 0.33379963 4294183680
3.0393121 1.9504365 0.31250775 4294053120
3.0362263 1.9486119 0.29339153 4294053120
3.0501671 1.9577074 0.27551383 4294053120
3.0584986 1.9632068 0.2566863 4294053120
3.0479639 1.9566054 0.23601866 4294053120
3.041085 1.9523487 0.21548355 4294053120
3.0530078 1.9601537 0.19599505 4294053120
3.0591264 1.9642363 0.17580013 4294053120
3.0528305 1.9603537 0.1547066 4294053120
3.0269177 1.9438825 0.13268009 4293922560
3.0442295 1.9551485 0.11242996 4294053120
3.0322292 1.9476035 0.090954445 4293922560
3.0074985 1.9318862 0.069258362 4293922560
3.0215454 1.9410585 0.048425298 4293922560
3.0233331 1.9423622 0.027236357 4293922560
3.0185163 1.9394261 0.0059797913 4293922560
3.0085456 1.9331802 -0.015190535 4293922560
3.0179768 1.9393916 -0.036454961 4293922560
3.0244293 1.9436913 -0.05775797 4293922560
3.0178044 1.9395928 -0.078744106 4293922560
3.0227144 1.9429022 -0.099945344 4293922560
3.0320823 1.9490755 -0.12129206 4293922560
3.0383592 1.9532639 -0.14249457 4294053120
3.0106025 1.9355887 -0.16178441 4293922560
3.0170312 1.9398739 -0.18261394 4293922560
3.0244374 1.9447877 -0.20340252 4293922560
3.0308175 1.9490426 -0.2239967 4293922560
3.0064819 1.9335591 -0.24194616 4293922560
3.0293555 1.9484134 -0.26345 4294053120
3.0474107 1.9601729 -0.28451172 4294053120
3.0413866 1.9564558 -0.30308193 4294053120
3.0367873 1.9536538 -0.32139978 4294053120
2.8765268 1.8507782 -0.32180899 4293400320
3.0415764 1.9570408 -0.35845327 4294053120
3.0416026 1.9572113 -0.37614998 4294053120
3.0405231 1.95667 -0.39328992 4294053120
2.9912045 1.9251063 -0.40345228 4293922560
2.8890285 1.8595425 -0.4051879 4293530880
3.0651948 1.9729952 -0.44603264 4294183680
3.0642803 1.9725593 -0.46144012 4294183680
3.0570416 1.9680544 -0.47533655 4294183680
3.0461705 1.9612116 -0.48804697 4294183680
3.0131223 1.9400985 -0.49644315 4294053120
3.0377073 1.9560652 -0.51376098 4294053120
3.0319736 1.9525238 -0.52543855 4294053120
3.0362611 1.9554302 -0.53825498 4294183680
3.0240045 1.9476889 -0.54748929 4294053120
3.0385952 1.9572257 -0.56097883 4294183680
3.0279732 1.9505343 -0.56917661 4294053120
3.0220721 1.9468801 -0.57755762 4294053120
3.007654 1.9377416 -0.58358294 4294053120
2.9922104 1.927941 -0.58865309 4293922560
2.9887793 1.9258726 -0.59536302 4293922560
2.9741406 1.9165865 -0.59910572 4293922560
2.9298429 1.888199 -0.59604448 4293792000
2.9406514 1.8952954 -0.60345942 4293792000
2.9440939 1.8976481 -0.60868281 4293792000
2.9476318 1.9000618 -0.61322808 4293792000
2.9429889 1.8972054 -0.61535335 4293792000
2.8832355 1.8588462 -0.6051594 4293530880
2.946429 1.8996878 -0.62011182 4293792000
2.9536848 1.9044945 -0.62257951 4293792000
2.9461472 1.8997695 -0.62119758 4293792000
2.9378874 1.8945777 -0.61893898 4293792000
2.9140055 1.8793174 -0.6126712 4293661440
2.9741409 1.9181998 -0.62336361 4293922560
2.9881072 1.9273307 -0.62357825 4293922560
2.9834471 1.9244565 -0.61916327 4293922560
3.0098388 1.9415966 -0.62045503 4294053120
3.0228045 1.9500836 -0.61819345 4294183680
3.0165234 1.9461628 -0.61125946 4294053120
3.0307155 1.9554404 -0.60775673 4294183680
3.0239375 1.9511979 -0.59932131 4294053120
3.0257292 1.9524797 -0.59190691 4294053120
3.0226581 1.9506252 -0.58285999 4294053120
3.0163376 1.9466743 -0.57254159 4294053120
3.0084538 1.941714 -0.56131244 4294053120
2.9975011 1.9347731 -0.54892904 4293922560
3.014375 1.9457788 -0.54100347 4294053120
3.0324152 1.9575377 -0.53253937 4294053120
3.0451453 1.9658718 -0.52241319 4294183680
3.0244181 1.9526225 -0.50597471 4294053120
3.0120246 1.9447473 -0.49050534 4294053120
3.0060322 1.9410006 -0.475611 4293922560
3.0289431 1.9559026 -0.46468699 4294053120
3.0297155 1.9565202 -0.44972038 4294053120
3.0095892 1.943651 -0.43123779 4293922560
3.0042319 1.940311 -0.41453013 4293922560
3.0126088 1.945834 -0.39924666 4293922560
3.034605 1.9601479 -0.38516396 4294053120
3.0338323 1.9597661 -0.36763513 4294053120
2.9941895 1.9342927 -0.3452079 4293922560
2.9990361 1.9375361 -0.32775867 4293922560
3.0129497 1.946633 -0.31083211 4293922560
3.0166593 1.9491427 -0.29239964 4293922560
2.9941068 1.9346957 -0.27120864 4293922560
3.0123563 1.9465929 -0.25346744 4293922560
3.026042 1.955544 -0.23485845 4293922560
3.0265889 1.9560112 -0.21487583 4293922560
3.0042217 1.9416797 -0.19316801 4293922560
3.0112081 1.9463047 -0.17325965 4293922560
3.0152013 1.9489967 -0.15291744 4293922560
3.021631 1.9532626 -0.13246572 4293922560
3.0009756 1.9400327 -0.11076853 4293922560
3.0151772 1.949319 -0.090305798 4293922560
3.0331614 1.9610499 -0.069639139 4294053120
3.0328009 1.96093 -0.048344426 4294053120
3.0269408 1.9572566 -0.026952807 4293922560
3.0392053 1.965294 -0.0056621279 4294053120
3.047426 1.9707192 0.015786342 4294053120
3.0251892 1.9564626 0.03697798 4293922560
3.0516274 1.9736613 0.058720447 4294053120
3.0744083 1.9884984 0.080673933 4294183680
3.0654767 1.9828404 0.10182293 4294183680
3.0372593 1.9647157 0.12197331 4294053120
3.0673416 1.984275 0.14430393 4294183680
3.0654001 1.9831346 0.16518401 4294183680
3.0596404 1.9795262 0.18562688 4294053120
2.9720435 1.9230072 0.20032828 4293792000
3.0764747 1.9906408 0.2277254 4294183680
3.0705774 1.9869437 0.24743362 4294183680
3.0645697 1.983175 0.26678273 4294183680
2.9675112 1.9205256 0.27731639 4293792000
3.0840452 1.9960029 0.30746368 4294183680
3.0921061 2.001334 0.32731092 4294314240
3.0916388 2.0011501 0.34594482 4294314240
3.0437622 1.9703009 0.35863617 4294053120
2.8552246 1.8484588 0.35308108 4293400320
3.0859942 1.9978563 0.39887494 4294314240
3.0871613 1.9987311 0.41601786 4294314240
3.0799816 1.9942064 0.43154281 4294314240
3.0442157 1.9711857 0.44237319 4294183680
2.9096928 1.8842604 0.43756387 4293530880
3.0970435 2.0056109 0.48064801 4294314240
3.0994415 2.0072856 0.49553916 4294314240
3.0831776 1.9968836 0.50683451 4294314240
3.0699627 1.9884542 0.51792043 4294314240
3.0588148 1.9813622 0.52865821 4294183680
2.9959898 1.9408193 0.52960509 4293922560
3.0829394 1.9972277 0.55638039 4294314240
3.0861425 1.9994276 0.56779844 4294314240
3.0867069 1.99992 0.57809037 4294314240
3.0854814 1.9992543 0.58737737 4294314240
3.0879068 2.0009532 0.5966785 4294314240
3.0744367 1.99236 0.60219818 4294314240
3.0696497 1.9893892 0.60866374 4294314240
3.0581543 1.9820745 0.61305791 4294314240
3.0614169 1.9843178 0.61966419 4294314240
3.0458689 1.9743782 0.62173259 4294183680
3.0567663 1.9815683 0.62843961 4294314240
3.06445 1.9866785 0.63377708 4294314240
3.05983 1.983819 0.63584042 4294314240
3.0635829 1.9863846 0.6388886 4294314240
3.0633068 1.9863409 0.64035147 4294314240
3.0548708 1.9810104 0.63935983 4294314240
3.0506754 1.978428 0.63849843 4294314240
3.0497656 1.9779754 0.63757139 4294314240
3.058183 1.9835684 0.63783342 4294314240
3.0648189 1.9880086 0.63696653 4294314240
3.0689063 1.990798 0.63481474 4294314240
3.0685303 1.9906952 0.63099426 4294314240
3.0747998 1.9949014 0.62778628 4294314240
3.0775445 1.9968237 0.62311172 4294314240
3.0728724 1.993938 0.61621624 4294314240
3.0788989 1.99799 0.61073357 4294314240
3.0752273 1.9957542 0.60261744 4294314240
3.0725608 1.9941707 0.59401101 4294314240
3.0681047 1.9914271 0.58438873 4294314240
3.0675917 1.9912411 0.57485014 4294314240
3.0708351 1.9934927 0.56533748 4294314240
3.0977645 2.011111 0.55940849 4294444800
3.0738597 1.9957525 0.54368663 4294314240
3.0681179 1.992177 0.53064901 4294314240
3.0494506 1.9814079 0.43644756 4294183680
3.0719388 1.9961629 0.42346904 4294183680
3.0767591 1.9994478 0.40744579 4294314240
3.0456622 1.9794085 0.38638055 4294183680
3.0394442 1.9755245 0.36822855 4294053120
3.0576949 1.9875331 0.35253978 4294183680
3.0653851 1.9926842 0.3350943 4294183680
3.0314901 1.970822 0.31291899 4294053120
3.0204747 1.9638209 0.29301584 4294053120
3.0502474 1.9833199 0.27659538 4294053120
3.0501857 1.9834367 0.25699532 4294053120
3.0480587 1.9822118 0.23695187 4294053120
3.0370238 1.9751979 0.21604602 4294053120
3.0528364 1.9856321 0.19675966 4294053120
3.0474613 1.9822966 0.17583454 4294053120
3.045377 1.9810997 0.15495254 4294053120
3.0345404 1.9742132 0.13354754 4294053120
3.0326188 1.9731215 0.11246799 4294053120
3.0248537 1.9682306 0.091117084 4293922560
3.0002167 1.9523683 0.069392607 4293922560
3.0142097 1.9616241 0.048531529 4293922560
3.0243728 1.9683907 0.027384911 4293922560
3.0111907 1.9599748 0.0060293013 4293922560
3.0012572 1.9536706 -0.015169593 4293922560
3.0156777 1.9632076 -0.036526296 4293922560
3.0133078 1.961823 -0.057719093 4293922560
3.014667 1.9628645 -0.078920461 4293922560
3.0153668 1.9634769 -0.10003766 4293922560
3.0314717 1.9741133 -0.12168833 4294053120
3.0386696 1.9789551 -0.14301069 4294053120
3.0229774 1.9689003 -0.16303389 4294053120
3.0055132 1.9576905 -0.18256137 4293922560
3.0204937 1.9675975 -0.20386665 4293922560
3.0263052 1.9715369 -0.22447015 4294053120
2.9950018 1.9513143 -0.24189183 4293922560
3.0212033 1.9685278 -0.26369476 4294053120
3.0387719 1.9801227 -0.28473827 4294053120
3.0535684 1.9899141 -0.3054187 4294183680
3.029362 1.9743068 -0.32178879 4294053120
2.8780527 1.8759177 -0.32316741 4293400320
3.0287821 1.9742388 -0.35825658 4294053120
3.0449874 1.9849488 -0.37796322 4294183680
3.0289073 1.9746283 -0.393233 4294053120
3.002018 1.9572638 -0.40641919 4293922560
2.8738294 1.8738967 -0.40454632 4293400320
3.0564675 1.9930446 -0.44641346 4294183680
3.0518119 1.9901643 -0.46126884 4294183680
3.0538478 1.9916434 -0.47661012 4294183680
3.0420005 1.9840742 -0.48919761 4294183680
2.9974566 1.9551923 -0.49570158 4294053120
3.0302427 1.9767113 -0.51441401 4294183680
3.0237708 1.9726417 -0.52597755 4294053120
3.0312841 1.977688 -0.53938711 4294183680
3.0274129 1.9753119 -0.55016744 4294183680
3.0269766 1.9751744 -0.56093019 4294183680
3.027977 1.9759731 -0.57132047 4294183680
3.0184581 1.9699115 -0.57903963 4294183680
3.0085502 1.9635944 -0.58595997 4294053120
3.0036678 1.9605535 -0.59314466 4294053120
2.9847803 1.9483763 -0.59681284 4294053120
2.9668911 1.9368478 -0.5999043 4293922560
2.9742537 1.9417901 -0.60739374 4293922560
2.9252727 1.9099735 -0.60257351 4293792000
2.9328272 1.9150385 -0.60865098 4293792000
2.9363506 1.917473 -0.61319834 4293792000
2.9391472 1.9194328 -0.61688739 4293792000
2.8647764 1.8710334 -0.60356754 4293530880
2.8719068 1.8758171 -0.60669839 4293530880
2.9267099 1.9117159 -0.61923724 4293792000
2.934866 1.9171709 -0.62117994 4293792000
2.922514 1.9092391 -0.61805034 4293792000
2.962523 1.9354872 -0.62528306 4293922560
2.9709947 1.9411488 -0.62509286 4293922560
2.9725373 1.9422863 -0.62270582 4293922560
2.9940534 1.9564648 -0.6237607 4294053120
3.0098436 1.9669055 -0.62284714 4294053120
3.023273 1.975805 -0.62067568 4294183680
3.0165176 1.971523 -0.61362088 4294183680
3.0275362 1.978848 -0.60946786 4294183680
3.0190175 1.9734123 -0.60066378 4294183680
3.0141304 1.9703472 -0.59192228 4294053120
3.018579 1.9733795 -0.58433592 4294183680
3.0122125 1.9693463 -0.57398492 4294053120
3.0002258 1.9616399 -0.56195897 4294053120
2.9944608 1.957997 -0.55051619 4294053120
3.0028789 1.9636201 -0.54104733 4294053120
3.0237565 1.977385 -0.53310066 4294183680
3.0409207 1.9887245 -0.52374047 4294183680
3.0236635 1.9775691 -0.50784457 4294053120
2.9973335 1.960482 -0.49003696 4294053120
2.9988291 1.9615794 -0.47635016 4294053120
3.0165629 1.9732904 -0.46462271 4294053120
3.0210707 1.9763566 -0.45022237 4294053120
3.0095701 1.9689575 -0.43296167 4294053120
2.9968591 1.9607656 -0.41517049 4293922560
3.0167472 1.9738858 -0.40140978 4294053120
3.0229573 1.9780638 -0.38523337 4294053120
3.0338435 1.9852995 -0.3691321 4294053120
2.9826958 1.95197 -0.34528255 4293922560
2.995857 1.9606919 -0.3287555 4293922560
3.0055516 1.9671472 -0.31134731 4293922560
3.0092483 1.9696801 -0.29289189 4293922560
2.9784391 1.9496435 -0.27091298 4293792000
3.0083687 1.9693341 -0.25420141 4293922560
3.0185988 1.9761405 -0.23527864 4294053120
3.014549 1.9736056 -0.21494065 4293922560
2.9968641 1.9621496 -0.19353686 4293922560
3.0038247 1.9668168 -0.17360273 4293922560
3.0161638 1.9750034 -0.15366513 4293922560
3.0183902 1.9765738 -0.13294268 4293922560
2.9905064 1.9584407 -0.11091319 4293922560
3.0161462 1.975332 -0.090798311 4293922560
3.0215142 1.9789581 -0.069748677 4294053120
3.0178084 1.9766459 -0.048399761 4293922560
3.0153174 1.9751285 -0.027065052 4293922560
3.0320618 1.9862018 -0.0057875398 4294053120
3.0357239 1.9887125 0.015670979 4294053120
3.0211022 1.9792542 0.036949821 4294053120
3.0440917 1.9944183 0.058681153 4294053120
3.0637825 2.0074241 0.08058545 4294183680
3.0695953 2.0113451 0.102223 4294183680
3.0084801 1.9714427 0.12117714 4293922560
3.0566509 2.0030997 0.14423519 4294183680
3.0653293 2.008898 0.16568951 4294183680
3.0571551 2.0036602 0.18606576 4294183680
2.9606307 1.940558 0.20021334 4293792000
3.0688357 2.0115421 0.22791427 4294183680
3.071306 2.0132768 0.24832001 4294183680
3.056973 2.0040047 0.26702812 4294183680
2.9686246 1.9462451 0.27836916 4293792000
3.0838721 2.0218611 0.30850878 4294314240
3.0918965 2.0272369 0.32842886 4294314240
3.092258 2.0275927 0.34722757 4294314240
3.044559 1.9964576 0.35999602 4294183680
2.8525779 1.8707733 0.3540082 4293400320
3.0857837 2.02371 0.4002721 4294314240
3.0753038 2.0169623 0.41591567 4294314240
3.0665736 2.0113614 0.43122289 4294314240
3.0399945 1.9940611 0.44336224 4294183680
2.9101324 1.9090593 0.43922016 4293661440
3.0884633 2.0260749 0.48107183 4294314240
3.0875337 2.025589 0.49545208 4294314240
3.0837593 2.0232384 0.50879276 4294314240
3.0656192 2.0114696 0.51909798 4294314240
3.0503709 2.001596 0.52915543 4294183680
2.9919212 1.9633933 0.53085136 4294053120
3.0793591 2.0208547 0.5578053 4294314240
3.0825448 2.0230711 0.56925625 4294444800
3.0831025 2.0235643 0.57957953 4294444800
3.0736189 2.0174727 0.58732468 4294314240
3.0801611 2.0218928 0.59742814 4294444800
3.0741665 2.0180902 0.60441822 4294314240
3.0578439 2.0075128 0.60862666 4294314240
3.0725458 2.0172884 0.61826903 4294314240
3.0570593 2.0072596 0.62113988 4294314240
3.0456886 1.9999309 0.62406749 4294314240
3.049124 2.0023172 0.62927204 4294314240
3.0526569 2.0047688 0.63376826 4294314240
3.0521715 2.0045843 0.6366936 4294314240
3.059202 2.0093334 0.6404379 4294314240
3.0745716 2.0195575 0.64518178 4294444800
3.0431077 1.9990418 0.63937563 4294314240
3.0430439 1.9991368 0.63938236 4294314240
3.0577819 2.00895 0.64173216 4294314240
3.0579309 2.009187 0.64027345 4294314240
3.0612464 2.0115037 0.63872027 4294314240
3.0644934 2.0137768 0.63639688 4294314240
3.069061 2.0169179 0.63359082 4294314240
3.0786028 2.0233271 0.6310451 4294444800
3.0698006 2.0176902 0.62401497 4294314240
3.0692675 2.0174844 0.61794502 4294314240
3.0670259 2.0161572 0.610816 4294314240
3.0716145 2.0193176 0.60432297 4294314240
3.0607088 2.0122995 0.59410685 4294314240
3.0603952 2.0122406 0.58527726 4294314240
3.0557556 2.0093398 0.57495934 4294314240
3.078809 2.0246367 0.56910282 4294444800
3.0899408 2.0321021 0.5602783 4294444800
3.0743954 2.022037 0.54600906 4294314240
3.0604093 2.0129957 0.53149986 4294314240
3.0380239 1.998893 0.43646598 4294183680
3.0645056 2.0164587 0.42404813 4294314240
3.0818386 2.0280118 0.40965858 4294314240
3.0508652 2.0078006 0.38850036 4294183680
3.0311604 1.9949974 0.36861894 4294053120
3.0544777 2.0104887 0.35350171 4294183680
3.0550678 2.011034 0.33523488 4294183680
3.0284488 1.9936812 0.31378689 4294053120
3.023922 1.9908595 0.29445401 4294053120
3.0388103 2.0008116 0.27660444 4294053120
3.0524237 2.0099263 0.25815037 4294183680
3.0514162 2.0094221 0.23810233 4294183680
3.0337899 1.9979815 0.21662822 4294053120
3.0428143 2.0040791 0.1968552 4294053120
3.0502114 2.0091069 0.17664923 4294183680
3.033953 1.9985644 0.15495414 4294053120
3.0316067 1.9971789 0.13391559 4294053120
3.0295892 1.9960096 0.11277235 4294053120
3.0251932 1.9932745 0.091460712 4294053120
2.9964736 1.9745233 0.069558792 4293922560
3.0154245 1.9871597 0.04872128 4294053120
3.0173008 1.988554 0.027415236 4294053120
3.0157557 1.987695 0.0060441322 4294053120
2.993983 1.9735131 -0.015200473 4293922560
3.0043559 1.9805032 -0.03653555 4293922560
3.0174396 1.9892802 -0.058035947 4294053120
3.0108607 1.9851046 -0.079133876 4293922560
3.0115554 1.9857206 -0.10030476 4293922560
3.0242591 1.9942493 -0.12187234 4294053120
3.0230844 1.9936339 -0.14282545 4294053120
3.0116217 1.9862384 -0.16304897 4294053120
3.0025606 1.9804242 -0.18309048 4293922560
3.0249836 1.9953606 -0.20496546 4294053120
3.0149338 1.988894 -0.22448742 4294053120
2.9920766 1.9739833 -0.24258958 4293922560
3.0173426 1.9907962 -0.26437387 4294053120
3.0315118 2.0002952 -0.28515092 4294053120
3.037931 2.0046849 -0.30501819 4294183680
3.0254571 1.9966166 -0.32261032 4294053120
2.8630762 1.889685 -0.3227154 4293400320
3.0215473 1.9943497 -0.35877177 4294053120
3.0252347 1.9969372 -0.3769443 4294053120
3.0310099 2.0009017 -0.39501837 4294183680
2.9990208 1.9799535 -0.40757012 4294053120
2.8671641 1.8931149 -0.40515265 4293530880
3.0491126 2.0133083 -0.44704214 4294183680
3.0486114 2.0131319 -0.46254808 4294183680
3.0423584 2.0091593 -0.47662839 4294183680
3.0305548 2.0015223 -0.48921517 4294183680
2.9944441 1.9778411 -0.49709457 4294053120
3.0147083 1.9913653 -0.51372385 4294053120
3.0123911 1.9899855 -0.52599251 4294053120
3.0198753 1.9950749 -0.53940105 4294183680
3.0283926 2.0008466 -0.55244356 4294183680
3.0197055 1.9952593 -0.5617106 4294183680
3.0165782 1.9933416 -0.57133061 4294183680
3.0148344 1.9923364 -0.58054245 4294183680
3.0013409 1.9835711 -0.58677405 4294053120
2.9818902 1.9708694 -0.59107006 4294053120
2.9735415 1.9654979 -0.59681654 4294053120
2.9639454 1.9593009 -0.60157973 4293922560
2.9663429 1.9610249 -0.60806954 4293922560
2.9224777 1.9321861 -0.60427541 4293792000
2.9258916 1.9345784 -0.60950494 4293792000
2.8663702 1.895388 -0.60081309 4293530880
2.8617709 1.8924816 -0.60287815 4293530880
2.8613796 1.8923547 -0.60512412 4293530880
2.8569813 1.8895792 -0.60581243 4293530880
2.8650064 1.895013 -0.60843438 4293530880
2.9312029 1.9388947 -0.62273556 4293792000
2.9197185 1.9314356 -0.61977684 4293792000
2.9116232 1.9262151 -0.61682141 4293792000
2.9556947 1.9554791 -0.62419659 4293922560
2.9728405 1.9669454 -0.62509996 4294053120
2.9682155 1.964018 -0.62067664 4294053120
2.9985161 1.9841828 -0.6228134 4294053120
2.9998763 1.9852124 -0.61815649 4294183680
3.0010409 1.9861122 -0.61273694 4294183680
3.0118363 1.9933804 -0.60855246 4294183680
3.0117552 1.9934555 -0.60143799 4294183680
3.018409 1.9979843 -0.59495932 4294183680
3.0113204 1.9934227 -0.58508176 4294183680
3.0008614 1.9866304 -0.57392579 4294053120
2.9963989 1.9838035 -0.56330645 4294053120
2.9947152 1.982814 -0.55258554 4294053120
2.9989831 1.9857614 -0.54232389 4294053120
3.0135241 1.9955058 -0.53323418 4294183680
3.0261581 2.003989 -0.52309126 4294183680
3.0163956 1.9976517 -0.50846273 4294183680
2.997602 1.9853361 -0.49185804 4294053120
2.9916577 1.9815227 -0.4769251 4294053120
3.0093262 1.9933368 -0.46517408 4294053120
3.0138187 1.9964304 -0.45074984 4294053120
3.002363 1.9889668 -0.43346503 4294053120
2.9855599 1.9779619 -0.41507125 4293922560
3.0063038 1.9918126 -0.4014315 4294053120
3.0231655 2.0030942 -0.38661727 4294053120
3.022403 2.0027072 -0.36902198 4294053120
2.9789157 1.9740298 -0.34604287 4293922560
2.9920301 1.9828295 -0.32946754 4293922560
3.0099967 1.994843 -0.31287822 4294053120
3.0053756 1.9918987 -0.29350525 4294053120
2.9713595 1.969485 -0.27117199 4293922560
2.9936273 1.9843477 -0.2537854 4293922560
3.0105367 1.9956627 -0.23541109 4294053120
3.0119128 1.996689 -0.21543875 4294053120
3.0013704 1.9898198 -0.19443703 4293922560
3.0007491 1.9895221 -0.17395027 4293922560
3.0048821 1.9923741 -0.15353152 4293922560
3.013443 1.99816 -0.13309012 4294053120
2.9939964 1.9853883 -0.11132995 4293922560
3.0097551 1.9959438 -0.090807326 4294053120
3.0235424 2.0051939 -0.06992089 4294053120
3.0217428 2.0041153 -0.048507206 4294053120
3.0126164 1.9981806 -0.026998959 4294053120
3.0297048 2.0096202 -0.0056587616 4294053120
3.0357416 2.0137358 0.015876571 4294053120
2.9990883 1.9895537 0.036978863 4293922560
3.0450172 2.0201135 0.059069224 4294183680
3.0562978 2.0277069 0.080847651 4294183680
3.0693007 2.036443 0.10275156 4294183680
3.0087695 1.9964252 0.12179594 4294053120
3.0504341 2.0241652 0.14464186 4294183680
3.0637279 2.0330958 0.16638276 4294183680
3.0539184 2.0267072 0.18672587 4294183680
2.8980963 1.923486 0.19691297 4293530880
3.0542431 2.0271552 0.22784989 4294183680
3.0681064 2.0364666 0.24915354 4294314240
3.0612006 2.0320036 0.26855665 4294183680
2.9573927 1.9632626 0.27851754 4293792000
3.073375 2.0403152 0.30877841 4294314240
3.0901544 2.0515656 0.32963577 4294314240
3.0747371 2.0414567 0.3467254 4294314240
3.040499 2.0188599 0.36102247 4294183680
2.8500683 1.8926237 0.35516918 4293400320
3.0757565 2.0424933 0.40062946 4294314240
3.0715766 2.0398407 0.41712496 4294314240
3.0549634 2.0289366 0.43135986 4294314240
3.0156879 2.0029917 0.44163081 4294053120
2.9189527 1.9389068 0.44233581 4293661440
3.080899 2.0465171 0.48184356 4294444800
3.0874023 2.0509579 0.49743143 4294444800
3.0836356 2.0485823 0.51081973 4294444800
3.0581331 2.0317769 0.51991296 4294314240
3.0553081 2.0300262 0.53212738 4294314240
2.9847088 1.9832765 0.53168827 4294053120
3.0718133 2.0412376 0.55865604 4294444800
3.0690067 2.0395012 0.56901294 4294444800
3.0697668 2.040134 0.57936388 4294444800
3.077606 2.0454693 0.59040189 4294444800
3.0710425 2.04124 0.59800851 4294444800
3.0707407 2.0411699 0.60611498 4294444800
3.0585859 2.033227 0.61115491 4294314240
3.0463512 2.0252309 0.61540991 4294314240
3.0536904 2.0302384 0.62287247 4294314240
3.0497501 2.0277531 0.62732214 4294314240
3.0416768 2.0225224 0.63017142 4294314240
3.0525818 2.0299022 0.63620037 4294314240
3.0479937 2.0269885 0.63827473 4294314240
3.0476124 2.0268707 0.64047229 4294314240
3.0514383 2.0295501 0.64279962 4294314240
3.0512681 2.0295742 0.64353442 4294314240
3.0471025 2.0269437 0.64267296 4294314240
3.0544019 2.0319347 0.64346296 4294314240
3.0422449 2.023993 0.63941705 4294314240
3.0611365 2.0366931 0.64111286 4294444800
3.0725782 2.0444427 0.64047587 4294444800
3.0574353 2.034517 0.63357335 4294314240
3.066941 2.0409815 0.63102078 4294444800
3.0696664 2.0429385 0.6263203 4294444800
3.0687864 2.0424991 0.62015086 4294444800
3.0751224 2.0468595 0.61469704 4294444800
3.0604391 2.0372403 0.60436195 4294314240
3.0604076 2.0373666 0.59624028 4294314240
3.0545475 2.0336163 0.5863108 4294314240
3.0556958 2.034529 0.57705379 4294314240
3.0671461 2.0422971 0.56902409 4294444800
3.0813479 2.0518978 0.56075662 4294444800
3.0832736 2.0533314 0.54956001 4294444800
3.0642893 2.0408502 0.53408712 4294314240
3.0452933 2.0288224 0.4391813 4294183680
3.066107 2.042835 0.42589384 4294314240
3.0783467 2.0511413 0.4107641 4294314240
3.0428331 2.0276523 0.3889668 4294183680
3.0353918 2.0228541 0.37054315 4294183680
3.0486822 2.031862 0.35418487 4294183680
3.0525181 2.0345747 0.33623758 4294183680
3.024235 2.0158949 0.31455058 4294053120
3.0290344 2.0192494 0.29607442 4294183680
3.037158 2.0248194 0.27750984 4294183680
3.044914 2.0301456 0.25850189 4294183680
3.039475 2.0266814 0.23808151 4294183680
3.0302117 2.0206687 0.21719755 4294053120
3.0436518 2.0297844 0.1976559 4294183680
3.0428867 2.0294352 0.176897 4294183680
3.0333219 2.0232208 0.15550701 4294053120
3.0212753 2.0153515 0.13396774 4294053120
3.0263255 2.0188777 0.1130742 4294053120
3.0224841 2.0164771 0.091719493 4294053120
2.9785624 1.9873548 0.069407709 4293922560
3.0172751 2.0133245 0.048924051 4294053120
3.0182498 2.0141344 0.027514832 4294053120
3.0087829 2.0079815 0.0060434393 4294053120
2.9863973 1.993212 -0.015230175 4293922560
3.0055177 2.0061231 -0.036706116 4294053120
3.0105453 2.0096362 -0.058137354 4294053120
3.0061519 2.006865 -0.07932701 4294053120
3.0008719 2.0035019 -0.1003431 4293922560
3.0176756 2.0148721 -0.1220874 4294053120
3.0238736 2.0191672 -0.14342956 4294053120
3.0047326 2.0065546 -0.16331469 4294053120
3.0044286 2.0065105 -0.18392737 4294053120
3.010083 2.0104427 -0.20474917 4294053120
3.0163808 2.0148046 -0.2254774 4294053120
2.9734597 1.9863138 -0.2420143 4293922560
3.0066192 2.0086055 -0.26445916 4294053120
3.032753 2.0262098 -0.28638327 4294183680
3.0309289 2.0251505 -0.3054994 4294183680
3.0147831 2.0145283 -0.3227202 4294053120
2.8679087 1.9166092 -0.32452291 4293530880
3.0227976 2.0201941 -0.36031839 4294183680
3.0236397 2.0209129 -0.37821043 4294183680
3.0184274 2.0175877 -0.39490122 4294183680
2.9803994 1.9923419 -0.40660319 4293922560
2.8686316 1.9178327 -0.40693477 4293530880
3.0460923 2.0365345 -0.44833019 4294314240
3.0377531 2.0311184 -0.46268183 4294183680
3.0305893 2.0264862 -0.47661796 4294183680
3.0272501 2.0244081 -0.49057189 4294183680
2.990448 1.9999673 -0.49834988 4294053120
3.0147455 2.016356 -0.51571649 4294183680
3.0172949 2.0182106 -0.52888674 4294183680
3.01741 2.0184379 -0.54104048 4294183680
3.0093915 2.0132275 -0.55108643 4294183680
3.0045497 2.0101395 -0.56103909 4294183680
3.0091867 2.0133872 -0.57212311 4294183680
3.0033433 2.0096273 -0.58055097 4294183680
2.9821014 1.9955699 -0.58524662 4294053120
2.9779038 1.9929075 -0.59254748 4294053120
2.9745026 1.9907763 -0.59930342 4294053120
2.9600213 1.9812338 -0.60308766 4294053120
2.908026 1.9465977 -0.59837407 4293792000
2.9228015 1.956619 -0.6066587 4293792000
2.8642151 1.9175657 -0.59891218 4293661440
2.863627 1.9173067 -0.60253334 4293661440
2.8664103 1.9193023 -0.60616606 4293661440
2.8660178 1.9191728 -0.60842192 4293661440
2.865726 1.9191098 -0.60998929 4293661440
2.8581715 1.9141859 -0.60929286 4293530880
2.8499012 1.9087815 -0.60772955 4293530880
2.9126742 1.950923 -0.62062931 4293792000
2.9087012 1.948395 -0.61854154 4293792000
2.9444213 1.972435 -0.62416953 4293922560
2.9365633 1.9673059 -0.61979449 4293922560
2.9650793 1.986526 -0.62236559 4294053120
2.9760203 1.9939815 -0.62046623 4294053120
2.9925275 2.0051639 -0.61896569 4294183680
2.9920399 2.0049677 -0.61319673 4294183680
2.9999859 2.0104179 -0.60843295 4294183680
3.0010214 2.0112402 -0.60154033 4294183680
3.0003326 2.0109072 -0.59360516 4294183680
3.007962 2.0161445 -0.58661503 4294183680
2.9992549 2.0104396 -0.57576066 4294183680
2.9898269 2.0042505 -0.56416339 4294053120
2.983109 1.9998753 -0.55248618 4294053120
2.9887094 2.003751 -0.5424673 4294053120
3.0183907 2.0237598 -0.53607547 4294183680
3.0190594 2.024332 -0.52378833 4294183680
3.0105691 2.0187666 -0.50934708 4294183680
2.990097 2.0051713 -0.49242494 4294053120
2.9833536 2.0007734 -0.47733849 4294053120
2.995295 2.0088966 -0.46468759 4294053120
3.0108967 2.0194731 -0.45194858 4294183680
2.9958889 2.0095344 -0.43409339 4294053120
2.9846745 2.0021367 -0.41644394 4294053120
2.995177 2.009295 -0.40137517 4294053120
3.0052843 2.0161886 -0.3856931 4294053120
3.020879 2.0267615 -0.37014416 4294183680
2.9744124 1.9957266 -0.34673578 4293922560
2.9849739 2.002924 -0.32983741 4293922560
2.9967725 2.0109513 -0.31257796 4294053120
3.0030415 2.0152712 -0.2942847 4294053120
2.969583 1.9929501 -0.27193093 4293922560
2.9983482 2.0123556 -0.25504208 4294053120
3.0055914 2.0173285 -0.2357991 4294053120
3.0076854 2.0188484 -0.21583275 4294053120
2.986995 2.0050855 -0.19411187 4293922560
3.0021412 2.0153594 -0.1745687 4294053120
3.0066092 2.018471 -0.15407713 4294053120
3.0057201 2.0179889 -0.13311881 4294053120
2.982197 2.0023217 -0.11117386 4293922560
3.0040989 2.0171297 -0.09084256 4294053120
3.0202205 2.0280612 -0.0699692 4294053120
3.0143406 2.0242302 -0.048427459 4294053120
3.0042357 2.0175633 -0.026879054 4294053120
3.0230973 2.0303352 -0.0055189044 4294053120
3.0328987 2.0370276 0.016070992 4294183680
3.0075428 2.0201247 0.037366256 4294053120
3.0424976 2.0437005 0.059397321 4294183680
3.0620334 2.0569293 0.081457071 4294314240
3.0575562 2.05404 0.10290958 4294183680
3.001404 2.0164602 0.1221172 4294053120
3.055279 2.0527439 0.14557561 4294183680
3.0645442 2.0590811 0.16721703 4294314240
3.045871 2.0466602 0.1871046 4294183680
2.8952892 1.9456652 0.19762178 4293530880
3.0590484 2.0557423 0.22923149 4294314240
3.0645754 2.0595717 0.24997453 4294314240
3.0580828 2.0553293 0.26946399 4294314240
2.8908637 1.9431388 0.27348429 4293530880
3.0755906 2.0673256 0.31033316 4294314240
3.079181 2.0698566 0.32988003 4294314240
3.07866 2.0696268 0.34864241 4294314240
3.0235035 2.0326941 0.36053506 4294183680
2.8548338 1.9194973 0.35725531 4293530880
3.0805764 2.0712774 0.40293312 4294444800
3.0744359 2.0672736 0.41925031 4294444800
3.0556319 2.0547607 0.43324304 4294314240
3.0115433 2.0252562 0.44284827 4294183680
2.9201152 1.9639353 0.4443312 4293792000
3.0810232 2.0721929 0.48383814 4294444800
3.0860453 2.0756931 0.49924481 4294444800
3.0762477 2.0692334 0.51167613 4294444800
3.0661299 2.0625582 0.52338195 4294444800
3.0218499 2.0329182 0.52845478 4294183680
2.9970715 2.0163856 0.53603441 4294183680
3.071981 2.0668721 0.56093365 4294444800
3.080672 2.072844 0.57345802 4294444800
3.0776703 2.0709553 0.58317316 4294444800
3.0661263 2.0633228 0.59055507 4294444800
3.0756483 2.0698564 0.60128498 4294444800
3.0704279 2.0664773 0.60845882 4294444800
3.0542226 2.0557101 0.61270237 4294444800
3.0543077 2.0558996 0.61944741 4294444800
3.0534317 2.0554433 0.62527311 4294444800
3.0462322 2.0507338 0.62906313 4294314240
3.0455475 2.0504074 0.63344318 4294314240
3.0490496 2.0528986 0.63795131 4294444800
3.0351017 2.0436502 0.63806367 4294314240
3.0347221 2.0435309 0.64025426 4294314240
3.0303609 2.0407331 0.64085299 4294314240
3.0510066 2.0547643 0.64596981 4294444800
3.0435882 2.049911 0.64441234 4294314240
3.0477169 2.0528297 0.64453179 4294444800
3.0542777 2.0573866 0.64440143 4294444800
3.0463588 2.0521982 0.64047259 4294444800
3.0538411 2.0573776 0.63901556 4294444800
3.0538976 2.0575593 0.63525277 4294444800
3.0503559 2.0553191 0.63000417 4294444800
3.0636909 2.0644429 0.62747192 4294444800
3.0684707 2.0678082 0.62242734 4294444800
3.0737538 2.0715134 0.61673582 4294444800
3.0724399 2.0707772 0.6089974 4294444800
3.0601344 2.0626383 0.5984149 4294444800
3.0510242 2.0566514 0.58781773 4294314240
3.0497844 2.0559659 0.57807845 4294314240
3.0706069 2.0701439 0.57176858 4294444800
3.0781898 2.0754049 0.56224597 4294444800
3.0751414 2.0735042 0.55012536 4294444800
3.0570998 2.0615013 0.53478336 4294314240
3.0330706 2.04706 0.439201 4294183680
3.0588436 2.064599 0.42661524 4294314240
3.0717545 2.0734656 0.41155595 4294444800
3.0384979 2.0511916 0.38999787 4294183680
3.0343986 2.0485842 0.37193438 4294183680
3.0479929 2.057914 0.35555369 4294314240
3.0518174 2.0606539 0.3375394 4294314240
3.027781 2.0445952 0.31621194 4294183680
3.0239506 2.0421696 0.29680058 4294183680
3.0447953 2.0563965 0.2793546 4294183680
3.0384672 2.0522861 0.2590321 4294183680
3.0330434 2.0487862 0.23857558 4294183680
3.0296204 2.0466363 0.21806921 4294183680
3.0487995 2.0597448 0.19882601 4294183680
3.0595694 2.067178 0.17861661 4294314240
3.0211442 2.0413969 0.15556109 4294053120
3.0174148 2.0390399 0.13438688 4294053120
3.0240989 2.0437148 0.11349905 4294183680
3.0205343 2.0414689 0.092084631 4294053120
2.981113 2.0150056 0.069800697 4293922560
3.010155 2.0347815 0.049068172 4294053120
3.0189605 2.0408907 0.027692623 4294053120
3.0075419 2.0333383 0.006128971 4294053120
2.9932313 2.0238311 -0.015266087 4294053120
3.0062113 2.0327616 -0.036795728 4294053120
3.0051327 2.0321939 -0.058194071 4294053120
2.9837153 2.0178812 -0.078967817 4293922560
2.996491 2.026675 -0.1005248 4294053120
3.0163383 2.0402498 -0.12244903 4294053120
3.0215383 2.0439258 -0.14381789 4294183680
2.9830775 2.0180881 -0.16270074 4293922560
2.9977605 2.0281734 -0.1841754 4294053120
3.0133121 2.0388472 -0.20571549 4294053120
3.004493 2.0330446 -0.22540498 4294053120
2.9455333 1.9933356 -0.24061011 4293792000
3.0135591 2.0394943 -0.26605743 4294053120
3.0320754 2.0521762 -0.28738716 4294183680
3.0336566 2.0534058 -0.3069219 4294183680
2.9884427 2.0229824 -0.32109019 4294053120
2.8032942 1.8978934 -0.31837332 4293269760
3.0172548 2.0427878 -0.36101776 4294183680
3.016865 2.0426819 -0.37879398 4294183680
3.0092819 2.0377083 -0.39520088 4294183680
2.9701765 2.0114031 -0.40675217 4293922560
2.8000383 1.8964207 -0.39868972 4293269760
3.0362229 2.0564089 -0.44858915 4294314240
3.0239167 2.0482359 -0.46234065 4294183680
3.0293086 2.0520406 -0.47825417 4294314240
3.017931 2.0444934 -0.49094817 4294183680
2.9875565 2.0240841 -0.49979573 4294053120
3.0092635 2.0389318 -0.51677471 4294183680
2.9995079 2.0324786 -0.52780563 4294183680
2.9987442 2.0321124 -0.53978038 4294183680
2.9975019 2.0314209 -0.55104709 4294183680
2.9861569 2.0238872 -0.55977756 4294183680
2.9889483 2.0259256 -0.57049334 4294183680
2.9668162 2.0110826 -0.57572526 4294053120
2.9515247 2.00087 -0.58151066 4294053120
2.9231744 1.9818091 -0.58392447 4293922560
2.8785422 1.9517139 -0.58221471 4293661440
2.8971777 1.9644792 -0.59258991 4293792000
2.8418818 1.9271516 -0.5870508 4293530880
2.8533483 1.9350575 -0.59456283 4293661440
2.8600068 1.9397055 -0.60041112 4293661440
2.8716488 1.9477309 -0.60663545 4293661440
2.8630028 1.942006 -0.60786402 4293661440
2.8707604 1.9473982 -0.61187226 4293661440
2.8582411 1.9390454 -0.61083466 4293661440
2.8776097 1.9523076 -0.61591387 4293661440
2.8579609 1.9391191 -0.61190939 4293661440
2.8506391 1.9342856 -0.60983592 4293661440
2.8344536 1.9234407 -0.60515857 4293530880
2.8273318 1.9187397 -0.60172653 4293530880
2.8820119 1.9559466 -0.61073053 4293792000
2.913717 1.9775769 -0.61405581 4293922560
2.9454792 1.9992477 -0.6165964 4294053120
2.9683027 2.0148578 -0.61646181 4294053120
2.9697425 2.0159645 -0.61111969 4294053120
2.9824085 2.0246861 -0.60735458 4294183680
2.9809644 2.0238354 -0.59998238 4294183680
2.9939618 2.0327818 -0.59479982 4294183680
2.9901867 2.0303488 -0.58556771 4294183680
2.9961581 2.0345278 -0.57756722 4294183680
2.9853289 2.0273063 -0.56567371 4294183680
2.9778357 2.022347 -0.55382723 4294053120
2.988358 2.0296125 -0.54469401 4294183680
3.0086756 2.0435264 -0.53661114 4294183680
3.0216181 2.0524354 -0.52646577 4294314240
3.0045764 2.0409925 -0.51050454 4294183680
2.9844542 2.0274565 -0.49360514 4294053120
2.97774 2.0230205 -0.47849548 4294053120
3.0049601 2.0416207 -0.46821639 4294183680
3.006067 2.0424938 -0.45319182 4294183680
2.9877439 2.0301738 -0.43481132 4294053120
2.9755938 2.0220435 -0.41700864 4294053120
3.0030684 2.0408187 -0.40422955 4294183680
3.0120764 2.0470552 -0.3883037 4294183680
3.0137594 2.0483174 -0.37093961 4294183680
2.9731393 2.0208483 -0.34817019 4294053120
2.9909081 2.0330338 -0.33202165 4294053120
3.0055161 2.0430734 -0.31495783 4294053120
2.9979613 2.0380588 -0.29517245 4294053120
2.97858 2.0250092 -0.27406728 4294053120
2.9999509 2.0396433 -0.25642216 4294053120
3.0060775 2.0439219 -0.2370075 4294053120
3.0102665 2.0468843 -0.2171143 4294053120
2.9769182 2.0243406 -0.19445685 4293922560
3.0018373 2.041388 -0.17548618 4294053120
3.0062423 2.0444968 -0.15491495 4294053120
3.0126266 2.0489507 -0.13420649 4294053120
2.9817626 2.0280898 -0.1118462 4293922560
3.0121987 2.0488904 -0.091705717 4294053120
3.0198081 2.0541775 -0.070490882 4294183680
3.0055468 2.0445988 -0.048726205 4294053120
3.0082548 2.0465543 -0.027279248 4294053120
3.03654 2.0658979 -0.0058316779 4294183680
3.0349433 2.0649283 0.015886417 4294183680
2.9963295 2.0387905 0.037127148 4294053120
3.0475907 2.0737593 0.059471007 4294183680
3.0587788 2.0814834 0.081436642 4294314240
3.0609553 2.0830803 0.1031726 4294314240
2.9616778 2.0156834 0.12075687 4293922560
3.0544891 2.0789173 0.14586152 4294314240
3.0637145 2.085309 0.16758242 4294314240
3.0500689 2.0761452 0.18785332 4294314240
2.9075208 1.9793003 0.19899949 4293661440
3.0640056 2.085861 0.23026548 4294314240
3.0608463 2.0838304 0.25042203 4294314240
3.0523975 2.0782011 0.26979703 4294314240
2.9030783 1.9767284 0.27549854 4293661440
3.0829291 2.0992126 0.31207198 4294444800
3.0832016 2.0995188 0.33139262 4294444800
3.0753388 2.0942893 0.34943026 4294444800
3.0310247 2.0642538 0.36264887 4294183680
2.8630266 1.9500409 0.35950097 4293530880
3.0770977 2.0958512 0.40387499 4294444800
3.0620046 2.085701 0.4190259 4294444800
3.0588765 2.0836945 0.43523374 4294314240
2.9719741 2.0246613 0.43861768 4294053120
2.8358321 1.9321014 0.43312326 4293530880
3.0806799 2.0989089 0.48553821 4294444800
3.0855031 2.1023185 0.5009805 4294444800
3.0704391 2.0921881 0.51259261 4294444800
3.043319 2.073848 0.52142876 4294314240
3.033349 2.0671849 0.53243363 4294314240
2.9222331 1.9916404 0.52466691 4293922560
3.0658758 2.0895905 0.56193531 4294444800
3.0722899 2.0940881 0.57407391 4294444800
3.0742676 2.0955653 0.58475363 4294444800
3.0651419 2.0894799 0.59263128 4294444800
3.0591297 2.0855157 0.60037524 4294444800
3.0583978 2.0851488 0.60843438 4294444800
3.0510528 2.0802772 0.61445487 4294444800
3.0574222 2.0847499 0.6225062 4294444800
3.0460763 2.0771532 0.62622917 4294444800
3.0452933 2.0767541 0.63135916 4294444800
3.0320072 2.0678351 0.63314629 4294314240
3.0314219 2.0675714 0.63681269 4294314240
3.0268669 2.0646031 0.63889581 4294314240
3.030556 2.0672545 0.64196056 4294314240
3.0302789 2.0672035 0.64343661 4294314240
3.0301073 2.0672252 0.64417839 4294314240
3.0259719 2.0645454 0.64332324 4294314240
3.0386028 2.0732973 0.64525986 4294444800
3.0509574 2.0818629 0.64637029 4294444800
3.0380592 2.0732107 0.64139426 4294444800
3.0495794 2.0812099 0.64079899 4294444800
3.052891 2.0836132 0.6377176 4294444800
3.0575066 2.0869067 0.63414866 4294444800
3.0667162 2.0933349 0.63076323 4294444800
3.0657644 2.0928335 0.62454337 4294444800
3.0612569 2.0899074 0.61688387 4294444800
3.0581028 2.0879047 0.60879362 4294444800
3.054678 2.0857177 0.59995711 4294444800
3.0500331 2.0826988 0.59020674 4294444800
3.0528805 2.0847931 0.58121979 4294444800
3.0646317 2.0929642 0.57319951 4294444800
3.0811787 2.1044102 0.56531167 4294575360
3.0707939 2.0974772 0.55183101 4294444800
3.0520098 2.0848105 0.53632593 4294444800
3.0493293 2.0832212 0.44325227 4294314240
3.0668118 2.095315 0.42937499 4294444800
3.0714734 2.0986576 0.41310865 4294444800
3.0465615 2.0818083 0.39253643 4294314240
3.026875 2.0685251 0.37244806 4294183680
3.0487406 2.0836167 0.35700971 4294314240
3.0491607 2.0840645 0.33854395 4294314240
3.0207465 2.0648184 0.31669277 4294183680
3.0250542 2.0679209 0.29804498 4294183680
3.0413537 2.0792165 0.28010708 4294314240
3.042465 2.0801377 0.26035795 4294314240
3.0411863 2.0794265 0.24011834 4294314240
3.0363896 2.0763118 0.21937777 4294183680
3.0470366 2.08375 0.1994593 4294314240
3.0513642 2.0868709 0.17880845 4294314240
3.0264583 2.070013 0.15640831 4294183680
3.0323045 2.074172 0.13553476 4294183680
3.0294507 2.0723844 0.11410633 4294183680
3.0279865 2.0715468 0.0926321 4294183680
2.9379957 2.0101869 0.069052301 4293792000
3.0227721 2.0683086 0.04942029 4294183680
3.0140414 2.0625021 0.027719611 4294183680
3.0046704 2.0562568 0.0061087641 4294053120
2.9954076 2.0500846 -0.015379354 4294053120
3.0147581 2.0634809 -0.037092224 4294183680
3.0105598 2.0607722 -0.058573652 4294053120
2.9964197 2.0512624 -0.079665869 4294053120
3.0112755 2.0615869 -0.10146967 4294183680
3.0244176 2.0707405 -0.12330773 4294183680
3.0256605 2.0717537 -0.14462616 4294183680
2.9901903 2.047646 -0.16377726 4294053120
3.014544 2.0644722 -0.18598802 4294183680
3.0209622 2.0690267 -0.20709655 4294183680
3.0098147 2.061559 -0.22673832 4294183680
2.9737291 2.0370209 -0.2439273 4294053120
3.0252492 2.0724466 -0.26818904 4294183680
3.0354571 2.079596 -0.28888327 4294314240
3.0388963 2.0821121 -0.30870569 4294314240
2.9935141 2.0512011 -0.32294324 4294053120
2.8245482 1.9356627 -0.32209888 4293400320
3.0224175 2.0713108 -0.3630994 4294183680
3.0274813 2.0749383 -0.38166544 4294314240
3.0127912 2.0650361 -0.39725611 4294183680
2.964921 2.0324054 -0.40766114 4294053120
2.8203962 1.933561 -0.40321097 4293400320
3.0421824 2.0856428 -0.45127243 4294314240
3.032151 2.0789282 -0.4654572 4294314240
3.0352829 2.0812309 -0.48111311 4294314240
2.9993722 2.0567811 -0.48986447 4294183680
2.9830248 2.0457327 -0.50102133 4294183680
3.006011 2.0616379 -0.51826572 4294183680
2.9932022 2.0530121 -0.52878261 4294183680
2.9756479 2.041132 -0.53773355 4294053120
2.9646542 2.0337465 -0.54714835 4294053120
2.951405 2.0248129 -0.55543137 4294053120
2.917973 2.0020409 -0.55910861 4293922560
2.8918204 1.9842556 -0.56334537 4293792000
2.8223846 1.9367893 -0.55819124 4293530880
2.7637742 1.8967385 -0.55417293 4293269760
2.7823007 1.9095788 -0.56490701 4293400320
2.8122754 1.9302713 -0.57743317 4293530880
2.819555 1.9354004 -0.58470255 4293530880
2.7469881 1.8857626 -0.57457983 4293269760
2.7577057 1.8932461 -0.58113796 4293269760
2.7693214 1.901346 -0.58724183 4293269760
2.7729056 1.9039363 -0.59097379 4293269760
2.7757723 1.9060339 -0.59386998 4293400320
2.7681813 1.9009554 -0.59382886 4293269760
2.7720554 1.9037428 -0.59555697 4293269760
2.7557323 1.8926699 -0.59224081 4293269760
2.7330136 1.8772055 -0.58685845 4293139200
2.8121679 1.9316561 -0.60268778 4293530880
2.8010132 1.9241278 -0.59838861 4293400320
2.7777741 1.9083028 -0.59083313 4293400320
2.7627454 1.898111 -0.58437872 4293269760
2.8092909 1.9301884 -0.59025049 4293530880
2.8853171 1.9825089 -0.60145158 4293792000
2.9108522 2.0001686 -0.60122913 4293922560
2.9469159 2.025059 -0.60236281 4294053120
2.9644978 2.0372608 -0.59889299 4294053120
2.9709132 2.041795 -0.5924108 4294183680
2.9869711 2.0529513 -0.58710986 4294183680
2.9962423 2.0594468 -0.57972139 4294183680
2.9846587 2.0516183 -0.56763136 4294183680
2.9798546 2.048445 -0.55623823 4294183680
2.995379 2.0592349 -0.54797244 4294183680
3.0128081 2.0713339 -0.53930444 4294314240
3.0184813 2.0753572 -0.52782059 4294314240
3.0197558 2.0763581 -0.51493758 4294314240
2.9982595 2.0617125 -0.49766943 4294183680
2.984231 2.052196 -0.48124656 4294183680
3.0128207 2.0719645 -0.47110265 4294183680
3.0218821 2.0783143 -0.4571808 4294314240
3.0071101 2.0682843 -0.43916121 4294183680
2.995235 2.0602436 -0.42121807 4294183680
3.0267136 2.0820007 -0.40881509 4294314240
3.0316064 2.085485 -0.39215121 4294314240
3.0291979 2.08395 -0.37409186 4294314240
3.0001571 2.0641055 -0.35250533 4294183680
3.0117328 2.0721824 -0.33542871 4294183680
3.0142214 2.0740123 -0.31688133 4294183680
3.0107958 2.0717752 -0.29736912 4294183680
2.9864898 2.0551796 -0.27563804 4294053120
3.0177157 2.0767691 -0.25871617 4294183680
3.0189183 2.0777137 -0.23871037 4294183680
3.0228596 2.0805416 -0.21863028 4294183680
2.9875212 2.0563536 -0.19566581 4294053120
3.0058918 2.0691049 -0.17615446 4294183680
3.0145783 2.075196 -0.15569435 4294183680
3.0166435 2.0767329 -0.13464732 4294183680
2.9965329 2.0630143 -0.11258152 4294053120
3.0199239 2.079222 -0.092032969 4294183680
3.0322163 2.0877953 -0.070789039 4294183680
3.0169933 2.0774376 -0.048833419 4294183680
3.0200653 2.0796671 -0.027221791 4294183680
3.0346582 2.0898249 -0.0055675139 4294183680
3.0443799 2.0966313 0.016276756 4294314240
3.0045207 2.0693171 0.037650883 4294053120
3.0432899 2.0961149 0.059908614 4294314240
3.0585494 2.1067348 0.082037739 4294314240
3.0671647 2.1127822 0.1040719 4294314240
2.9617512 2.0403383 0.12151156 4293922560
3.0541992 2.1040933 0.14670631 4294314240
3.0600927 2.1082685 0.16832927 4294314240
3.0535743 2.1038992 0.18908867 4294314240
2.8962703 1.9957119 0.1992826 4293661440
3.0677676 2.113909 0.23173188 4294444800
3.0683098 2.1144016 0.25229189 4294444800
3.0479743 2.1005177 0.27074099 4294314240
2.9033334 2.0010278 0.2768622 4293792000
3.0734565 2.1183064 0.31261116 4294444800
3.0901937 2.1299553 0.33371097 4294575360
3.0872066 2.12802 0.35241079 4294444800
3.0151854 2.0785325 0.36243406 4294183680
2.8593066 1.9712732 0.36068085 4293530880
3.0766375 2.1211076 0.40564799 4294444800
3.0738707 2.1193249 0.42253435 4294444800
3.0511117 2.1037683 0.43607301 4294444800
2.9604557 2.0414274 0.43886247 4294053120
2.9199095 2.0136089 0.4478595 4293922560
3.0801709 2.1241653 0.4875803 4294575360
3.0812373 2.1250269 0.50246382 4294575360
3.0829258 2.1263177 0.51688933 4294575360
3.0470116 2.1016927 0.52429861 4294444800
3.0297382 2.0899136 0.53407121 4294314240
2.923121 2.0165479 0.52705181 4293922560
3.0775988 2.1231613 0.56645525 4294575360
3.07584 2.1220791 0.57714689 4294575360
3.0704827 2.1185169 0.58647531 4294575360
3.0646415 2.1146212 0.59499645 4294575360
3.0594609 2.1111813 0.60292184 4294444800
3.0546658 2.1080074 0.61019421 4294444800
3.046535 2.1025338 0.61605954 4294444800
3.0536895 2.1076019 0.62428129 4294444800
3.0464444 2.1027398 0.62884277 4294444800
3.0489078 2.1045742 0.63465494 4294444800
3.0316143 2.0927818 0.6356051 4294444800
3.0350852 2.0953126 0.64012557 4294444800
3.0305462 2.0923188 0.6422115 4294444800
3.0382745 2.0977888 0.6461342 4294444800
3.0412409 2.0999746 0.648296 4294444800
3.0337729 2.0949619 0.64747912 4294444800
3.0296543 2.0922606 0.64661115 4294444800
3.0462914 2.1038835 0.64939195 4294444800
3.0431952 2.1018898 0.64721555 4294444800
3.0457544 2.1037998 0.64547628 4294444800
3.0531788 2.1090693 0.64399648 4294444800
3.0605361 2.1142941 0.64173001 4294575360
3.0570264 2.1120181 0.63643658 4294575360
3.0702608 2.1213028 0.63385242 4294575360
3.057955 2.1129558 0.62527478 4294575360
3.0648322 2.1178539 0.61988276 4294575360
3.0657561 2.1186426 0.61255014 4294575360
3.0591021 2.1141989 0.60301107 4294444800
3.0577319 2.1134045 0.59382975 4294444800
3.0605764 2.1155219 0.58476925 4294444800
3.0698609 2.1220887 0.57621646 4294575360
3.080646 2.1296937 0.56720811 4294575360
3.0662367 2.1198952 0.55294162 4294575360
3.0638144 2.1183777 0.54025531 4294444800
3.0410428 2.1040466 0.44386524 4294314240
3.0657084 2.1212602 0.4309817 4294444800
3.0729125 2.1264026 0.41499788 4294444800
3.0419211 2.105134 0.39355254 4294314240
3.0260482 2.0943179 0.37387881 4294314240
3.051821 2.1123037 0.35884058 4294444800
3.0556259 2.115098 0.34065703 4294444800
3.0276921 2.0959384 0.31872791 4294314240
3.0160532 2.0880492 0.2983951 4294183680
3.03967 2.1045499 0.2811152 4294314240
3.0563662 2.1162653 0.26262647 4294314240
3.042799 2.1070423 0.24124752 4294314240
3.0377595 2.1037192 0.22039545 4294314240
3.0551558 2.1159225 0.20082709 4294314240
