# .PCD v0.7 - Point Cloud Data file format
VERSION 0.7
FIELDS x y z rgba
SIZE 4 4 4 4
TYPE F F F U
COUNT 1 1 1 1
WIDTH 1102
HEIGHT 1
VIEWPOINT 0 0 0 1 0 0 0
POINTS 1102
DATA ascii
1.6429296 -1.2157094 0.348122 4288830720
1.6314812 -1.2071681 0.34860823 4288830720
1.6343571 -1.2092106 0.35171068 4288830720
1.6269817 -1.2036805 0.35220551 4288830720
1.6228324 -1.2005346 0.35296783 4288700160
1.6266631 -1.2032838 0.35503897 4288830720
1.6265875 -1.2031479 0.35584983 4288830720
1.6226065 -1.2001284 0.35539368 4288700160
1.6305681 -1.2059289 0.3571175 4288830720
1.6267008 -1.2029943 0.35585016 4288830720
1.6498348 -1.2199978 0.36002111 4288830720
1.6571784 -1.2253411 0.36032969 4288830720
1.6693369 -1.2342387 0.36123776 4288961280
1.6847267 -1.2455213 0.36238527 4288961280
1.6890749 -1.248652 0.36072311 4288961280
1.7606666 -1.3014178 0.3727704 4289352960
1.7691108 -1.3075689 0.37095416 4289352960
1.7736428 -1.3108323 0.36786306 4289352960
1.7972838 -1.3281981 0.36821169 4289483520
1.8170171 -1.3426785 0.36722344 4289614080
1.8935305 -1.3990563 0.37692788 4289875200
1.9264988 -1.4232972 0.37724784 4290005760
1.9663748 -1.4526322 0.37823296 4290136320
1.9875613 -1.4681756 0.37499467 4290266880
1.982868 -1.4646251 0.36641333 4290266880
1.9627234 -1.4496773 0.35467517 4290136320
1.9733715 -1.4569815 0.29508215 4290136320
1.9916265 -1.4703584 0.28684133 4290266880
1.9903464 -1.4693302 0.27539411 4290266880
1.9637638 -1.4496474 0.26032764 4290136320
1.956759 -1.4444007 0.24774003 4290136320
1.9764985 -1.4588708 0.23815416 4290136320
1.9894825 -1.4683598 0.22729608 4290266880
1.955597 -1.4432995 0.21101686 4290005760
1.9564805 -1.4438698 0.19842762 4290005760
1.9769249 -1.4588572 0.18744172 4290136320
1.9737203 -1.4564141 0.17391934 4290136320
1.9520627 -1.4403725 0.15876792 4290005760
1.9595916 -1.4458406 0.14588027 4290005760
1.8802623 -1.3873051 0.12695865 4289744640
1.7235098 -1.2717286 0.10440924 4289091840
1.6721519 -1.2338187 0.089473002 4288830720
1.6851853 -1.243353 0.078078263 4288961280
1.6908921 -1.2474889 0.066133343 4288961280
1.6832775 -1.2418108 0.053625081 4288961280
1.6546295 -1.2206397 0.04067675 4288830720
1.676952 -1.2370152 0.028922478 4288830720
1.6743435 -1.235026 0.01659116 4288830720
1.673347 -1.2342244 0.0042819954 4288830720
1.6603423 -1.2245792 -0.0079466039 4288830720
1.6658545 -1.2285714 -0.020221684 4288830720
1.670022 -1.2315729 -0.032528628 4288830720
1.6693038 -1.2309765 -0.044725727 4288830720
1.6726221 -1.2333521 -0.057006542 4288830720
1.6862823 -1.2433418 -0.069713019 4288961280
1.6938289 -1.2488294 -0.082238637 4288961280
1.6796139 -1.2382957 -0.093549162 4288830720
1.6778419 -1.2369229 -0.1053508 4288830720
1.6894218 -1.2453784 -0.11795953 4288961280
1.690153 -1.2458475 -0.12975831 4288961280
1.6792787 -1.2377746 -0.1404441 4288830720
1.6909679 -1.2463087 -0.15289149 4288961280
1.7015519 -1.2540281 -0.16522086 4288961280
1.7072686 -1.2581648 -0.17700045 4288961280
1.6979576 -1.2512425 -0.18699118 4288961280
1.6393268 -1.2080308 -0.19086671 4288700160
1.6945765 -1.2486136 -0.20787477 4288961280
1.7031372 -1.254841 -0.21927634 4288961280
1.6949542 -1.2487494 -0.22826724 4288961280
1.6861916 -1.2422317 -0.23682706 4288961280
1.611002 -1.1868508 -0.23525913 4288700160
1.7136091 -1.262256 -0.25970024 4289091840
1.7069023 -1.2572498 -0.26771027 4289091840
1.7182664 -1.2655348 -0.27829257 4289091840
1.7082608 -1.2581023 -0.28509039 4289091840
1.6907796 -1.2451729 -0.29017988 4288961280
1.689641 -1.2442622 -0.29767182 4288961280
1.6941351 -1.2474929 -0.30583718 4288961280
1.6907692 -1.2449436 -0.31223407 4288961280
1.6984526 -1.250518 -0.32034063 4289091840
1.6949379 -1.2478586 -0.32597604 4288961280
1.6963303 -1.2488065 -0.33217704 4289091840
1.6949074 -1.2476845 -0.33744255 4289091840
1.6901844 -1.2441365 -0.34164023 4288961280
1.6843491 -1.2397708 -0.34518677 4288961280
1.6746762 -1.232585 -0.34750295 4288961280
1.6523551 -1.2161044 -0.34670424 4288830720
1.6418297 -1.2082934 -0.34791392 4288830720
1.6423744 -1.2086174 -0.35105312 4288830720
1.6289793 -1.1986985 -0.35077178 4288700160
1.6287163 -1.1984288 -0.35289863 4288700160
1.6324769 -1.2011147 -0.35549253 4288830720
1.6362931 -1.2038405 -0.35769057 4288830720
1.6322306 -1.2007781 -0.35774252 4288830720
1.6242588 -1.1948441 -0.35651118 4288700160
1.6452857 -1.2102093 -0.36125112 4288830720
1.6374308 -1.2043604 -0.3592059 4288830720
1.6477644 -1.211869 -0.36074287 4288830720
1.6735398 -1.2307154 -0.36522889 4288961280
1.6769626 -1.233146 -0.36437047 4288961280
1.6807872 -1.2358706 -0.36316651 4288961280
1.6870712 -1.2404002 -0.3620587 4288961280
1.6997509 -1.2496238 -0.3618761 4289091840
1.6938479 -1.2452046 -0.35729107 4289091840
1.6994526 -1.2492325 -0.35472712 4289091840
1.6916897 -1.2434478 -0.3489573 4288961280
1.6910518 -1.2428929 -0.34427992 4288961280
1.6885445 -1.2409655 -0.33883172 4288961280
1.6746091 -1.2306517 -0.33074135 4288961280
1.6696248 -1.2269073 -0.32410678 4288961280
1.6675433 -1.2252927 -0.31769058 4288961280
1.6748375 -1.2305564 -0.31268468 4288961280
1.6950536 -1.2452986 -0.30963609 4288961280
1.7031084 -1.2511175 -0.30388746 4289091840
1.6942315 -1.2445155 -0.29476336 4288961280
1.6678277 -1.225059 -0.28240272 4288830720
1.6673654 -1.2246305 -0.27426362 4288830720
1.6915849 -1.2423018 -0.26977873 4288961280
1.6997738 -1.2482152 -0.26225632 4288961280
1.6801215 -1.2337133 -0.2501829 4288961280
1.6619192 -1.2202762 -0.23825373 4288830720
1.6838392 -1.2362555 -0.23182501 4288961280
1.6994685 -1.2476207 -0.22405146 4288961280
1.6930859 -1.2428489 -0.2130549 4288961280
1.6534051 -1.213671 -0.19788341 4288830720
1.6714008 -1.226769 -0.18958396 4288830720
1.684378 -1.2361869 -0.18030746 4288961280
1.6938133 -1.2430075 -0.1703075 4288961280
1.6686113 -1.2244468 -0.15671094 4288830720
1.6842679 -1.2358253 -0.14688398 4288961280
1.6978289 -1.2456665 -0.13651602 4288961280
1.6978903 -1.2456166 -0.12480921 4288961280
1.6805596 -1.2328265 -0.11179251 4288830720
1.6775507 -1.2305284 -0.099765368 4288830720
1.6788855 -1.2314118 -0.087906189 4288830720
1.6719121 -1.2262106 -0.075550109 4288830720
1.6625417 -1.2192547 -0.063120484 4288830720
1.668735 -1.2236962 -0.051254667 4288830720
1.676263 -1.2291141 -0.039277934 4288830720
1.6836107 -1.2343991 -0.027147627 4288830720
1.6817135 -1.2329153 -0.014790704 4288830720
1.691442 -1.2399421 -0.0024772983 4288961280
1.6971768 -1.2440444 0.0099606859 4288961280
1.6928006 -1.2407458 0.022348223 4288961280
1.7427458 -1.2772026 0.035698202 4289091840
1.9185579 -1.4057616 0.053090967 4289875200
1.9643209 -1.4391401 0.068570152 4290005760
1.841337 -1.3490453 0.077696934 4289483520
1.9757036 -1.4472473 0.097394243 4290136320
1.9889789 -1.4568481 0.11219476 4290136320
1.9484921 -1.4271204 0.12370253 4290005760
1.847718 -1.3533002 0.13032097 4289614080
1.9801048 -1.4500241 0.15319112 4290136320
1.9924145 -1.4589163 0.16772565 4290136320
1.968371 -1.4412229 0.17897497 4290136320
1.8492457 -1.3540057 0.18053228 4289614080
2.0037901 -1.4669021 0.20851021 4290266880
2.0029609 -1.4661851 0.22125614 4290266880
1.9953445 -1.4605068 0.23296055 4290266880
1.8956999 -1.387556 0.23310082 4289744640
1.8088558 -1.3239729 0.23340596 4289483520
1.9961388 -1.4607592 0.26906556 4290266880
1.9843407 -1.4520277 0.27884036 4290136320
1.9616442 -1.4353335 0.286589 4290136320
1.8944081 -1.3860955 0.28706995 4289744640
1.8520675 -1.3550557 0.29038605 4289614080
1.9889169 -1.4549423 0.32171878 4290266880
1.9795274 -1.4479761 0.32984325 4290136320
1.9568973 -1.4313387 0.33525005 4290136320
1.9365362 -1.4163616 0.34046358 4290005760
1.8857932 -1.3791957 0.33967444 4289744640
1.8388594 -1.3448176 0.3387695 4289614080
1.795503 -1.3130575 0.33777168 4289483520
1.7795939 -1.3013461 0.34128746 4289352960
1.7709124 -1.2949142 0.34569836 4289352960
1.698709 -1.2421029 0.33713362 4288961280
1.6901398 -1.2357591 0.34046286 4288961280
1.6784297 -1.2271235 0.3427113 4288961280
1.6699581 -1.2208537 0.34516481 4288961280
1.6503854 -1.2064819 0.34487247 4288830720
1.6388347 -1.1979679 0.34577534 4288830720
1.6345052 -1.1947259 0.34775659 4288830720
1.6262485 -1.1886185 0.34848133 4288700160
1.626007 -1.1883616 0.35049111 4288700160
1.6258197 -1.1881448 0.3521015 4288700160
1.6336458 -1.1937754 0.35502854 4288830720
1.6335694 -1.19364 0.35583943 4288830720
1.6295708 -1.1906437 0.35538328 4288700160
1.6375661 -1.1963978 0.35710707 4288830720
1.6336818 -1.1934859 0.35583973 4288830720
1.6449758 -1.201646 0.35743392 4288830720
1.6451849 -1.2017206 0.35621065 4288830720
1.6645571 -1.2157717 0.35867113 4288830720
1.687973 -1.2327704 0.36152741 4288961280
1.6923383 -1.2358752 0.35987109 4288961280
1.7650319 -1.2888036 0.37209165 4289352960
1.780683 -1.3001342 0.37176937 4289352960
1.7852353 -1.3033718 0.36866948 4289352960
1.797017 -1.31188 0.366584 4289483520
1.8745697 -1.3683345 0.37716076 4289744640
1.8904766 -1.3798456 0.37471518 4289875200
1.9267744 -1.4062189 0.37568855 4290005760
1.9747922 -1.4411318 0.37821805 4290136320
1.9872211 -1.450103 0.37332791 4290266880
1.9777861 -1.4431396 0.36391771 4290136320
1.9748195 -1.4408914 0.35532111 4290136320
1.9738005 -1.4396019 0.29388368 4290136320
1.9808869 -1.4446805 0.28408647 4290136320
1.9795907 -1.4436531 0.27274632 4290136320
1.9569031 -1.4270462 0.25831622 4290005760
1.9579024 -1.4276925 0.24682313 4290005760
1.9777224 -1.442045 0.23728064 4290136320
1.9827076 -1.4455934 0.22555993 4290136320
1.9526966 -1.4236586 0.20980524 4290005760
1.9535782 -1.4242203 0.19728819 4290005760
1.9660435 -1.433216 0.18562326 4290005760
1.9781395 -1.4419421 0.17355722 4290136320
1.9571941 -1.4266131 0.15849756 4290005760
1.9607183 -1.429099 0.145337 4290005760
1.9076889 -1.3904183 0.12822819 4289744640
1.7402245 -1.2684473 0.10495028 4289091840
1.6906209 -1.2322736 0.090051204 4288961280
1.7037125 -1.2417333 0.078575917 4288961280
1.7094457 -1.245837 0.066549882 4288961280
1.7026083 -1.2407925 0.053984761 4288961280
1.6730309 -1.2192012 0.04092988 4288830720
1.6881731 -1.2301519 0.028976526 4288830720
1.693639 -1.2340611 0.016686246 4288961280
1.6835665 -1.2266647 0.0042756246 4288830720
1.6747261 -1.2201656 -0.0080001457 4288830720
1.6729839 -1.2188309 -0.020232325 4288830720
1.6852543 -1.2276896 -0.032705061 4288830720
1.6796811 -1.2235678 -0.044826213 4288830720
1.687863 -1.2294515 -0.057300329 4288830720
1.7015798 -1.23936 -0.070065118 4288961280
1.7123891 -1.2471528 -0.082808279 4288961280
1.6908393 -1.2314118 -0.093788162 4288961280
1.6971353 -1.2359219 -0.10613161 4288961280
1.6940315 -1.2335962 -0.11778568 4288961280
1.7006115 -1.2383119 -0.1300192 4288961280
1.693724 -1.233235 -0.14106697 4288961280
1.7021768 -1.2393113 -0.15326424 4288961280
1.7208673 -1.2528296 -0.16640745 4289091840
1.7226297 -1.2540402 -0.1778512 4289091840
1.7074255 -1.2429173 -0.18724614 4288961280
1.6535847 -1.2037117 -0.19172458 4288830720
1.7098714 -1.244554 -0.20887642 4288961280
1.7224872 -1.253652 -0.22084562 4289091840
1.7134588 -1.2470189 -0.22979827 4289091840
1.7014378 -1.2382115 -0.23796934 4288961280
1.6291362 -1.1856014 -0.23691568 4288700160
1.7176657 -1.2498598 -0.25921506 4289091840
1.7294465 -1.2583467 -0.27011618 4289091840
1.7256103 -1.2554859 -0.27830353 4289091840
1.7195077 -1.2509786 -0.28576049 4289091840
1.7052175 -1.2405237 -0.29142955 4288961280
1.7000654 -1.2367076 -0.29824743 4288961280
1.7059847 -1.2409334 -0.30668074 4289091840
1.7091966 -1.243192 -0.31431457 4289091840
1.7169073 -1.2487172 -0.32246405 4289091840
1.7133723 -1.2460743 -0.3281399 4289091840
1.7075729 -1.2417871 -0.33297038 4289091840
1.7057439 -1.2403828 -0.33816928 4289091840
1.7083759 -1.2422177 -0.34386852 4289091840
1.6947366 -1.2322378 -0.34585181 4288961280
1.6937996 -1.2314808 -0.34999707 4288961280
1.6745708 -1.2174444 -0.34989476 4288961280
1.6639962 -1.2096914 -0.35113499 4288830720
1.656565 -1.2042207 -0.35259718 4288830720
1.6359353 -1.1891704 -0.35078216 4288700160
1.6476281 -1.1975805 -0.35549897 4288830720
1.6434321 -1.1944582 -0.35637045 4288830720
1.643279 -1.1942695 -0.357701 4288830720
1.647168 -1.1970137 -0.35949889 4288830720
1.6431462 -1.1940169 -0.35914424 4288830720
1.6351984 -1.1881717 -0.35750642 4288700160
1.6595619 -1.2057683 -0.36253673 4288830720
1.6627673 -1.2080132 -0.36249754 4288830720
1.6731033 -1.2154298 -0.36358649 4288961280
1.6881047 -1.226229 -0.36524689 4288961280
1.6991225 -1.2341368 -0.36558828 4289091840
1.7062329 -1.2392093 -0.36463585 4289091840
1.7074025 -1.2399725 -0.36197206 4289091840
1.7050638 -1.238191 -0.35814321 4289091840
1.7067019 -1.2392929 -0.35473794 4289091840
1.7180703 -1.247449 -0.3529205 4289091840
1.714241 -1.2445854 -0.34754291 4289091840
1.7029381 -1.2363037 -0.34028563 4289091840
1.6937428 -1.2295506 -0.3331207 4288961280
1.6807437 -1.2200408 -0.32489389 4288961280
1.6746536 -1.2155396 -0.31770119 4288961280
1.6939874 -1.2294643 -0.31493828 4288961280
1.7134941 -1.2435118 -0.31169635 4289091840
1.7183828 -1.2469643 -0.30532914 4289091840
1.705941 -1.2378585 -0.2955555 4288961280
1.6869707 -1.2240237 -0.28445312 4288961280
1.6907678 -1.2266849 -0.27695808 4288961280
1.7002065 -1.2334322 -0.27001509 4288961280
1.7070171 -1.2382746 -0.26226714 4288961280
1.695321 -1.2297111 -0.25139314 4288961280
1.6802629 -1.2187138 -0.23988259 4288830720
1.7030866 -1.2351519 -0.23350215 4288961280
1.717983 -1.2458467 -0.22555286 4289091840
1.7123843 -1.2416993 -0.21459153 4288961280
1.675765 -1.2150921 -0.19973427 4288830720
1.6898116 -1.2251699 -0.19088097 4288961280
1.7068838 -1.2374364 -0.18196744 4288961280
1.6937603 -1.2278428 -0.16958368 4288961280
1.6757165 -1.214689 -0.15672153 4288830720
1.6995196 -1.2318245 -0.14760448 4288961280
1.7058089 -1.2362822 -0.13658772 4288961280
1.702976 -1.2341377 -0.12466101 4288961280
1.6917583 -1.2259262 -0.11207528 4288961280
1.6887373 -1.2236464 -0.10001985 4288830720
1.6900784 -1.2245228 -0.088132128 4288830720
1.6944109 -1.2275631 -0.076269366 4288961280
1.6705271 -1.2101917 -0.06316644 4288830720
1.6884692 -1.2230766 -0.051665429 4288830720
1.6927899 -1.2261075 -0.039518081 4288830720
1.6915207 -1.2250952 -0.027171129 4288830720
1.7002119 -1.2312859 -0.014913365 4288961280
1.7059302 -1.2353261 -0.002506823 4288961280
1.7084476 -1.237051 0.009969038 4288961280
1.708985 -1.2373443 0.022445373 4288961280
1.7591413 -1.2735088 0.035860382 4289222400
1.9307665 -1.397475 0.053186286 4289875200
1.9686213 -1.4247298 0.068420969 4290005760
1.841875 -1.3330121 0.077386834 4289483520
1.9727634 -1.4275045 0.096836694 4290005760
1.9820483 -1.4341047 0.11133371 4290136320
1.9454403 -1.4075418 0.12298562 4290005760
1.8515246 -1.3395755 0.13002957 4289614080
1.9804286 -1.4326053 0.15256378 4290136320
1.9919131 -1.4407927 0.16697076 4290136320
1.9646068 -1.4209574 0.17787747 4290005760
1.8377061 -1.3291857 0.17865728 4289483520
1.9969527 -1.4441042 0.20692343 4290136320
2.0082386 -1.4521458 0.22089161 4290266880
1.984447 -1.4348547 0.23071676 4290136320
1.8916491 -1.3677366 0.23162089 4289744640
1.7971834 -1.2994245 0.2309311 4289352960
1.9884936 -1.4374532 0.26690689 4290136320
1.9855151 -1.4351954 0.27782127 4290136320
1.9506456 -1.4099165 0.28378692 4290005760
1.8911824 -1.3668891 0.28537092 4289744640
1.8486671 -1.3361012 0.28862959 4289614080
1.9893183 -1.4375151 0.32042015 4290136320
1.9803789 -1.4309582 0.32858661 4290136320
1.964172 -1.4191583 0.33506301 4290136320
1.9327102 -1.3963529 0.33835703 4290005760
1.8937963 -1.3681744 0.33966249 4289744640
1.8394427 -1.3288611 0.33744246 4289614080
1.8031224 -1.3025634 0.33776033 4289483520
1.7791295 -1.2851626 0.33975601 4289352960
1.7752213 -1.282252 0.3450684 4289352960
1.7625427 -1.2730163 0.34823492 4289222400
1.6820976 -1.2149084 0.33742192 4288961280
1.6735439 -1.2086545 0.34027648 4288830720
1.6578379 -1.1972442 0.34122902 4288830720
1.6493865 -1.191067 0.343209 4288830720
1.6417873 -1.1855054 0.34493065 4288830720
1.6414378 -1.1851718 0.34774625 4288830720
1.6331457 -1.1791128 0.34847102 4288700160
1.6408961 -1.1846195 0.35218474 4288830720
1.6327142 -1.1786416 0.35209122 4288700160
1.632581 -1.1784663 0.35330051 4288700160
1.6325041 -1.178332 0.35410744 4288700160
1.6364797 -1.1811186 0.355373 4288700160
1.6405126 -1.1839466 0.35623491 4288830720
1.6366111 -1.1810573 0.35496858 4288700160
1.6407588 -1.1839684 0.35501873 4288830720
1.652158 -1.1921043 0.35620025 4288830720
1.6604187 -1.1979785 0.35627511 4288830720
1.6871299 -1.2171438 0.35982263 4288961280
1.7528569 -1.2644117 0.37108111 4289222400
1.7685102 -1.2756064 0.37124619 4289352960
1.7762232 -1.281081 0.36927858 4289352960
1.784793 -1.2871726 0.36702269 4289352960
1.8545823 -1.3373514 0.37665382 4289614080
1.8785042 -1.3544947 0.37635145 4289744640
1.8904692 -1.3630266 0.37313142 4289744640
1.9299999 -1.3914059 0.37472439 4290005760
1.9679146 -1.4186188 0.37531719 4290136320
1.9795861 -1.4269352 0.37033182 4290136320
1.9829488 -1.4292697 0.36332059 4290136320
1.9791644 -1.4264594 0.35459378 4290136320
1.9708705 -1.4199471 0.29221112 4290136320
1.9820124 -1.4278815 0.28304568 4290136320
1.9920019 -1.4349862 0.27328277 4290136320
1.9611475 -1.4127053 0.25777787 4290005760
1.9621487 -1.4133443 0.24630836 4290005760
1.979636 -1.4258431 0.23650417 4290136320
1.9789692 -1.4252822 0.2241869 4290136320
1.9455899 -1.4011919 0.20816563 4290005760
1.942422 -1.398834 0.19534409 4289875200
1.967894 -1.4170744 0.1850099 4290005760
1.9711192 -1.419314 0.17221671 4290005760
1.9533195 -1.4064341 0.15751816 4290005760
1.9690109 -1.4176385 0.14532463 4290005760
1.9198108 -1.3821821 0.12848312 4289875200
1.7606316 -1.2676545 0.10570755 4289222400
1.7108217 -1.2317724 0.090717144 4288961280
1.7149749 -1.2346896 0.078746729 4288961280
1.7166749 -1.2358431 0.066539101 4288961280
1.718259 -1.2369131 0.054231063 4288961280
1.688224 -1.2152551 0.041107632 4288830720
1.7066784 -1.2284521 0.029147141 4288961280
1.7100167 -1.2307832 0.016755553 4288961280
1.6988047 -1.2226572 0.0042763771 4288961280
1.6818064 -1.2103736 -0.0080107078 4288830720
1.6914247 -1.2172183 -0.020392457 4288830720
1.7011451 -1.2241355 -0.032894723 4288961280
1.6979358 -1.2217617 -0.045145404 4288961280
1.7031151 -1.225415 -0.057594128 4288961280
1.716831 -1.235201 -0.070414826 4288961280
1.728797 -1.2437288 -0.083270237 4289091840
1.7069802 -1.2279871 -0.094305061 4288961280
1.7116069 -1.2312419 -0.1066044 4288961280
1.7206507 -1.2376691 -0.11916365 4288961280
1.7199563 -1.237101 -0.1309679 4288961280
1.7011998 -1.2235605 -0.14110447 4288961280
1.7215189 -1.238084 -0.15437643 4288961280
1.7321857 -1.2456743 -0.16681206 4289091840
1.7386456 -1.2502425 -0.17876889 4289091840
1.734055 -1.2468753 -0.18939596 4289091840
1.6646129 -1.1969448 -0.19220582 4288830720
1.721078 -1.237416 -0.20937566 4288961280
1.7270122 -1.2416053 -0.22050287 4289091840
1.7295077 -1.2433254 -0.23099414 4289091840
1.7126585 -1.2311585 -0.23854585 4288961280
1.6513441 -1.187076 -0.23916024 4288700160
1.7442704 -1.2537049 -0.26215139 4289091840
1.740778 -1.251125 -0.27075735 4289091840
1.7456203 -1.2545266 -0.28036916 4289091840
1.734818 -1.2467005 -0.28711075 4289091840
1.7204632 -1.2363257 -0.29281685 4289091840
1.7112633 -1.2296509 -0.2989642 4288961280
1.721225 -1.2367247 -0.3081376 4289091840
1.7244463 -1.2389613 -0.31580377 4289091840
1.7260413 -1.2400306 -0.32282957 4289091840
1.7246174 -1.2389337 -0.32891965 4289091840
1.7300272 -1.2427385 -0.33595484 4289091840
1.724975 -1.2390382 -0.34056574 4289091840
1.7308211 -1.2431546 -0.346946 4289091840
1.7179203 -1.233825 -0.34913412 4289091840
1.7041512 -1.2238734 -0.35067004 4288961280
1.6776294 -1.2047776 -0.34906843 4288961280
1.6822294 -1.2079998 -0.35351124 4288961280
1.6755646 -1.2031443 -0.35516369 4288961280
1.6580479 -1.1905085 -0.3540535 4288830720
1.6577793 -1.1902393 -0.35620004 4288830720
1.6036365 -1.1513488 -0.34625158 4288569600
1.6002852 -1.1488715 -0.34684786 4288569600
1.665318 -1.1954104 -0.36195368 4288830720
1.6612785 -1.1924363 -0.36160251 4288830720
1.6500958 -1.1843429 -0.35926577 4288830720
1.6745619 -1.2017971 -0.3642948 4288961280
1.6809824 -1.2063175 -0.36494991 4288961280
1.6841586 -1.2085121 -0.36446643 4288961280
1.7144347 -1.2301227 -0.36941317 4289091840
1.7102876 -1.2270677 -0.36646006 4289091840
1.7166274 -1.2315254 -0.36533099 4289091840
1.722609 -1.2357255 -0.36368063 4289091840
1.7202623 -1.233959 -0.35983667 4289091840
1.733132 -1.2430909 -0.35874653 4289091840
1.7231842 -1.2358793 -0.35249496 4289091840
1.7246717 -1.2368577 -0.34820414 4289091840
1.7181371 -1.2320908 -0.34189993 4289091840
1.7099904 -1.2261699 -0.33492383 4288961280
1.7002012 -1.2190735 -0.32729772 4288961280
1.7009931 -1.219553 -0.32137182 4288961280
1.716397 -1.2304927 -0.31779009 4289091840
1.7359928 -1.244431 -0.31448865 4289091840
1.7328616 -1.2420994 -0.30662775 4289091840
1.7252021 -1.2365266 -0.2976605 4289091840
1.6980314 -1.2169906 -0.28513184 4288961280
1.6978858 -1.2167969 -0.27696869 4288961280
1.7186549 -1.2315689 -0.27182153 4289091840
1.7262501 -1.2369123 -0.26413193 4289091840
1.7116209 -1.2263536 -0.25276539 4288961280
1.6929868 -1.2129312 -0.24070193 4288961280
1.7215698 -1.2332875 -0.23506826 4288961280
1.7292557 -1.2386928 -0.22609603 4289091840
1.7282948 -1.2379123 -0.21569677 4289091840
1.6909113 -1.2110823 -0.20071346 4288830720
1.7050204 -1.2210807 -0.19181047 4288961280
1.7221677 -1.23325 -0.18284622 4288961280
1.7203425 -1.2318511 -0.17155333 4288961280
1.6957396 -1.2141668 -0.15795338 4288830720
1.7147818 -1.2276878 -0.14832498 4288961280
1.7251589 -1.2350123 -0.13758151 4288961280
1.721506 -1.2323065 -0.12551191 4288961280
1.7139585 -1.2268174 -0.11309667 4288961280
1.707214 -1.2219027 -0.10071324 4288961280
1.7098613 -1.2237006 -0.088814341 4288961280
1.7022763 -1.2181863 -0.076314047 4288961280
1.6880205 -1.207906 -0.06358251 4288830720
1.7069535 -1.2213402 -0.052035287 4288961280
1.7072262 -1.2214408 -0.039706856 4288961280
1.7140881 -1.2262485 -0.027445974 4288961280
1.7154934 -1.2271576 -0.015004061 4288961280
1.7293731 -1.2369766 -0.0025593673 4288961280
1.7284805 -1.2362435 0.010018672 4288961280
1.7197407 -1.2299066 0.022477407 4288961280
1.8059098 -1.291345 0.036605258 4289352960
1.9526361 -1.3960146 0.053537693 4289875200
1.9695665 -1.4079951 0.068162583 4290005760
1.8455427 -1.3193415 0.07720954 4289483520
1.9769802 -1.4130707 0.096629716 4290005760
1.9749209 -1.4114919 0.11047297 4290005760
1.9495431 -1.3932694 0.12272184 4289875200
1.8397932 -1.3148322 0.12867567 4289483520
1.9790024 -1.4140798 0.15181451 4290005760
1.9840299 -1.4175593 0.16561948 4290136320
1.9574261 -1.3984677 0.1764909 4290005760
1.8373028 -1.3126534 0.17786945 4289483520
1.9980307 -1.4272239 0.20616534 4290136320
2.0004463 -1.4288387 0.21912 4290136320
1.9846669 -1.4174746 0.22977476 4290136320
1.8995854 -1.3566804 0.23160906 4289744640
1.8047233 -1.2889199 0.23091987 4289352960
1.985502 -1.4177499 0.26539233 4290136320
1.9784704 -1.4126294 0.27568412 4290136320
1.9731538 -1.4087328 0.28583395 4290005760
1.8837563 -1.3448861 0.28306967 4289744640
1.8370303 -1.3114725 0.28562716 4289483520
1.9863544 -1.4178301 0.31860736 4290136320
1.9846463 -1.4165081 0.32791209 4290136320
1.9720088 -1.4073961 0.33498359 4290136320
1.9295236 -1.3770119 0.33639035 4289875200
1.8823917 -1.3433206 0.33621949 4289744640
1.8197623 -1.2985905 0.33246174 4289483520
1.8536645 -1.3226554 0.3457115 4289614080
1.7753174 -1.2667346 0.33761668 4289222400
1.7786385 -1.2690102 0.34428388 4289352960
1.7659078 -1.2598499 0.34743804 4289222400
1.7459902 -1.2455714 0.34868634 4289222400
1.7381855 -1.2399241 0.3518528 4289091840
1.72561 -1.2308797 0.35359865 4289091840
1.7219261 -1.2281699 0.35670301 4289091840
1.648666 -1.1759092 0.3449204 4288830720
1.7171252 -1.2245808 0.36215264 4289091840
1.6399873 -1.169567 0.34846082 4288700160
1.6477697 -1.1750284 0.35217449 4288830720
1.647579 -1.1748128 0.35379276 4288830720
1.6546669 -1.1797796 0.35655385 4288830720
1.6473662 -1.174503 0.35581884 4288830720
1.6433331 -1.1715534 0.35536277 4288700160
1.6433699 -1.1715018 0.35536286 4288700160
1.6434641 -1.1714914 0.35495836 4288700160
1.7164104 -1.2233313 0.36972833 4289091840
1.7206413 -1.2262623 0.36931854 4289091840
1.7281431 -1.2315211 0.36916259 4289091840
1.7405231 -1.2402508 0.36958632 4289091840
1.7561775 -1.2513098 0.37022904 4289222400
1.7718948 -1.2624125 0.37040085 4289222400
1.7724059 -1.2626959 0.36695331 4289222400
1.8383868 -1.3095547 0.37639561 4289614080
1.8623422 -1.3265131 0.37664226 4289614080
1.8823413 -1.3406557 0.37554231 4289744640
1.9196804 -1.3671303 0.37728009 4289875200
1.9450914 -1.3851186 0.37606069 4290005760
1.9728427 -1.4047695 0.3746815 4290136320
1.9765842 -1.4073443 0.36823109 4290136320
1.9831798 -1.4119488 0.36184669 4290136320
1.9643679 -1.3984872 0.35049176 4290005760
1.9629229 -1.396924 0.28982735 4290005760
1.9878784 -1.414579 0.28269204 4290136320
1.9872943 -1.4140816 0.27150422 4290136320
1.94989 -1.3874183 0.25524101 4290005760
1.9597242 -1.3943263 0.24497975 4290005760
1.9724921 -1.4033185 0.2346746 4290005760
1.9775077 -1.4068018 0.22308736 4290005760
1.9537202 -1.3898207 0.2081535 4290005760
1.9505386 -1.3874812 0.19533199 4289875200
1.9688001 -1.4003754 0.18432055 4290005760
1.9655397 -1.3979799 0.17101718 4290005760
1.9460225 -1.3840374 0.15628116 4289875200
1.9617734 -1.3951468 0.1441921 4290005760
1.9342725 -1.375536 0.1288936 4289875200
1.795997 -1.2772552 0.1073389 4289222400
1.7142173 -1.2191066 0.090512812 4288961280
1.7354615 -1.2341242 0.079329669 4288961280
1.7393302 -1.2368023 0.067108184 4289091840
1.7335871 -1.2326554 0.054467216 4288961280
1.7066886 -1.2134886 0.04136068 4288961280
1.7260363 -1.227157 0.029330647 4288961280
1.7253121 -1.2265744 0.016815325 4288961280
1.7099762 -1.2156193 0.0042714593 4288961280
1.6980449 -1.2070822 -0.0080752084 4288830720
1.7107186 -1.2160108 -0.020563329 4288961280
1.7123247 -1.217083 -0.032988247 4288961280
1.7082862 -1.2141486 -0.045245841 4288961280
1.7188636 -1.2215875 -0.057904832 4288961280
1.739484 -1.2361524 -0.071074225 4289091840
1.7392731 -1.2359337 -0.083440706 4289091840
1.726326 -1.2266774 -0.095000647 4288961280
1.7283285 -1.2280295 -0.10721887 4288961280
1.7310892 -1.2299191 -0.11940227 4288961280
1.7344605 -1.2322415 -0.13154143 4289091840
1.7196915 -1.2216947 -0.14206742 4288961280
1.7441578 -1.2389811 -0.15578242 4289091840
1.7434791 -1.2384294 -0.16721664 4289091840
1.7499638 -1.2429584 -0.17919968 4289091840
1.745352 -1.2396166 -0.18985242 4289091840
1.6910477 -1.2010326 -0.19447619 4288830720
1.7404333 -1.2359862 -0.21087277 4289091840
1.7415181 -1.2366842 -0.22144875 4289091840
1.7521293 -1.2441369 -0.23306821 4289091840
1.7311493 -1.2291889 -0.2401408 4289091840
1.6663331 -1.1831623 -0.24034651 4288830720
1.759642 -1.2492454 -0.26338124 4289222400
1.7480376 -1.2409453 -0.27076817 4289091840
1.7569439 -1.2471856 -0.28103042 4289222400
1.7574129 -1.247444 -0.28966656 4289222400
1.7349095 -1.2314193 -0.29406652 4289091840
1.7316043 -1.2290031 -0.30128387 4289091840
1.7356668 -1.2318081 -0.30944985 4289091840
1.7388976 -1.2340232 -0.31714511 4289091840
1.7413021 -1.2356521 -0.3243494 4289091840
1.7398684 -1.2345605 -0.33046839 4289091840
1.738847 -1.2337611 -0.33627808 4289091840
1.7394146 -1.2340869 -0.34200796 4289091840
1.7380344 -1.2330323 -0.34695676 4289091840
1.7282995 -1.2260592 -0.34979913 4289091840
1.7193002 -1.2196074 -0.35233638 4289091840
1.7007104 -1.206363 -0.35242638 4288961280
1.6972818 -1.203858 -0.35521159 4288961280
1.6865664 -1.1961921 -0.35602614 4288961280
1.6689756 -1.1836578 -0.354922 4288830720
1.672724 -1.1862357 -0.35793707 4288830720
1.6263919 -1.1533515 -0.3497318 4288700160
1.629454 -1.1554441 -0.35173425 4288700160
1.6261439 -1.1530247 -0.35194534 4288700160
1.6762334 -1.1884091 -0.36336142 4288830720
1.6722363 -1.1855005 -0.36259934 4288830720
1.6855533 -1.1948476 -0.36517903 4288961280
1.6960191 -1.2021748 -0.36670461 4288961280
1.6992089 -1.2043511 -0.3662158 4288961280
1.725592 -1.2229407 -0.37028959 4289091840
1.7326851 -1.2278765 -0.36974302 4289091840
1.7358371 -1.2300224 -0.36790824 4289091840
1.7338015 -1.2284971 -0.36454025 4289091840
1.738688 -1.231869 -0.3622033 4289091840
1.7443696 -1.2358024 -0.3595902 4289091840
1.7456547 -1.2366246 -0.35563487 4289091840
1.7399037 -1.2324693 -0.34984106 4289091840
1.7325388 -1.2271727 -0.34335387 4289091840
1.7324227 -1.227003 -0.337935 4289091840
1.7153401 -1.2148342 -0.3288613 4288961280
1.7047715 -1.2072731 -0.32075909 4288961280
1.7308027 -1.2255927 -0.3191466 4289091840
1.7405955 -1.2324278 -0.3140249 4289091840
1.7521907 -1.240536 -0.3087849 4289091840
1.728334 -1.2235795 -0.29697308 4289091840
1.7131827 -1.2127792 -0.28650233 4288961280
1.7203251 -1.2177384 -0.27949122 4288961280
1.7298502 -1.2243805 -0.27247357 4289091840
1.7415302 -1.2325443 -0.26538453 4289091840
1.730898 -1.2249388 -0.25457549 4289091840
1.7113814 -1.211056 -0.24233085 4288961280
1.7327838 -1.2260878 -0.23563446 4289091840
1.7453188 -1.2348518 -0.22727056 4289091840
1.7468525 -1.2358422 -0.21713176 4289091840
1.7068777 -1.2075094 -0.20178917 4288961280
1.7275586 -1.2220262 -0.19356704 4288961280
1.7299409 -1.2236159 -0.18292277 4288961280
1.7320462 -1.2250097 -0.17202084 4288961280
1.7101146 -1.2094277 -0.15865108 4288961280
1.7333124 -1.2257164 -0.14932947 4288961280
1.7355853 -1.2272273 -0.13785437 4288961280
1.7387313 -1.2293543 -0.12626417 4289091840
1.7186193 -1.2150607 -0.1129433 4288961280
1.7224636 -1.2176809 -0.10121157 4288961280
1.7251236 -1.2194647 -0.089255586 4288961280
1.7207744 -1.2163007 -0.076846883 4288961280
1.70003 -1.2015657 -0.063785896 4288830720
1.7181238 -1.2142421 -0.052174188 4288961280
1.730651 -1.2229882 -0.040113438 4288961280
1.7289658 -1.2217042 -0.02758877 4288961280
1.7266991 -1.2200104 -0.01505472 4288961280
1.7365503 -1.226866 -0.0025700666 4288961280
1.7470932 -1.2342085 0.010061384 4289091840
1.7432194 -1.2313802 0.022661189 4289091840
1.8370978 -1.2975011 0.037046906 4289483520
1.9607362 -1.3846011 0.053525619 4289875200
1.9622147 -1.3855367 0.067631051 4289875200
1.8376788 -1.2976097 0.076568328 4289483520
1.969663 -1.3905746 0.095878027 4290005760
1.9790283 -1.3970704 0.11023754 4290005760
1.9453832 -1.3732424 0.12195506 4289875200
1.8359975 -1.2960243 0.12788135 4289483520
1.971707 -1.391587 0.15063439 4290005760
1.9808375 -1.3979158 0.16467011 4290005760
1.961464 -1.3841544 0.17611718 4290005760
1.8294352 -1.2910022 0.1763832 4289352960
1.9940925 -1.4069359 0.20491046 4290136320
1.9973367 -1.4091148 0.21787637 4290136320
1.9733572 -1.3921123 0.22753161 4290005760
1.8879315 -1.3318219 0.22924891 4289614080
1.7926853 -1.2646226 0.22844557 4289222400
1.9855999 -1.4004208 0.26430714 4290136320
1.9826046 -1.3982058 0.27511278 4290005760
1.9732074 -1.3914824 0.28465953 4290005760
1.8915595 -1.3338768 0.28305805 4289744640
1.8405836 -1.2978797 0.28499272 4289483520
1.9791749 -1.3953738 0.31615183 4290005760
1.9774666 -1.394068 0.32538384 4290005760
1.9639735 -1.3844655 0.33224955 4290005760
1.9468005 -1.372274 0.33797979 4290005760
1.8861393 -1.3294712 0.33549306 4289744640
1.827297 -1.2879554 0.33245051 4289483520
1.8613387 -1.3118224 0.34570006 4289614080
1.7867086 -1.2592031 0.33836579 4289352960
1.7819617 -1.2557721 0.34349951 4289222400
1.7506036 -1.2336158 0.34302643 4289091840
1.741914 -1.2274137 0.34644291 4289091840
1.7373087 -1.2240865 0.35022607 4289091840
1.7214558 -1.212847 0.35129842 4289091840
1.7290521 -1.218106 0.3566924 4289091840
1.7205662 -1.2120516 0.3583748 4289091840
1.7314867 -1.2196492 0.36365607 4289091840
1.6620896 -1.1707543 0.35166931 4288830720
1.6586173 -1.1682318 0.35301626 4288830720
1.6584249 -1.1680168 0.35463846 4288830720
1.6655413 -1.1729419 0.35740244 4288830720
1.661433 -1.1699739 0.35735807 4288830720
1.6614116 -1.1698804 0.35776556 4288830720
1.7272807 -1.2161127 0.37184635 4289091840
1.72335 -1.2132686 0.3705622 4289091840
1.7194786 -1.2104671 0.36885893 4289091840
1.7156657 -1.2077074 0.36674041 4288961280
1.7312577 -1.218588 0.36830002 4289091840
1.7356244 -1.221578 0.36703458 4289091840
1.7481142 -1.2302769 0.36702195 4289091840
1.7679256 -1.2441204 0.36805397 4289222400
1.7756975 -1.2495023 0.36611593 4289222400
1.8459849 -1.2988111 0.37638429 4289614080
1.8627715 -1.3105236 0.37517634 4289614080
1.8993852 -1.3361651 0.37735999 4289744640
1.9114509 -1.3445581 0.37412488 4289875200
1.94181 -1.3658013 0.37388319 4289875200
1.9733952 -1.3879037 0.37324128 4290005760
1.9823325 -1.394096 0.36777329 4290136320
1.9759909 -1.3895568 0.35905764 4290005760
1.9611429 -1.3790444 0.3484782 4290005760
1.963714 -1.3803179 0.28874815 4290005760
1.9806371 -1.3921168 0.2805092 4290005760
1.9841095 -1.3944728 0.26995507 4290005760
1.9457307 -1.3674527 0.25365117 4289875200
1.9596705 -1.3771574 0.24396297 4290005760
1.9733013 -1.3866444 0.23380171 4290005760
1.9742578 -1.3872355 0.22180551 4290005760
1.9422109 -1.3646668 0.2060862 4289875200
1.9471661 -1.3680657 0.19419326 4289875200
1.9605999 -1.3774136 0.18280388 4289875200
1.9695679 -1.3836274 0.17065567 4290005760
1.9458838 -1.366932 0.1556246 4289875200
1.9665167 -1.3813297 0.14393824 4290005760
1.9602486 -1.3768542 0.1300568 4289875200
1.8344816 -1.2885542 0.10914214 4289352960
1.7409216 -1.2228552 0.091511428 4288961280
1.7508035 -1.2297175 0.079682007 4289091840
1.7561288 -1.2333832 0.067456245 4289091840
1.7551357 -1.2326174 0.05489067 4289091840
1.7219154 -1.2092515 0.041538395 4288961280
1.7405245 -1.2222331 0.029436471 4288961280
1.7357038 -1.2187842 0.016832868 4288961280
1.7284924 -1.2136595 0.0042767264 4288961280
1.7083237 -1.1994509 -0.0081047891 4288830720
1.7264503 -1.2120918 -0.02068717 4288961280
1.7308484 -1.2151071 -0.033231061 4288961280
1.7276103 -1.2127689 -0.045593411 4288961280
1.7374108 -1.2195706 -0.058311954 4288961280
1.7507482 -1.2288505 -0.071255654 4289091840
1.7505354 -1.2286321 -0.083651051 4289091840
1.7367154 -1.2188773 -0.09519393 4288961280
1.7387249 -1.2202168 -0.10743491 4288961280
1.7504894 -1.2283918 -0.12026761 4289091840
1.7579571 -1.233555 -0.13280292 4289091840
1.739036 -1.2202271 -0.14309843 4288961280
1.7554303 -1.2316443 -0.15616032 4289091840
1.7661773 -1.2391034 -0.16872391 4289091840
1.7645206 -1.2378719 -0.17996642 4289091840
1.7566233 -1.2322686 -0.19030882 4289091840
1.7020931 -1.194 -0.19495744 4288830720
1.7549399 -1.2309473 -0.21177533 4289091840
1.768245 -1.2401948 -0.22395328 4289222400
1.7593479 -1.2338915 -0.23307897 4289091840
1.7504889 -1.2276152 -0.24184895 4289091840
1.6813322 -1.1791142 -0.24153279 4288830720
1.7782726 -1.2469263 -0.26509872 4289222400
1.7747406 -1.2443794 -0.27380455 4289222400
1.7723024 -1.2425984 -0.28234208 4289222400
1.7646508 -1.2371672 -0.28967735 4289222400
1.7542254 -1.2297946 -0.29614216 4289091840
1.7468452 -1.2245542 -0.30270675 4289091840
1.7549732 -1.2301695 -0.3116298 4289091840
1.7554537 -1.2304311 -0.31887037 4289091840
1.7638594 -1.2362391 -0.32722747 4289222400
1.7594184 -1.233055 -0.33283246 4289222400
1.7613803 -1.2343519 -0.33926266 4289222400
1.7587082 -1.2324053 -0.34440452 4289222400
1.7492315 -1.2256973 -0.34777451 4289091840
1.7515795 -1.2272632 -0.35308155 4289091840
1.7417295 -1.2202942 -0.35549292 4289091840
1.7190194 -1.2043289 -0.35478017 4288961280
1.7042668 -1.1939317 -0.35522199 4288961280
1.7128853 -1.1998838 -0.36012647 4288961280
1.6879524 -1.1823667 -0.3575069 4288830720
1.6876781 -1.1820982 -0.35967413 4288830720
1.6363119 -1.1460968 -0.35043585 4288700160
1.6401927 -1.1487356 -0.35261506 4288700160
1.694465 -1.1866112 -0.36529189 4288961280
1.6903908 -1.1836835 -0.36494544 4288961280
1.6831493 -1.1785413 -0.36348417 4288830720
1.6997485 -1.1900673 -0.36676234 4288961280
1.7142924 -1.2001544 -0.36915708 4288961280
1.7134607 -1.1994914 -0.36779127 4288961280
1.7359166 -1.2151061 -0.37099281 4289091840
1.7414948 -1.2189214 -0.37011316 4289091840
1.7470117 -1.2226931 -0.36877441 4289091840
1.7522382 -1.2262608 -0.36692801 4289222400
1.7514887 -1.2256514 -0.36339137 4289091840
1.7555811 -1.2284251 -0.36043382 4289222400
1.7649577 -1.23489 -0.35811606 4289222400
1.7523903 -1.2260221 -0.35092452 4289091840
1.7449968 -1.2207698 -0.34442237 4289091840
1.7435893 -1.2196993 -0.33873525 4289091840
1.7223887 -1.2048029 -0.32887182 4288961280
1.7271706 -1.2080559 -0.32366729 4289091840
1.7500731 -1.2239634 -0.32140037 4289091840
1.7544299 -1.2269169 -0.31524211 4289091840
1.7666913 -1.2353894 -0.31008354 4289222400
1.7527672 -1.225576 -0.29996485 4289091840
1.7315916 -1.2107009 -0.28841683 4289091840
1.7347052 -1.2127851 -0.28069168 4289091840
1.7524047 -1.2250509 -0.27492148 4289091840
1.7560042 -1.2274722 -0.26651296 4289091840
1.7399228 -1.2161556 -0.25486869 4289091840
1.7265533 -1.2067333 -0.2434974 4288961280
1.7513072 -1.223918 -0.23720062 4289091840
1.759822 -1.2297674 -0.22823963 4289091840
1.7703396 -1.2370133 -0.21917726 4289222400
1.7261274 -1.2060714 -0.20325275 4288961280
1.7428154 -1.2176223 -0.1944966 4289091840
1.7492961 -1.2220504 -0.18423562 4289091840
1.7514153 -1.2234354 -0.17325597 4289091840
1.718051 -1.2000695 -0.15874736 4288961280
1.7518779 -1.2235703 -0.150334 4289091840
1.7623489 -1.2307788 -0.13943814 4289091840
1.7532328 -1.2243268 -0.12681504 4289091840
1.7420502 -1.2164347 -0.11404251 4288961280
1.7429289 -1.2169534 -0.10201994 4288961280
1.7395749 -1.2145208 -0.089653768 4288961280
1.7475057 -1.2199557 -0.077752881 4289091840
1.7152009 -1.1973419 -0.064111382 4288961280
1.7333698 -1.2099134 -0.052441411 4288961280
1.7410277 -1.2151568 -0.040203236 4288961280
1.7401557 -1.2144547 -0.027668918 4288961280
1.7452632 -1.2179196 -0.015177465 4288961280
1.7551548 -1.2247176 -0.0026101104 4289091840
1.7583563 -1.2268531 0.010069763 4289091840
1.7570103 -1.2258201 0.022729255 4289091840
1.8602138 -1.2976216 0.03733227 4289483520
1.9745225 -1.3771479 0.053664304 4290005760
1.9620509 -1.3683542 0.067345776 4289875200
1.8370061 -1.2811557 0.076225691 4289352960
1.9739823 -1.3764515 0.095688097 4290005760
1.9715577 -1.3746564 0.10937732 4290005760
1.9418762 -1.3538821 0.12123885 4289875200
1.8394201 -1.2824401 0.12759054 4289352960
1.9756852 -1.3772118 0.15031505 4290005760
1.9807594 -1.3806382 0.16398871 4290005760
1.9539418 -1.3618641 0.17473115 4289875200
1.8328341 -1.2774615 0.17598392 4289352960
1.9826247 -1.3816189 0.20291035 4290005760
1.9940658 -1.3894758 0.21663301 4290005760
1.9928633 -1.3885331 0.22881946 4290005760
1.8883066 -1.3156722 0.22835679 4289614080
1.7918572 -1.2484635 0.22740838 4289222400
1.9863799 -1.3837066 0.26332948 4290005760
1.9784807 -1.378107 0.2734234 4290005760
1.9617121 -1.3663386 0.28185821 4290005760
1.8838145 -1.3120518 0.28075731 4289614080
1.8326372 -1.2763582 0.28261393 4289483520
1.9831998 -1.3809769 0.31549683 4290005760
1.9846699 -1.3818969 0.3252278 4290005760
1.9719937 -1.37298 0.33223552 4290005760
1.9352505 -1.3473305 0.33461744 4289875200
1.8816634 -1.3099738 0.33333722 4289614080
1.8889446 -1.3149403 0.34218672 4289744640
1.8535236 -1.290221 0.34285468 4289483520
1.8405806 -1.2811307 0.34707668 4289483520
1.7738339 -1.2346443 0.34054989 4289222400
1.7577608 -1.2233846 0.34301579 4289091840
1.7409286 -1.2115995 0.34483758 4289091840
1.7371171 -1.2088647 0.34876111 4289091840
1.7284925 -1.2027862 0.35128793 4289091840
1.7320697 -1.2051871 0.35585544 4289091840
1.7356955 -1.2076219 0.36003283 4289091840
1.7426107 -1.212342 0.3644866 4289091840
1.6850703 -1.1722857 0.35504708 4288830720
1.684818 -1.1720297 0.35709518 4288830720
1.684622 -1.1718134 0.35873628 4288830720
1.6877198 -1.173885 0.36065567 4288830720
1.687639 -1.1737493 0.36147955 4288830720
1.6762898 -1.1657888 0.35947892 4288830720
1.7375728 -1.2082654 0.37252522 4289091840
1.7263434 -1.2003878 0.36969095 4289091840
1.7305475 -1.2032272 0.36970726 4289091840
1.7307657 -1.2032993 0.36844161 4289091840
1.7310426 -1.2034127 0.36675611 4289091840
1.7313772 -1.2035666 0.36465248 4289091840
1.7431053 -1.2116293 0.36448804 4289091840
1.7589439 -1.2225444 0.36470625 4289222400
1.8334875 -1.274202 0.37641555 4289483520
1.8462261 -1.2829612 0.37490124 4289483520
1.8663211 -1.2968248 0.37435704 4289614080
1.8957825 -1.3171865 0.37511581 4289744640
1.9183151 -1.3327384 0.37393183 4289875200
1.9485221 -1.3536134 0.37364045 4289875200
1.9660181 -1.3656677 0.37034118 4290005760
1.9790465 -1.3746216 0.36567298 4290005760
1.9759244 -1.3723714 0.35758418 4290005760
1.9569453 -1.3591228 0.34632191 4290005760
1.9635625 -1.3631843 0.28755057 4290005760
1.9805497 -1.3748816 0.27935481 4290005760
1.9922 -1.3828779 0.26994303 4290005760
1.9463089 -1.3509825 0.2526927 4289875200
1.9603014 -1.3606035 0.24304686 4289875200
1.9617122 -1.3615022 0.23149452 4289875200
1.9741213 -1.3700244 0.22088665 4290005760
1.9304755 -1.3396945 0.20401923 4289744640
1.9387186 -1.3453302 0.19257194 4289875200
1.9571171 -1.3580033 0.18173885 4289875200
1.9661164 -1.3641618 0.16966538 4289875200
1.9423311 -1.347602 0.15471041 4289875200
1.9630435 -1.3618766 0.14310098 4289875200
1.9682368 -1.3653973 0.13004489 4289875200
1.8575577 -1.2886393 0.11003805 4289483520
1.7587761 -1.2201326 0.092051677 4289091840
1.7672664 -1.225945 0.080083542 4289091840
1.7706796 -1.2282399 0.067720123 4289091840
1.7675554 -1.2260064 0.055038203 4289091840
1.7404382 -1.2071552 0.041791365 4288961280
1.7530383 -1.2158136 0.029511219 4289091840
1.7509958 -1.2143306 0.016892655 4288961280
1.7478654 -1.2120943 0.0042830692 4288961280
1.7361733 -1.2039295 -0.0082368916 4288961280
1.744992 -1.2099679 -0.020847438 4288961280
1.7461188 -1.2106798 -0.033407532 4288961280
1.7461542 -1.2106359 -0.045918558 4288961280
1.7505276 -1.2135953 -0.05853074 4288961280
1.7619864 -1.2214592 -0.071437038 4289091840
1.7699871 -1.2269284 -0.08426071 4289091840
1.7602147 -1.2200944 -0.096117951 4289091840
1.7655125 -1.2236919 -0.10867808 4289091840
1.7691094 -1.2261118 -0.12107603 4289091840
1.7650425 -1.2232274 -0.13280815 4289091840
1.753499 -1.215169 -0.1437213 4289091840
1.7672988 -1.2246487 -0.15659393 4289091840
1.7774652 -1.231613 -0.16912846 4289091840
1.7880913 -1.2388945 -0.18165722 4289222400
1.7834307 -1.2355984 -0.19245888 4289222400
1.7204826 -1.1919773 -0.19628623 4288961280
1.7817218 -1.2342728 -0.21416444 4289222400
1.77953 -1.2326847 -0.22448356 4289222400
1.7820404 -1.234349 -0.23515315 4289222400
1.7576113 -1.2173797 -0.24185956 4289091840
1.6840895 -1.1664579 -0.24095494 4288830720
1.7814255 -1.2337054 -0.26449996 4289222400
1.7901194 -1.2396444 -0.27507603 4289222400
1.7950064 -1.2429498 -0.28482452 4289222400
1.78324 -1.2347392 -0.29156345 4289222400
1.7654339 -1.2223532 -0.29684117 4289091840
1.7653501 -1.2222213 -0.30469456 4289091840
1.76341 -1.2208056 -0.31187135 4289091840
1.7699144 -1.2252275 -0.32021171 4289222400
1.7629001 -1.2203035 -0.32572895 4289091840
1.7738878 -1.227823 -0.33422741 4289222400
1.7709821 -1.2257384 -0.33974344 4289222400
1.773168 -1.2271726 -0.34584674 4289222400
1.767709 -1.2233231 -0.350045 4289222400
1.7619462 -1.2192637 -0.35374653 4289222400
1.7528661 -1.212912 -0.35633141 4289091840
1.7341177 -1.1998804 -0.35646445 4289091840
1.7225462 -1.1918086 -0.3575983 4288961280
1.7271432 -1.1949075 -0.36167061 4289091840
1.7021073 -1.1775347 -0.35906196 4288961280
1.7099344 -1.1828647 -0.36296535 4288961280
1.6591676 -1.1477211 -0.35391626 4288700160
1.6590111 -1.1475372 -0.35523754 4288700160
1.6548619 -1.1445955 -0.35528293 4288700160
1.7053601 -1.1793927 -0.36670434 4288961280
1.6972786 -1.173733 -0.36506864 4288961280
1.7220472 -1.1907564 -0.37009341 4288961280
1.7253069 -1.1929263 -0.37003964 4288961280
1.7358172 -1.2001013 -0.37110576 4289091840
1.755124 -1.2133476 -0.37360081 4289091840
1.7566733 -1.2143333 -0.37184608 4289091840
1.7695115 -1.2231108 -0.37203616 4289222400
1.7707074 -1.223851 -0.36931577 4289222400
1.7659011 -1.2204481 -0.36491656 4289222400
1.7740698 -1.2259995 -0.36277673 4289222400
1.7794286 -1.2296107 -0.35960907 4289222400
1.770873 -1.2236197 -0.35321194 4289222400
1.7675157 -1.2212158 -0.34748003 4289222400
1.7485163 -1.2080201 -0.33832812 4289091840
1.7521466 -1.2104374 -0.33323103 4289091840
1.7423147 -1.2035675 -0.32520291 4289091840
1.7590914 -1.2150519 -0.32176322 4289091840
1.7784525 -1.2283168 -0.31829202 4289222400
1.7793654 -1.2288563 -0.31106141 4289222400
1.7598777 -1.2153267 -0.29997543 4289091840
1.7402442 -1.2016982 -0.28869882 4289091840
1.7499019 -1.208268 -0.28202438 4289091840
1.7676769 -1.2204332 -0.2762149 4289091840
1.7727318 -1.2238268 -0.26798403 4289222400
1.7665956 -1.219505 -0.25775862 4289091840
1.741834 -1.2023448 -0.24467829 4288961280
1.7644268 -1.2178261 -0.2380285 4289091840
1.7751439 -1.2251201 -0.22931516 4289091840
1.7821008 -1.2298214 -0.21975738 4289222400
1.7445985 -1.203885 -0.20461951 4288961280
1.7542264 -1.2104272 -0.19499433 4289091840
1.7637693 -1.2169094 -0.18502758 4289091840
1.7700037 -1.2211112 -0.17440951 4289091840
1.73733 -1.1985089 -0.1599032 4288961280
1.7712985 -1.2218152 -0.15140957 4289091840
1.7735983 -1.2233051 -0.13977654 4289091840
1.7644465 -1.2169074 -0.12712577 4289091840
1.7523971 -1.208515 -0.11427078 4289091840
1.7541023 -1.2095957 -0.10227438 4289091840
1.7630785 -1.2156824 -0.090525791 4289091840
1.7562268 -1.2108705 -0.077837929 4289091840
1.7221475 -1.187314 -0.064121731 4288961280
1.7560344 -1.2105497 -0.052939732 4289091840
1.7604309 -1.2134818 -0.040510897 4289091840
1.7587327 -1.2122183 -0.027874324 4289091840
1.757928 -1.21157 -0.015242492 4289091840
1.767828 -1.2182887 -0.0026349372 4289091840
1.773712 -1.2222428 0.01009721 4289091840
1.7682534 -1.2183915 0.022767367 4289091840
1.8990442 -1.3082849 0.03791403 4289614080
1.9825121 -1.3656073 0.053652406 4290005760
1.9584596 -1.3489546 0.066951409 4289875200
1.8287934 -1.2596558 0.075585008 4289352960
1.9663254 -1.3541549 0.094936922 4289875200
1.977074 -1.3614424 0.1092321 4289875200
1.9569041 -1.3474656 0.12166566 4289875200
1.8345199 -1.2632028 0.12674074 4289352960
1.9754509 -1.3600099 0.14968857 4289875200
1.9813697 -1.3639745 0.16337445 4290005760
1.9544458 -1.3453592 0.17406856 4289875200
1.8287435 -1.258842 0.17488626 4289352960
1.9849019 -1.3660877 0.20231968 4290005760
1.9996747 -1.3761369 0.2163583 4290005760
1.9853284 -1.3661717 0.22704153 4290005760
1.9347988 -1.3313417 0.23298095 4289744640
1.7835239 -1.2272868 0.22544779 4289222400
1.9878625 -1.3676013 0.26246062 4290005760
1.9828767 -1.3640722 0.27292013 4290005760
1.9622713 -1.3498129 0.28080046 4289875200
1.8791528 -1.292611 0.27893874 4289614080
1.8433133 -1.2678951 0.28310132 4289483520
1.9830372 -1.3637731 0.31419906 4290005760
1.9804314 -1.3618819 0.3232297 4290005760
1.9758759 -1.3586524 0.33154324 4290005760
1.94539 -1.3376167 0.33500305 4289875200
1.928735 -1.3260819 0.34024167 4289875200
1.8851559 -1.2960625 0.34012944 4289614080
1.856933 -1.2765909 0.34209776 4289483520
1.8406796 -1.26534 0.34569761 4289483520
1.8204017 -1.2513282 0.34802181 4289352960
1.8075054 -1.2423859 0.35123691 4289352960
1.7914039 -1.2312453 0.3533392 4289222400
1.7908168 -1.2307545 0.35802257 4289222400
1.7395376 -1.1954756 0.35209522 4289091840
1.7463803 -1.2000868 0.35733256 4289091840
1.7540835 -1.2052883 0.36235818 4289091840
1.7650876 -1.2127542 0.36767218 4289222400
1.6991853 -1.1674556 0.35656145 4288830720
1.6989305 -1.1672001 0.35861841 4288830720
1.7109193 -1.1753439 0.36283398 4288961280
1.7140275 -1.1773955 0.36476752 4288961280
1.7106955 -1.1750299 0.3649123 4288961280
1.7106726 -1.1749346 0.36532849 4288961280
1.7681408 -1.2142673 0.37751272 4289222400
1.7568672 -1.206455 0.3746728 4289091840
1.7448404 -1.1981277 0.37124261 4289091840
1.7336837 -1.1903987 0.36757541 4289091840
1.7805926 -1.2224818 0.37566954 4289222400
1.7890649 -1.2282102 0.37520838 4289222400
1.797599 -1.2339807 0.37429762 4289352960
1.8053805 -1.2392348 0.37276733 4289352960
1.8335583 -1.2584692 0.374917 4289483520
1.8455317 -1.2665951 0.37325484 4289483520
1.8905079 -1.297339 0.37765369 4289614080
1.8952808 -1.3005277 0.37350973 4289744640
1.9064953 -1.3081307 0.37014848 4289744640
1.9522878 -1.3394266 0.37285307 4289875200
