# .PCD v0.7 - Point Cloud Data file format
VERSION 0.7
FIELDS x y z rgba
SIZE 4 4 4 4
TYPE F F F U
COUNT 1 1 1 1
WIDTH 1129
HEIGHT 1
VIEWPOINT 0 0 0 1 0 0 0
POINTS 1129
DATA ascii
3.1740658 1.2180562 -0.36291856 4293400320
3.1707034 1.2168708 -0.34613782 4293400320
3.1308334 1.2016826 -0.32520047 4293139200
3.1341064 1.2030402 -0.3086037 4293139200
3.1515298 1.209826 -0.29295686 4293269760
3.1523762 1.2102531 -0.27534041 4293269760
3.1274793 1.2008032 -0.25529987 4293139200
3.1562042 1.2119263 -0.23936483 4293269760
3.164932 1.2153776 -0.22142629 4293269760
3.159272 1.2133076 -0.2022174 4293269760
3.1655362 1.2158136 -0.18355732 4293269760
3.1472433 1.2088943 -0.16333687 4293269760
3.1597819 1.2138087 -0.14459406 4293269760
3.1659577 1.2162811 -0.12528785 4293269760
3.1348345 1.2044336 -0.10450754 4293139200
3.151968 1.2111127 -0.08534053 4293269760
3.1700914 1.2181731 -0.065890588 4293269760
3.1717839 1.2189248 -0.045896947 4293269760
3.1544108 1.2123541 -0.025669066 4293269760
3.1714039 1.2189821 -0.0057189381 4293269760
3.1823504 1.2232885 0.014425688 4293269760
3.1726384 1.2196596 0.034478221 4293269760
3.1886637 1.2259181 0.054794345 4293400320
3.2069495 1.2330461 0.075302012 4293400320
3.220288 1.2382742 0.095810808 4293530880
3.1853862 1.2249655 0.11467304 4293400320
3.1889796 1.2264488 0.13457464 4293400320
3.2018967 1.231516 0.15481675 4293400320
3.2087436 1.2342509 0.1747193 4293400320
3.1581972 1.2149237 0.19107667 4293269760
3.2038658 1.2325827 0.21294975 4293400320
3.2238495 1.2403696 0.23328735 4293530880
3.2173004 1.2379557 0.25154373 4293530880
3.1488194 1.2117263 0.26428917 4293269760
3.2248151 1.2410545 0.28880802 4293530880
3.2407556 1.2472903 0.30818364 4293530880
3.2336342 1.2446569 0.32508808 4293530880
3.2109323 1.2360297 0.33991459 4293530880
3.0379467 1.1695867 0.33753204 4292878080
3.2344449 1.2452867 0.37565893 4293530880
3.2211158 1.2402645 0.39006668 4293530880
3.2103579 1.2362312 0.40422761 4293530880
3.1855903 1.226806 0.41601089 4293400320
3.1542587 1.2148533 0.42621392 4293269760
3.2196505 1.2401278 0.44907954 4293530880
3.2303011 1.2443351 0.46416783 4293661440
3.2266903 1.2430533 0.47671813 4293661440
3.2174652 1.2396101 0.48784795 4293530880
3.1942699 1.2307875 0.49618894 4293530880
3.1728251 1.2226379 0.50406945 4293400320
3.2140551 1.2386235 0.52134454 4293530880
3.2136471 1.2385759 0.5314303 4293530880
3.2080445 1.2365278 0.54002845 4293530880
3.2104912 1.2375804 0.54934031 4293530880
3.2217534 1.2420297 0.55955219 4293661440
3.211448 1.2381707 0.56538725 4293530880
3.2144165 1.239426 0.57287282 4293661440
3.2079992 1.2370652 0.57801747 4293530880
3.1942399 1.2318748 0.58113211 4293530880
3.2063255 1.2366451 0.58824408 4293530880
3.1978092 1.2334754 0.590909 4293530880
3.1926243 1.23159 0.59347671 4293530880
3.1967409 1.2332904 0.59706742 4293530880
3.2009649 1.235033 0.5999828 4293530880
3.1869156 1.2297305 0.59877729 4293530880
3.1959565 1.2333314 0.60118437 4293530880
3.1913223 1.2316597 0.60032362 4293530880
3.2038093 1.2365916 0.60196179 4293530880
3.2085757 1.2385467 0.6014418 4293661440
3.2051015 1.2373236 0.59867591 4293530880
3.1972315 1.2344049 0.59439743 4293530880
3.2046542 1.2373867 0.59225136 4293530880
3.2075145 1.2386088 0.5885582 4293530880
3.2097967 1.2396085 0.58406198 4293661440
3.2103524 1.2399426 0.57856435 4293661440
3.2102995 1.240042 0.57227981 4293530880
3.2066951 1.238771 0.56470424 4293530880
3.194998 1.2343758 0.55508637 4293530880
3.1880517 1.2318144 0.54568988 4293530880
3.1897955 1.2326086 0.5371536 4293530880
3.208756 1.2400521 0.53082043 4293530880
3.2239985 1.2460614 0.52315646 4293661440
3.2136943 1.2422048 0.51074743 4293530880
3.2046628 1.2388391 0.49801776 4293530880
3.182503 1.2310758 0.40915212 4293400320
3.2064197 1.2404463 0.39702004 4293530880
3.2188001 1.2453588 0.38284591 4293530880
3.1750329 1.2285621 0.36175942 4293400320
3.1710176 1.2271346 0.34500867 4293400320
3.1940134 1.2361534 0.33069155 4293400320
3.197916 1.2377893 0.31389874 4293400320
3.1631875 1.2244822 0.29315877 4293269760
3.153465 1.2208465 0.27463773 4293269760
3.1758778 1.2296437 0.25851542 4293400320
3.178328 1.2307184 0.2403526 4293400320
3.1853306 1.2335551 0.22220919 4293400320
3.1737633 1.2292054 0.20256349 4293269760
3.1932216 1.2368641 0.18460527 4293400320
3.1861746 1.2342639 0.16485277 4293400320
3.1755862 1.2302924 0.14484398 4293269760
3.1711259 1.2286929 0.12504224 4293269760
3.1666119 1.2270722 0.10515467 4293269760
3.175256 1.230547 0.085552126 4293269760
3.152106 1.2217084 0.065107539 4293269760
3.1475046 1.2200528 0.045134954 4293269760
3.158926 1.2246039 0.025286376 4293269760
3.1626375 1.226169 0.0052536265 4293269760
3.1406429 1.217774 -0.014700194 4293139200
3.1537445 1.2229773 -0.034771055 4293269760
3.1689446 1.228995 -0.055012062 4293269760
3.1640441 1.227223 -0.074902378 4293269760
3.1574636 1.2247995 -0.094602898 4293269760
3.1725931 1.2307914 -0.11492154 4293269760
3.1862309 1.2362064 -0.13524453 4293400320
3.1757777 1.2322811 -0.15440938 4293269760
3.1561511 1.2247975 -0.17277513 4293269760
3.1597948 1.2263371 -0.19214624 4293269760
3.161061 1.2269547 -0.21119624 4293269760
3.148386 1.2221643 -0.22901364 4293269760
3.160902 1.2271456 -0.24842931 4293269760
3.1843309 1.2363617 -0.2686491 4293400320
3.1845706 1.2365816 -0.28674617 4293400320
3.166635 1.229748 -0.30278748 4293269760
3.0589352 1.1880747 -0.3091799 4293008640
3.1829865 1.2363459 -0.33885974 4293400320
3.1808636 1.2356478 -0.35532486 4293400320
3.1800187 1.2354454 -0.37152752 4293400320
3.1618769 1.2285268 -0.38519615 4293400320
3.0640085 1.1906484 -0.38811967 4293008640
3.205179 1.2455912 -0.42120638 4293530880
3.1926866 1.2408648 -0.4341639 4293530880
3.1876619 1.2390376 -0.44757658 4293400320
3.1911585 1.2405201 -0.46168134 4293530880
3.1609991 1.2289271 -0.47027314 4293400320
3.1691322 1.2322096 -0.48395893 4293400320
3.1667836 1.2314192 -0.49551514 4293400320
3.175164 1.234798 -0.50821489 4293400320
3.162313 1.2299252 -0.51691496 4293400320
3.1682429 1.2323512 -0.52808011 4293400320
3.1546476 1.227187 -0.53535622 4293400320
3.153584 1.2268935 -0.54410756 4293400320
3.1546023 1.2274089 -0.55259407 4293400320
3.1526029 1.2267506 -0.55991256 4293400320
3.1264787 1.2167101 -0.56222653 4293269760
3.1265337 1.2168487 -0.56855303 4293269760
3.1150844 1.2125124 -0.57210356 4293269760
3.0615788 1.191815 -0.56714141 4293139200
3.0654671 1.1934413 -0.57210004 4293139200
3.0777161 1.1983203 -0.57797778 4293139200
2.9985647 1.1676356 -0.56591505 4292878080
2.9935923 1.1658106 -0.56715029 4292878080
2.9979017 1.1675971 -0.56948626 4292878080
3.0763583 1.1982424 -0.58530354 4293139200
3.068033 1.1951134 -0.58390862 4293139200
3.0634875 1.1934546 -0.58255416 4293139200
3.1080287 1.2109056 -0.58986169 4293269760
3.1178992 1.2148601 -0.5898627 4293269760
3.1172121 1.2147038 -0.58716899 4293269760
3.1289105 1.2193704 -0.58611894 4293269760
3.1486685 1.2271761 -0.58586359 4293400320
3.1627028 1.2327534 -0.58381438 4293400320
3.1562676 1.2303579 -0.57729006 4293400320
3.1569679 1.2307411 -0.57141471 4293400320
3.1588352 1.2315786 -0.56508487 4293400320
3.1620049 1.2329234 -0.55832481 4293400320
3.1615014 1.2328366 -0.55026484 4293400320
3.1560993 1.2308403 -0.54073298 4293400320
3.1423206 1.2255785 -0.52919626 4293400320
3.137337 1.2237436 -0.51859468 4293269760
3.1442394 1.2265412 -0.50936383 4293400320
3.1707091 1.2369671 -0.502617 4293400320
3.1768363 1.2394632 -0.49195009 4293400320
3.1646955 1.2348366 -0.47791222 4293400320
3.1448123 1.2271898 -0.46228766 4293269760
3.1325536 1.2225145 -0.44739756 4293269760
3.1586001 1.2327777 -0.437433 4293400320
3.1672893 1.2362721 -0.42441422 4293400320
3.1475179 1.228665 -0.40714642 4293269760
3.1273408 1.220898 -0.38956091 4293269760
3.1540442 1.2314194 -0.37737176 4293269760
3.1644611 1.235588 -0.36262423 4293400320
3.1698587 1.2377982 -0.34681842 4293400320
3.1242437 1.2201014 -0.32523742 4293139200
3.1353924 1.2245547 -0.30942029 4293269760
3.1481395 1.2296324 -0.29329291 4293269760
3.1545556 1.2322394 -0.27614632 4293269760
3.1250739 1.2208332 -0.25567067 4293139200
3.1583812 1.233938 -0.24006432 4293269760
3.1577969 1.2338123 -0.22141448 4293269760
3.1605175 1.2349769 -0.20274703 4293269760
3.153748 1.2324356 -0.18327264 4293269760
3.1518593 1.2317997 -0.16394092 4293269760
3.1619623 1.2358474 -0.1450143 4293269760
3.1681256 1.2383567 -0.12565048 4293269760
3.1277637 1.2226921 -0.10449583 4293139200
3.1495137 1.2312896 -0.085457779 4293269760
3.1641519 1.23711 -0.065904692 4293269760
3.1727674 1.2405781 -0.046007887 4293269760
3.1519506 1.2325456 -0.025698015 4293269760
3.1689048 1.2392725 -0.0057182652 4293269760
3.1723716 1.2407292 0.01442654 4293269760
3.1654782 1.2381369 0.034490082 4293269760
3.1814668 1.2444884 0.054806266 4293400320
3.2034354 1.2531787 0.075399399 4293400320
3.2088306 1.2553909 0.095700502 4293400320
3.153326 1.2337928 0.11380304 4293269760
3.1910861 1.2486593 0.13497439 4293400320
3.2030406 1.253437 0.15522927 4293400320
3.2014978 1.2529371 0.1747313 4293400320
3.1227322 1.2222342 0.18938863 4293139200
3.2049956 1.2545123 0.2135137 4293400320
3.2098749 1.2565248 0.23281825 4293530880
3.2042174 1.2544159 0.25110382 4293400320
3.1264141 1.22408 0.26302469 4293139200
3.2175293 1.2598331 0.28882009 4293530880
3.2297227 1.2647095 0.30784455 4293530880
3.2355995 1.2671151 0.32602835 4293661440
3.1911583 1.249828 0.3386068 4293400320
3.0218174 1.1836517 0.33651847 4292878080
3.2234311 1.2626709 0.37524241 4293530880
3.2138348 1.2590207 0.39007875 4293530880
3.2141874 1.2592652 0.40563124 4293530880
3.1830101 1.247165 0.41662461 4293400320
3.1517465 1.235029 0.42684811 4293400320
3.2262218 1.2642993 0.45101845 4293661440
3.2240336 1.2635504 0.46432862 4293661440
3.2230828 1.2632865 0.47727406 4293661440
3.2065001 1.2568995 0.48730209 4293530880
3.1870444 1.2493865 0.49620092 4293530880
3.1785431 1.2461642 0.50612551 4293530880
3.2113872 1.2591411 0.5221017 4293530880
3.2192597 1.2623358 0.53356856 4293661440
3.2143819 1.2605348 0.54232472 4293661440
3.2069037 1.2577147 0.54998046 4293530880
3.2034206 1.2564604 0.55765015 4293530880
3.2078545 1.2583097 0.56604517 4293661440
3.202548 1.2563412 0.57206786 4293530880
3.2090011 1.2589833 0.57951593 4293661440
3.1998596 1.2555118 0.58347815 4293530880
3.2036545 1.2571126 0.58909655 4293661440
3.176805 1.2466968 0.58838201 4293530880
3.1945682 1.2537763 0.59519118 4293530880
3.1977561 1.2551408 0.59861875 4293530880
3.1891289 1.2518712 0.59913665 4293530880
3.1971204 1.2551211 0.60205764 4293530880
3.1933012 1.2537382 0.60205746 4293530880
3.1886768 1.2520394 0.60119671 4293530880
3.1919646 1.2534459 0.60111368 4293530880
3.2049732 1.2586676 0.60214037 4293661440
3.1924276 1.2538613 0.59767896 4293530880
3.2116375 1.2615192 0.59842825 4293661440
3.1973903 1.2560452 0.59226334 4293530880
3.1952624 1.2553285 0.58765781 4293530880
3.2025194 1.258297 0.58407402 4293661440
3.2030735 1.2586343 0.57857639 4293661440
3.1938369 1.2551274 0.57065773 4293530880
3.2040157 1.2592454 0.56552362 4293530880
3.2014632 1.2583641 0.5574761 4293530880
3.1900127 1.2539876 0.54727221 4293530880
3.1871574 1.2529874 0.5379383 4293530880
3.2051561 1.2601807 0.53143996 4293530880
3.2166038 1.2648017 0.52315557 4293661440
3.212204 1.2631966 0.51167959 4293530880
3.1992295 1.2582214 0.49831498 4293530880
3.1706557 1.24779 0.4085719 4293400320
3.202836 1.2605714 0.39748853 4293530880
3.2068644 1.2622823 0.38230979 4293530880
3.1770751 1.2506908 0.36282191 4293400320
3.1638141 1.2455995 0.34502059 4293400320
3.1830516 1.2532945 0.33032152 4293400320
3.1952834 1.2582344 0.31436357 4293400320
3.1652706 1.2465506 0.29402572 4293400320
3.1602108 1.2446858 0.2758548 4293269760
3.1770103 1.2514248 0.25920323 4293400320
3.1757445 1.2510538 0.24071333 4293400320
3.1822665 1.2537489 0.22251055 4293400320
3.1637576 1.2465892 0.20239878 4293269760
3.185961 1.2554597 0.18461728 4293400320
3.1882229 1.2564788 0.16534087 4293400320
3.1776602 1.2524471 0.14527507 4293400320
3.1676323 1.2486254 0.12519884 4293269760
3.1640584 1.2473454 0.10531847 4293269760
3.1680324 1.2490389 0.085564084 4293269760
3.1449342 1.2400658 0.065119408 4293269760
3.1503868 1.2423416 0.045285046 4293269760
3.1530497 1.2435186 0.025308013 4293269760
3.1550412 1.2444311 0.0052651158 4293269760
3.1334941 1.2360654 -0.014688361 4293139200
3.1549377 1.2446457 -0.034856629 4293269760
3.1487079 1.2423171 -0.054765962 4293269760
3.1614904 1.2474848 -0.075003475 4293269760
3.1549234 1.2450229 -0.09473329 4293269760
3.1653681 1.2492697 -0.11490958 4293269760
3.1836216 1.2565973 -0.13543284 4293400320
3.1685441 1.2507782 -0.1543974 4293269760
3.1459856 1.2420065 -0.17259832 4293269760
3.152596 1.2447414 -0.19213432 4293269760
3.1631424 1.2490299 -0.21181108 4293269760
3.1458519 1.2423338 -0.22934258 4293269760
3.1536984 1.245557 -0.24841738 4293269760
3.1817095 1.2567396 -0.26903158 4293400320
3.1865804 1.2587898 -0.28757548 4293400320
3.1816504 1.256971 -0.30491802 4293400320
3.0473311 1.2040652 -0.30869684 4292878080
3.175729 1.2548866 -0.33884773 4293400320
3.1816571 1.257354 -0.35621789 4293400320
3.1727664 1.2539691 -0.37151551 4293400320
3.159286 1.2487701 -0.38575071 4293400320
3.0616372 1.2103214 -0.38869676 4293008640
3.1978674 1.2642617 -0.42119429 4293530880
3.1900158 1.2612853 -0.43478286 4293530880
3.1942203 1.263072 -0.44951779 4293530880
3.1884849 1.2609304 -0.46233973 4293530880
3.1537852 1.2473409 -0.47026122 4293400320
3.1582165 1.2492152 -0.48338151 4293400320
3.159555 1.249867 -0.49550316 4293400320
3.1633172 1.2514766 -0.50746298 4293400320
3.1651256 1.2523136 -0.51855135 4293400320
3.1618562 1.2511426 -0.52821004 4293400320
3.1566284 1.2491965 -0.53691077 4293400320
3.1555629 1.2488958 -0.54568756 4293400320
3.1473973 1.2457863 -0.55258214 4293400320
3.1320941 1.2398523 -0.55752552 4293400320
3.1239216 1.2367377 -0.56304324 4293269760
3.0914578 1.2240115 -0.5634371 4293269760
3.1043012 1.2292094 -0.57141531 4293269760
3.06741 1.2147272 -0.56951743 4293139200
3.0667059 1.2145628 -0.57363445 4293139200
2.9921978 1.1851871 -0.56315684 4292878080
2.9962893 1.1869172 -0.56677192 4292878080
3.0050604 1.1904999 -0.57062489 4292878080
2.9910481 1.1850626 -0.56947494 4292878080
3.0693247 1.2161647 -0.58529192 4293139200
3.061018 1.2129873 -0.58389705 4293139200
3.0564821 1.211302 -0.5825426 4293139200
3.1009207 1.2290123 -0.58984989 4293269760
3.1199236 1.2366505 -0.59159118 4293269760
3.11466 1.2346774 -0.58802366 4293269760
3.1483109 1.2481196 -0.59110564 4293400320
3.1497087 1.2487853 -0.58739281 4293400320
3.1536226 1.2504476 -0.58346045 4293400320
3.1582096 1.2523764 -0.57896227 4293400320
3.1534102 1.2505854 -0.57206964 4293400320
3.1561906 1.2517978 -0.56589705 4293400320
3.1513753 1.2499992 -0.55771083 4293400320
3.1430676 1.2468154 -0.54829425 4293400320
3.1408896 1.2460607 -0.5393461 4293400320
3.1351266 1.2438842 -0.52918434 4293400320
3.1301539 1.2420201 -0.51858276 4293269760
3.1416354 1.2466801 -0.51010031 4293400320
3.1634483 1.2554377 -0.50260502 4293400320
3.1695609 1.2579694 -0.49193805 4293400320
3.161129 1.2547324 -0.47845927 4293400320
3.1422133 1.2473358 -0.4629564 4293400320
3.1391978 1.2462451 -0.44937086 4293269760
3.1605823 1.2548345 -0.43870512 4293400320
3.164644 1.2565519 -0.42502382 4293400320
3.1403058 1.2469997 -0.40713447 4293269760
3.1238673 1.2405808 -0.390012 4293269760
3.1435003 1.2484761 -0.37696052 4293269760
3.1710708 1.259523 -0.36421147 4293400320
3.1718392 1.2599326 -0.34782511 4293400320
3.1124566 1.2364638 -0.32474056 4293139200
3.1235771 1.2409809 -0.30894825 4293269760
3.1455514 1.2498078 -0.29371569 4293269760
3.1426911 1.2487749 -0.27572554 4293269760
3.1179078 1.239036 -0.25565881 4293139200
3.146503 1.2504936 -0.23969673 4293269760
3.1573761 1.2549144 -0.22188559 4293269760
3.1579068 1.2552278 -0.20303583 4293269760
3.1557937 1.2544909 -0.18380633 4293269760
3.1446288 1.2501576 -0.16392896 4293269760
3.1500657 1.2524195 -0.1447863 4293269760
3.1562133 1.2549639 -0.12545124 4293269760
3.1298752 1.2446001 -0.10480036 4293139200
3.1460023 1.2511098 -0.085549034 4293269760
3.1652524 1.2588618 -0.066072099 4293269760
3.1604414 1.2570517 -0.04591959 4293269760
3.1447158 1.2509028 -0.025686046 4293269760
3.1569841 1.2558811 -0.0056950697 4293269760
3.1855354 1.2673335 0.014519565 4293400320
3.1675026 1.2602665 0.034597971 4293269760
3.1856418 1.2675811 0.055009615 4293400320
3.2007246 1.2736816 0.07551834 4293400320
3.2061059 1.2759249 0.095848694 4293530880
3.1637292 1.2591745 0.11444227 4293269760
3.1883991 1.2690891 0.13518044 4293400320
3.2003245 1.273936 0.15546399 4293400320
3.1978552 1.2730573 0.17494419 4293400320
3.1201963 1.2422647 0.18967944 4293139200
3.1976318 1.273176 0.21352589 4293400320
3.1978638 1.2733723 0.23249643 4293400320
3.1980226 1.2735395 0.25120702 4293530880
3.1238606 1.2441292 0.26342404 4293269760
3.2240233 1.284097 0.29007286 4293530880
3.2222991 1.2835162 0.30785683 4293530880
3.2235365 1.2841146 0.32557654 4293530880
3.1884451 1.2702506 0.33910754 4293400320
3.0241113 1.2049277 0.33755496 4292878080
3.2243328 1.2847506 0.37621909 4293661440
3.2156768 1.2814106 0.39120787 4293530880
3.1984909 1.2746733 0.40459862 4293530880
3.1849124 1.269372 0.41784027 4293530880
3.1481843 1.2548494 0.42735803 4293400320
3.2188005 1.2830842 0.45103073 4293661440
3.2166166 1.2823225 0.4643409 4293661440
3.2119861 1.2805861 0.47674248 4293661440
3.2028017 1.2770355 0.48787221 4293530880
3.1925831 1.2730724 0.49821264 4293530880
3.1712284 1.2646712 0.50613761 4293530880
3.2076705 1.2793034 0.52271008 4293661440
3.2072594 1.2792497 0.53282148 4293661440
3.2069829 1.27925 0.542337 4293661440
3.2041082 1.2782149 0.55077785 4293661440
3.2052157 1.2787678 0.55925578 4293661440
3.2050519 1.2788142 0.56686473 4293661440
3.2043374 1.2786415 0.57371414 4293661440
3.201611 1.2776668 0.57952815 4293661440
3.1924899 1.274142 0.58349031 4293530880
3.1839085 1.2708323 0.58683836 4293530880
3.1914573 1.2739568 0.59245658 4293530880
3.1908698 1.2738363 0.59588432 4293530880
3.2041154 1.2792352 0.60119653 4293661440
3.1991661 1.2773757 0.60240978 4293661440
3.1943278 1.2755607 0.60292995 4293661440
3.1896017 1.2737906 0.60275853 4293530880
3.1813276 1.2706046 0.60120887 4293530880
3.1937563 1.2756819 0.60284609 4293661440
3.1939392 1.2758721 0.60146868 4293661440
3.1942182 1.2761012 0.59940153 4293661440
3.1908665 1.2748814 0.59595388 4293530880
3.1991706 1.2783158 0.59396827 4293661440
3.1970487 1.2775878 0.58935094 4293661440
3.199712 1.2787713 0.58491987 4293661440
3.2002652 1.2791125 0.57941443 4293661440
3.200326 1.2792575 0.5731414 4293661440
3.2002902 1.2793646 0.56618172 4293661440
3.1904099 1.2755388 0.55685091 4293530880
3.1863205 1.2740266 0.54791254 4293530880
3.1798027 1.2715442 0.53795046 4293530880
3.1977594 1.2788423 0.53145224 4293530880
3.2183619 1.2871999 0.52465826 4293661440
3.1956031 1.2782276 0.51023167 4293530880
3.2010345 1.2805226 0.4997555 4293530880
3.1716292 1.2695708 0.40964997 4293400320
3.2000489 1.2810656 0.39807132 4293530880
3.2040696 1.2828013 0.38287029 4293530880
3.1743507 1.2710376 0.36335936 4293400320
3.1657403 1.2677187 0.34603611 4293400320
3.1840127 1.2751578 0.33119327 4293400320
3.1832752 1.2749902 0.31392297 4293400320
3.1487041 1.2612797 0.29318276 4293269760
3.1491313 1.2615772 0.27553919 4293269760
3.1764698 1.2726493 0.25976738 4293400320
3.185997 1.2765921 0.24205081 4293400320
3.1753721 1.2724661 0.22255497 4293400320
3.1657078 1.2687241 0.20299913 4293400320
3.1807709 1.2748853 0.18475464 4293400320
3.1808481 1.2750452 0.16535306 4293400320
3.1768129 1.2735577 0.14558119 4293400320
3.1565928 1.2655855 0.12506628 4293269760
3.1697268 1.2709764 0.10575589 4293400320
3.1653411 1.2693477 0.085698955 4293269760
3.1241925 1.2529855 0.064860307 4293139200
3.1523764 1.2644089 0.045425173 4293269760
3.1587453 1.2670903 0.025416777 4293269760
3.1574166 1.2666861 0.0052875876 4293269760
3.1355209 1.2580361 -0.014725526 4293269760
3.1476324 1.2630202 -0.034844548 4293269760
3.1582012 1.2673864 -0.055056356 4293269760
3.1560361 1.2666466 -0.075036861 4293269760
3.139647 1.2602016 -0.094476797 4293269760
3.1663837 1.2710541 -0.11520596 4293400320
3.1679001 1.2717912 -0.1350601 4293400320
3.1612027 1.2692329 -0.15438527 4293269760
3.1433301 1.2621896 -0.17284369 4293269760
3.1452901 1.2631036 -0.19212225 4293269760
3.1558113 1.2674536 -0.21179895 4293269760
3.1339307 1.2587988 -0.22898972 4293269760
3.1463878 1.263926 -0.24840529 4293269760
3.1672614 1.2724328 -0.26841629 4293400320
3.1838157 1.2792069 -0.28798392 4293400320
3.1696515 1.2736475 -0.30445948 4293400320
3.0485785 1.2251548 -0.30953386 4293008640
3.1683636 1.2733847 -0.33883557 4293400320
3.1788919 1.2777402 -0.3567259 4293400320
3.1741683 1.2759697 -0.37253612 4293400320
3.1556442 1.2686545 -0.38619179 4293400320
3.0499263 1.2263049 -0.38809636 4293008640
3.1904471 1.2828894 -0.42118201 4293530880
3.1826129 1.2798674 -0.43477061 4293530880
3.1868069 1.2816787 -0.44950554 4293530880
3.1718893 1.2758082 -0.46098667 4293400320
3.1464643 1.2657125 -0.47024912 4293400320
3.1591513 1.270936 -0.48464158 4293400320
3.1492786 1.2670901 -0.49502739 4293400320
3.14799 1.2666945 -0.5061636 4293400320
3.1577754 1.2707516 -0.51853919 4293400320
3.1499293 1.2677183 -0.52742827 4293400320
3.1538782 1.269428 -0.53768194 4293400320
3.1482327 1.2672783 -0.54567546 4293400320
3.1383469 1.263422 -0.55226326 4293400320
3.1339693 1.2617805 -0.5591507 4293400320
3.1212375 1.2567769 -0.56385982 4293400320
3.1295195 1.2602278 -0.5717119 4293400320
3.1098874 1.2524453 -0.57377106 4293269760
3.0602806 1.2325969 -0.56950569 4293139200
3.0559218 1.2309572 -0.57293558 4293139200
2.9943788 1.2062972 -0.5648734 4292878080
2.9938908 1.206212 -0.56762868 4292878080
2.9843717 1.2024902 -0.56799895 4292878080
3.0060132 1.2113144 -0.5736571 4292878080
2.9884861 1.2043668 -0.57115895 4292878080
3.0621183 1.2341301 -0.58546066 4293139200
3.0493727 1.2291083 -0.58253086 4293139200
3.1110609 1.2540672 -0.59315461 4293269760
3.1217995 1.2585057 -0.59331942 4293400320
3.1119812 1.2546624 -0.58887815 4293269760
3.1327627 1.2631471 -0.58954233 4293400320
3.1469486 1.2689753 -0.58823687 4293400320
3.1371434 1.2651358 -0.58174908 4293400320
3.1508591 1.2707746 -0.57895011 4293400320
3.1469135 1.2692955 -0.57221121 4293400320
3.1534176 1.2720279 -0.56670904 4293400320
3.1428483 1.2678775 -0.55748695 4293400320
3.1439888 1.2684469 -0.54972661 4293400320
3.1418185 1.267681 -0.54075652 4293400320
3.1333199 1.2643629 -0.5301044 4293400320
3.1182814 1.2584065 -0.51780754 4293269760
3.1343186 1.2649813 -0.51008821 4293400320
3.158241 1.2747372 -0.50293797 4293400320
3.171356 1.2801352 -0.49335811 4293530880
3.1583562 1.2749988 -0.47914588 4293400320
3.1302991 1.2637866 -0.46226364 4293269760
3.1400423 1.2678233 -0.45053342 4293400320
3.1486192 1.2713898 -0.43805093 4293400320
3.1655505 1.2783278 -0.42613056 4293400320
3.1375902 1.2671499 -0.40772286 4293269760
3.1211917 1.2606362 -0.39057863 4293269760
3.1499963 1.2723665 -0.37861696 4293400320
3.1590686 1.2761332 -0.36366618 4293400320
3.1564202 1.2751687 -0.34692678 4293400320
3.1144288 1.2583195 -0.32569858 4293269760
3.1301436 1.2647672 -0.31031662 4293269760
3.1428349 1.2699949 -0.29413831 4293269760
3.1399827 1.2689461 -0.27612224 4293269760
3.1106358 1.2571968 -0.2556468 4293139200
3.1391637 1.2688206 -0.2396846 4293269760
3.1570835 1.2761614 -0.22237547 4293400320
3.159795 1.2773596 -0.20362517 4293400320
3.15306 1.2747414 -0.18406697 4293269760
3.1372914 1.268473 -0.16391683 4293269760
3.1415098 1.2702793 -0.14471793 4293269760
3.1488478 1.2733463 -0.12543906 4293269760
3.1355443 1.268072 -0.10523119 4293269760
3.157196 1.2769243 -0.086052865 4293269760
3.1684411 1.2815715 -0.066287324 4293400320
3.1706772 1.2825779 -0.046174221 4293400320
3.1420095 1.2710912 -0.025714613 4293269760
3.1588843 1.278015 -0.005705175 4293269760
3.1697538 1.2825118 0.014498703 4293400320
3.1508358 1.2749648 0.034514293 4293269760
3.1760187 1.2852503 0.054985438 4293400320
3.2025177 1.2960695 0.075744264 4293530880
3.1974876 1.2941388 0.0958279 4293530880
3.1517062 1.2757246 0.1142894 4293269760
3.1855824 1.2895302 0.13538669 4293400320
3.1974781 1.2944459 0.15569893 4293530880
3.1903837 1.2916794 0.17495655 4293400320
3.1212354 1.2638052 0.19019365 4293269760
3.1855333 1.2899244 0.21323155 4293400320
3.2079635 1.2991053 0.23377809 4293530880
3.1951709 1.2940328 0.25158036 4293530880
3.149339 1.2755873 0.26618493 4293269760
3.2211056 1.3047398 0.29049885 4293530880
3.2184594 1.3037744 0.30822054 4293530880
3.225229 1.3066211 0.32651725 4293661440
3.1856024 1.2906837 0.33960846 4293530880
3.0299478 1.2277638 0.33900166 4292878080
3.2121847 1.301659 0.37569574 4293530880
3.2127616 1.3019994 0.3917788 4293530880
3.2038982 1.2985169 0.40623635 4293530880
3.1774623 1.2879164 0.41785258 4293530880
3.1500158 1.2769053 0.42861506 4293400320
3.2125666 1.3023509 0.45122439 4293661440
3.2228708 1.3066339 0.46633768 4293661440
3.2115765 1.3021669 0.47780716 4293661440
3.1998954 1.2975428 0.48858199 4293530880
3.1896977 1.2935194 0.49893916 4293530880
3.1775587 1.2887088 0.50834018 4293530880
3.2047443 1.2998366 0.52346766 4293661440
3.2005959 1.2982655 0.53297389 4293661440
3.2122934 1.3031181 0.54451311 4293661440
3.1966062 1.29687 0.55079025 4293661440
3.20137 1.2989129 0.55990559 4293661440
3.2021194 1.2993288 0.56768453 4293661440
3.2050612 1.3006343 0.57519728 4293661440
3.1941123 1.296307 0.57954055 4293661440
3.194149 1.296435 0.58516997 4293661440
3.1846712 1.2927042 0.58836359 4293530880
3.1803274 1.2910558 0.59179181 4293530880
3.1925247 1.2961183 0.59759921 4293661440
3.1829128 1.2923334 0.5986433 4293530880
3.1800601 1.291291 0.60023952 4293530880
3.1786265 1.2908247 0.60139406 4293530880
3.1784747 1.2908789 0.60208195 4293530880
3.1693068 1.2872742 0.60036004 4293530880
3.199048 1.2994632 0.60526687 4293661440
3.191015 1.2963202 0.60233921 4293661440
3.1867287 1.2946982 0.59941393 4293661440
3.1879492 1.2953124 0.59681749 4293661440
3.197227 1.2991989 0.59501106 4293661440
3.1941173 1.2980559 0.59020382 4293661440
3.1918046 1.2972369 0.58485883 4293661440
3.2018957 1.3014563 0.58107847 4293661440
3.2019582 1.3016032 0.57478797 4293661440
3.1973531 1.2998543 0.56700152 4293661440
3.1911554 1.2974584 0.55829746 4293661440
3.183418 1.2944369 0.54871011 4293530880
3.1805778 1.2934053 0.53935379 4293530880
3.1998696 1.3013685 0.5330596 4293661440
3.2153876 1.3077996 0.5254159 4293661440
3.1972661 1.3005586 0.51170427 4293530880
3.1843505 1.2954328 0.49833956 4293530880
3.168777 1.2899088 0.41025448 4293400320
3.2100151 1.3068112 0.40025192 4293530880
3.207912 1.3060838 0.38423699 4293530880
3.1622856 1.287647 0.36284637 4293400320
3.1665943 1.2895273 0.34695151 4293400320
3.181139 1.2955739 0.33168319 4293530880
3.1896286 1.2991575 0.31529379 4293530880
3.155144 1.285249 0.29447761 4293400320
3.1463435 1.281794 0.2759532 4293269760
3.1643829 1.2892659 0.25940421 4293400320
3.1748092 1.2936397 0.24178416 4293400320
3.1674409 1.290768 0.22253504 4293400320
3.158262 1.2871586 0.20301144 4293400320
3.1803632 1.2962891 0.18517438 4293400320
3.1763282 1.2947751 0.16551796 4293400320
3.1647122 1.2901727 0.14538392 4293400320
3.1495454 1.2841226 0.1250934 4293269760
3.1561174 1.2869291 0.10556633 4293269760
3.1589322 1.2882053 0.08573886 4293400320
3.1353567 1.2787265 0.065246329 4293269760
3.1495857 1.2846544 0.045501482 4293269760
3.1546328 1.2868408 0.025453864 4293269760
3.1546128 1.2869618 0.0053048683 4293269760
3.1281378 1.276297 -0.014713331 4293269760
3.1448498 1.2832394 -0.034886409 4293269760
3.1600215 1.2895551 -0.055211253 4293400320
3.1486025 1.2850274 -0.075024582 4293269760
3.1415069 1.2822623 -0.094749101 4293269760
3.1613715 1.2904938 -0.11528428 4293400320
3.1669157 1.2928848 -0.13532831 4293400320
3.1500542 1.286135 -0.15418978 4293269760
3.1276007 1.2771016 -0.17236812 4293269760
3.1424992 1.283309 -0.19239554 4293269760
3.1437531 1.2839487 -0.21147333 4293269760
3.1394751 1.2823306 -0.2299317 4293269760
3.1406295 1.2829294 -0.24852523 4293269760
3.1727149 1.2961555 -0.26950842 4293400320
3.1735377 1.29662 -0.28771886 4293400320
3.1713979 1.2958747 -0.30533978 4293400320
3.0459969 1.2447941 -0.30999348 4293008640
3.1691816 1.2952255 -0.33971623 4293400320
3.175997 1.2981368 -0.35723367 4293400320
3.1712816 1.2963382 -0.37306738 4293400320
3.1582236 1.2911309 -0.38741428 4293400320
3.0427296 1.2440709 -0.38808447 4293008640
3.1875122 1.3033506 -0.42177972 4293530880
3.1787751 1.2999071 -0.43526298 4293530880
3.1875455 1.3036176 -0.450665 4293530880
3.1735752 1.2980338 -0.46231508 4293530880
3.1472878 1.287414 -0.47147697 4293400320
3.1528852 1.289826 -0.48481318 4293400320
3.1455061 1.2869331 -0.49559408 4293400320
3.1542878 1.2906468 -0.508371 4293400320
3.1503179 1.2891464 -0.51852691 4293400320
3.156208 1.2916777 -0.5297249 4293530880
3.1546559 1.2911652 -0.53907943 4293530880
3.1499333 1.2893555 -0.54725498 4293400320
3.1400666 1.2854406 -0.55386645 4293400320
3.1265645 1.2800372 -0.55913848 4293400320
3.1266403 1.2801877 -0.56616747 4293400320
3.0943215 1.2670825 -0.56659573 4293269760
3.1070983 1.2724284 -0.57460451 4293269760
3.0530472 1.2504249 -0.56949371 4293139200
3.0705793 1.2577157 -0.57704604 4293139200
2.9955037 1.2270997 -0.56641692 4292878080
2.991369 1.2255191 -0.5684852 4292878080
2.9991856 1.2288305 -0.5721702 4292878080
2.9943488 1.2269613 -0.57277173 4292878080
2.9859741 1.2236425 -0.57202226 4292878080
3.063987 1.2557001 -0.58719909 4293139200
3.0549157 1.2520971 -0.58496743 4293139200
3.0991454 1.2703248 -0.59226966 4293269760
3.086648 1.2653179 -0.58800483 4293269760
3.1173773 1.2780184 -0.59129196 4293400320
3.121242 1.279714 -0.58875328 4293400320
3.1341238 1.2851042 -0.58721447 4293400320
3.1470447 1.2905107 -0.58496523 4293530880
3.1430001 1.2889651 -0.57886362 4293400320
3.1485882 1.2913668 -0.57386601 4293530880
3.1458735 1.2903652 -0.5666824 4293400320
3.1457253 1.2904149 -0.55931389 4293400320
3.1411116 1.2886337 -0.55051678 4293400320
3.1389475 1.287856 -0.54153448 4293400320
3.1176741 1.2792426 -0.52869326 4293269760
3.1154685 1.2784462 -0.5185585 4293269760
3.1351285 1.2866158 -0.51142299 4293400320
3.1507604 1.2931346 -0.50292563 4293400320
3.168422 1.3004866 -0.4940618 4293530880
3.1508741 1.2933966 -0.47913352 4293400320
3.1182997 1.280141 -0.4615708 4293269760
3.1326022 1.2861143 -0.45052114 4293400320
3.1457455 1.2916127 -0.43868062 4293400320
3.1580486 1.296767 -0.42611817 4293400320
3.1393383 1.2891951 -0.40891153 4293400320
3.1275775 1.2844735 -0.39230236 4293269760
3.1508038 1.2941108 -0.37960574 4293400320
3.1561787 1.2964219 -0.36418688 4293400320
3.1572196 1.2969539 -0.34783119 4293400320
3.1153309 1.279862 -0.32655936 4293269760
3.1227214 1.2829993 -0.31030437 4293269760
3.1375527 1.2891918 -0.29433078 4293269760
3.1408336 1.2906423 -0.27684575 4293269760
3.1124814 1.2791024 -0.25639942 4293269760
3.1317177 1.2871046 -0.2396723 4293269760
3.1495945 1.2945496 -0.2223631 4293400320
3.1476824 1.293867 -0.20331205 4293269760
3.1409612 1.2912087 -0.18378183 4293269760
3.1437058 1.2924386 -0.16463809 4293269760
3.1479168 1.2942711 -0.14535353 4293269760
3.1538522 1.2968122 -0.12593204 4293400320
3.1281028 1.2863337 -0.1052189 4293269760
3.1450794 1.2934119 -0.08591152 4293269760
3.1596158 1.2994881 -0.0662468 4293400320
3.1631505 1.3010434 -0.046161797 4293400320
3.1400192 1.2916378 -0.025750412 4293269760
3.1572626 1.298828 -0.0057069352 4293400320
3.1677735 1.3032515 0.014533239 4293400320
3.1618505 1.3009189 0.034718521 4293400320
3.1731002 1.3056471 0.055075325 4293400320
3.1902888 1.3128182 0.075650014 4293530880
3.1910203 1.3132225 0.095873609 4293530880
3.1571605 1.2994006 0.11476404 4293400320
3.1817114 1.3096012 0.13555436 4293400320
3.1945014 1.3149657 0.15593405 4293530880
3.1828036 1.3102577 0.17496905 4293400320
3.1138189 1.2819808 0.19020589 4293269760
3.1964245 1.3160695 0.21447086 4293530880
3.2095668 1.3215818 0.23445877 4293530880
3.1947153 1.3155756 0.25215164 4293530880
3.1091509 1.2804675 0.26344833 4293269760
3.213449 1.3234957 0.29051149 4293530880
3.2200198 1.3263062 0.30911139 4293661440
3.2175615 1.3254006 0.32652992 4293661440
3.1734266 1.3073384 0.33913234 4293400320
3.0190635 1.2438921 0.33860353 4292878080
3.2229333 1.3279328 0.37785167 4293661440
3.205121 1.3207059 0.3917914 4293530880
3.1962779 1.3171716 0.40624893 4293530880
3.1699042 1.3064172 0.41786507 4293530880
3.1471097 1.2971356 0.42924988 4293400320
3.2131767 1.324455 0.4523932 4293661440
3.218869 1.3269087 0.46687952 4293661440
3.2130952 1.3246394 0.47917947 4293661440
3.2060144 1.3218318 0.49068683 4293661440
3.1903429 1.3154842 0.50023723 4293530880
3.1782279 1.3106016 0.50966686 4293530880
3.2016876 1.320379 0.52422547 4293661440
3.1975462 1.318783 0.53374588 4293661440
3.1955118 1.3180555 0.54298019 4293661440
3.1935611 1.3173628 0.551588 4293661440
3.2028747 1.3213141 0.5615117 4293661440
3.1944945 1.3179717 0.56769711 4293661440
3.1937804 1.3177899 0.57455617 4293661440
3.1865053 1.3149033 0.57955307 4293661440
3.1947451 1.3184146 0.58668309 4293661440
3.1816416 1.3131245 0.58921659 4293661440
3.1763954 1.3110749 0.59248143 4293530880
3.1894734 1.3165839 0.59846306 4293661440
3.1637464 1.3060861 0.59648067 4293530880
3.1724825 1.3098053 0.60025203 4293530880
3.1838002 1.3145907 0.60381496 4293661440
3.1790946 1.3127656 0.60364449 4293661440
3.188159 1.3166232 0.60536712 4293661440
3.1914225 1.3180878 0.60527945 4293661440
3.1879611 1.3167775 0.60320997 4293661440
3.1918812 1.3185143 0.60182112 4293661440
3.1894565 1.3176328 0.59853268 4293661440
3.1804931 1.3140519 0.59333092 4293661440
3.1910555 1.3185331 0.59105688 4293661440
3.1887488 1.3177012 0.58570504 4293661440
3.1983619 1.3217924 0.58183461 4293661440
3.1988792 1.3221281 0.57561767 4293661440
3.1897254 1.3184695 0.5670141 4293661440
3.1926658 1.3198068 0.55990356 4293661440
3.1895134 1.3186275 0.55107832 4293661440
3.1729877 1.311923 0.5393663 4293530880
3.1968005 1.3218858 0.53383166 4293661440
3.2077131 1.3265201 0.52542859 4293661440
3.1987767 1.3229523 0.51317716 4293661440
3.1904688 1.3196439 0.50049472 4293530880
3.1703835 1.3121539 0.41145143 4293530880
3.1962464 1.3229785 0.39950633 4293530880
3.1889038 1.3200696 0.38289532 4293530880
3.1630795 1.3095144 0.36381355 4293400320
3.1553497 1.3064439 0.34656262 4293400320
3.175703 1.3149933 0.33192071 4293530880
3.1866062 1.319634 0.31575921 4293530880
3.1558874 1.30705 0.29525968 4293400320
3.1383624 1.2999247 0.27592555 4293269760
3.1697164 1.3130314 0.26046816 4293400320
3.1709049 1.3136528 0.24207573 4293400320
3.1681647 1.3126478 0.22312658 4293400320
3.1543982 1.3070772 0.20325923 4293400320
3.1764469 1.316337 0.18539996 4293400320
3.1687303 1.3132715 0.16553049 4293400320
3.1700644 1.3139541 0.14598337 4293400320
3.1466265 1.3043758 0.12528673 4293269760
3.1661108 1.3125769 0.10615613 4293400320
3.1550672 1.3081317 0.085849561 4293400320
3.1315477 1.2985162 0.065333501 4293269760
3.1374285 1.3010821 0.045449849 4293269760
3.1470816 1.3052121 0.025466323 4293269760
3.1574633 1.3096448 0.0053286357 4293400320
3.1206484 1.2945144 -0.014700973 4293269760
3.1419382 1.3034689 -0.034928072 4293269760
3.1432183 1.3041291 -0.05503162 4293269760
3.141062 1.3033646 -0.07501214 4293269760
3.1293659 1.2986438 -0.094594441 4293269760
3.1476648 1.3063617 -0.11504407 4293269760
3.1593289 1.3113291 -0.13531579 4293400320
3.1508117 1.3079259 -0.15458944 4293400320
3.1284087 1.2987616 -0.17281906 4293269760
3.1441903 1.3054376 -0.19295414 4293269760
3.1454372 1.3060838 -0.21208754 4293400320
3.1365578 1.3025279 -0.23026004 4293269760
3.1459968 1.3065735 -0.24954268 4293400320
3.1651092 1.3146347 -0.26949587 4293400320
3.1788137 1.3204523 -0.28888401 4293530880
3.1618736 1.3135494 -0.30514091 4293400320
3.0960464 1.2863481 -0.31586331 4293139200
3.1615813 1.3136848 -0.33970368 4293400320
3.1637871 1.3147289 -0.35670096 4293400320
3.1682651 1.3167163 -0.37359846 4293530880
3.1469772 1.3080025 -0.38694862 4293400320
3.0354295 1.2617948 -0.38807243 4293008640
3.1752815 1.3200134 -0.42115697 4293530880
3.1727934 1.3191069 -0.43547714 4293530880
3.1716559 1.3187609 -0.44948053 4293530880
3.1696191 1.3180408 -0.4628388 4293530880
3.1443067 1.3076475 -0.47215346 4293400320
3.1498873 1.3100914 -0.48550743 4293400320
3.15166 1.3109525 -0.49775276 4293400320
3.1512806 1.3109189 -0.50909835 4293530880
3.1464047 1.3090155 -0.51911855 4293400320
3.1486287 1.3100632 -0.52971238 4293530880
3.1516395 1.3114378 -0.53985012 4293530880
3.1505718 1.3111163 -0.54867512 4293530880
3.1325238 1.3037323 -0.55385399 4293400320
3.1190536 1.2982504 -0.55912608 4293400320
3.1282339 1.302189 -0.56781209 4293400320
3.0832455 1.2835934 -0.5659135 4293269760
3.1078217 1.2939358 -0.57611424 4293400320
3.0502586 1.270103 -0.57033432 4293139200
3.0586517 1.2737108 -0.57617503 4293139200
2.9973969 1.2483346 -0.568133 4293008640
2.9878149 1.2444593 -0.56916785 4292878080
2.9965205 1.2481946 -0.5730297 4293008640
2.9871492 1.2444052 -0.57275981 4292878080
2.9869745 1.2444432 -0.57358521 4292878080
3.0647993 1.2769552 -0.58876222 4293139200
3.0475688 1.2698936 -0.58495533 4293139200
3.0962365 1.2902713 -0.59313011 4293269760
3.0919504 1.2885993 -0.59042877 4293269760
3.1235158 1.3018582 -0.59387881 4293400320
3.1228261 1.3016839 -0.59046441 4293400320
3.1364956 1.3074906 -0.58906829 4293400320
3.1394722 1.3088433 -0.58495277 4293530880
3.1445358 1.3110651 -0.58053517 4293530880
3.1364601 1.3078121 -0.57301998 4293400320
3.1383021 1.3086908 -0.56666988 4293400320
3.1427071 1.3106374 -0.56011516 4293530880
3.1426611 1.3107285 -0.55210918 4293400320
3.1359477 1.3080405 -0.54231226 4293400320
3.114727 1.2993042 -0.52945799 4293400320
3.1161768 1.3000169 -0.51991987 4293400320
3.1284122 1.3052258 -0.51154715 4293400320
3.1431725 1.311488 -0.50291312 4293400320
3.1562238 1.3170382 -0.49333313 4293530880
3.1350596 1.3083205 -0.47786328 4293400320
3.11536 1.3002118 -0.462239 4293269760
3.1250558 1.3043617 -0.45050871 4293400320
3.1427433 1.3118454 -0.4393101 4293400320
3.1467767 1.3136342 -0.42560834 4293400320
3.1317737 1.3074812 -0.40889907 4293400320
3.1200407 1.3026911 -0.39228994 4293269760
3.1477962 1.3143767 -0.38014936 4293400320
3.1544037 1.317239 -0.36485186 4293400320
3.1541998 1.3172591 -0.34832793 4293400320
3.1030273 1.296007 -0.32604074 4293269760
3.1151934 1.3011878 -0.31029195 4293269760
3.1345849 1.3093853 -0.29475299 4293269760
3.1332605 1.3089359 -0.27683327 4293269760
3.1001737 1.295226 -0.25598788 4293139200
3.1416543 1.3126467 -0.24101101 4293400320
3.1419985 1.3128936 -0.22235058 4293400320
3.1354849 1.3102766 -0.2029988 4293269760
3.1333847 1.3095022 -0.18376933 4293269760
3.1222973 1.304974 -0.16389209 4293269760
3.1403224 1.3126047 -0.14534101 4293269760
3.1462429 1.3151802 -0.12591949 4293400320
3.1122546 1.3010842 -0.1049218 4293269760
3.1421022 1.3136553 -0.086027957 4293269760
3.1519909 1.3178891 -0.066234224 4293400320
3.1555166 1.3194648 -0.046149205 4293400320
3.1499705 1.3172499 -0.025892435 4293400320
3.1559126 1.3198355 -0.0057094647 4293400320
3.1565504 1.3202046 0.014531544 4293400320
3.1542172 1.3193321 0.034731109 4293400320
3.1629996 1.3231058 0.055046991 4293400320
3.1871974 1.3333244 0.075769544 4293530880
3.1962266 1.3372029 0.096267276 4293530880
3.1495361 1.3177856 0.11477661 4293400320
3.174027 1.3281288 0.13556702 4293400320
3.1950805 1.3370364 0.15634747 4293530880
3.1843295 1.3326447 0.17548364 4293530880
3.1155078 1.3039654 0.19077632 4293269760
3.1887021 1.3346822 0.2144836 4293530880
3.1880052 1.3344953 0.23346937 4293530880
3.186996 1.334178 0.25216436 4293530880
3.1108348 1.3024198 0.26423576 4293269760
3.2093606 1.3437454 0.29085514 4293661440
3.2168322 1.3469779 0.30956334 4293661440
3.209583 1.344051 0.32652238 4293661440
3.1749363 1.329658 0.34012228 4293530880
3.0200231 1.264928 0.33953816 4292878080
3.2122037 1.3454686 0.37752122 4293661440
3.2010381 1.3409023 0.39225098 4293661440
3.1885493 1.3357816 0.40626168 4293530880
3.149678 1.319615 0.41622663 4293400320
3.1394987 1.3154593 0.42926243 4293400320
3.2054052 1.3431629 0.45240602 4293661440
3.2110832 1.3456497 0.46689236 4293661440
3.2089779 1.3448775 0.47973618 4293661440
3.1919572 1.3378586 0.4897373 4293661440
3.1826241 1.3340588 0.50024992 4293530880
3.1623256 1.3256656 0.50836533 4293530880
3.2031734 1.3428876 0.52574718 4293661440
3.1980126 1.3408368 0.53512561 4293661440
3.2014463 1.342387 0.54531127 4293661440
3.1949399 1.3397726 0.55317128 4293661440
3.1951218 1.3399611 0.56152451 4293661440
3.1907609 1.3382462 0.56841952 4293661440
3.1888695 1.3375666 0.57507569 4293661440
3.1969814 1.3410804 0.58286923 4293661440
3.1915555 1.33892 0.58752948 4293661440
3.1657548 1.3282174 0.58771634 4293530880
3.1823361 1.3352839 0.59503329 4293661440
3.1862919 1.3370578 0.59932715 4293661440
3.1606259 1.3264103 0.59734851 4293530880
3.1602547 1.3263699 0.59940648 4293530880
3.1645346 1.3282809 0.60163999 4293530880
3.1850173 1.3369894 0.60624069 4293661440
3.17135 1.3313735 0.60365754 4293661440
3.1800549 1.3351433 0.60460407 4293661440
3.1756926 1.3334315 0.60236448 4293661440
3.1886871 1.3390032 0.60268909 4293661440
3.1853595 1.3377266 0.59922647 4293661440
3.1909583 1.3401965 0.59672922 4293661440
3.1914995 1.3405446 0.59258258 4293661440
3.1901085 1.3400822 0.58738512 4293661440
3.1906061 1.3404129 0.58184737 4293661440
3.1993084 1.3441888 0.57710123 4293661440
3.1956379 1.3427708 0.56944913 4293661440
3.1758196 1.3345721 0.55832273 4293661440
3.1726708 1.3333727 0.54952055 4293530880
3.1789534 1.336135 0.54169738 4293661440
3.1890442 1.3404977 0.53384447 4293661440
3.204488 1.3471104 0.52618665 4293661440
3.1992228 1.3450243 0.51450419 4293661440
3.1891162 1.3409042 0.50150788 4293661440
3.1535308 1.3267648 0.41027963 4293400320
3.1909058 1.3426065 0.39982092 4293530880
3.1985672 1.3459572 0.38499165 4293661440
3.1599 1.3298256 0.36434242 4293400320
3.147227 1.3246239 0.34652522 4293400320
3.1679873 1.3334842 0.33193344 4293530880
3.1764312 1.3371654 0.31553203 4293530880
3.1408682 1.3223337 0.29458791 4293400320
3.1486497 1.3257362 0.27750504 4293400320
3.1620123 1.331488 0.26048085 4293400320
3.1677945 1.3340511 0.24243727 4293400320
3.1696608 1.3349669 0.22378267 4293400320
3.1513293 1.3273816 0.20356606 4293400320
3.1687233 1.3348335 0.1854127 4293400320
3.1755676 1.3378456 0.16629551 4293400320
3.1605017 1.3316336 0.14591168 4293400320
3.1490245 1.3269315 0.1256942 4293400320
3.1667001 1.3345053 0.10644234 4293400320
3.1519985 1.3284447 0.08598502 4293400320
3.1331432 1.3206335 0.065533072 4293269760
3.1456473 1.3260306 0.045682941 4293400320
3.1474397 1.3269162 0.025539123 4293400320
3.1523037 1.329096 0.0053440626 4293400320
3.1212325 1.3161346 -0.01473199 4293269760
3.129683 1.3198251 -0.034861397 4293269760
3.1355665 1.3224344 -0.05501901 4293269760
3.141706 1.3251522 -0.075202852 4293269760
3.1309574 1.3207515 -0.094866328 4293269760
3.1528931 1.3301287 -0.11551117 4293400320
3.158077 1.3324448 -0.13558333 4293400320
3.1431379 1.3262763 -0.15457681 4293400320
3.1253896 1.3189219 -0.17306386 4293269760
3.1402106 1.3253015 -0.19316992 4293400320
3.1423001 1.3263124 -0.21238331 4293400320
3.1289155 1.320796 -0.23024745 4293269760
3.1429253 1.3268349 -0.24989785 4293400320
3.1665809 1.3369443 -0.27027199 4293400320
3.1710663 1.3389668 -0.28887123 4293530880
3.1716022 1.3393229 -0.30682406 4293530880
3.1022573 1.3101875 -0.31726521 4293269760
3.1538737 1.3320994 -0.33969098 4293400320
3.1652362 1.3370242 -0.35772851 4293530880
3.1559606 1.3332372 -0.37304214 4293400320
3.1375647 1.3255987 -0.38672084 4293400320
3.0280263 1.2794758 -0.38806024 4293008640
3.1766803 1.3423696 -0.42236444 4293530880
3.1650541 1.3375877 -0.43546438 4293530880
3.1675718 1.3387781 -0.4499886 4293530880
3.1664503 1.3384314 -0.46349642 4293530880
3.1411965 1.3278899 -0.47282973 4293400320
3.1467605 1.3303657 -0.48620147 4293530880
3.1405973 1.3278866 -0.49720472 4293400320
3.1435893 1.3292751 -0.50908566 4293530880
3.1450953 1.3300357 -0.52016258 4293530880
3.1450393 1.3301357 -0.53039259 4293530880
3.1427982 1.3293116 -0.53963995 4293530880
3.1474261 1.3313906 -0.54945832 4293530880
3.1376004 1.3273594 -0.55610281 4293530880
3.1241574 1.3217977 -0.56140542 4293400320
3.1115108 1.3165711 -0.5661425 4293400320
3.0975072 1.3107694 -0.56992102 4293400320
3.0436053 1.2880933 -0.56555289 4293139200
3.051882 1.29171 -0.57202733 4293139200
3.0638812 1.2969015 -0.57856739 4293269760
2.9900727 1.2657959 -0.56812096 4293008640
2.9941182 1.2676202 -0.57176036 4293008640
2.9937317 1.2675692 -0.57388902 4293008640
2.9979839 1.2694805 -0.57624233 4293008640
2.9887407 1.2656808 -0.57532299 4293008640
3.0663743 1.2986461 -0.59050024 4293269760
3.0491855 1.2914845 -0.58669198 4293139200
3.0886664 1.3083079 -0.59311765 4293269760
3.0889244 1.3085303 -0.59128636 4293269760
3.1195056 1.3215895 -0.59455937 4293400320
3.1233528 1.3233317 -0.59200299 4293400320
3.1316378 1.3269527 -0.58958662 4293530880
3.1408677 1.330974 -0.58663917 4293530880
3.1459205 1.3332266 -0.58220649 4293530880
3.1460378 1.3333887 -0.57617468 4293530880
3.1487882 1.3346657 -0.56995356 4293530880
3.1490185 1.3348747 -0.56261045 4293530880
3.1361537 1.329536 -0.55230534 4293530880
3.1295559 1.3268511 -0.54252255 4293400320
3.1072168 1.3174956 -0.52946472 4293400320
3.1048386 1.3165964 -0.51928484 4293400320
3.1253064 1.3253778 -0.51228285 4293400320
3.1445861 1.3336569 -0.50436562 4293530880
3.1484969 1.335423 -0.49332041 4293530880
3.1310303 1.3281277 -0.47840959 4293400320
3.112221 1.3202616 -0.46289638 4293400320
3.1128402 1.3206303 -0.44983444 4293269760
3.1304815 1.3282157 -0.43865544 4293400320
3.1472912 1.3354495 -0.42671445 4293400320
3.1323287 1.3292111 -0.40996718 4293400320
3.1201692 1.3241601 -0.39326081 4293400320
3.1387942 1.332164 -0.37997976 4293400320
3.1536729 1.3385801 -0.36565405 4293400320
3.1523423 1.3381212 -0.34896815 4293400320
3.1091673 1.319911 -0.32748309 4293269760
3.1203926 1.3247766 -0.31156757 4293269760
3.1269028 1.3276423 -0.29474032 4293269760
3.1268752 1.3277342 -0.27693594 4293269760
3.0879855 1.311335 -0.255593 4293139200
3.121098 1.325489 -0.24000278 4293269760
3.127274 1.3282131 -0.22183591 4293269760
3.1388204 1.3332167 -0.20370764 4293400320
3.1339741 1.3312626 -0.18424763 4293269760
3.1192381 1.3251098 -0.16412395 4293269760
3.1326215 1.3308938 -0.14532831 4293269760
3.1435871 1.335652 -0.12611268 4293400320
3.1170399 1.3244826 -0.10533611 4293269760
3.1410229 1.3347685 -0.086201012 4293400320
3.1651475 1.3451161 -0.066673659 4293400320
3.1569786 1.34175 -0.046276778 4293400320
3.1368001 1.3332825 -0.025831634 4293269760
3.1557193 1.3414211 -0.005714898 4293400320
3.1662922 1.3460153 0.014614507 4293400320
3.1464906 1.3377063 0.034744006 4293400320
3.1705542 1.3480328 0.055317681 4293400320
3.1815424 1.3528051 0.075832762 4293530880
3.1927795 1.3576841 0.096410312 4293530880
3.1381252 1.3345623 0.11465724 4293400320
3.1754313 1.35052 0.13596787 4293530880
3.1796942 1.3524358 0.15599515 4293530880
3.1882203 1.3561641 0.17613599 4293530880
3.1161273 1.3256224 0.19129117 4293269760
3.1845458 1.3548115 0.21474189 4293530880
3.1905527 1.3574703 0.23423737 4293530880
3.1879539 1.3564706 0.25286841 4293530880
3.1114509 1.3240448 0.26494592 4293269760
3.1978085 1.3608721 0.29053727 4293530880
3.2105768 1.3664086 0.30973417 4293661440
3.2099438 1.3662461 0.32737088 4293661440
3.1671352 1.3481442 0.34013513 4293530880
3.0217555 1.2864064 0.34057552 4293008640
3.212544 1.3676742 0.37849879 4293661440
3.2033432 1.3638676 0.39350656 4293661440
3.1944213 1.3601794 0.4080162 4293661440
3.1510706 1.3418404 0.41744313 4293400320
3.0748303 1.3095024 0.42150924 4293139200
3.2020874 1.3637671 0.45306137 4293661440
3.2085893 1.3666437 0.46768886 4293661440
3.2056453 1.3655006 0.48042905 4293661440
3.1977746 1.3622601 0.4918426 4293661440
3.1677699 1.3495964 0.49916053 4293530880
