# .PCD v0.7 - Point Cloud Data file format
VERSION 0.7
FIELDS x y z rgba
SIZE 4 4 4 4
TYPE F F F U
COUNT 1 1 1 1
WIDTH 1102
HEIGHT 1
VIEWPOINT 0 0 0 1 0 0 0
POINTS 1102
DATA ascii
1.7382457 -1.205194 -0.19921672 4288961280
1.7703829 -1.2273577 -0.21364732 4289091840
1.7750825 -1.2305255 -0.22476797 4289091840
1.7843701 -1.2368686 -0.23630126 4289222400
1.7638485 -1.2225791 -0.24357788 4289091840
1.7196418 -1.1918998 -0.24696602 4288961280
1.7856852 -1.2375212 -0.26596564 4289222400
1.7862294 -1.2378119 -0.27530128 4289222400
1.7958974 -1.244416 -0.2857815 4289222400
1.778524 -1.2323096 -0.29161617 4289222400
1.7737429 -1.2289166 -0.29907456 4289222400
1.7582554 -1.2181177 -0.3043046 4289091840
1.7669082 -1.2240193 -0.31332302 4289222400
1.7810688 -1.23373 -0.32305363 4289222400
1.7693801 -1.2255607 -0.32775423 4289222400
1.7724499 -1.2275995 -0.33477268 4289222400
1.7745776 -1.2289867 -0.34124914 4289222400
1.7731062 -1.2278851 -0.3466467 4289222400
1.7653198 -1.2224172 -0.35038692 4289222400
1.771108 -1.2263358 -0.35640293 4289222400
1.7657461 -1.2225451 -0.35977265 4289222400
1.7453797 -1.2083822 -0.35961789 4289091840
1.7412783 -1.2054648 -0.36233374 4289091840
1.7224696 -1.192382 -0.36153534 4288961280
1.7198292 -1.1904762 -0.36366323 4288961280
1.7195522 -1.1902041 -0.36586219 4288961280
1.6946431 -1.1729094 -0.36238241 4288830720
1.701777 -1.17776 -0.36529258 4288961280
1.6976266 -1.1748128 -0.36536521 4288961280
1.7222724 -1.1917626 -0.37119743 4288961280
1.710951 -1.1838605 -0.36887351 4288961280
1.7254908 -1.193826 -0.37167603 4288961280
1.7326965 -1.1987238 -0.372464 4289091840
1.7551789 -1.2141734 -0.37607414 4289091840
1.7566656 -1.2151194 -0.3747431 4289091840
1.7650388 -1.2208214 -0.37442964 4289222400
1.7744502 -1.2272398 -0.37387711 4289222400
1.7706765 -1.2245522 -0.37011269 4289222400
1.7719617 -1.2253584 -0.36697739 4289222400
1.7769725 -1.2287371 -0.36417326 4289222400
1.7705125 -1.2241955 -0.35860839 4289222400
1.769869 -1.2236704 -0.35382167 4289222400
1.7564288 -1.2143112 -0.34611645 4289091840
1.752861 -1.2117684 -0.34000269 4289091840
1.7417794 -1.2040396 -0.33209345 4289091840
1.7459059 -1.2068086 -0.32671747 4289091840
1.759588 -1.2161723 -0.32268578 4289091840
1.7813392 -1.2311034 -0.31962517 4289222400
1.7781709 -1.2288365 -0.3116712 4289222400
1.7620281 -1.2176173 -0.30118057 4289091840
1.7429159 -1.2043507 -0.29000103 4289091840
1.7557448 -1.2131233 -0.28381884 4289091840
1.7719578 -1.2242296 -0.27772331 4289091840
1.7729189 -1.2248129 -0.26885009 4289091840
1.751895 -1.2102308 -0.25645998 4289091840
1.7451712 -1.2055146 -0.24601783 4289091840
1.7730016 -1.2246313 -0.24003817 4289091840
1.7752826 -1.2261251 -0.23017886 4289091840
1.7800558 -1.2293375 -0.22034709 4289222400
1.734165 -1.1976125 -0.20427342 4288961280
1.7558883 -1.2125142 -0.19605049 4289091840
1.772059 -1.2235854 -0.18676229 4289091840
1.7637991 -1.2178117 -0.17465903 4289091840
1.7488877 -1.2074533 -0.16185996 4288961280
1.7653013 -1.2186903 -0.15175988 4289091840
1.7777352 -1.2271826 -0.14096539 4289091840
1.7711183 -1.2225428 -0.12847902 4289091840
1.7577301 -1.2132367 -0.11550301 4289091840
1.7521534 -1.2093153 -0.1030439 4288961280
1.7641608 -1.2175121 -0.091457322 4289091840
1.7537534 -1.2102624 -0.078610562 4288961280
1.7310525 -1.1945426 -0.065368257 4288961280
1.7546469 -1.2107224 -0.05378069 4288961280
1.7600992 -1.2144011 -0.041381974 4289091840
1.75787 -1.2127874 -0.028740412 4289091840
1.7700347 -1.2210895 -0.01622924 4289091840
1.7709835 -1.2216645 -0.0035101334 4289091840
1.7757177 -1.224847 0.0092448266 4289091840
1.7487249 -1.2061775 0.021651976 4288961280
1.8716418 -1.2907519 0.036624901 4289483520
1.9764661 -1.3628561 0.052823931 4289875200
1.9468856 -1.3423994 0.065871634 4289744640
1.8400644 -1.2687603 0.075245902 4289352960
1.9701223 -1.3582257 0.094447941 4289875200
1.9676738 -1.3564526 0.10805483 4289875200
1.9305922 -1.3308374 0.11935817 4289744640
1.7623569 -1.2149414 0.12098166 4289091840
1.9836359 -1.3671781 0.14965856 4290005760
1.985072 -1.3680785 0.16303955 4290005760
1.9427646 -1.3388723 0.17236827 4289744640
1.7558012 -1.2101166 0.16714779 4289091840
1.9885504 -1.3702074 0.20206763 4290005760
1.9893398 -1.3706621 0.21463653 4290005760
1.9815735 -1.3652297 0.22599867 4290005760
1.8913788 -1.3030849 0.22710091 4289614080
1.8027657 -1.2420362 0.22707401 4289222400
1.9914267 -1.3717428 0.26233375 4290005760
1.9826572 -1.3656213 0.27229294 4290005760
1.9472284 -1.341163 0.2780377 4289875200
1.820814 -1.2541275 0.26960117 4289352960
1.7632116 -1.2144293 0.27009675 4289091840
1.9824438 -1.3651192 0.31352779 4290005760
1.9774491 -1.3615955 0.32216823 4290005760
1.9760917 -1.3605732 0.33100435 4290005760
1.9498031 -1.3424087 0.33516103 4289875200
1.8772575 -1.292443 0.33055681 4289614080
1.8959711 -1.3052237 0.34142485 4289614080
1.8677492 -1.285737 0.34340954 4289614080
1.8514915 -1.2744769 0.34703431 4289483520
1.8312122 -1.2604539 0.34937727 4289483520
1.7675493 -1.2166147 0.34276545 4289222400
1.7555314 -1.208275 0.3455424 4289091840
1.7468183 -1.2022072 0.34850967 4289091840
1.7389698 -1.1967343 0.35120067 4289091840
1.7425532 -1.1991172 0.35578024 4289091840
1.7534988 -1.206558 0.36147711 4289091840
1.7612437 -1.2117988 0.3661254 4289091840
1.6913141 -1.1636771 0.35409877 4288830720
1.7024275 -1.1712337 0.35854235 4288961280
1.702227 -1.1710176 0.36019433 4288961280
1.7020848 -1.1708416 0.36143485 4288961280
1.7020018 -1.170706 0.36226267 4288961280
1.6938597 -1.1650357 0.36094597 4288830720
1.7561669 -1.2077445 0.37422159 4289091840
1.7481472 -1.2021563 0.37206566 4289091840
1.7483079 -1.2021855 0.37121588 4289091840
1.7485294 -1.2022562 0.36994222 4289091840
1.7415006 -1.1973493 0.36670589 4289091840
1.7532133 -1.2053087 0.36697966 4289091840
1.7617379 -1.2110784 0.36612779 4289091840
1.8324038 -1.2595001 0.37763208 4289483520
1.8370005 -1.2625692 0.37493971 4289483520
1.8530401 -1.273491 0.37410122 4289483520
1.8898647 -1.2986747 0.37689868 4289614080
1.8987107 -1.304656 0.37356025 4289744640
1.91807 -1.3178499 0.37177688 4289744640
1.9475595 -1.3379924 0.37137789 4289875200
1.9618734 -1.3477206 0.36751273 4290005760
1.9749504 -1.3565989 0.36289635 4290005760
1.9758992 -1.3571562 0.3555814 4290005760
1.9606177 -1.3465806 0.34499228 4289875200
1.9594514 -1.3451786 0.28518844 4289875200
1.9724089 -1.3539681 0.27649397 4290005760
1.9816568 -1.3602133 0.26684752 4290005760
1.9502761 -1.338608 0.25155082 4289875200
1.9390575 -1.3308252 0.2388199 4289744640
1.9650207 -1.3485266 0.23031938 4289875200
1.9819456 -1.3600314 0.22024402 4290005760
1.9426537 -1.3330104 0.20380703 4289744640
1.9304718 -1.3245697 0.19031446 4289744640
1.9604607 -1.3450246 0.18066174 4289875200
1.9657443 -1.3485502 0.16830036 4289875200
1.9452304 -1.3344018 0.15364051 4289744640
1.9492401 -1.337055 0.14086303 4289875200
1.9576628 -1.3427305 0.12816648 4289875200
1.8685251 -1.2815824 0.10947303 4289483520
1.7807834 -1.2213988 0.091960922 4289091840
1.7799913 -1.2207704 0.07947541 4289091840
1.781703 -1.2218567 0.06700848 4289091840
1.7804705 -1.2209268 0.054352779 4289091840
1.7603606 -1.2070715 0.041206609 4289091840
1.7692838 -1.2130959 0.028782576 4289091840
1.7716219 -1.2146112 0.016136471 4289091840
1.7627761 -1.2084702 0.0034126495 4289091840
1.7396642 -1.1925648 -0.0091197388 4288961280
1.7519034 -1.2008581 -0.021738645 4288961280
1.7598182 -1.2061905 -0.034427617 4289091840
1.7578039 -1.2047271 -0.046932451 4288961280
1.7635732 -1.2085901 -0.059619576 4289091840
1.7731463 -1.2150557 -0.072479464 4289091840
1.7786366 -1.2187266 -0.085203283 4289091840
1.775457 -1.2164656 -0.097440772 4289091840
1.769801 -1.2125107 -0.10937792 4289091840
1.7721113 -1.2140058 -0.1216636 4289091840
1.7867255 -1.223917 -0.13477284 4289091840
1.7807921 -1.2197727 -0.14625475 4289091840
1.7798877 -1.2190685 -0.15794371 4289091840
1.7961973 -1.2301368 -0.1710816 4289222400
1.8012824 -1.2335278 -0.18310799 4289222400
1.7912688 -1.2265942 -0.19337618 4289222400
1.7575644 -1.2034634 -0.20061515 4289091840
1.789003 -1.2248734 -0.21502124 4289222400
1.7937157 -1.2280095 -0.22620925 4289222400
1.7915444 -1.2264394 -0.23629823 4289222400
1.7783231 -1.2173164 -0.24458669 4289091840
1.7347546 -1.1874526 -0.24813171 4288961280
1.7902073 -1.2252688 -0.2655699 4289222400
1.8007813 -1.2324098 -0.27642617 4289222400
1.8091376 -1.2380345 -0.28672981 4289222400
1.8036774 -1.2342175 -0.29454419 4289222400
1.7882323 -1.2235788 -0.30030388 4289222400
1.7705168 -1.2113905 -0.30519447 4289091840
1.7862649 -1.2220653 -0.31547821 4289222400
1.7895293 -1.2242107 -0.32328549 4289222400
1.7887348 -1.2235835 -0.3300038 4289222400
1.7950753 -1.2278298 -0.33767787 4289222400
1.7939421 -1.2269711 -0.34358281 4289222400
1.7916441 -1.2253175 -0.34886014 4289222400
1.7838219 -1.2198917 -0.35263336 4289222400
1.7855549 -1.2209913 -0.35786557 4289222400
1.7690862 -1.209663 -0.35901049 4289222400
1.7711062 -1.2109594 -0.36344516 4289222400
1.7482709 -1.1952871 -0.36233076 4289091840
1.7375255 -1.1878703 -0.36322916 4289091840
1.7381276 -1.1882004 -0.36605296 4289091840
1.733779 -1.1851513 -0.36740673 4288961280
1.7128363 -1.1707773 -0.36479846 4288961280
1.7167434 -1.1733644 -0.36702394 4288961280
1.7166425 -1.1732161 -0.36797041 4288961280
1.7373195 -1.1872461 -0.37293574 4289091840
1.7292058 -1.1816299 -0.37130907 4288961280
1.7405503 -1.1892903 -0.37341341 4289091840
1.7551067 -1.1991411 -0.37576124 4289091840
1.7662899 -1.2066896 -0.37693694 4289091840
1.7751064 -1.2126228 -0.37715402 4289222400
1.7794454 -1.2155012 -0.3759701 4289222400
1.781569 -1.2168683 -0.3738741 4289222400
1.7851081 -1.2192007 -0.37163118 4289222400
1.7872145 -1.2205559 -0.36864981 4289222400
1.7841001 -1.2183509 -0.36417025 4289222400
1.7857639 -1.2194045 -0.36024499 4289222400
1.7823455 -1.2169929 -0.35488656 4289222400
1.7748916 -1.2118303 -0.34834826 4289222400
1.7672338 -1.2065296 -0.34141439 4289091840
1.7561107 -1.1988673 -0.33348161 4289091840
1.7602565 -1.2016143 -0.32808042 4289091840
1.7800028 -1.2149941 -0.32511577 4289222400
1.7940056 -1.2244577 -0.32060662 4289222400
1.7826477 -1.2166368 -0.31120676 4289222400
1.7723643 -1.2095492 -0.30173311 4289091840
1.7515365 -1.1952775 -0.29026812 4289091840
1.7709737 -1.2084432 -0.28513059 4289091840
1.7823375 -1.2161067 -0.27823043 4289222400
1.7874044 -1.2194791 -0.26995814 4289222400
1.768188 -1.2063086 -0.25780439 4289091840
1.7636576 -1.2031438 -0.24762292 4289091840
1.7874978 -1.2193043 -0.24102843 4289222400
1.79801 -1.2263849 -0.23218489 4289222400
1.7871863 -1.2189336 -0.22034407 4289222400
1.7567427 -1.1981219 -0.20609689 4289091840
1.7793834 -1.2134618 -0.19787052 4289091840
1.7832735 -1.216032 -0.18718962 4289091840
1.7769226 -1.211629 -0.17525098 4289091840
1.7558911 -1.1972314 -0.16185699 4288961280
1.7847385 -1.2167932 -0.15281054 4289091840
1.7863038 -1.2177801 -0.14107633 4289091840
1.7897619 -1.2200553 -0.12930587 4289091840
1.7598975 -1.1996489 -0.11518335 4288961280
1.7707276 -1.2069427 -0.10371333 4289091840
1.7712222 -1.2072014 -0.09145432 4289091840
1.7723392 -1.2078836 -0.079119414 4289091840
1.750376 -1.1928599 -0.065826677 4288961280
1.7712535 -1.206989 -0.054066692 4289091840
1.7787151 -1.2119882 -0.041645724 4289091840
1.7649038 -1.2025133 -0.028737418 4289091840
1.7771168 -1.2107445 -0.016226225 4289091840
1.7904711 -1.219751 -0.003527367 4289091840
1.7910898 -1.2200933 0.0092934752 4289091840
1.7714298 -1.2066422 0.021853862 4289091840
1.898644 -1.2930876 0.037014328 4289614080
1.9785941 -1.3473778 0.052671928 4289875200
1.9505383 -1.3282115 0.065734535 4289744640
1.8358524 -1.2501388 0.074774504 4289352960
1.9738681 -1.3439037 0.094252966 4289875200
1.9788451 -1.3472008 0.10823975 4289875200
1.9456161 -1.3245223 0.11981314 4289744640
1.7528895 -1.1934153 0.11985123 4288961280
1.9717551 -1.3421201 0.1481688 4289875200
1.9765037 -1.345261 0.16168928 4289875200
1.9431059 -1.3224735 0.17171395 4289744640
1.8315525 -1.2465701 0.17368412 4289352960
1.988608 -1.3532258 0.20127098 4290005760
2.0014081 -1.3618366 0.21508339 4290005760
1.9812562 -1.3480545 0.22506505 4290005760
1.8865893 -1.2836428 0.2256252 4289614080
1.7984506 -1.2236749 0.22562984 4289222400
1.9837579 -1.3494911 0.26028448 4290005760
1.978248 -1.3456601 0.27060783 4290005760
1.9467911 -1.3242036 0.27687132 4289875200
1.8198758 -1.2379091 0.26839194 4289352960
1.7464538 -1.1879591 0.26646438 4288961280
1.9870793 -1.3513064 0.31301382 4290005760
1.9771463 -1.3444722 0.32083997 4290005760
1.9602165 -1.3328873 0.32703951 4289875200
1.9379293 -1.3176659 0.33179596 4289875200
1.8765651 -1.2759137 0.32912299 4289614080
1.8953565 -1.288588 0.33995917 4289614080
1.8886778 -1.2839688 0.3458817 4289614080
1.8474349 -1.2558861 0.34489897 4289483520
1.8385214 -1.2497524 0.3493804 4289483520
1.8141304 -1.2331139 0.35040781 4289352960
1.8134843 -1.2325937 0.35553941 4289352960
1.8128837 -1.2321042 0.36026266 4289352960
1.7614175 -1.1970956 0.35432497 4289091840
1.7568505 -1.1939168 0.35727748 4289091840
1.7686532 -1.2018458 0.36315602 4289091840
1.7796892 -1.2092532 0.36849385 4289222400
1.724972 -1.1720495 0.35971621 4288961280
1.7328638 -1.1773248 0.36350775 4288961280
1.7326592 -1.1771069 0.36518255 4288961280
1.7365899 -1.1796939 0.36730272 4288961280
1.7365048 -1.1795567 0.36814392 4288961280
1.7324049 -1.1766965 0.36769938 4288961280
1.7169544 -1.1661388 0.36441085 4288961280
1.7170514 -1.1661257 0.36399505 4288961280
1.7748452 -1.2052356 0.37535885 4289222400
1.7595778 -1.1948018 0.37080473 4289091840
1.7598605 -1.1949122 0.36910456 4289091840
1.8070031 -1.2267908 0.37674493 4289352960
1.8114928 -1.2297506 0.37498078 4289352960
1.8242025 -1.2382818 0.37445095 4289352960
1.8443218 -1.251834 0.37494284 4289483520
1.8771397 -1.2739908 0.37746727 4289614080
1.8818759 -1.2771131 0.37381738 4289614080
1.9053332 -1.2929214 0.37337855 4289744640
1.9246632 -1.3059307 0.37157753 4289744640
1.9479582 -1.3216248 0.36998242 4289875200
1.9533255 -1.3251699 0.36446103 4289875200
1.9746319 -1.3395129 0.36140063 4290005760
1.9837694 -1.3456101 0.35558477 4290005760
1.9602331 -1.3295738 0.34355858 4289875200
1.9549203 -1.3253788 0.28340206 4289875200
1.9728576 -1.3374301 0.27546245 4289875200
1.9854299 -1.3458477 0.26629826 4290005760
1.9506279 -1.3221946 0.25060076 4289875200
1.9385366 -1.3139173 0.23781103 4289744640
1.9687197 -1.3342543 0.2298408 4289875200
1.9741638 -1.337845 0.21851006 4289875200
1.9467584 -1.3192044 0.20343073 4289744640
1.9381534 -1.3132886 0.19031775 4289744640
1.9566995 -1.3257453 0.17960143 4289875200
1.957868 -1.3264425 0.16696167 4289875200
1.9529691 -1.3230345 0.15364385 4289744640
1.9536872 -1.323427 0.14062755 4289744640
1.9712499 -1.335214 0.12854944 4289875200
1.9064965 -1.2913196 0.11126628 4289614080
1.7970424 -1.2171974 0.092438489 4289222400
1.7994876 -1.2187651 0.080034226 4289222400
1.8003805 -1.2192827 0.067449167 4289222400
1.8032854 -1.2211609 0.054839011 4289222400
1.7830975 -1.2074239 0.041581478 4289091840
1.7846025 -1.208356 0.028922483 4289091840
1.7806133 -1.2055736 0.016157808 4289091840
1.7896675 -1.2116091 0.0034607367 4289091840
1.7598331 -1.1913558 -0.0091813058 4288961280
1.7754369 -1.2018186 -0.021934517 4289091840
1.7784113 -1.2037439 -0.034646381 4289091840
1.7813576 -1.20565 -0.047363855 4289091840
1.7795249 -1.2043262 -0.05991428 4289091840
1.7932432 -1.2135109 -0.073002733 4289091840
1.7987838 -1.2171688 -0.08581917 4289222400
1.8027331 -1.2197511 -0.098535016 4289222400
1.7911919 -1.2118677 -0.11025291 4289091840
1.7990081 -1.2170622 -0.12301011 4289222400
1.8020948 -1.2190614 -0.1353877 4289222400
1.7878667 -1.2093648 -0.14625169 4289091840
1.7943968 -1.2136899 -0.15859489 4289222400
1.8190296 -1.2302403 -0.17256084 4289222400
1.8084369 -1.2230002 -0.1831049 4289222400
1.8107656 -1.2244866 -0.19469894 4289222400
1.767845 -1.1954197 -0.20098585 4289091840
1.8016819 -1.2181811 -0.21568291 4289222400
1.8136959 -1.2262064 -0.22781517 4289222400
1.8110176 -1.2243124 -0.23791298 4289222400
1.8018553 -1.2180415 -0.24683209 4289222400
1.7449346 -1.1795357 -0.24859616 4288961280
1.8129466 -1.2253568 -0.26786888 4289222400
1.8243767 -1.232985 -0.2789295 4289352960
1.8163185 -1.2274609 -0.28672671 4289222400
1.8165842 -1.2275546 -0.2954731 4289352960
1.8035408 -1.2186679 -0.30167004 4289222400
1.7939579 -1.2121174 -0.30800104 4289222400
1.7974551 -1.2143924 -0.3161945 4289222400
1.8040099 -1.21873 -0.32460639 4289222400
1.8114047 -1.2236336 -0.33285397 4289352960
1.8021971 -1.2173382 -0.3376748 4289222400
1.8043346 -1.2186955 -0.34420285 4289222400
1.8069376 -1.2203667 -0.35044023 4289222400
1.8023542 -1.2171916 -0.35487974 4289222400
1.8008175 -1.2160715 -0.35949102 4289222400
1.7875518 -1.2070429 -0.36131519 4289222400
1.7789602 -1.2011672 -0.36361131 4289222400
1.7748201 -1.1982936 -0.36636585 4289222400
1.7599416 -1.1881813 -0.36644998 4289091840
1.7450196 -1.1780411 -0.36605 4289091840
1.7561737 -1.185479 -0.37067059 4289091840
1.7310618 -1.1684728 -0.36721444 4288961280
1.7390664 -1.1737878 -0.37031603 4288961280
1.7348804 -1.1708871 -0.37040165 4288961280
1.7556385 -1.1847956 -0.37537047 4289091840
1.7523923 -1.1825279 -0.37478963 4289091840
1.7629652 -1.1895716 -0.37671706 4289091840
1.7694128 -1.1938351 -0.37732145 4289091840
1.7847248 -1.20407 -0.37935808 4289222400
1.7938998 -1.2101694 -0.37963289 4289222400
1.8028378 -1.2161086 -0.37939689 4289222400
1.8000693 -1.2141622 -0.3762562 4289222400
1.8003548 -1.2142731 -0.37331864 4289222400
1.8057423 -1.2178199 -0.37099236 4289222400
1.7993467 -1.2134317 -0.36582562 4289222400
1.8062158 -1.2179761 -0.36292273 4289222400
1.7967714 -1.2115359 -0.35634044 4289222400
1.7974793 -1.2119318 -0.35137808 4289222400
1.7879924 -1.2054644 -0.34405157 4289222400
1.7712601 -1.1941205 -0.33502427 4289091840
1.7795255 -1.1996051 -0.33035395 4289091840
1.7985349 -1.2123209 -0.32719594 4289222400
1.8043908 -1.2161821 -0.32118618 4289222400
1.8094125 -1.2194815 -0.3146202 4289222400
1.7958117 -1.2102482 -0.30450773 4289222400
1.7781978 -1.1983159 -0.29351121 4289091840
1.7909752 -1.2068347 -0.28720433 4289222400
1.8017347 -1.2139947 -0.28014037 4289222400
1.802711 -1.214572 -0.27118954 4289222400
1.7784798 -1.198191 -0.25827825 4289091840
1.7829994 -1.2011529 -0.24934277 4289091840
1.8006316 -1.2129347 -0.24183659 4289222400
1.805123 -1.2158765 -0.2321818 4289222400
1.811886 -1.2203456 -0.22249769 4289222400
1.7711254 -1.1928536 -0.20695901 4289091840
1.7897269 -1.205285 -0.19823207 4289091840
1.8060347 -1.2161725 -0.18882184 4289222400
1.8038011 -1.2145915 -0.17718917 4289222400
1.7744197 -1.1947581 -0.16291249 4289091840
1.7992462 -1.2113713 -0.15343966 4289222400
1.8091016 -1.2179182 -0.14230439 4289222400
1.7980067 -1.2103808 -0.12938641 4289091840
1.7709987 -1.1921483 -0.11544873 4289091840
1.7901624 -1.2049515 -0.10443071 4289091840
1.7865158 -1.2024226 -0.091874458 4289091840
1.791786 -1.2058865 -0.079664744 4289091840
1.7705649 -1.1915479 -0.066315666 4289091840
1.7815725 -1.1988673 -0.054163322 4289091840
1.7898935 -1.2043808 -0.041737929 4289091840
1.7876474 -1.2027937 -0.028984491 4289091840
1.7902437 -1.2044601 -0.016276572 4289091840
1.8050157 -1.2143056 -0.0035364272 4289222400
1.8139373 -1.2202201 0.0093832668 4289222400
1.7950289 -1.2074405 0.022066312 4289091840
1.9354874 -1.3017013 0.037596103 4289744640
1.9781086 -1.3302417 0.052452959 4289875200
1.9383248 -1.3034382 0.065063886 4289744640
1.8231893 -1.226038 0.073964149 4289222400
1.9669464 -1.322488 0.093552671 4289875200
1.9667532 -1.3222727 0.10715372 4289875200
1.9367143 -1.3020191 0.11879521 4289744640
1.7482053 -1.17538 0.11906082 4288961280
1.9679371 -1.3228101 0.14730118 4289875200
1.9809916 -1.3314871 0.16142194 4289875200
1.9309012 -1.2977791 0.16996355 4289744640
1.8305037 -1.2303109 0.17290352 4289352960
1.9890087 -1.3366077 0.20052215 4289875200
1.9952556 -1.3407129 0.21358015 4290005760
1.9774996 -1.3287106 0.22375666 4289875200
1.8824643 -1.2648555 0.2242481 4289483520
1.7931571 -1.2048521 0.22408228 4289091840
1.9833279 -1.3323605 0.25920755 4289875200
1.9703734 -1.3235826 0.2684724 4289875200
1.9503462 -1.3100612 0.27628982 4289744640
1.8820357 -1.2641543 0.27648112 4289483520
1.7533423 -1.1777525 0.26646739 4288961280
1.9784447 -1.3286486 0.31043053 4289875200
1.973419 -1.3251907 0.31897908 4289875200
1.9753377 -1.3263901 0.32827234 4289875200
1.9422808 -1.304136 0.33123791 4289744640
1.8765662 -1.2599876 0.32783291 4289483520
1.8954344 -1.2725548 0.33864045 4289614080
1.8805199 -1.2624714 0.34303671 4289614080
1.8715208 -1.2563549 0.34802899 4289483520
1.826075 -1.2258077 0.3456535 4289352960
1.8212806 -1.2225125 0.35041094 4289352960
1.8165318 -1.2192482 0.35474145 4289352960
1.8159297 -1.2187632 0.35945407 4289352960
1.7683587 -1.1868019 0.35432801 4289091840
1.779338 -1.1940799 0.36043513 4289222400
1.795278 -1.2046806 0.3671813 4289222400
1.7443702 -1.1704905 0.35976201 4288961280
1.751416 -1.1751323 0.36380252 4289091840
1.7511499 -1.1748749 0.36590642 4289091840
1.77877 -1.1932977 0.37343714 4289222400
1.7548875 -1.1772197 0.3697207 4289091840
1.754801 -1.1770821 0.37056741 4289091840
1.7506844 -1.1742452 0.37012565 4289091840
1.7466296 -1.1714499 0.36926037 4289091840
1.7972202 -1.2052487 0.37950614 4289222400
1.7941107 -1.2030843 0.37794939 4289222400
1.7746913 -1.1899997 0.37252685 4289091840
1.8178582 -1.2188194 0.37978193 4289352960
1.8141166 -1.2162311 0.37674806 4289352960
1.811252 -1.2142301 0.37346324 4289352960
1.8440567 -1.2361054 0.37704679 4289483520
1.8527855 -1.2418629 0.37519014 4289483520
1.8730505 -1.2553405 0.37517056 4289483520
1.8851811 -1.2633722 0.37300891 4289614080
1.9005251 -1.273553 0.37097853 4289614080
1.939217 -1.2993556 0.37292418 4289744640
1.9400226 -1.2998046 0.36703277 4289744640
1.9577242 -1.3115578 0.36385339 4289875200
1.9708947 -1.3202778 0.35930532 4289875200
1.9751291 -1.3230187 0.35265034 4289875200
1.9638301 -1.3153683 0.34284341 4289875200
1.9469241 -1.3034701 0.28113845 4289744640
1.9809668 -1.3261384 0.27551511 4289875200
1.9861519 -1.3295114 0.26535428 4289875200
1.9579691 -1.3105782 0.25056234 4289875200
1.9435909 -1.3008751 0.23750047 4289744640
1.9652261 -1.3152437 0.22853605 4289875200
1.970331 -1.3185625 0.21723332 4289875200
1.937842 -1.2967575 0.20170636 4289744640
1.9258803 -1.2886724 0.18837158 4289614080
1.9519516 -1.3060018 0.17846514 4289744640
1.9697071 -1.3177724 0.16731822 4289875200
1.9523442 -1.3060789 0.15299511 4289744640
1.9489113 -1.3036929 0.13973531 4289744640
1.9718757 -1.3189406 0.12808882 4289875200
1.9400991 -1.2976217 0.11279431 4289744640
1.8240404 -1.220013 0.093468785 4289222400
1.8107104 -1.2110238 0.080222599 4289222400
1.8157632 -1.2143121 0.067764893 4289222400
1.8178493 -1.2156186 0.055071015 4289222400
1.7975829 -1.202 0.041760713 4289091840
1.7999258 -1.2034787 0.029062459 4289091840
1.8000796 -1.2034957 0.016277721 4289091840
1.8000207 -1.2033708 0.0034713438 4289091840
1.7792178 -1.1893986 -0.0092387693 4289091840
1.7918469 -1.1977437 -0.022044299 4289091840
1.7978669 -1.2016765 -0.034880903 4289091840
1.7958338 -1.2002341 -0.047556248 4289091840
1.794824 -1.1994748 -0.060186941 4289091840
1.807763 -1.2080234 -0.073300198 4289222400
1.8174794 -1.2144208 -0.086364575 4289222400
1.8052961 -1.2062058 -0.098288082 4289222400
1.8015434 -1.2036165 -0.11045223 4289091840
1.8143722 -1.2120891 -0.12356929 4289222400
1.8166376 -1.2135142 -0.1359407 4289222400
1.8056605 -1.2061062 -0.14712238 4289222400
1.803386 -1.2045037 -0.15876265 4289222400
1.8261645 -1.2196094 -0.1725577 4289222400
1.8354279 -1.2257004 -0.18509978 4289352960
1.8253258 -1.2188774 -0.19549131 4289222400
1.7872037 -1.1933725 -0.20238413 4289091840
1.8203388 -1.2153801 -0.21705668 4289222400
1.8290837 -1.2211241 -0.22884363 4289352960
1.8255633 -1.2186911 -0.23888053 4289222400
1.816361 -1.212471 -0.24784075 4289222400
1.7641716 -1.1775997 -0.250346 4289091840
1.8324434 -1.2230189 -0.26968312 4289352960
1.838958 -1.2272745 -0.28005424 4289352960
1.83499 -1.224544 -0.28853431 4289352960
1.8311268 -1.2218839 -0.29666883 4289352960
1.82215 -1.215817 -0.30358383 4289352960
1.8016448 -1.2020701 -0.30810988 4289222400
1.8119106 -1.2088252 -0.31748629 4289222400
1.8151945 -1.2109284 -0.32533881 4289222400
1.820436 -1.2143353 -0.33320385 4289352960
1.8263626 -1.2181983 -0.34085485 4289352960
1.8196244 -1.2136258 -0.34575751 4289352960
1.8255212 -1.2174685 -0.35265353 4289352960
1.8135215 -1.2093931 -0.35567999 4289222400
1.815262 -1.2104682 -0.36095351 4289352960
1.8024386 -1.2018462 -0.36289543 4289222400
1.7900308 -1.1935022 -0.36444142 4289222400
1.7858729 -1.1906518 -0.36720404 4289222400
1.7709348 -1.1806256 -0.36729532 4289091840
1.7674359 -1.1782153 -0.36929411 4289091840
1.7712501 -1.1806731 -0.37238693 4289091840
1.7501384 -1.166541 -0.3698031 4289091840
1.7458743 -1.1636233 -0.37031302 4288961280
1.7539691 -1.1689306 -0.3730067 4289091840
1.7625104 -1.1745346 -0.37536743 4289091840
1.7625302 -1.1744677 -0.37548327 4289091840
1.7854421 -1.1896318 -0.38002059 4289222400
1.7804368 -1.186221 -0.37818685 4289222400
1.7884408 -1.1914653 -0.378665 4289222400
1.8050195 -1.2024127 -0.38049188 4289222400
1.817274 -1.2104825 -0.38093719 4289352960
1.8153163 -1.2090987 -0.37795675 4289352960
1.8229907 -1.2141212 -0.37652749 4289352960
1.8210148 -1.2127255 -0.37266466 4289352960
1.8316741 -1.2197323 -0.37092999 4289352960
1.8247803 -1.2150666 -0.36521497 4289352960
1.8161247 -1.2092302 -0.35876557 4289352960
1.8064408 -1.2027111 -0.3517502 4289222400
1.8023858 -1.1999351 -0.34546313 4289222400
1.7938188 -1.1941602 -0.33795792 4289222400
1.8021231 -1.1996007 -0.33323449 4289222400
1.8138018 -1.2072833 -0.32868081 4289222400
1.8238039 -1.2138507 -0.32336795 4289352960
1.824729 -1.214385 -0.31604058 4289352960
1.8076122 -1.20293 -0.30530971 4289222400
1.7925749 -1.1928585 -0.29472542 4289222400
1.8136624 -1.206791 -0.28969914 4289222400
1.8162107 -1.2084045 -0.28128502 4289222400
1.8267798 -1.2153465 -0.27372903 4289352960
1.8019693 -1.1987846 -0.26065961 4289222400
1.7908958 -1.1913501 -0.24946879 4289091840
1.8192569 -1.2101099 -0.24337852 4289222400
1.8279132 -1.2157798 -0.23418766 4289222400
1.8272512 -1.2152605 -0.22350444 4289222400
1.7904812 -1.1907622 -0.20839781 4289091840
1.8106514 -1.2040783 -0.19975998 4289222400
1.8172379 -1.2083731 -0.18924904 4289222400
1.8183184 -1.2090116 -0.17791399 4289222400
1.7821145 -1.1848961 -0.16297911 4289091840
1.8198639 -1.2098798 -0.15458538 4289222400
1.8278043 -1.2150719 -0.14320838 4289222400
1.8125113 -1.2048415 -0.12991674 4289222400
1.7862321 -1.1873202 -0.11598247 4289091840
1.8024396 -1.1979998 -0.10473284 4289091840
1.8029419 -1.1982553 -0.092351891 4289091840
1.8062732 -1.2003881 -0.079990655 4289091840
1.777475 -1.1812003 -0.066312596 4289091840
1.8085169 -1.2017207 -0.054758243 4289222400
1.804376 -1.1988951 -0.041906282 4289091840
1.8017647 -1.1970848 -0.029094214 4289091840
1.8172274 -1.2072649 -0.016447673 4289222400
1.8217213 -1.2101675 -0.0035489197 4289222400
1.8301773 -1.2156979 0.0094366148 4289222400
1.8178638 -1.2074517 0.022268387 4289222400
1.9599186 -1.3015879 0.037931025 4289744640
1.978681 -1.3139462 0.052265767 4289875200
1.9573107 -1.2996893 0.065452479 4289744640
1.8344637 -1.218145 0.074136801 4289222400
1.9629565 -1.3032637 0.093000703 4289744640
1.9686035 -1.3069229 0.10683995 4289744640
1.9409351 -1.2884945 0.11859431 4289744640
1.8327122 -1.2166667 0.12435512 4289222400
1.9766568 -1.3120059 0.14738303 4289875200
1.9779124 -1.3127525 0.16054633 4289875200
1.9489983 -1.2935027 0.17089617 4289744640
1.826004 -1.2119033 0.17180943 4289222400
1.9801463 -1.3139758 0.19885391 4289875200
1.9914058 -1.3213512 0.21234187 4289875200
1.9769051 -1.3116561 0.22282307 4289875200
1.8815031 -1.2483587 0.22326538 4289483520
1.7885351 -1.1866822 0.22263809 4289091840
1.9835948 -1.3158299 0.25823864 4289875200
1.9860052 -1.3173403 0.26955712 4289875200
1.9339317 -1.2827598 0.27290103 4289744640
1.8769526 -1.2449346 0.27466583 4289483520
1.7485913 -1.1598364 0.2647154 4288961280
1.9787083 -1.3121604 0.30926991 4289875200
1.9811031 -1.3136595 0.31898251 4289875200
1.963219 -1.30173 0.32499373 4289875200
1.9480642 -1.2916092 0.33093891 4289744640
1.8797462 -1.2462902 0.32711762 4289483520
1.8871424 -1.251104 0.3358528 4289614080
1.88784 -1.2514827 0.34303996 4289614080
1.8705648 -1.2399637 0.34650472 4289483520
1.8500446 -1.2262981 0.34883815 4289352960
1.8378139 -1.2181209 0.35222536 4289352960
1.816193 -1.20373 0.35330263 4289222400
1.8353392 -1.21632 0.36189237 4289352960
1.7908696 -1.1868107 0.35745245 4289222400
1.7944853 -1.1891235 0.36209854 4289222400
1.7548254 -1.1628022 0.35751468 4289091840
1.7667748 -1.1706296 0.36297536 4289091840
1.7779539 -1.1779462 0.36788893 4289091840
1.7817919 -1.1804054 0.37087202 4289091840
1.7856888 -1.1829031 0.37344024 4289222400
1.789646 -1.1854402 0.37558877 4289222400
1.7854497 -1.1825842 0.37558445 4289222400
1.7813164 -1.17977 0.37514839 4289091840
1.769852 -1.1721083 0.37272528 4289091840
1.7617356 -1.166661 0.37057102 4289091840
1.808481 -1.1974895 0.37950504 4289222400
1.7930955 -1.1872351 0.37493667 4289222400
1.8372532 -1.2163469 0.38235193 4289352960
1.8293889 -1.2110642 0.3784526 4289352960
1.8433455 -1.2202065 0.37861478 4289352960
1.8355976 -1.2150011 0.37386569 4289352960
1.8517592 -1.2255988 0.37353298 4289483520
1.8720998 -1.2389568 0.37353095 4289483520
1.8915561 -1.2517284 0.37282479 4289614080
1.9192055 -1.269912 0.37317955 4289744640
1.9269785 -1.2749597 0.36913764 4289744640
1.9400581 -1.2835126 0.36562163 4289744640
1.9529606 -1.2919471 0.36156547 4289875200
1.9661759 -1.3005871 0.35706007 4289875200
1.9712458 -1.3038449 0.35059726 4289875200
1.9557679 -1.2935302 0.34011638 4289875200
1.9582981 -1.294613 0.28169134 4289744640
1.9845114 -1.3118268 0.27494359 4289875200
1.9855666 -1.3124305 0.26425245 4289875200
1.9498007 -1.2887293 0.24855293 4289744640
1.9469826 -1.2867779 0.23699774 4289744640
1.9603916 -1.2955363 0.22709365 4289744640
1.9748689 -1.3049984 0.21689481 4289875200
1.9420353 -1.283239 0.20136419 4289744640
1.9258657 -1.2724782 0.18764386 4289614080
1.956552 -1.2926344 0.17819716 4289744640
1.9625784 -1.2965182 0.1660686 4289744640
1.9482565 -1.2869776 0.15208554 4289744640
1.9448055 -1.2846094 0.13890277 4289744640
1.9689053 -1.3004142 0.12740262 4289744640
1.957013 -1.2924775 0.1133438 4289744640
1.8477955 -1.2203547 0.094327979 4289352960
1.8305891 -1.2089204 0.080796778 4289222400
1.8316469 -1.2095315 0.068099335 4289222400
1.8301573 -1.2084628 0.055234447 4289222400
1.8129002 -1.1969984 0.041959584 4289222400
1.8205583 -1.2019615 0.029289516 4289222400
1.8229212 -1.2034333 0.016428882 4289222400
1.8115922 -1.1958793 0.0034848261 4289091840
1.7936294 -1.1839538 -0.0092719579 4289091840
1.8104813 -1.194976 -0.022180349 4289091840
1.8096751 -1.1943592 -0.034969583 4289091840
1.811142 -1.1952403 -0.047770295 4289091840
1.8051186 -1.1911857 -0.060294103 4289091840
1.834798 -1.2106563 -0.074098513 4289222400
1.8370382 -1.2120457 -0.08694908 4289222400
1.8239702 -1.2033498 -0.098913759 4289222400
1.8168635 -1.1985822 -0.1109551 4289222400
1.8269016 -1.2051088 -0.12393706 4289222400
1.8365203 -1.2113582 -0.13688974 4289222400
1.8284867 -1.2059807 -0.14839752 4289222400
1.830362 -1.2071297 -0.16050403 4289222400
1.8430282 -1.2153846 -0.17347187 4289352960
1.8466977 -1.2177143 -0.18551283 4289352960
1.8448738 -1.2164266 -0.19681393 4289352960
1.7910337 -1.1808927 -0.20203379 4289091840
1.8398554 -1.2129499 -0.2185287 4289352960
1.8436428 -1.2153568 -0.22976887 4289352960
1.8421067 -1.2142594 -0.240108 4289352960
1.8275427 -1.2045873 -0.24839967 4289222400
1.7826154 -1.1749332 -0.2519789 4289091840
1.8469989 -1.217221 -0.27077037 4289352960
1.8585073 -1.2247081 -0.28193083 4289352960
1.8619725 -1.2269017 -0.29163519 4289352960
1.8547722 -1.2220776 -0.29932973 4289352960
1.833339 -1.2078902 -0.30426523 4289352960
1.8210235 -1.1997031 -0.31021389 4289222400
1.8324393 -1.2071283 -0.31983554 4289352960
1.8337867 -1.2079298 -0.32739511 4289352960
1.8349128 -1.2085859 -0.33455217 4289352960
1.8449869 -1.2151269 -0.34299451 4289352960
1.8389711 -1.2110856 -0.34807742 4289352960
1.8333428 -1.2072998 -0.35279629 4289352960
1.8325429 -1.2066896 -0.35801613 4289352960
1.8305265 -1.2052798 -0.36257881 4289352960
1.8212723 -1.1991117 -0.36526501 4289222400
1.804368 -1.1879154 -0.36593804 4289222400
1.8043103 -1.1877952 -0.36955643 4289222400
1.7893114 -1.1778537 -0.36966762 4289222400
1.7783861 -1.1705914 -0.37014553 4289091840
1.7937391 -1.180601 -0.37565061 4289222400
1.764312 -1.1611807 -0.37135503 4289091840
1.7723761 -1.1664 -0.37447205 4289091840
1.7640406 -1.1608427 -0.3736991 4289091840
1.781667 -1.1723446 -0.37797615 4289091840
1.7775717 -1.1695735 -0.37722194 4289091840
1.7882265 -1.1764934 -0.37914732 4289222400
1.7955474 -1.1812223 -0.37992063 4289222400
1.8068756 -1.188583 -0.38108599 4289222400
1.8161098 -1.1945673 -0.38135085 4289222400
1.8284118 -1.202566 -0.38179144 4289352960
1.8343207 -1.206365 -0.38043404 4289352960
1.8382708 -1.2088773 -0.37821478 4289352960
1.8354651 -1.2069532 -0.37416935 4289352960
1.8387482 -1.2090275 -0.3709268 4289352960
1.8441967 -1.2125232 -0.3676711 4289352960
1.8346868 -1.2061982 -0.36102873 4289352960
1.8257948 -1.20028 -0.35414138 4289352960
1.8217288 -1.1975304 -0.34781772 4289222400
1.8023936 -1.1847589 -0.33826339 4289222400
1.813212 -1.1917802 -0.33399016 4289222400
1.8323777 -1.2042789 -0.33076081 4289352960
1.8424236 -1.2107912 -0.32540399 4289352960
1.8392199 -1.2086084 -0.31731856 4289352960
1.8145887 -1.1923659 -0.30530655 4289222400
1.803635 -1.1850997 -0.29539853 4289222400
1.8206612 -1.1961917 -0.28969595 4289222400
1.8356584 -1.205951 -0.28319481 4289352960
1.8379769 -1.2073921 -0.27434307 4289352960
1.8134135 -1.1912 -0.26130152 4289222400
1.8135873 -1.1912353 -0.25164792 4289222400
1.8387412 -1.2076541 -0.24503073 4289352960
1.840584 -1.208783 -0.23489912 4289352960
1.8432814 -1.2104723 -0.2245916 4289352960
1.8056455 -1.1857138 -0.2093484 4289091840
1.8176342 -1.1934967 -0.19975682 4289222400
1.8359101 -1.2054007 -0.19045076 4289222400
1.8351631 -1.2048318 -0.17886497 4289222400
1.8048303 -1.184868 -0.1644125 4289091840
1.8393942 -1.2074475 -0.1556358 4289222400
1.8361833 -1.2052637 -0.14330865 4289222400
1.8286096 -1.2002208 -0.13056041 4289222400
1.7973059 -1.1796263 -0.11624856 4289091840
1.8219182 -1.1956787 -0.10545007 4289222400
1.8224256 -1.195933 -0.092983462 4289222400
1.8178327 -1.1928453 -0.080188602 4289222400
1.8043898 -1.1839595 -0.067047574 4289091840
1.8196665 -1.193891 -0.054879662 4289222400
1.8253759 -1.1975534 -0.042223088 4289222400
1.8195692 -1.1936713 -0.029261984 4289222400
1.8284105 -1.1993848 -0.016480781 4289222400
1.8404502 -1.2071925 -0.0035645727 4289222400
1.8381671 -1.2056184 0.0094449492 4289222400
1.8259388 -1.1975313 0.022285005 4289222400
1.9671816 -1.2899489 0.037928883 4289744640
1.9779364 -1.2969073 0.052046828 4289744640
1.9416683 -1.2730747 0.06467744 4289614080
1.8331658 -1.2019503 0.073801018 4289222400
1.9705138 -1.2917935 0.093004137 4289744640
1.9786787 -1.2970543 0.10697901 4289875200
1.9400507 -1.271683 0.11808705 4289614080
1.7459055 -1.1445178 0.11799008 4288830720
1.9759136 -1.2949898 0.14676431 4289875200
1.967983 -1.2897145 0.1591275 4289744640
1.9291964 -1.2642463 0.1685088 4289614080
1.7351294 -1.1371659 0.16261412 4288830720
1.98443 -1.3002229 0.19852303 4289875200
1.9990677 -1.3097152 0.21234536 4289875200
1.9770125 -1.2951989 0.22198319 4289875200
1.8887414 -1.2373643 0.22326867 4289483520
1.7912538 -1.1735078 0.22212432 4289091840
1.9874209 -1.3017515 0.25774819 4289875200
1.977844 -1.2954013 0.26742172 4289875200
1.9380449 -1.269285 0.27243653 4289744640
1.8766943 -1.229077 0.27357799 4289483520
1.7428612 -1.1414728 0.26283804 4288961280
1.9705482 -1.2902874 0.30681592 4289875200
1.9771068 -1.2944903 0.31712165 4289875200
1.9674501 -1.2880905 0.32444981 4289875200
1.9439512 -1.2726412 0.32897735 4289744640
1.8670926 -1.2223098 0.32367197 4289483520
1.8819771 -1.2319584 0.3336527 4289483520
1.8933133 -1.2392861 0.34272033 4289483520
1.872663 -1.2257056 0.34556788 4289483520
1.8644691 -1.2202681 0.35021621 4289483520
1.8637604 -1.2197231 0.35583618 4289483520
1.8599175 -1.2171297 0.36043087 4289483520
1.8423913 -1.2055953 0.36189559 4289352960
1.81344 -1.1865972 0.36057699 4289222400
1.8253201 -1.1942791 0.36691672 4289352960
1.8322958 -1.1987554 0.37188026 4289352960
1.8484011 -1.2091953 0.37830317 4289352960
1.7971582 -1.1756401 0.37044418 4289222400
1.7968843 -1.1753812 0.3725864 4289222400
1.7999699 -1.1773164 0.37499055 4289222400
1.8039412 -1.1798297 0.37714443 4289222400
1.799728 -1.1769977 0.37714365 4289222400
1.7922796 -1.1720532 0.37601697 4289222400
1.8547418 -1.2127579 0.38911992 4289483520
1.8474228 -1.2078959 0.38711992 4289352960
1.8310947 -1.1971527 0.38278574 4289352960
1.8156518 -1.1869887 0.37820616 4289222400
1.8558557 -1.2131509 0.38475093 4289483520
1.8656799 -1.2194796 0.38449082 4289483520
1.8421663 -1.204048 0.37692836 4289352960
1.8689333 -1.2214338 0.37920615 4289483520
1.8736024 -1.2243959 0.3764993 4289483520
1.88246 -1.2300906 0.37416604 4289483520
1.9060168 -1.2453758 0.37424326 4289614080
1.925334 -1.2578925 0.3729437 4289744640
1.930223 -1.2609942 0.36834908 4289744640
1.9359168 -1.2646202 0.3634491 4289744640
1.9530017 -1.2756764 0.36019409 4289744640
1.9737167 -1.2890986 0.35706353 4289875200
1.9746629 -1.289625 0.34986624 4289875200
1.9623665 -1.2815146 0.33996356 4289875200
1.9541601 -1.2755797 0.28002432 4289744640
1.9763062 -1.2899247 0.27276224 4289875200
1.9815197 -1.293231 0.26270851 4289875200
1.9489424 -1.2719069 0.24749696 4289744640
1.9253557 -1.2564447 0.23346856 4289614080
1.9541932 -1.2751471 0.22551234 4289744640
1.9730406 -1.2873371 0.21586856 4289744640
1.9369551 -1.2637333 0.20007177 4289614080
1.9248929 -1.2557842 0.18683492 4289614080
1.9556925 -1.2757591 0.17744079 4289744640
1.9617381 -1.2796059 0.16536567 4289744640
1.943177 -1.267424 0.15111077 4289614080
1.9530061 -1.273735 0.13895985 4289744640
1.971794 -1.2858797 0.12710509 4289744640
1.9763576 -1.2887595 0.11403389 4289744640
1.8815895 -1.2269552 0.095697172 4289352960
1.8451357 -1.2031305 0.081133492 4289222400
1.8512245 -1.2070084 0.068571515 4289352960
1.8413534 -1.2004951 0.05536484 4289222400
1.8315716 -1.1940408 0.042236831 4289222400
1.8350699 -1.1962321 0.029415945 4289222400
1.8340898 -1.195508 0.016471047 4289222400
1.8306781 -1.1932015 0.0035152994 4289222400
1.809818 -1.1795397 -0.009313642 4289091840
1.8257916 -1.1898499 -0.022276558 4289222400
1.8249815 -1.189237 -0.035124771 4289222400
1.8381845 -1.1977423 -0.048288301 4289222400
1.8290361 -1.1917039 -0.060850646 4289222400
1.8501958 -1.2053843 -0.074429221 4289222400
1.8557929 -1.2089386 -0.087494321 4289352960
1.8393223 -1.1981379 -0.099359699 4289222400
1.8333207 -1.1941482 -0.1115265 4289222400
1.8456074 -1.2020534 -0.12472101 4289222400
1.8435448 -1.2006258 -0.13688652 4289222400
1.8471901 -1.2029102 -0.14933617 4289222400
1.8415427 -1.1991516 -0.16086425 4289222400
1.8617775 -1.2122223 -0.1745608 4289352960
1.8636153 -1.2133303 -0.18649162 4289352960
1.8594439 -1.2105316 -0.19760615 4289352960
1.8251922 -1.1881791 -0.20508702 4289222400
1.8515592 -1.2052332 -0.21907589 4289352960
1.8632005 -1.2127137 -0.23131301 4289352960
1.8608185 -1.211079 -0.24161465 4289352960
1.8545245 -1.2069023 -0.25109446 4289352960
1.8052516 -1.1747972 -0.25419599 4289091840
1.8637104 -1.2126993 -0.27217212 4289352960
1.8702657 -1.2168723 -0.28262892 4289352960
1.8774028 -1.2214227 -0.29292527 4289483520
1.8651838 -1.2133981 -0.29985929 4289352960
1.8528043 -1.2052703 -0.30631581 4289352960
1.8396051 -1.1966114 -0.31217736 4289352960
1.8435893 -1.1991146 -0.32055169 4289352960
1.8532348 -1.2052944 -0.32959843 4289352960
1.8543591 -1.2059395 -0.33680144 4289352960
1.860322 -1.2097267 -0.34452182 4289352960
1.8542794 -1.2057179 -0.34963191 4289352960
1.8519384 -1.2041134 -0.35500944 4289352960
1.8478194 -1.2013547 -0.35961962 4289352960
1.8491023 -1.2021034 -0.36485541 4289352960
1.8364995 -1.1938384 -0.36691016 4289352960
1.8236632 -1.185423 -0.3684344 4289222400
1.8194673 -1.1826171 -0.37123573 4289222400
1.8118488 -1.1775903 -0.37288821 4289222400
1.7967458 -1.1677071 -0.37253499 4289222400
1.7836699 -1.1591409 -0.37212792 4289091840
1.7834401 -1.1589115 -0.37394354 4289091840
1.7832714 -1.1587219 -0.37533602 4289091840
1.7831647 -1.1585727 -0.376304 4289091840
1.804162 -1.1721146 -0.38128126 4289222400
1.8000509 -1.169367 -0.38052806 4289222400
1.8074418 -1.1740808 -0.38175461 4289222400
1.813965 -1.1782312 -0.38234907 4289222400
1.8253373 -1.1855261 -0.38350692 4289222400
1.8304756 -1.1887774 -0.38289937 4289352960
1.8510914 -1.202065 -0.38504651 4289352960
1.8537185 -1.2036866 -0.38298628 4289352960
1.8493519 -1.2007734 -0.37904358 4289352960
1.8514922 -1.2020795 -0.3759945 4289352960
1.8490697 -1.2004275 -0.37158692 4289352960
1.8586783 -1.206575 -0.36914346 4289352960
1.8499625 -1.2008438 -0.36264428 4289352960
1.8402112 -1.1944423 -0.35557476 4289352960
1.8289233 -1.1870459 -0.34786189 4289222400
1.8250172 -1.1844345 -0.34119686 4289222400
1.8283461 -1.1865121 -0.33549145 4289222400
1.8476603 -1.1989479 -0.33224553 4289352960
1.869372 -1.2129356 -0.32889649 4289483520
1.8600157 -1.2067925 -0.31967786 4289352960
1.8383765 -1.1926926 -0.30812281 4289352960
1.8272421 -1.1854 -0.29811713 4289222400
1.8392464 -1.193097 -0.29153326 4289352960
1.8473109 -1.1982412 -0.2839053 4289352960
1.8524749 -1.2015061 -0.27545086 4289352960
1.8328217 -1.1886982 -0.26308659 4289222400
1.8246644 -1.1833365 -0.25221902 4289222400
1.8490815 -1.1990695 -0.24546893 4289352960
1.8634529 -1.2082958 -0.2369048 4289352960
1.8586521 -1.2051076 -0.22559822 4289352960
1.8250545 -1.1832758 -0.21078704 4289222400
1.8404384 -1.193157 -0.20148537 4289222400
1.8484172 -1.1982433 -0.19101526 4289352960
1.8463334 -1.1968155 -0.17926614 4289222400
1.8242575 -1.1824479 -0.16554336 4289222400
1.8581201 -1.2042863 -0.15661591 4289352960
1.8557388 -1.202666 -0.14427729 4289352960
1.855683 -1.2025508 -0.13197966 4289352960
1.8116913 -1.1740054 -0.11672849 4289091840
1.8363991 -1.1899153 -0.10587908 4289222400
1.8369099 -1.1901677 -0.093361072 4289222400
1.8363123 -1.1897029 -0.08068914 4289222400
1.8154513 -1.1761293 -0.06719815 4289091840
1.8445107 -1.1948501 -0.055408385 4289222400
1.8409679 -1.1924802 -0.042416085 4289222400
1.8340471 -1.1879257 -0.029377205 4289222400
1.8471204 -1.1963029 -0.016579134 4289222400
1.8516486 -1.1991528 -0.0035680465 4289222400
1.8653108 -1.2079091 0.0095578292 4289352960
1.8488367 -1.1971773 0.022487244 4289222400
1.9826367 -1.2836109 0.038087826 4289744640
1.9831567 -1.2838629 0.051989391 4289744640
1.9563674 -1.2664596 0.0649257 4289744640
1.8283844 -1.1836418 0.073329642 4289222400
1.9578643 -1.2672609 0.09205547 4289744640
1.9753034 -1.2784499 0.10639291 4289744640
1.9272941 -1.2473363 0.11686484 4289614080
1.7399637 -1.1261861 0.117143 4288830720
1.9481161 -1.2606281 0.14414719 4289614080
1.9445324 -1.2582295 0.15663269 4289614080
1.9365265 -1.2529736 0.16851221 4289614080
1.7299997 -1.1194518 0.16151989 4288830720
1.993024 -1.2893096 0.19863191 4289875200
1.9899284 -1.2872247 0.21057492 4289875200
1.9761592 -1.278245 0.22104964 4289744640
1.8842129 -1.2187686 0.2218916 4289483520
1.7821828 -1.152787 0.22016323 4289091840
1.9874524 -1.2852849 0.25677931 4289875200
1.9694952 -1.2736027 0.26528633 4289744640
1.9328896 -1.2498794 0.27068532 4289614080
1.871312 -1.210034 0.27176273 4289352960
1.7461451 -1.1291354 0.26233965 4288961280
1.9696984 -1.2733951 0.30552599 4289744640
1.9804487 -1.2802504 0.3164593 4289875200
1.9740734 -1.2760494 0.32431436 4289875200
1.9513296 -1.2612827 0.3289808 4289744640
1.8658645 -1.2060332 0.32223818 4289352960
1.8137426 -1.1723117 0.32033312 4289222400
1.9160466 -1.2382579 0.34552953 4289614080
1.895311 -1.2247931 0.34843028 4289483520
1.8862492 -1.218863 0.35297313 4289483520
1.8782992 -1.2136511 0.3572607 4289483520
1.8711209 -1.2089375 0.36123526 4289483520
1.8609887 -1.2023188 0.36417171 4289352960
1.8886023 -1.2200513 0.3741138 4289483520
1.8955361 -1.2244413 0.37960154 4289483520
1.8475301 -1.1933926 0.37355947 4289352960
1.85127 -1.1957234 0.37746161 4289352960
1.8625202 -1.2028977 0.38247603 4289483520
1.8705158 -1.2079718 0.38639897 4289483520
1.8661536 -1.205076 0.38731942 4289483520
1.8618561 -1.2022223 0.38779065 4289483520
1.8741797 -1.2100855 0.39127216 4289483520
1.8700128 -1.2073157 0.39085397 4289483520
1.8617727 -1.2019203 0.3891232 4289483520
1.8461471 -1.1917645 0.38539419 4289352960
1.8380351 -1.1864531 0.38278899 4289352960
1.8741838 -1.2096703 0.38893306 4289483520
1.8670295 -1.2049755 0.38560984 4289483520
1.8768913 -1.2112471 0.38534486 4289483520
1.8755307 -1.210286 0.38231251 4289483520
1.8832382 -1.215168 0.3806704 4289483520
1.8837819 -1.2154334 0.37711972 4289483520
1.8959903 -1.2232138 0.37543714 4289483520
1.9202933 -1.2387848 0.3756277 4289614080
1.9326141 -1.2466346 0.37294468 4289744640
1.9424306 -1.2528702 0.369284 4289744640
1.9432485 -1.2533088 0.36345249 4289744640
1.952089 -1.258914 0.35866997 4289744640
1.9695531 -1.270072 0.35496822 4289875200
1.9704968 -1.2705898 0.34781319 4289875200
1.9573154 -1.2620122 0.33781135 4289744640
1.9498672 -1.2566388 0.2783573 4289744640
1.963737 -1.265475 0.27000594 4289744640
1.9806598 -1.2762748 0.26160672 4289875200
1.9604977 -1.2632095 0.24803011 4289744640
1.94017 -1.2500395 0.23438299 4289614080
1.9317657 -1.2445425 0.22208181 4289614080
1.9546618 -1.259183 0.21305026 4289744640
1.9400928 -1.2497205 0.19964325 4289614080
1.9204383 -1.2369878 0.18570104 4289614080
1.9555418 -1.2594773 0.17676041 4289744640
1.9574118 -1.2605892 0.16438018 4289744640
1.9521192 -1.2570946 0.15123804 4289614080
1.952835 -1.2574642 0.13842592 4289614080
1.9713207 -1.26926 0.12659749 4289744640
1.9758499 -1.2720804 0.11357671 4289744640
1.8962671 -1.220823 0.096085742 4289483520
1.8605175 -1.1977525 0.081507333 4289352960
1.8741977 -1.2064599 0.069168843 4289352960
1.8684965 -1.202708 0.055978585 4289352960
1.8427001 -1.1860406 0.042337961 4289222400
1.8588291 -1.1963208 0.029693075 4289222400
1.846368 -1.1882262 0.016523829 4289222400
1.8455899 -1.1876402 0.0035364418 4289222400
1.8208637 -1.1716665 -0.00933058 4289091840
1.8422438 -1.1853184 -0.022386171 4289222400
1.8478603 -1.188841 -0.035422407 4289222400
1.8451295 -1.1870006 -0.048285045 4289222400
1.8443565 -1.1864182 -0.061123095 4289222400
1.8585278 -1.1954348 -0.074479252 4289352960
1.863897 -1.1987967 -0.087542005 4289352960
1.8580377 -1.1949471 -0.09998522 4289352960
1.8570522 -1.1942279 -0.11253522 4289222400
1.8609788 -1.196663 -0.12527999 4289352960
1.8673041 -1.2006379 -0.13811897 4289352960
1.8541653 -1.1921157 -0.1493329 4289222400
1.862223 -1.1972027 -0.16204979 4289352960
1.8771964 -1.2067285 -0.17533761 4289352960
1.8823917 -1.2099763 -0.18765377 4289352960
1.8748462 -1.2050461 -0.19848667 4289352960
1.8247783 -1.1728255 -0.20426948 4289222400
1.8627356 -1.1971005 -0.21956432 4289352960
1.8755491 -1.2052372 -0.2319648 4289352960
1.8803922 -1.2082583 -0.24322908 4289352960
1.8698863 -1.2014308 -0.25221533 4289352960
1.8120639 -1.1642474 -0.2541928 4289091840
1.878262 -1.206632 -0.27325919 4289352960
1.8898484 -1.2139782 -0.28450537 4289483520
1.8961709 -1.2179469 -0.2947326 4289483520
1.8847338 -1.2105244 -0.30185401 4289483520
1.8672981 -1.1992558 -0.30754477 4289352960
1.8517958 -1.1892288 -0.31305927 4289352960
1.8630384 -1.1963537 -0.32270649 4289352960
1.8696754 -1.2005244 -0.33126485 4289352960
1.8730043 -1.2025737 -0.33890048 4289483520
1.8759071 -1.2043495 -0.3460952 4289483520
1.8770715 -1.2050108 -0.3525883 4289483520
1.8755463 -1.2039481 -0.35817236 4289483520
1.8664196 -1.1980131 -0.3618657 4289352960
1.8585548 -1.1928879 -0.36533859 4289352960
1.8550484 -1.1905568 -0.36921453 4289352960
1.84216 -1.1822138 -0.37076405 4289352960
