# .PCD v0.7 - Point Cloud Data file format
VERSION 0.7
FIELDS x y z rgba
SIZE 4 4 4 4
TYPE F F F U
COUNT 1 1 1 1
WIDTH 1128
HEIGHT 1
VIEWPOINT 0 0 0 1 0 0 0
POINTS 1128
DATA ascii
2.1632898 1.8199159 -0.4094272 4291441920
2.2189064 1.8668236 -0.42963928 4291703040
2.2151625 1.8637927 -0.43809408 4291703040
2.2148137 1.863618 -0.44670159 4291703040
2.2103515 1.8599818 -0.45394874 4291703040
2.205615 1.8561146 -0.46058434 4291703040
2.2047088 1.8554702 -0.46746913 4291703040
2.2088084 1.8590391 -0.47488421 4291703040
2.1978874 1.8499653 -0.47850233 4291703040
2.1794341 1.83455 -0.47985023 4291572480
2.1594939 1.8178812 -0.48022357 4291441920
2.1502562 1.8102202 -0.48235583 4291441920
2.1095006 1.7760229 -0.47676882 4291311360
2.1271477 1.7909944 -0.48378128 4291311360
2.0659685 1.7395943 -0.47225526 4291050240
2.0656767 1.7394596 -0.47402412 4291050240
2.0616901 1.7362133 -0.47438765 4291050240
2.0585296 1.7336624 -0.47438231 4291050240
2.1117072 1.7785611 -0.4868075 4291311360
2.151912 1.8125387 -0.49566868 4291441920
2.1568596 1.8168218 -0.49581835 4291441920
2.1762655 1.8332852 -0.49869478 4291572480
2.1904225 1.8453287 -0.49975657 4291703040
2.1978195 1.8516783 -0.49866804 4291703040
2.2000339 1.8536621 -0.49580821 4291703040
2.2117865 1.8636833 -0.49449474 4291703040
2.208534 1.8610613 -0.48923549 4291703040
2.2155809 1.8671186 -0.48567846 4291703040
2.2087412 1.8614732 -0.47851387 4291703040
2.2120957 1.8644192 -0.47301045 4291703040
2.1706471 1.8296019 -0.45749626 4291572480
2.2116992 1.8643228 -0.45883235 4291703040
2.2886348 1.9292976 -0.46667445 4292094720
2.3404961 1.973142 -0.46839714 4292225280
2.3789027 2.0056481 -0.4665387 4292486400
2.4507322 2.0663393 -0.47024176 4292747520
2.5573409 2.156364 -0.47930098 4293269760
2.6637814 2.2462585 -0.48680982 4293661440
2.7192962 2.2932181 -0.48369014 4293922560
2.7377546 2.3089314 -0.47306567 4294053120
2.7464199 2.3163872 -0.46007425 4294053120
2.7506392 2.3200936 -0.44575 4294053120
2.7275968 2.3008046 -0.42661327 4293922560
2.741415 2.312608 -0.41281253 4294053120
2.7582543 2.3269618 -0.39882323 4294053120
2.7664692 2.3340409 -0.38299018 4294053120
2.7594533 2.32827 -0.36461574 4294053120
2.721149 2.2960975 -0.34199348 4293922560
2.7488716 2.3196375 -0.32735491 4294053120
2.7493372 2.3201783 -0.30892259 4294053120
2.7470291 2.3183782 -0.28985056 4293922560
2.7366595 2.3097739 -0.26969692 4293922560
2.7494695 2.3207335 -0.25151294 4293922560
2.761663 2.3311744 -0.23281877 4294053120
2.7570245 2.3274071 -0.21239692 4294053120
2.7303836 2.3050647 -0.19027738 4293922560
2.755826 2.3266921 -0.17158659 4294053120
2.7571611 2.3279676 -0.15100868 4294053120
2.7632258 2.3332369 -0.13046937 4294053120
2.7574611 2.3285177 -0.10922729 4294053120
2.7669015 2.3366385 -0.088440038 4294053120
2.773 2.341938 -0.067330308 4294053120
2.659009 2.24581 -0.044062912 4293530880
1.8359982 1.5507903 -0.016236475 4290005760
1.7866091 1.5091697 -0.001975436 4289744640
2.0980432 1.7723546 0.013917635 4291050240
2.5805912 2.1801336 0.037073303 4293269760
2.1499486 1.8164341 0.047478832 4291311360
2.1029503 1.7768397 0.062621221 4291180800
2.1320491 1.8015409 0.079824239 4291311360
2.1299045 1.7998433 0.095978759 4291311360
1.934831 1.6351037 0.10184268 4290397440
1.9228891 1.6251153 0.11566926 4290397440
1.9441267 1.6431688 0.13143559 4290397440
1.9141929 1.617972 0.14353783 4290266880
1.9189763 1.6221185 0.15790205 4290397440
1.9130188 1.6171856 0.17120309 4290266880
1.8759527 1.5859526 0.1812274 4290136320
1.7949095 1.5175344 0.18597426 4289744640
1.9299275 1.6317915 0.2132673 4290397440
1.9285928 1.6307667 0.22618061 4290397440
1.9044964 1.6104943 0.2360069 4290266880
1.8132701 1.5334485 0.23650065 4289875200
1.720399 1.4550017 0.2353341 4289483520
1.915467 1.6200808 0.27391481 4290397440
1.9012604 1.6081675 0.28339016 4290266880
1.8703977 1.5821633 0.28979939 4290136320
1.8481375 1.5634331 0.29690874 4290005760
1.7607327 1.4895879 0.29260883 4289744640
1.9194601 1.6239754 0.32924861 4290397440
1.896108 1.6043205 0.33501297 4290266880
1.8943713 1.6029531 0.34408861 4290266880
1.8728901 1.5848774 0.34907719 4290136320
1.8460059 1.562227 0.35243791 4290136320
1.8161056 1.537021 0.35456988 4290005760
1.8961023 1.6048268 0.37795085 4290266880
1.8988657 1.607268 0.38584182 4290397440
1.8892 1.5991884 0.3907395 4290266880
1.8842235 1.5950775 0.39610505 4290266880
1.8903167 1.6003376 0.40334281 4290266880
1.8820802 1.5934662 0.40705171 4290266880
1.8787757 1.5907698 0.41132289 4290266880
1.8716058 1.5847999 0.41424426 4290266880
1.8719209 1.5851678 0.41832408 4290266880
1.868417 1.5823014 0.42105725 4290266880
1.8709896 1.5845809 0.42466632 4290266880
1.8706152 1.5843648 0.42711437 4290266880
1.8586762 1.574353 0.42640918 4290136320
1.8584306 1.5742452 0.42787474 4290136320
1.862007 1.5773752 0.42972121 4290136320
1.8772726 1.5904086 0.43376845 4290266880
1.8697082 1.584101 0.4320367 4290266880
1.8629612 1.5784851 0.42998955 4290266880
1.8689376 1.5836499 0.43037409 4290266880
1.8585632 1.5749593 0.42649469 4290136320
1.864572 1.580152 0.42587772 4290266880
1.8644741 1.5801696 0.4233616 4290266880
1.8797569 1.5932235 0.42381901 4290266880
1.8865589 1.5990905 0.42183247 4290266880
1.8820816 1.5953971 0.41682902 4290266880
1.879523 1.5933297 0.41178092 4290266880
1.8864473 1.5993015 0.40831959 4290266880
1.8855596 1.5986507 0.40267789 4290266880
1.8772755 1.5917284 0.39501882 4290266880
1.8675849 1.5836128 0.38666591 4290266880
1.868746 1.5846982 0.38014224 4290266880
1.887042 1.6003151 0.37659195 4290266880
1.8950665 1.6072227 0.37045607 4290266880
1.887387 1.6008116 0.36082622 4290266880
1.862124 1.5797391 0.29479593 4290136320
1.8915412 1.6047975 0.28850037 4290266880
1.8996938 1.6118168 0.27841929 4290266880
1.8999606 1.6121459 0.26682109 4290266880
1.8659229 1.5833652 0.25032014 4290136320
1.8726002 1.5891325 0.23917383 4290136320
1.8867813 1.6012689 0.22858453 4290266880
1.8796227 1.5952951 0.21511185 4290136320
1.8544073 1.5739943 0.19955553 4290136320
1.8727965 1.589704 0.18851623 4290136320
1.8856306 1.6007 0.17649207 4290266880
1.8896745 1.6042351 0.16333191 4290266880
1.8702893 1.5878791 0.14807954 4290136320
1.8834865 1.5991853 0.1352887 4290136320
1.8974943 1.6111814 0.12220736 4290266880
1.8736417 1.5910292 0.10662904 4290136320
1.8276348 1.5520605 0.090200059 4289875200
1.6885163 1.4340099 0.070483766 4289352960
1.7964238 1.5257499 0.061234824 4289744640
2.619662 2.2250896 0.069143109 4293400320
2.7451255 2.3318043 0.051256556 4293922560
2.7539659 2.3394623 0.030098734 4294053120
2.7635396 2.3477447 0.0087726554 4294053120
2.7378056 2.3260305 -0.012550688 4293922560
2.7484767 2.3352454 -0.033911612 4293922560
2.7445488 2.3320565 -0.055109318 4293922560
2.7346129 2.3237619 -0.076020971 4293922560
2.7189193 2.3105731 -0.096494243 4293922560
2.7435946 2.331691 -0.11836524 4293922560
2.753613 2.3403544 -0.13974209 4294053120
2.7284455 2.3191116 -0.15906931 4293922560
2.70892 2.3026619 -0.17821789 4293792000
2.7260702 2.3173876 -0.19956796 4293922560
2.7291372 2.3201425 -0.21982089 4293922560
2.7068865 2.3013728 -0.23765738 4293792000
2.7125618 2.3063447 -0.25756666 4293922560
2.7324431 2.3233967 -0.27872506 4293922560
2.733731 2.3246398 -0.29783154 4293922560
2.7275839 2.3195603 -0.31576884 4293922560
2.6580598 2.2605803 -0.32551494 4293661440
2.716861 2.3107355 -0.35053807 4293922560
2.7298615 2.3219404 -0.36973402 4293922560
2.7250843 2.3180246 -0.38616621 4293922560
2.6978555 2.2950091 -0.39879173 4293792000
2.6082335 2.2189109 -0.4010511 4293400320
2.6556587 2.2594011 -0.42367634 4293661440
2.5971644 2.2097754 -0.42887539 4293400320
2.5651155 2.1826458 -0.43745896 4293269760
2.5260992 2.1495838 -0.44398445 4293139200
2.4849889 2.1147356 -0.44923028 4292878080
2.1941233 1.8673267 -0.40721038 4291703040
2.1528158 1.8322881 -0.40945324 4291441920
2.2013829 1.8737434 -0.42834601 4291703040
2.2006714 1.8732573 -0.43737081 4291703040
2.2055838 1.8775581 -0.44702864 4291703040
2.203408 1.8758253 -0.45474774 4291703040
2.2024517 1.8751307 -0.46218374 4291703040
2.1977882 1.8712794 -0.46829018 4291703040
2.1951046 1.8691133 -0.47425401 4291703040
2.1797309 1.8561409 -0.47687685 4291572480
2.1658735 1.844458 -0.47920176 4291572480
2.1452799 1.8270367 -0.47939926 4291441920
2.1435907 1.8257143 -0.48321417 4291441920
2.1030312 1.7912835 -0.47763142 4291311360
2.1168416 1.8031614 -0.4837904 4291311360
2.0559585 1.7514116 -0.47226241 4291050240
2.0556676 1.7512754 -0.47402945 4291050240
2.0554483 1.7512 -0.47525778 4291050240
2.1127949 1.8001724 -0.48925996 4291311360
2.0977261 1.7874472 -0.48593882 4291311360
2.1377356 1.8216548 -0.49479857 4291441920
2.1501548 1.8323544 -0.49667934 4291572480
2.1627197 1.8431792 -0.49799716 4291572480
2.1798065 1.8578597 -0.49974707 4291703040
2.1939156 1.8700041 -0.50019473 4291703040
2.1968701 1.8726414 -0.49749219 4291703040
2.1898139 1.8667454 -0.49194998 4291703040
2.1975071 1.873423 -0.48914447 4291703040
2.2033305 1.8785069 -0.48532358 4291703040
2.1983302 1.8743631 -0.47855362 4291703040
2.2013719 1.877076 -0.47298306 4291703040
2.1563678 1.8388188 -0.4566713 4291572480
2.2586141 1.9261307 -0.47081432 4291964160
2.2918227 1.9545749 -0.46956432 4292094720
2.4231603 2.0667174 -0.48726115 4292747520
2.54708 2.1725471 -0.50190729 4293269760
2.6119819 2.2280474 -0.50357223 4293530880
2.6527202 2.2629416 -0.49954385 4293661440
2.6788287 2.2853591 -0.49188551 4293792000
2.6914172 2.2962449 -0.48100072 4293922560
2.7001772 2.303865 -0.46877936 4293922560
2.7125196 2.3145432 -0.45653927 4293922560
2.7141514 2.316083 -0.44190675 4293922560
2.6891377 2.294884 -0.42257151 4293792000
2.7010198 2.3051705 -0.4086321 4293922560
2.7140481 2.3164368 -0.39426059 4293922560
2.7191229 2.3209157 -0.37818357 4293922560
2.7124541 2.315371 -0.36006296 4293922560
2.6773365 2.2855396 -0.33803588 4293792000
2.6962526 2.3018341 -0.32255882 4293792000
2.6962154 2.3019488 -0.30433264 4293792000
2.6887038 2.2956817 -0.28497902 4293792000
2.6851249 2.2927718 -0.26580524 4293792000
2.6962373 2.3024068 -0.24773985 4293792000
2.701206 2.3067966 -0.22872344 4293792000
2.6959031 2.3024144 -0.20858976 4293792000
2.6066091 2.2262952 -0.18242767 4293400320
2.7395604 2.3399973 -0.17128794 4293922560
2.7585857 2.3563979 -0.15170278 4294053120
2.7539036 2.3525479 -0.13054068 4294053120
2.7485669 2.3481383 -0.10928157 4294053120
2.7679009 2.3648062 -0.088776313 4294053120
2.7660432 2.363369 -0.067360111 4294053120
2.6612928 2.2740126 -0.044190306 4293661440
1.8019886 1.5398554 -0.015927447 4289875200
1.7437024 1.4901427 -0.0018533129 4289614080
1.7068858 1.4587725 0.011461155 4289483520
1.821172 1.5565451 0.026380327 4289875200
1.8848431 1.6110669 0.04192052 4290266880
1.896202 1.6208789 0.056834437 4290266880
1.8894967 1.61525 0.071182549 4290266880
1.8469514 1.5789802 0.083726838 4290005760
1.8858473 1.6123353 0.099843428 4290266880
1.8854522 1.6121 0.11406553 4290266880
1.8689306 1.5980754 0.1270624 4290136320
1.7123824 1.4643081 0.12911747 4289483520
1.89407 1.6197776 0.15670814 4290266880
1.8839139 1.6111946 0.16951525 4290266880
1.8661462 1.5961006 0.18125258 4290136320
1.717235 1.4688313 0.1788794 4289483520
1.9052677 1.6297683 0.21166319 4290266880
1.8938912 1.6201397 0.22328693 4290266880
1.8812522 1.6094301 0.23435469 4290266880
1.8383512 1.5728279 0.24102952 4290005760
1.6576098 1.4182822 0.22792953 4289222400
1.8914691 1.6184794 0.27189055 4290266880
1.8828815 1.6112337 0.28210598 4290266880
1.8676945 1.5983394 0.29087621 4290136320
1.8221455 1.5594585 0.2942414 4290005760
1.7159786 1.4686905 0.2866365 4289483520
1.88115 1.6101615 0.32433048 4290266880
1.8807874 1.6099535 0.33400419 4290266880
1.8675377 1.5987135 0.34094381 4290266880
1.858668 1.5912217 0.34818813 4290136320
1.8381158 1.5737269 0.35271201 4290136320
1.7779547 1.522316 0.34887868 4289875200
1.8643926 1.5964272 0.37350735 4290266880
1.8644223 1.596554 0.38075265 4290266880
1.8657379 1.5977824 0.38782799 4290266880
1.8612456 1.5940366 0.39323878 4290266880
1.8631124 1.5957369 0.39952978 4290266880
1.8586694 1.5920327 0.40399843 4290266880
1.8553859 1.5893213 0.40822917 4290136320
1.8557436 1.5897287 0.41277918 4290136320
1.8380926 1.574708 0.41280621 4290136320
1.8338637 1.5711851 0.41532087 4290136320
1.8409189 1.57733 0.41991013 4290136320
1.8282294 1.566557 0.41949955 4290136320
1.8316649 1.5696006 0.42228514 4290136320
1.8239443 1.5630839 0.42200211 4290005760
1.8237667 1.5630311 0.42296395 4290005760
1.8426985 1.5793567 0.42786741 4290136320
1.8359193 1.5736464 0.426305 4290136320
1.8359346 1.5737596 0.42582089 4290136320
1.8418812 1.5789573 0.42621049 4290136320
1.8382862 1.5759758 0.42389292 4290136320
1.841273 1.5786366 0.42259666 4290136320
1.8553743 1.5908278 0.42333493 4290266880
1.8526384 1.588583 0.41972229 4290136320
1.8594035 1.5944852 0.41776395 4290266880
1.8512012 1.5875524 0.41196063 4290136320
1.8636229 1.5983067 0.4102551 4290266880
1.8660178 1.6004624 0.40582922 4290266880
1.862134 1.5972328 0.39957184 4290266880
1.8567899 1.5927502 0.39256638 4290136320
1.8444008 1.5822234 0.38367665 4290136320
1.8488808 1.5861673 0.37787923 4290136320
1.8680632 1.6027261 0.37456113 4290266880
1.8712251 1.605541 0.36751333 4290266880
1.8720632 1.6063621 0.3595714 4290266880
1.8445675 1.5834185 0.29347208 4290136320
1.8569461 1.5941458 0.28463563 4290136320
1.882251 1.6159722 0.27723804 4290266880
1.867074 1.6030443 0.26350984 4290136320
1.8443426 1.5836279 0.24865863 4290136320
1.8546877 1.5926119 0.23806709 4290136320
1.8713831 1.6070503 0.22784951 4290136320
1.8560792 1.5940094 0.21347667 4290136320
1.8302627 1.571938 0.1979395 4290005760
1.849209 1.5883112 0.18707024 4290136320
1.8675712 1.6041846 0.17567356 4290136320
1.8581023 1.5961527 0.16140407 4290136320
1.8434786 1.5836912 0.14668487 4290005760
1.8706467 1.6071328 0.13503671 4290136320
1.8736 1.6097724 0.12127046 4290136320
1.870867 1.6075264 0.10700234 4290136320
1.7746022 1.5249087 0.088019714 4289744640
1.6801327 1.4438232 0.070483766 4289352960
1.7950855 1.5427059 0.061494544 4289875200
2.6248515 2.2559545 0.06962581 4293530880
2.7457347 2.3599989 0.051523793 4294053120
2.7509053 2.3645933 0.030215343 4294053120
2.7572312 2.3701816 0.0087963175 4294053120
2.7346256 2.3508985 -0.012598687 4293922560
2.7349792 2.351352 -0.03391353 4293922560
2.7176025 2.336561 -0.054840669 4293922560
2.6278584 2.2595439 -0.073417969 4293530880
2.6985896 2.320509 -0.096250936 4293792000
2.7120023 2.3321905 -0.1175865 4293922560
2.712949 2.333153 -0.13836595 4293922560
2.6921127 2.3153808 -0.1577349 4293792000
2.6853106 2.3096774 -0.17754695 4293792000
2.6994879 2.3220191 -0.19860898 4293792000
2.6902988 2.3142619 -0.21777496 4293792000
2.6182387 2.2524171 -0.23102261 4293530880
2.6855381 2.3104601 -0.25627452 4293792000
2.7021551 2.3249042 -0.27701253 4293922560
2.6879308 2.3128128 -0.29430482 4293792000
2.6355584 2.2678933 -0.30663964 4293661440
2.6345067 2.2671325 -0.32424268 4293661440
2.6621468 2.2910638 -0.34519508 4293661440
2.6779051 2.3047719 -0.36450958 4293792000
2.6677866 2.2962091 -0.37993607 4293792000
2.6318328 2.2654071 -0.39097682 4293661440
2.5392866 2.1858847 -0.39240119 4293139200
2.672173 2.3004231 -0.42844197 4293792000
2.6573939 2.2878456 -0.44101492 4293792000
2.6226432 2.2580707 -0.4495059 4293530880
2.5137599 2.1644607 -0.44402459 4293139200
2.4838862 2.1388741 -0.45127609 4293008640
2.2047381 1.8986204 -0.41122642 4291703040
2.1851325 1.8818563 -0.41767794 4291703040
2.1941762 1.889765 -0.42907888 4291703040
2.1900158 1.8863016 -0.43742985 4291703040
2.1924264 1.8884978 -0.44658437 4291703040
2.2010932 1.8960837 -0.45654222 4291703040
2.1874285 1.8844322 -0.46132725 4291703040
2.1850231 1.8824797 -0.46789929 4291703040
2.171082 1.8705877 -0.47141057 4291572480
2.1696382 1.8694625 -0.47704366 4291572480
2.1523139 1.8546529 -0.47858438 4291572480
2.1260328 1.8321228 -0.47747549 4291441920
2.0863461 1.7980367 -0.4726634 4291311360
2.1000233 1.8099388 -0.47933513 4291311360
2.0423479 1.7603424 -0.46910143 4291050240
2.0494502 1.7665761 -0.47312364 4291050240
2.0491598 1.7664379 -0.47489393 4291050240
2.05267 1.7695763 -0.47699118 4291180800
2.0413339 1.7599155 -0.4750782 4291050240
2.0910058 1.8028539 -0.48680705 4291311360
2.0872734 1.7997503 -0.48553744 4291311360
2.1461556 1.8506391 -0.49823776 4291572480
2.145442 1.8501413 -0.49649245 4291572480
2.1622424 1.8647476 -0.49820268 4291572480
2.1770797 1.8776628 -0.49884203 4291703040
2.1803696 1.8806198 -0.49622846 4291703040
2.1837962 1.8836949 -0.49305531 4291703040
2.1813195 1.8816781 -0.48797327 4291703040
2.1864395 1.8862146 -0.48401555 4291703040
2.1903603 1.889717 -0.47920734 4291703040
2.1765697 1.8779385 -0.46999696 4291703040
2.1817796 1.8825531 -0.4643679 4291703040
2.1935158 1.8928 -0.45953542 4291703040
2.2844191 1.9713664 -0.47039276 4292094720
2.396111 2.0678835 -0.48423645 4292616960
2.5891473 2.2346189 -0.51275355 4293530880
2.6433597 2.2815528 -0.51217574 4293661440
2.6683354 2.3032565 -0.50500286 4293792000
2.6525559 2.2897813 -0.48950264 4293792000
2.6395729 2.2787185 -0.47409993 4293661440
2.6408525 2.2799683 -0.46077839 4293661440
2.6383908 2.2779875 -0.44628903 4293661440
2.6184177 2.2608864 -0.42845726 4293530880
2.6302249 2.2712255 -0.41538632 4293661440
2.6277502 2.2692327 -0.39954072 4293661440
2.6451714 2.2844222 -0.38618201 4293661440
2.670398 2.3063548 -0.37326938 4293792000
2.6533344 2.2917631 -0.35398161 4293661440
2.6510117 2.2899022 -0.33639094 4293661440
2.6651592 2.3022687 -0.32043836 4293792000
2.677599 2.3131616 -0.30374739 4293792000
2.6627936 2.3005173 -0.28364861 4293792000
2.6667218 2.3040576 -0.26530787 4293792000
2.6837108 2.3188834 -0.24782605 4293792000
2.6857491 2.320792 -0.22855569 4293792000
2.632654 2.2750561 -0.20471811 4293530880
2.6230597 2.2669091 -0.18450025 4293530880
2.6633308 2.3018584 -0.16735746 4293661440
2.7002218 2.3338907 -0.14923844 4293922560
2.6861508 2.321876 -0.12796815 4293792000
2.724359 2.3550522 -0.10886278 4293922560
2.7639399 2.3894196 -0.089094266 4294183680
2.7515268 2.3788395 -0.067342982 4294053120
2.5639749 2.2168317 -0.042788099 4293269760
1.7433338 1.507395 -0.015486373 4289614080
1.6365945 1.4151915 -0.0017482061 4289091840
1.6744244 1.4479957 0.011299645 4289352960
1.804509 1.5605882 0.02627022 4289875200
1.8665322 1.6143301 0.04172175 4290136320
1.8705785 1.6179323 0.056348011 4290136320
1.8660134 1.6140864 0.070650958 4290136320
1.8255104 1.5791517 0.083170541 4290005760
1.857583 1.6069982 0.098841041 4290136320
1.8682455 1.6163249 0.11359236 4290136320
1.8449409 1.5962641 0.12606157 4290136320
1.7473819 1.511951 0.1324185 4289614080
1.8627144 1.6118466 0.15488824 4290136320
1.8553247 1.6055541 0.16778165 4290136320
1.8384194 1.5910257 0.17945687 4290005760
1.6905576 1.4631543 0.17698547 4289352960
1.8777107 1.6252359 0.20965017 4290266880
1.8766621 1.6244315 0.22236772 4290266880
1.8628014 1.6125361 0.23322262 4290136320
1.8099946 1.5669233 0.23850454 4290005760
1.5800803 1.3679719 0.21836106 4288961280
1.8710513 1.6199862 0.27030775 4290266880
1.8615037 1.611822 0.2803053 4290266880
1.8335879 1.5877512 0.28700024 4290136320
1.8130288 1.5700482 0.2942414 4290005760
1.7536601 1.5187325 0.29440385 4289744640
1.8640161 1.6144072 0.32299265 4290266880
1.8567669 1.6082309 0.33139688 4290266880
1.8461469 1.599134 0.33873385 4290136320
1.8317754 1.586786 0.34487632 4290136320
1.7956556 1.5555959 0.34629771 4290005760
1.7124683 1.4836239 0.33771905 4289614080
1.8506327 1.6034266 0.37261593 4290136320
1.8386177 1.5931177 0.377372 4290136320
1.8404002 1.5947634 0.38448596 4290136320
1.8332754 1.5886905 0.38927832 4290136320
1.8267769 1.5831594 0.39370924 4290136320
1.8232151 1.5801729 0.39828649 4290136320
1.8073136 1.5664905 0.39965343 4290005760
1.8104508 1.5693094 0.40473142 4290005760
1.8166188 1.5747558 0.41003713 4290005760
1.8124138 1.5712104 0.41252926 4290005760
1.7767184 1.5403631 0.40730628 4289875200
1.7651972 1.5304718 0.40707552 4289875200
1.7686238 1.5335401 0.40980414 4289875200
1.7721102 1.5366606 0.41207382 4289875200
1.7682168 1.5333818 0.41214588 4289875200
1.7718263 1.5366094 0.41348296 4289875200
1.771778 1.5366651 0.41348314 4289875200
1.7643523 1.530322 0.41127932 4289875200
1.8145591 1.573969 0.42200306 4290005760
1.8184209 1.5774189 0.42142427 4290136320
1.8007653 1.5622023 0.41538155 4290005760
1.8199847 1.5789758 0.41735214 4290136320
1.8231728 1.5818422 0.41512769 4290136320
1.8263242 1.584677 0.41239926 4290136320
1.8360683 1.5932329 0.41065177 4290136320
1.8342558 1.5917611 0.40582496 4290136320
1.8374261 1.5946134 0.40162471 4290136320
1.8323901 1.590344 0.39517099 4290136320
1.8198054 1.5795218 0.38668615 4290136320
1.8170849 1.5772606 0.37989953 4290005760
1.8254294 1.5846044 0.37496677 4290136320
1.8437628 1.6006206 0.37155229 4290136320
1.8439143 1.6008538 0.36397508 4290136320
1.8541912 1.6098782 0.35793418 4290266880
1.8222296 1.5827762 0.29138035 4290005760
1.8371282 1.5958182 0.28301829 4290136320
1.8588159 1.6147596 0.27516732 4290136320
1.845874 1.6036186 0.26183194 4290136320
1.8125582 1.5747752 0.24560623 4290005760
1.8362091 1.5954247 0.23688431 4290136320
1.8422114 1.6007414 0.22542943 4290136320
1.8346895 1.5943067 0.21208131 4290136320
1.8105413 1.5734222 0.19679475 4290005760
1.8293878 1.5899013 0.18599901 4290005760
1.8401248 1.5993342 0.17396538 4290136320
1.8412402 1.6004052 0.16074657 4290136320
1.8236735 1.5852368 0.14584142 4290005760
1.8469336 1.6055577 0.13399793 4290136320
1.84233 1.6016573 0.11984845 4290136320
1.8513361 1.609589 0.10641984 4290136320
1.7007742 1.4787812 0.08478377 4289483520
1.5956715 1.3874851 0.067278497 4288961280
1.6502715 1.4350525 0.056819089 4289222400
2.4906821 2.1659989 0.066400506 4293008640
2.7257953 2.3706133 0.051407937 4294053120
2.7315164 2.3757398 0.030153902 4294053120
2.6731427 2.3251166 0.0085711237 4293792000
2.6222248 2.2809727 -0.012141866 4293530880
2.6479895 2.3035307 -0.033000726 4293661440
2.6479626 2.3036535 -0.05370529 4293661440
2.6179516 2.2776892 -0.073510706 4293530880
2.6288226 2.2872922 -0.094236262 4293530880
2.6534116 2.3088331 -0.11562742 4293661440
2.6506448 2.306572 -0.13587141 4293661440
2.6153882 2.2760363 -0.15401386 4293530880
2.6407511 2.2982543 -0.17548312 4293661440
2.6494687 2.3059874 -0.19591407 4293661440
2.6389577 2.2969849 -0.21469867 4293661440
2.5368137 2.2082174 -0.2249694 4293139200
2.5536137 2.2229822 -0.24491711 4293269760
2.5525208 2.2221718 -0.26299554 4293269760
2.5050011 2.1809406 -0.27566224 4293008640
2.5541623 2.2238829 -0.29867187 4293269760
2.4752457 2.1553078 -0.30618188 4293008640
2.5476615 2.2185042 -0.33202043 4293269760
2.5531023 2.2233829 -0.34927908 4293269760
2.5810013 2.2478218 -0.36943531 4293400320
2.5618658 2.231298 -0.3825075 4293400320
2.476269 2.1568828 -0.38459837 4293008640
2.6197765 2.2820258 -0.4221656 4293661440
2.6041324 2.2685423 -0.43436188 4293530880
2.5523331 2.2235594 -0.43966812 4293400320
2.5330148 2.2068696 -0.44968933 4293269760
2.4138703 2.1031992 -0.44077432 4292747520
2.20064 1.9175339 -0.41253889 4291833600
2.1789589 1.8987623 -0.41860539 4291703040
2.1797678 1.8995878 -0.42841828 4291703040
2.1783297 1.8984549 -0.43729761 4291703040
2.1810219 1.9009216 -0.44650975 4291703040
2.1725817 1.8936855 -0.45290923 4291703040
2.1615834 1.8842186 -0.45818403 4291572480
2.1532524 1.8770757 -0.46342999 4291572480
2.1334057 1.8598924 -0.46557486 4291572480
2.1307986 1.8577373 -0.47087574 4291441920
2.0911572 1.8232918 -0.4673399 4291311360
2.0372477 1.7764002 -0.45985225 4291050240
2.0441182 1.7825041 -0.46544155 4291180800
2.0540202 1.7912524 -0.47120893 4291180800
2.0610144 1.797466 -0.47578624 4291180800
2.0710444 1.8063281 -0.4805302 4291311360
2.067039 1.802949 -0.48146373 4291180800
2.0668173 1.8028697 -0.48271134 4291180800
2.0636992 1.8002641 -0.48271611 4291180800
2.0524914 1.7906004 -0.48026118 4291180800
2.0487773 1.7874737 -0.47899696 4291180800
2.0347455 1.7753441 -0.47476676 4291050240
2.0843854 1.818771 -0.48480693 4291311360
2.1242199 1.8536468 -0.49192196 4291441920
2.1397061 1.8672789 -0.49276295 4291572480
2.1429248 1.8702064 -0.49017796 4291572480
2.1490881 1.8757043 -0.48767808 4291572480
2.1607308 1.8859856 -0.48581737 4291703040
2.1750495 1.8986039 -0.48393467 4291703040
2.1756835 1.8992778 -0.4784092 4291703040
2.1804605 1.9035685 -0.47322398 4291703040
2.1793048 1.9026803 -0.46619269 4291703040
2.1968679 1.9181356 -0.46257108 4291833600
2.2155862 1.9346018 -0.45853233 4291833600
2.3143828 2.020997 -0.47009143 4292355840
2.4725442 2.1592457 -0.49214461 4293008640
2.5988376 2.2696803 -0.50610286 4293530880
2.5914738 2.2633927 -0.49294364 4293530880
2.5926881 2.2645967 -0.48088133 4293530880
2.5399129 2.2186408 -0.45851374 4293269760
2.5374103 2.2165952 -0.44497547 4293269760
2.5244582 2.2054205 -0.42918333 4293269760
2.5331714 2.2131729 -0.41661114 4293269760
2.466598 2.1551459 -0.39152139 4293008640
2.4752829 2.1628714 -0.37826815 4293008640
2.5293922 2.2102914 -0.37115261 4293269760
2.5343394 2.2147551 -0.35604873 4293269760
2.4967911 2.18208 -0.33478758 4293008640
2.5616891 2.2389398 -0.32670641 4293400320
2.6130793 2.2840002 -0.31577128 4293530880
2.6209378 2.2910142 -0.29882893 4293661440
2.6159723 2.2868187 -0.28007561 4293530880
2.6248403 2.2947164 -0.26246685 4293661440
2.6324365 2.3015029 -0.24432528 4293661440
2.6266835 2.2966189 -0.22466414 4293661440
2.5549526 2.2340431 -0.19968474 4293269760
2.5328603 2.2148662 -0.17906044 4293139200
2.6108911 2.2832451 -0.1648954 4293530880
2.5852771 2.260989 -0.14361118 4293400320
2.5165362 2.2010102 -0.12049659 4293139200
2.6080308 2.2811778 -0.10474373 4293530880
2.7219226 2.3809469 -0.088185519 4294053120
2.2537479 1.9715456 -0.055440158 4291964160
1.6190172 1.4163822 -0.027155723 4289091840
1.709686 1.4957979 -0.015264631 4289483520
1.5829322 1.3849891 -0.001699475 4288961280
1.6426166 1.4373012 0.011141316 4289222400
1.6696603 1.4610573 0.024430592 4289352960
1.8458617 1.6153468 0.041469377 4290136320
1.845058 1.6147459 0.0558617 4290136320
1.8385254 1.6091307 0.069963984 4290136320
1.8057506 1.5805455 0.082688428 4290005760
1.8413694 1.6118243 0.098476343 4290136320
1.8348714 1.6062381 0.11213026 4290136320
1.7717183 1.5510525 0.12167381 4289744640
1.5821981 1.3852247 0.12051026 4288961280
1.8295395 1.6018753 0.15290315 4290005760
1.8389196 1.6101902 0.16714366 4290136320
1.8186146 1.5925117 0.17842631 4290005760
1.6602554 1.4539329 0.174697 4289352960
1.8532175 1.6230181 0.20796773 4290136320
1.8501587 1.620442 0.22034225 4290136320
1.8216203 1.5955482 0.22922674 4290005760
1.6597856 1.4538901 0.21982385 4289352960
1.598536 1.4003272 0.22203532 4289091840
1.8000512 1.5769557 0.2613734 4290005760
1.7476335 1.5311316 0.26449752 4289744640
1.7287606 1.5146927 0.27196899 4289614080
1.7743852 1.5547663 0.28943506 4289875200
1.6659197 1.4598182 0.28109711 4289352960
1.8366816 1.6095562 0.31987572 4290136320
1.8332047 1.6066111 0.32885659 4290136320
1.8256252 1.6000698 0.33667326 4290136320
1.7944187 1.5728185 0.33956254 4290005760
1.686792 1.4785769 0.32695884 4289483520
1.6596441 1.4548723 0.3289676 4289352960
1.7933223 1.5721564 0.36291492 4290005760
1.7906449 1.5699087 0.36939678 4290005760
1.7546504 1.5384488 0.36843795 4289875200
1.7717155 1.5535097 0.37812221 4289875200
1.7215016 1.5095758 0.3729094 4289614080
1.7275229 1.5149518 0.37930402 4289744640
1.7306192 1.5177634 0.38464287 4289744640
1.7300555 1.5173651 0.38872859 4289744640
1.7228732 1.5111616 0.39085808 4289744640
1.7224158 1.5108562 0.39404145 4289744640
1.7183099 1.5073501 0.39592296 4289614080
1.7105594 1.5006462 0.39648497 4289614080
1.7102735 1.5004905 0.39830282 4289614080
1.7174499 1.5068822 0.40139824 4289614080
1.7172816 1.50683 0.40231311 4289614080
1.7238357 1.5126767 0.40433347 4289744640
1.7208273 1.5101326 0.40363917 4289744640
1.7238014 1.5128384 0.40387449 4289744640
1.7238753 1.5129991 0.40295643 4289744640
1.7277106 1.5164613 0.40244266 4289744640
1.7212405 1.5108781 0.39906138 4289744640
1.7177887 1.5079436 0.39592493 4289614080
1.7069858 1.4985554 0.39065388 4289614080
1.7604568 1.5455953 0.39955246 4289875200
1.7393936 1.5271995 0.39101315 4289744640
1.7794262 1.5624475 0.39570141 4290005760
1.7801923 1.5632192 0.39109871 4290005760
1.8002084 1.5808959 0.39021048 4290005760
1.7952231 1.5766178 0.3834081 4290005760
1.7971475 1.5784079 0.37764746 4290005760
1.7983474 1.5795618 0.37128788 4290005760
1.8202935 1.5989393 0.36869386 4290136320
1.8271253 1.605042 0.36250082 4290136320
1.8212516 1.5999837 0.35336906 4290136320
1.7896556 1.5728694 0.28763211 4289875200
1.8146352 1.5949242 0.28097993 4290005760
1.8351939 1.6130959 0.2730571 4290136320
1.8223103 1.6018729 0.25980896 4290136320
1.7936369 1.576768 0.24428304 4290005760
1.7986635 1.581287 0.23322527 4290005760
1.8051832 1.5871192 0.22202611 4290005760
1.7868316 1.5710841 0.20760375 4289875200
1.7610172 1.5484847 0.19238915 4289744640
1.8046701 1.5869699 0.18442285 4290005760
1.8127463 1.5941727 0.17225219 4290005760
1.8121406 1.5937411 0.15901405 4290005760
1.791828 1.5759764 0.14402656 4289875200
1.8219842 1.6026013 0.13286299 4290005760
1.8187182 1.5998299 0.11891678 4290005760
1.8229783 1.6036789 0.10532507 4290005760
1.6951307 1.4913055 0.084934138 4289483520
1.6271756 1.4316121 0.068957314 4289222400
1.6133633 1.4195497 0.055832148 4289091840
1.6606283 1.4612294 0.044497848 4289352960
1.8660295 1.6420712 0.035372768 4290266880
2.6052072 2.2926788 0.028906511 4293530880
2.5217879 2.2194076 0.0081271464 4293139200
2.5435393 2.2386925 -0.011837717 4293269760
2.4893284 2.1911178 -0.031181971 4293008640
2.5476642 2.2426071 -0.051935185 4293269760
2.5578265 2.2516952 -0.072189569 4293269760
2.5148547 2.2140067 -0.090611689 4293139200
2.564379 2.2577496 -0.11231899 4293400320
2.5205059 2.2192631 -0.12986112 4293139200
2.5188136 2.2179134 -0.14908524 4293139200
2.5473433 2.2431769 -0.17014159 4293269760
2.5505431 2.2461369 -0.18956353 4293269760
2.5029163 2.2043343 -0.20467211 4293139200
2.4984474 2.2005377 -0.22270022 4293139200
2.4972086 2.1995859 -0.24073233 4293139200
2.5285919 2.2273698 -0.2618627 4293269760
2.4526188 2.1605842 -0.2712785 4292878080
2.4392388 2.1489334 -0.28669247 4292878080
2.3964238 2.1113477 -0.29794842 4292616960
2.4557679 2.1637692 -0.32168201 4292878080
2.4656987 2.1726568 -0.33904776 4293008640
2.503937 2.2064905 -0.36023861 4293139200
2.4650526 2.1723628 -0.36993599 4293008640
2.425926 2.1380172 -0.37870768 4292747520
2.5383849 2.2372713 -0.41114324 4293269760
2.5369987 2.236191 -0.4253301 4293269760
2.4614494 2.1697371 -0.42618278 4293008640
2.4422708 2.1529677 -0.43579897 4292878080
2.4231257 2.1362257 -0.44472954 4292878080
2.1641784 1.9080589 -0.40778077 4291703040
2.171571 1.9146978 -0.41932207 4291703040
2.1515741 1.8971865 -0.42504233 4291572480
2.1468089 1.8931046 -0.4331767 4291572480
2.0921404 1.8450134 -0.43050691 4291311360
2.0948913 1.8475565 -0.43895003 4291311360
2.0379205 1.7974257 -0.43418404 4291180800
2.040782 1.8000635 -0.44147342 4291180800
2.0429509 1.8020906 -0.44811854 4291180800
2.0636642 1.8204772 -0.45837614 4291311360
2.0629754 1.8199849 -0.46340361 4291311360
2.0763929 1.8319379 -0.47108945 4291311360
2.0142152 1.7771931 -0.46098259 4291050240
2.017421 1.7801343 -0.46518424 4291050240
2.0280781 1.7896513 -0.47058198 4291050240
2.0306745 1.792056 -0.47357798 4291050240
2.0237393 1.7860487 -0.47379392 4291050240
2.0272133 1.789228 -0.47588834 4291050240
2.0233743 1.7859528 -0.47570965 4291050240
2.0159156 1.7794819 -0.47412077 4291050240
2.0122199 1.7763321 -0.47286162 4291050240
1.9982581 1.7641188 -0.46864346 4290919680
2.0562558 1.8154356 -0.48071626 4291180800
2.046128 1.8066084 -0.4762671 4291180800
2.0390215 1.8004477 -0.47198355 4291180800
2.039367 1.8008668 -0.46888196 4291180800
2.0368226 1.7987339 -0.4645727 4291180800
2.0969326 1.8519349 -0.47389099 4291441920
2.0974834 1.8525385 -0.4690702 4291441920
2.098094 1.8531952 -0.46371445 4291441920
2.1412017 1.891391 -0.46708739 4291572480
2.1607833 1.9088088 -0.46460178 4291703040
2.1726799 1.9194397 -0.45982501 4291703040
2.1687348 1.9160757 -0.45113882 4291703040
2.2314548 1.9716136 -0.45557281 4291964160
2.3128383 2.0436497 -0.46271828 4292355840
2.4841082 2.1951249 -0.48624262 4293139200
2.4646983 2.1781108 -0.47123465 4293008640
2.4695628 2.1825478 -0.46039531 4293008640
2.4596047 2.1738849 -0.44629514 4293008640
2.4429681 2.1593175 -0.43061247 4292878080
2.4300416 2.1480277 -0.41525218 4292878080
2.4423871 2.1590772 -0.40374252 4292878080
2.436146 2.1536963 -0.38867292 4292878080
2.4410555 2.1581736 -0.37495282 4292878080
2.428086 2.1468427 -0.35811669 4292878080
2.4180655 2.1381183 -0.34145778 4292747520
2.4445331 2.1616583 -0.3294636 4292878080
2.4841914 2.1968668 -0.31844968 4293008640
2.4855659 2.1982214 -0.3019048 4293008640
2.4758875 2.1898005 -0.2837407 4293008640
2.443995 2.1617301 -0.26300707 4292878080
2.4591267 2.1752517 -0.24715966 4292878080
2.5223048 2.2312779 -0.23530617 4293269760
2.5119479 2.2222567 -0.21595438 4293139200
2.4682918 2.1837735 -0.19390279 4293008640
2.4812317 2.1953609 -0.17631182 4293008640
2.4714603 2.1868539 -0.15689145 4293008640
2.2192242 1.9637887 -0.12391056 4291833600
-4.5403504 -4.0180049 0.21851793 4278190335
-4.5410976 -4.0189204 0.18331686 4278190335
1.8331832 1.6224896 -0.059697174 4290136320
1.7148449 1.5178484 -0.04240045 4289614080
1.6312473 1.4439455 -0.027501497 4289222400
1.613325 1.4281716 -0.014478335 4289091840
1.5680974 1.3882225 -0.0016922029 4288961280
1.5838333 1.4022419 0.010797839 4288961280
1.6573763 1.467446 0.024375537 4289352960
1.8184531 1.6101658 0.041063681 4290005760
1.8243917 1.6155264 0.055520039 4290005760
1.8233275 1.6146863 0.069742456 4290005760
1.7673324 1.5651977 0.081345409 4289875200
1.8139955 1.6066254 0.097511336 4290005760
1.7830352 1.5793043 0.10952296 4289875200
1.6332041 1.4466846 0.11273821 4289222400
1.5020475 1.330591 0.114994 4288569600
1.6595013 1.4701648 0.13940577 4289352960
1.7947505 1.5900836 0.16396828 4290005760
1.7946711 1.5901139 0.17698313 4290005760
1.63758 1.45102 0.17319766 4289222400
1.8228481 1.6152837 0.20561232 4290136320
1.8257778 1.6179823 0.2185576 4290136320
1.7947793 1.5906125 0.22701149 4290005760
1.6795849 1.4886162 0.22359097 4289483520
1.5680079 1.3898135 0.21891601 4288961280
1.6647069 1.4756167 0.24296521 4289352960
1.6749667 1.4848051 0.25480464 4289483520
1.6562244 1.4682835 0.26189896 4289352960
1.6441808 1.4576988 0.26957709 4289352960
1.6507056 1.4635762 0.27996406 4289352960
1.8188338 1.612747 0.31839842 4290136320
1.8099343 1.6049573 0.32635403 4290136320
1.7966195 1.5932513 0.33303043 4290005760
1.757933 1.5590426 0.33437148 4289875200
1.6744473 1.4850965 0.32623765 4289483520
1.6370806 1.4520471 0.32616654 4289352960
1.7552884 1.5569928 0.35704774 4289875200
1.7496806 1.5521168 0.36280552 4289875200
1.7064953 1.5139035 0.36017242 4289614080
1.7234893 1.5290762 0.36972475 4289744640
1.7294344 1.5344479 0.37655801 4289744640
1.6766007 1.4876651 0.37002009 4289483520
1.6826465 1.4931241 0.37590772 4289483520
1.6894729 1.4992765 0.38156629 4289614080
1.6889719 1.4989266 0.38514179 4289614080
1.6958939 1.5051651 0.38997358 4289614080
1.6984448 1.5075246 0.39336288 4289614080
1.7017872 1.5105869 0.39648497 4289614080
1.6948725 1.5045441 0.39675084 4289614080
1.6975931 1.5070546 0.39880276 4289614080
1.7011086 1.5102711 0.40057883 4289614080
1.6906911 1.5011172 0.39860389 4289614080
1.6972716 1.5070553 0.40016669 4289614080
1.6869743 1.4980068 0.39728427 4289614080
1.6870461 1.4981652 0.3963812 4289614080
1.6798114 1.491835 0.39330328 4289483520
1.6770525 1.4894791 0.39082196 4289483520
1.722748 1.5301605 0.39911604 4289744640
1.7083185 1.5174401 0.39297551 4289614080
1.7443311 1.5495268 0.39793482 4289875200
1.7458349 1.5509609 0.39448583 4289875200
1.7463069 1.5514784 0.39034 4289875200
1.7590443 1.5628935 0.38844654 4289875200
1.7849902 1.5860466 0.38890821 4290005760
1.76976 1.5726134 0.3799203 4289875200
1.7755986 1.5779014 0.37504473 4290005760
1.7803091 1.5821875 0.36946064 4290005760
1.8035246 1.6029209 0.36718273 4290136320
1.805075 1.6044004 0.35997453 4290136320
1.8048384 1.6042916 0.35199207 4290136320
1.77319 1.5765064 0.28643358 4289875200
1.7964038 1.5972463 0.2795696 4290005760
1.8078284 1.607506 0.27035093 4290005760
1.7958287 1.5969371 0.25733259 4290005760
1.7742536 1.5778512 0.24286859 4289875200
1.7658761 1.5705004 0.23013432 4289875200
1.6424317 1.4608063 0.20303176 4289352960
1.6497742 1.4674296 0.1926496 4289352960
1.6721059 1.4873872 0.18359913 4289483520
1.7756237 1.5795692 0.18237074 4289875200
1.7961782 1.5979553 0.17153846 4290005760
1.792538 1.5948178 0.15808578 4290005760
1.7685956 1.5736158 0.14287338 4289875200
1.7985945 1.6004087 0.13181473 4290005760
1.7990716 1.6009344 0.11821997 4290005760
1.8022411 1.6038563 0.10464524 4290005760
1.6166528 1.4387881 0.081403159 4289091840
1.5905713 1.4156655 0.067737535 4289091840
1.6014657 1.4254521 0.055690117 4289091840
1.5139575 1.347647 0.040761825 4288700160
1.7165741 1.5281025 0.032690573 4289614080
1.7325952 1.5424621 0.01930658 4289614080
1.6949873 1.5090767 0.0054744286 4289483520
1.656098 1.4745462 -0.0077630086 4289352960
1.7145098 1.5266511 -0.02160321 4289614080
1.7180705 1.5299184 -0.03522006 4289614080
1.7745818 1.580341 -0.050358471 4289875200
1.7712955 1.5775142 -0.064165793 4289875200
1.8490776 1.646891 -0.081422925 4290136320
1.8525997 1.6501324 -0.09595757 4290266880
1.8719172 1.6674441 -0.11138349 4290266880
1.9728879 1.7574967 -0.13246854 4290789120
2.0470772 1.8237017 -0.15294564 4291050240
2.1357815 1.9028472 -0.17556767 4291441920
2.2090788 1.968275 -0.1979395 4291833600
2.1594212 1.9241519 -0.20925888 4291572480
2.1979456 1.958603 -0.22881024 4291833600
2.303812 2.053071 -0.2561492 4292225280
2.3442719 2.0892594 -0.27696693 4292486400
2.2972386 2.047472 -0.28710395 4292225280
2.250679 2.0061014 -0.29635105 4292094720
2.3453074 2.090579 -0.32416946 4292486400
2.3581305 2.1021423 -0.34102345 4292486400
2.4131837 2.1513553 -0.36403117 4292747520
2.3763304 2.1186345 -0.37288898 4292616960
2.4084449 2.1474023 -0.39211819 4292747520
2.3644016 2.1082659 -0.39844662 4292616960
2.3919768 2.1329889 -0.41629726 4292747520
2.3290131 2.0769739 -0.41773847 4292486400
2.2774284 2.0310998 -0.42014918 4292225280
2.100457 1.8733882 -0.39781839 4291441920
2.0993671 1.8725346 -0.40747237 4291441920
2.0416868 1.8212017 -0.40541488 4291180800
2.0480611 1.8270032 -0.41538233 4291180800
2.0611005 1.8387516 -0.42630515 4291311360
2.077852 1.8538132 -0.4376218 4291311360
2.0015249 1.7858288 -0.42862457 4291050240
2.0110106 1.7944058 -0.43727079 4291050240
2.0175929 1.8003929 -0.44483128 4291050240
2.0345263 1.8156182 -0.45422569 4291180800
1.983759 1.7704252 -0.44789711 4290919680
2.0044837 1.7890342 -0.45710814 4291050240
2.0179043 1.8011264 -0.46419489 4291050240
1.9588687 1.7485434 -0.45399749 4290789120
1.9871205 1.7738739 -0.4634394 4290919680
1.9933829 1.7795768 -0.46725985 4291050240
1.9967724 1.7827154 -0.46987087 4291050240
1.986272 1.7734528 -0.46865979 4290919680
1.9927386 1.7793391 -0.47089899 4291050240
1.9823799 1.7702016 -0.46861205 4290919680
1.9574002 1.7480061 -0.46232399 4290789120
2.0093572 1.7945184 -0.47364658 4291050240
1.988189 1.7757257 -0.46716872 4290919680
1.9744328 1.7635511 -0.46191555 4290919680
2.0313411 1.814496 -0.47259411 4291180800
2.0140464 1.7991613 -0.4654102 4291050240
2.0004854 1.7871602 -0.45859769 4291050240
1.9862455 1.7745509 -0.45114961 4290919680
2.0480754 1.8299067 -0.4603377 4291180800
2.0346937 1.8180655 -0.45197403 4291180800
2.035341 1.8187587 -0.44623518 4291180800
2.0777776 1.8567971 -0.44900593 4291311360
2.0822227 1.8608872 -0.44289875 4291311360
2.0867167 1.8650211 -0.43625915 4291441920
2.1192615 1.8942283 -0.43483889 4291572480
2.1949153 1.9619727 -0.44132632 4291833600
2.2172792 1.9820884 -0.4361842 4291964160
2.2035317 1.9699239 -0.42340499 4291964160
2.2082546 1.9742707 -0.41373193 4291964160
2.1775446 1.946938 -0.39708057 4291833600
2.153471 1.9255356 -0.38146779 4291703040
2.0872371 1.8664302 -0.35843885 4291311360
2.1060152 1.8833407 -0.34985742 4291441920
2.0789225 1.8592303 -0.33331364 4291311360
2.0159738 1.8030477 -0.31117967 4291050240
2.0275984 1.8135593 -0.30051276 4291050240
1.9966902 1.7860267 -0.28332993 4290919680
1.9721264 1.764166 -0.26708576 4290789120
1.9554962 1.7494001 -0.25188825 4290789120
1.8811117 1.6829617 -0.2295853 4290397440
1.7863474 1.5982805 -0.20569785 4290005760
1.7214332 1.5402979 -0.18613032 4289614080
1.7042603 1.5250285 -0.17209858 4289614080
1.6766295 1.5003983 -0.15714478 4289483520
1.6630679 1.4883562 -0.14363749 4289352960
1.6918546 1.5142145 -0.13351573 4289483520
1.6545972 1.4809626 -0.11810231 4289352960
1.642907 1.4705923 -0.10475472 4289352960
1.6968791 1.5189996 -0.095153749 4289483520
1.6341302 1.4629209 -0.078975037 4289222400
1.6796176 1.5037377 -0.068072401 4289483520
1.6845766 1.5082726 -0.055059206 4289483520
1.666864 1.4925083 -0.041345488 4289352960
1.6226901 1.4530468 -0.027418923 4289222400
1.6349227 1.4640931 -0.014667516 4289222400
1.5551304 1.3927261 -0.0016102477 4288830720
1.5297399 1.3700738 0.010558357 4288830720
1.5726919 1.4086318 0.02332706 4288961280
1.7950412 1.6078876 0.040832747 4290005760
1.7972273 1.6099476 0.055064153 4290005760
1.7994767 1.6120645 0.06927377 4290005760
1.7610952 1.57778 0.081562832 4289875200
1.7899214 1.6037071 0.096800968 4290005760
1.78276 1.5973917 0.1101575 4289875200
1.6313676 1.4618331 0.11327101 4289222400
1.5127987 1.3556719 0.11648689 4288700160
1.74525 1.5640785 0.14744805 4289744640
1.7640444 1.5810218 0.16207705 4289875200
1.7532977 1.5714893 0.1738762 4289744640
1.5710608 1.4082385 0.16709124 4288961280
1.8069414 1.6197752 0.20495084 4290005760
1.7993112 1.6130373 0.21658015 4290005760
1.7621151 1.5797919 0.22410633 4289875200
1.5821115 1.4185026 0.21176894 4289091840
1.479308 1.3264141 0.20765933 4288569600
1.7851113 1.6007122 0.26195499 4290005760
1.7752362 1.5919578 0.27152166 4289875200
1.7331983 1.5543581 0.27555147 4289744640
1.6217518 1.4545032 0.26733193 4289222400
1.5237945 1.3667345 0.25982785 4288830720
1.7746133 1.5918015 0.31232169 4290005760
1.7704138 1.588135 0.320934 4289875200
1.7487977 1.5688436 0.32589418 4289875200
1.656443 1.4860862 0.31674328 4289483520
1.6045005 1.4395769 0.31426892 4289222400
1.6000131 1.4356414 0.32046968 4289222400
1.7643338 1.5831813 0.3607845 4289875200
1.7635045 1.5825372 0.36760074 4289875200
1.7608588 1.5802628 0.37360278 4289875200
1.7557683 1.575794 0.37862819 4289875200
1.7378005 1.5597665 0.38036379 4289875200
1.7314724 1.5541849 0.38413018 4289744640
1.7206964 1.54461 0.38641644 4289744640
1.7377449 1.5600123 0.39451507 4289875200
1.7185465 1.5428751 0.39392555 4289744640
1.7290895 1.5524384 0.39967269 4289744640
1.6822188 1.5104517 0.39162531 4289614080
1.6818805 1.5102433 0.39387536 4289614080
1.6889277 1.5166671 0.39740193 4289614080
1.6887028 1.516561 0.39876011 4289614080
1.6922003 1.5197982 0.40053222 4289614080
1.6811032 1.509927 0.39837965 4289614080
1.7165008 1.5418177 0.4067755 4289744640
1.7238399 1.5485078 0.40804371 4289744640
1.7165864 1.5420895 0.40538174 4289744640
1.7287874 1.5531484 0.40683335 4289744640
1.7310658 1.5552936 0.4054611 4289875200
1.7413707 1.5646509 0.40547797 4289875200
1.7413193 1.5647037 0.40259549 4289875200
1.7489319 1.5716435 0.40100041 4289875200
1.7622006 1.5836672 0.40019107 4290005760
1.7575511 1.5795887 0.39482901 4289875200
1.766872 1.5880661 0.39213246 4290005760
1.7605339 1.5824693 0.38549903 4289875200
1.7512432 1.5742179 0.3778213 4289875200
1.7388827 1.5632055 0.36911723 4289875200
1.7469177 1.570528 0.36432979 4289875200
1.7569902 1.5796832 0.35947809 4289875200
1.7720098 1.5932878 0.35512286 4290005760
1.7628906 1.5851885 0.34550047 4289875200
1.7462571 1.5714649 0.28360444 4289875200
1.7674271 1.5906163 0.27654487 4289875200
1.785377 1.6068722 0.2684361 4290005760
1.7755567 1.5981348 0.25580397 4290005760
1.7485117 1.5738915 0.2406411 4289875200
1.7557471 1.5805043 0.23005515 4289875200
1.7599738 1.5844091 0.21874359 4289875200
1.7489392 1.5745748 0.20534065 4289875200
1.7268003 1.5547413 0.19063836 4289744640
1.7484587 1.5743412 0.18056205 4289744640
1.7613333 1.5860338 0.16913243 4289875200
1.7651182 1.5895425 0.1565233 4289875200
1.752424 1.5782106 0.14234813 4289875200
1.7748398 1.5984989 0.13079482 4289875200
1.7753099 1.5990235 0.11730886 4289875200
1.7743529 1.5982624 0.10360434 4289875200
1.6295021 1.4678795 0.082515039 4289222400
1.5889276 1.43142 0.068055727 4289091840
1.6196146 1.4591571 0.056650124 4289222400
1.6339004 1.4721206 0.044255212 4289222400
1.7091079 1.5399787 0.032753415 4289614080
1.694316 1.5267472 0.019012507 4289483520
1.6613668 1.4971513 0.0054261964 4289352960
1.6875832 1.5208724 -0.0079200128 4289483520
1.6406753 1.4786917 -0.020750793 4289352960
1.6375386 1.4759579 -0.033715505 4289222400
1.6833588 1.5173527 -0.047990542 4289483520
1.6548588 1.4917576 -0.060233805 4289352960
1.6545234 1.4915494 -0.073210411 4289352960
1.6897581 1.5234096 -0.087954849 4289483520
1.6838446 1.5181742 -0.10069214 4289483520
1.6954806 1.528762 -0.11441407 4289614080
1.694927 1.5283593 -0.12727518 4289614080
1.6614429 1.4982605 -0.13726954 4289352960
1.6674193 1.503745 -0.15016775 4289483520
1.739655 1.568989 -0.16944486 4289744640
1.7492737 1.5777638 -0.18303835 4289875200
1.7223178 1.5535489 -0.19248259 4289744640
1.7244085 1.5555331 -0.20478494 4289744640
1.6424369 1.4816827 -0.20633118 4289352960
1.7887949 1.6138177 -0.23675619 4290005760
1.8159379 1.6384091 -0.25230488 4290136320
1.878464 1.6949296 -0.27307114 4290397440
1.8476223 1.6672066 -0.28017014 4290266880
-4.4734979 -4.0369272 0.70564157 4278190335
1.9105716 1.7242268 -0.31268808 4290528000
1.9308872 1.7426713 -0.32709739 4290658560
1.9087075 1.7227622 -0.33393392 4290528000
1.9206486 1.7336495 -0.34630463 4290658560
1.8558315 1.675249 -0.34417427 4290397440
1.8637438 1.6824976 -0.35484728 4290397440
1.8767334 1.694331 -0.36618426 4290397440
1.8860615 1.7028601 -0.37649295 4290528000
1.9064152 1.7213455 -0.38870138 4290658560
1.8656338 1.6846294 -0.38792196 4290397440
1.9036406 1.7190573 -0.40305927 4290658560
1.8814998 1.6991707 -0.40506333 4290528000
1.8751251 1.6935207 -0.40989456 4290528000
1.9132071 1.7280236 -0.42406526 4290658560
1.8583326 1.6785666 -0.41710362 4290397440
1.8677431 1.6871734 -0.42395702 4290397440
1.8431847 1.6650944 -0.42257509 4290397440
1.8704687 1.6898489 -0.43258572 4290528000
1.871249 1.6906605 -0.43601856 4290528000
1.8708547 1.6904111 -0.43866962 4290528000
1.8252072 1.6492704 -0.43014234 4290266880
1.877563 1.6966867 -0.44420183 4290528000
1.8773594 1.6966099 -0.44535464 4290528000
1.8699152 1.6899891 -0.4442656 4290528000
1.8420808 1.6649381 -0.43780679 4290397440
1.8788327 1.6982629 -0.44617593 4290528000
1.8335944 1.6574771 -0.43456617 4290266880
1.8722913 1.692564 -0.44233277 4290528000
1.8792707 1.6989808 -0.44205222 4290528000
1.877346 1.6973479 -0.43915552 4290528000
1.8286873 1.653459 -0.42489257 4290266880
1.8521883 1.6748139 -0.42693302 4290397440
1.8848532 1.7044582 -0.43047547 4290528000
1.8429208 1.6666442 -0.41651028 4290397440
1.886891 1.7065164 -0.42145884 4290528000
1.8735833 1.6945878 -0.41304684 4290528000
1.8529925 1.6760701 -0.40265426 4290397440
1.8463475 1.6701649 -0.39491403 4290397440
1.8470649 1.6709194 -0.38831279 4290397440
1.8338919 1.6591074 -0.37839282 4290266880
1.8310072 1.6566024 -0.37022418 4290266880
1.8178775 1.6448271 -0.35962883 4290136320
1.8187065 1.6456811 -0.35143718 4290136320
1.8056041 1.6339284 -0.3402119 4290136320
1.7991178 1.6281615 -0.32994184 4290136320
1.7683804 1.600446 -0.31504351 4290005760
1.7479165 1.5820253 -0.30189118 4289875200
1.7458299 1.5802366 -0.29169518 4289875200
1.735643 1.5711151 -0.27988848 4289744640
1.732806 1.5686461 -0.26902914 4289744640
1.7233256 1.5601623 -0.25691271 4289744640
1.7027651 1.5416459 -0.24304657 4289614080
1.7175702 1.5551482 -0.23399182 4289744640
1.6939988 1.5339028 -0.21950947 4289614080
