# .PCD v0.7 - Point Cloud Data file format
VERSION 0.7
FIELDS x y z rgba
SIZE 4 4 4 4
TYPE F F F U
COUNT 1 1 1 1
WIDTH 1078
HEIGHT 1
VIEWPOINT 0 0 0 1 0 0 0
POINTS 1078
DATA ascii
2.7072351 -0.79938358 0.33410367 4291441920
2.4392617 -0.7201739 0.31211117 4290528000
2.2384806 -0.66081834 0.29626533 4289744640
2.4899485 -0.73496878 0.34012672 4290658560
2.4546204 -0.72445697 0.34535122 4290528000
2.5179994 -0.74307668 0.36417669 4290789120
2.5123074 -0.74131113 0.37282661 4290789120
2.5003219 -0.73768914 0.38005319 4290789120
2.6357644 -0.77755982 0.4096761 4291180800
2.8277829 -0.83410931 0.44871187 4291964160
2.8958962 -0.85410184 0.46840435 4292225280
2.8970966 -0.85435688 0.47694728 4292225280
2.8776093 -0.84851176 0.4814854 4292094720
2.9087365 -0.85759091 0.49396133 4292225280
2.9304504 -0.86389279 0.50439441 4292355840
2.9427669 -0.86742318 0.51270074 4292355840
2.8882926 -0.85126746 0.50869709 4292225280
2.9102376 -0.85763592 0.51749426 4292225280
2.9190261 -0.86012626 0.52339911 4292225280
2.9231784 -0.86124992 0.52788013 4292355840
2.9179749 -0.85961723 0.53005469 4292225280
2.9223201 -0.86079752 0.53334206 4292355840
2.9305434 -0.86311978 0.53672218 4292355840
2.9218626 -0.8604632 0.5363794 4292355840
2.9170637 -0.85895044 0.5361163 4292225280
2.9218152 -0.86024976 0.53697938 4292355840
2.9124985 -0.85740733 0.53462994 4292225280
2.8947797 -0.85209227 0.53012168 4292225280
2.8724332 -0.84541643 0.5241676 4292094720
2.9311705 -0.86260396 0.53236037 4292355840
2.9042938 -0.8545953 0.5243597 4292225280
2.8822289 -0.84800428 0.51667255 4292094720
2.9145079 -0.85740191 0.51810443 4292225280
2.9034662 -0.85405451 0.51120222 4292225280
2.8504238 -0.83835477 0.4964301 4291964160
2.7632046 -0.81260794 0.4754141 4291703040
2.6733031 -0.78607833 0.45377666 4291441920
2.5892305 -0.76126856 0.43302149 4291050240
2.5481513 -0.74910372 0.4192777 4290919680
2.5264988 -0.74265212 0.4084205 4290919680
2.4773691 -0.72812611 0.39286536 4290658560
2.4740858 -0.72707671 0.38429165 4290658560
2.5015984 -0.73507667 0.37997785 4290789120
2.9322789 -0.86073595 0.36892599 4292225280
2.9688115 -0.87135834 0.35984841 4292355840
2.9760096 -0.87336951 0.34661064 4292355840
2.990392 -0.87748826 0.33371913 4292486400
2.9586048 -0.86805981 0.31539315 4292355840
2.9600527 -0.86838359 0.30041191 4292355840
2.9858451 -0.87584841 0.28742719 4292355840
2.968492 -0.87065685 0.26993006 4292355840
2.933104 -0.86017752 0.25078094 4292225280
2.9472668 -0.86423039 0.23570734 4292225280
2.9756629 -0.87245554 0.22127654 4292355840
2.944803 -0.863307 0.20221412 4292225280
2.6661692 -0.78153092 0.16770037 4291311360
2.8843467 -0.84538662 0.16458727 4291964160
2.7492619 -0.80570024 0.14066106 4291572480
2.7438087 -0.80400854 0.12404425 4291572480
2.537334 -0.74341935 0.099477388 4290789120
2.414902 -0.70746541 0.080077842 4290397440
2.4210467 -0.70918292 0.065558404 4290397440
2.4038033 -0.70405 0.050403129 4290266880
2.4034309 -0.70385885 0.035655145 4290266880
2.4027367 -0.70357364 0.020870762 4290266880
2.3852668 -0.69837666 0.0060302839 4290266880
2.3316159 -0.68258888 -0.0084697828 4290005760
2.3913684 -0.69999999 -0.023409752 4290266880
2.3987057 -0.702066 -0.038224082 4290266880
2.4021976 -0.70300615 -0.053002138 4290266880
2.3833256 -0.69740188 -0.067135483 4290266880
2.4185507 -0.70762688 -0.082818665 4290397440
2.420301 -0.70805645 -0.097490311 4290397440
2.4256864 -0.70954919 -0.11224544 4290397440
2.3932323 -0.69997424 -0.1249671 4290266880
2.4111109 -0.70512122 -0.14009346 4290397440
2.4224415 -0.70835221 -0.15485802 4290397440
2.4093468 -0.70444101 -0.1678829 4290397440
2.4025288 -0.70236558 -0.18104765 4290397440
2.4241514 -0.70860422 -0.19623969 4290397440
2.4395065 -0.71300942 -0.21091457 4290528000
2.4342918 -0.7114023 -0.22363545 4290397440
2.393965 -0.69953549 -0.23264185 4290266880
2.4263835 -0.70892566 -0.24841499 4290397440
2.4299982 -0.70989895 -0.26115111 4290397440
2.426544 -0.70880711 -0.27283877 4290397440
2.4183009 -0.70631683 -0.28362706 4290397440
2.3807909 -0.69528002 -0.29044944 4290266880
2.4480181 -0.71482939 -0.30985516 4290528000
2.4536319 -0.71638501 -0.32144699 4290528000
2.4519169 -0.7158007 -0.3317343 4290528000
2.4458785 -0.71395451 -0.34102988 4290528000
2.4362307 -0.71105522 -0.34937283 4290528000
2.4091918 -0.70308131 -0.35468373 4290397440
2.4181776 -0.70562124 -0.36482415 4290397440
2.4205554 -0.70623255 -0.37359235 4290528000
2.4206901 -0.70618933 -0.3815957 4290528000
2.4351177 -0.71031529 -0.39145991 4290528000
2.4275732 -0.70803189 -0.39736483 4290528000
2.4315403 -0.70910603 -0.40468493 4290528000
2.4248192 -0.70706332 -0.40975264 4290528000
2.4102035 -0.70271927 -0.41296059 4290397440
2.3991141 -0.6994043 -0.41623566 4290397440
2.3988686 -0.69925094 -0.42088431 4290397440
2.3861904 -0.69547403 -0.42283937 4290397440
2.3640068 -0.68892783 -0.42256099 4290266880
2.3621294 -0.68830025 -0.42538264 4290266880
2.3065019 -0.67201233 -0.41796285 4290136320
2.3061795 -0.67183983 -0.42001346 4290136320
2.3059361 -0.67169029 -0.42158666 4290136320
2.3105004 -0.67294109 -0.42354745 4290136320
2.3019075 -0.67035997 -0.42260033 4290136320
2.3608873 -0.68745553 -0.43356475 4290266880
2.3467858 -0.68326938 -0.43060595 4290266880
2.3719809 -0.69052416 -0.43434626 4290266880
2.3964047 -0.69755268 -0.43741316 4290397440
2.4094999 -0.70128232 -0.43787563 4290397440
2.4160702 -0.7031123 -0.43662328 4290528000
2.421634 -0.70464891 -0.43466553 4290528000
2.4276071 -0.70630425 -0.4322587 4290528000
2.4328015 -0.70773268 -0.42919233 4290528000
2.4220517 -0.70452291 -0.42282492 4290528000
2.4301176 -0.70678627 -0.41925427 4290528000
2.4297473 -0.70659578 -0.41372609 4290528000
2.4129453 -0.70162737 -0.40496296 4290397440
2.4037921 -0.69888395 -0.39708084 4290397440
2.3977456 -0.69704425 -0.38929534 4290397440
2.4022102 -0.69826031 -0.38277224 4290397440
2.4313924 -0.70665997 -0.37964153 4290528000
2.4438672 -0.7102024 -0.37333193 4290528000
2.4277701 -0.70544177 -0.36224633 4290528000
2.3983207 -0.69680285 -0.3489227 4290397440
2.4047143 -0.6985786 -0.34050226 4290397440
2.4160047 -0.70177615 -0.33231887 4290397440
2.4358404 -0.70745486 -0.32480648 4290528000
2.4257827 -0.70445108 -0.31290248 4290397440
2.3868868 -0.69307441 -0.29714602 4290266880
2.4019716 -0.69737262 -0.28788191 4290397440
2.4257791 -0.70420218 -0.27915817 4290397440
2.4305544 -0.70550561 -0.26779631 4290397440
2.4324884 -0.70598418 -0.25579095 4290397440
2.3832104 -0.69160098 -0.23836058 4290266880
2.412812 -0.70010912 -0.22865409 4290397440
2.4161124 -0.70098442 -0.21603017 4290397440
2.4101613 -0.69917572 -0.20235647 4290397440
2.3875055 -0.69252217 -0.18721657 4290266880
2.4121842 -0.69959825 -0.17557032 4290397440
2.4178829 -0.70116872 -0.16217962 4290397440
2.4185355 -0.70127553 -0.14823757 4290397440
2.3768032 -0.68909395 -0.13177696 4290266880
2.4028716 -0.69657004 -0.11902259 4290266880
2.413363 -0.69952923 -0.10515121 4290397440
2.3236008 -0.67343187 -0.087275036 4290005760
2.4009733 -0.69577444 -0.075653665 4290266880
2.4123309 -0.69898355 -0.061333463 4290397440
2.4217267 -0.70162356 -0.0467709 4290397440
2.410105 -0.69817454 -0.031766091 4290397440
2.4230602 -0.70184493 -0.017042868 4290397440
2.4459946 -0.70840466 -0.0021509605 4290397440
2.6332679 -0.76255274 0.013892299 4291050240
2.6407168 -0.76461989 0.030170077 4291180800
2.7946885 -0.80910724 0.049079757 4291703040
2.8587298 -0.82755089 0.067693539 4291964160
2.6739724 -0.77397591 0.079608716 4291311360
2.6720493 -0.7733283 0.095743679 4291311360
2.9714844 -0.85988784 0.1243642 4292355840
2.9611859 -0.85680687 0.14162798 4292225280
2.9245033 -0.8460933 0.15719716 4292094720
2.7748499 -0.80270231 0.16542794 4291572480
2.977145 -0.86112046 0.19475622 4292355840
2.9539559 -0.8543126 0.21016197 4292225280
2.9205687 -0.84455723 0.22429089 4292094720
2.7574306 -0.79728782 0.22711281 4291572480
2.9907491 -0.8646481 0.26270875 4292355840
2.9933808 -0.86530703 0.27904397 4292355840
2.9021988 -0.83884996 0.28585911 4292094720
2.8781855 -0.83181119 0.29836887 4291964160
2.8296356 -0.81768364 0.30763489 4291833600
2.8200684 -0.81482303 0.32050467 4291833600
2.7314348 -0.78912055 0.32355821 4291572480
2.6842601 -0.77540022 0.33051491 4291311360
2.4387219 -0.70438874 0.31134251 4290528000
2.2842965 -0.65970749 0.30166051 4290005760
2.5061996 -0.72370809 0.34159935 4290789120
2.504576 -0.72315401 0.35162014 4290789120
2.4864872 -0.71784651 0.35885328 4290658560
2.5718286 -0.74239701 0.38085636 4291050240
2.5959229 -0.74926388 0.39376387 4291050240
2.6355007 -0.76059753 0.40879256 4291180800
2.8651202 -0.8267675 0.45371166 4292094720
2.8947649 -0.83522338 0.4672792 4292094720
2.9210904 -0.84271961 0.47994003 4292225280
2.8920734 -0.83424997 0.48295248 4292094720
2.927043 -0.84423769 0.49610141 4292225280
2.9487879 -0.85040921 0.50657201 4292355840
2.880851 -0.83071864 0.50095582 4292094720
2.9074931 -0.8383022 0.51111192 4292225280
2.9199982 -0.84180838 0.51825994 4292225280
2.9287992 -0.84424591 0.52418083 4292355840
2.9367425 -0.84643573 0.52935988 4292355840
2.9409928 -0.8475607 0.5332697 4292355840
2.9500735 -0.85007721 0.53744417 4292355840
2.8566971 -0.82307321 0.52227199 4292094720
2.8565209 -0.82292527 0.52346742 4292094720
2.9447968 -0.84825623 0.54027796 4292355840
2.9353592 -0.84543777 0.53854734 4292355840
2.926971 -0.84292221 0.53638023 4292355840
2.9082735 -0.8374387 0.53170574 4292225280
2.89062 -0.83225703 0.52661914 4292225280
2.8777947 -0.82846653 0.52181834 4292094720
2.9320037 -0.84397256 0.52851576 4292355840
2.9099033 -0.83751208 0.52081102 4292225280
2.8746233 -0.82726014 0.51022053 4292094720
2.8975737 -0.83376628 0.50938463 4292225280
2.878056 -0.82805222 0.50048858 4292094720
2.8287668 -0.81377488 0.48597461 4291964160
2.7339888 -0.78641629 0.46340385 4291572480
2.6619813 -0.76561326 0.44455415 4291311360
2.6113653 -0.75096673 0.42907929 4291180800
2.5764039 -0.740825 0.41591895 4291050240
2.5405109 -0.73041785 0.40234068 4290919680
2.5069768 -0.72069126 0.38889334 4290789120
2.5023365 -0.7192722 0.37960792 4290789120
2.9154117 -0.83748949 0.3661879 4292225280
2.9542291 -0.84853983 0.35747889 4292355840
2.9709554 -0.85324311 0.34543952 4292355840
2.9582596 -0.8494963 0.32957673 4292355840
2.9458835 -0.84584224 0.31350672 4292225280
2.9387293 -0.84368807 0.2977432 4292225280
2.9673142 -0.85179377 0.28515899 4292355840
2.9362483 -0.84277612 0.26654413 4292225280
2.9284537 -0.84043932 0.24995638 4292225280
2.9522195 -0.8471595 0.23569942 4292225280
2.9682825 -0.851668 0.22034846 4292355840
2.922909 -0.83854991 0.20036417 4292094720
2.6445272 -0.75859535 0.16605026 4291180800
2.8912592 -0.82927328 0.16469324 4291964160
2.9041626 -0.83287555 0.14832421 4292094720
2.9097564 -0.83438081 0.13131197 4292094720
2.6059537 -0.74717593 0.1019829 4291050240
2.442497 -0.70022684 0.080843598 4290397440
2.4433689 -0.70039368 0.066037558 4290397440
2.4222546 -0.69425887 0.050689749 4290397440
2.4305332 -0.69654906 0.035980731 4290397440
2.4250326 -0.69489026 0.021012273 4290397440
2.4123256 -0.69116706 0.0060708784 4290397440
2.3775315 -0.68111724 -0.0086402437 4290266880
2.4200737 -0.69322252 -0.023670325 4290397440
2.4181049 -0.69257629 -0.038488675 4290397440
2.4292929 -0.69569814 -0.05353104 4290397440
2.4055803 -0.68882555 -0.067670241 4290266880
2.4370174 -0.69774461 -0.083333604 4290397440
2.44261 -0.69926274 -0.098247208 4290397440
2.4479995 -0.70072246 -0.113112 4290528000
2.4165649 -0.6916424 -0.1259982 4290397440
2.4333885 -0.69637471 -0.14117587 4290397440
2.4399333 -0.69816482 -0.15574041 4290397440
2.4364045 -0.69707221 -0.16950983 4290397440
2.4170964 -0.69146585 -0.1818665 4290397440
2.451215 -0.70114303 -0.19812511 4290528000
2.4583557 -0.70310193 -0.2122156 4290528000
2.4527318 -0.70141017 -0.22497974 4290528000
2.4257331 -0.69360679 -0.23536175 4290397440
2.4486234 -0.70006883 -0.25030011 4290528000
2.452235 -0.70101804 -0.26312771 4290528000
2.4602334 -0.70322096 -0.27619186 4290528000
2.4452765 -0.69886261 -0.28633875 4290528000
2.4029167 -0.68667448 -0.29268545 4290397440
2.4607012 -0.70310384 -0.31096715 4290528000
2.4689879 -0.70538771 -0.32294518 4290658560
2.4693644 -0.70541137 -0.3335633 4290658560
2.4728391 -0.70631993 -0.34423923 4290658560
2.4584005 -0.70211226 -0.35198882 4290528000
2.4322591 -0.69456375 -0.35750636 4290528000
2.4450569 -0.6981352 -0.36828756 4290528000
2.4486651 -0.69908226 -0.37732333 4290528000
2.4523053 -0.70003825 -0.38595685 4290528000
2.4439361 -0.69756615 -0.3922435 4290528000
2.450552 -0.69937116 -0.40047753 4290528000
2.4456275 -0.69788271 -0.40637001 4290528000
2.4421568 -0.69680929 -0.41201243 4290528000
2.432256 -0.69390178 -0.41606116 4290528000
2.4211419 -0.69064873 -0.41937274 4290528000
2.4208903 -0.69049478 -0.42405435 4290528000
2.3912675 -0.6819644 -0.42304555 4290397440
2.3712978 -0.67618865 -0.42316908 4290266880
2.3888144 -0.68110245 -0.42948115 4290397440
2.3330898 -0.66513491 -0.42208448 4290136320
2.3289742 -0.66388255 -0.42346472 4290136320
2.3372531 -0.66616309 -0.42660519 4290136320
2.3323514 -0.6646868 -0.42684397 4290136320
2.3237436 -0.66215473 -0.42589986 4290136320
2.3922927 -0.68160665 -0.43859997 4290397440
2.3781683 -0.67750162 -0.43563518 4290397440
2.3986714 -0.6832611 -0.43849787 4290397440
2.4231381 -0.69014817 -0.44154984 4290528000
2.4182711 -0.68867975 -0.43872935 4290528000
2.4466336 -0.69667387 -0.44139969 4290528000
2.452754 -0.69833332 -0.43950543 4290658560
2.4363966 -0.69359338 -0.43308643 4290528000
2.445394 -0.69607168 -0.43067831 4290528000
2.4621372 -0.70075399 -0.42908749 4290658560
2.4427109 -0.69514203 -0.42070344 4290528000
2.4483237 -0.69665623 -0.41617098 4290528000
2.4363511 -0.69316667 -0.40818399 4290528000
2.426918 -0.69040048 -0.40020496 4290528000
2.419801 -0.6882937 -0.39219132 4290397440
2.4337888 -0.69218975 -0.38712502 4290528000
2.4487638 -0.69636565 -0.38168141 4290528000
2.4629755 -0.70032346 -0.375586 4290658560
2.4511478 -0.69687712 -0.36508483 4290528000
2.4299452 -0.69076663 -0.35289234 4290528000
2.4182541 -0.687361 -0.34180447 4290397440
2.4286141 -0.69022328 -0.33344972 4290397440
2.4511559 -0.69654649 -0.32625431 4290528000
2.4527364 -0.69691235 -0.31579992 4290528000
2.4137874 -0.68576354 -0.29994059 4290397440
2.4241304 -0.68861979 -0.28999749 4290397440
2.4467425 -0.69496012 -0.28104258 4290528000
2.4527786 -0.69659126 -0.26973337 4290528000
2.449939 -0.69570166 -0.25713328 4290528000
2.4063306 -0.6832366 -0.24020751 4290397440
2.439822 -0.69266307 -0.23076102 4290397440
2.4395926 -0.69251513 -0.21769662 4290397440
2.437186 -0.69174927 -0.20421305 4290397440
2.4106646 -0.68413985 -0.18864498 4290397440
2.4353912 -0.69107449 -0.17688879 4290397440
2.4401457 -0.69234085 -0.1633229 4290397440
2.440805 -0.69244504 -0.14927414 4290397440
2.4076545 -0.68295866 -0.1331853 4290266880
2.4222386 -0.68701339 -0.11970012 4290397440
2.4459481 -0.69365507 -0.10630912 4290397440
2.4666011 -0.69942844 -0.092405282 4290528000
2.4173794 -0.68538904 -0.075957492 4290397440
2.4446249 -0.69303083 -0.061962429 4290397440
2.4411986 -0.69197673 -0.046978708 4290397440
2.3228073 -0.6583389 -0.030477976 4290005760
2.4501722 -0.694354 -0.017112514 4290397440
2.4574997 -0.69634712 -0.0020638464 4290528000
2.6379275 -0.74738294 0.013995191 4291050240
2.5809648 -0.73115647 0.029538454 4290919680
2.8224106 -0.79945946 0.049594399 4291703040
2.7707617 -0.78473568 0.06561023 4291572480
2.674484 -0.75737709 0.079597116 4291311360
2.7178254 -0.76955861 0.097329654 4291441920
2.8392019 -0.80383027 0.11874302 4291833600
2.869941 -0.81243569 0.13714981 4291964160
2.8421926 -0.80448413 0.15263186 4291833600
2.7404013 -0.77557904 0.16321148 4291441920
2.8697593 -0.81209213 0.18753301 4291964160
2.9086208 -0.82299054 0.2067074 4292094720
2.8565972 -0.8081736 0.21912566 4291964160
2.8166671 -0.79678124 0.23171613 4291833600
2.9188838 -0.82559729 0.25608301 4292094720
2.9417155 -0.83195543 0.27388486 4292225280
2.9069951 -0.8220374 0.28596607 4292094720
2.9011345 -0.82028168 0.30035689 4292094720
2.8611083 -0.80886739 0.31064549 4291964160
2.7602718 -0.78026617 0.31328797 4291572480
2.7407262 -0.77464813 0.3242175 4291572480
2.59724 -0.73400456 0.31935987 4291050240
2.4704475 -0.69808799 0.31495371 4290658560
2.2765939 -0.64323246 0.30022028 4289875200
2.5376465 -0.71690458 0.34539402 4290789120
2.541424 -0.71788555 0.3562814 4290919680
2.6049776 -0.73574942 0.37540987 4291050240
2.583349 -0.72955304 0.38200402 4291050240
2.5953681 -0.73285925 0.39310044 4291050240
2.7036235 -0.76333582 0.41873726 4291441920
2.8974383 -0.81795883 0.45814407 4292094720
2.9080994 -0.82086986 0.46872538 4292225280
2.8656595 -0.80879313 0.47011936 4292094720
2.9063466 -0.82017791 0.48459569 4292225280
2.9318709 -0.82728153 0.49615678 4292225280
2.9451058 -0.83091611 0.50515759 4292355840
2.8903494 -0.81536943 0.50182587 4292094720
2.9075441 -0.82012141 0.51032102 4292225280
2.9153273 -0.82221794 0.51661617 4292225280
2.9288876 -0.82594311 0.52336627 4292225280
2.9510705 -0.83209854 0.53109479 4292355840
2.9458447 -0.83052516 0.53329301 4292355840
2.9634731 -0.83539462 0.53901446 4292355840
2.8566704 -0.80519038 0.52141958 4291964160
2.9544737 -0.8326574 0.54053372 4292355840
2.9449167 -0.82986403 0.53941256 4292355840
2.9402032 -0.82843608 0.53854465 4292355840
2.922322 -0.82329875 0.53463799 4292225280
2.9092813 -0.8195262 0.53100026 4292225280
2.9048724 -0.81818575 0.52832484 4292225280
2.8778036 -0.81046396 0.52093607 4292094720
2.9321015 -0.82565624 0.52763236 4292225280
2.905221 -0.81798834 0.51908064 4292225280
2.874625 -0.80927634 0.50933939 4292094720
2.9165952 -0.82099307 0.51183677 4292225280
2.9093924 -0.81886697 0.50505179 4292225280
2.8790259 -0.81022251 0.49373651 4292094720
2.8202119 -0.79357529 0.47716904 4291833600
2.757622 -0.77586973 0.45970172 4291703040
2.70696 -0.7615239 0.44398406 4291441920
2.6354721 -0.74132353 0.42468065 4291180800
2.6138201 -0.7351445 0.41319135 4291180800
2.5601804 -0.71997142 0.39641172 4290919680
2.5061679 -0.70469713 0.37947935 4290789120
2.8973029 -0.81404448 0.36331144 4292094720
2.9146633 -0.81882346 0.35210797 4292094720
2.9243212 -0.82143748 0.33945501 4292225280
2.9189098 -0.81981856 0.32465518 4292094720
2.9119124 -0.81775451 0.30937916 4292094720
2.8817291 -0.80918038 0.29148552 4291964160
2.8906348 -0.81158316 0.27733096 4292094720
2.8614337 -0.80328757 0.25932345 4291964160
2.851706 -0.8004601 0.24300344 4291833600
2.8312962 -0.79463518 0.22567168 4291833600
2.7729018 -0.77815217 0.20550445 4291572480
2.7763917 -0.77903742 0.19000611 4291572480
2.6713006 -0.74945903 0.16745435 4291180800
2.6398592 -0.74054837 0.15012455 4291180800
2.6089208 -0.73178095 0.13302532 4291050240
2.535198 -0.71101636 0.11421996 4290789120
2.4851797 -0.69690412 0.097095907 4290528000
2.4696324 -0.69246066 0.081606828 4290528000
2.4676185 -0.69181234 0.066582881 4290528000
2.4523482 -0.68744808 0.051234823 4290397440
2.4519212 -0.68724537 0.036237463 4290397440
2.4473345 -0.68587685 0.021170529 4290397440
2.4402869 -0.683819 0.0061311154 4290397440
2.4483268 -0.68598902 -0.0088828467 4290397440
2.4434407 -0.68453717 -0.023859458 4290397440
2.4403925 -0.68360054 -0.03877937 4290397440
2.4407558 -0.68361962 -0.053694952 4290397440
2.4326551 -0.68126833 -0.068319052 4290397440
2.4593277 -0.68865472 -0.083957873 4290528000
2.4649253 -0.69013858 -0.098981366 4290528000
2.4712811 -0.69183439 -0.11399956 4290528000
2.4290903 -0.67994082 -0.12644255 4290397440
2.456924 -0.68764865 -0.14230646 4290528000
2.4554906 -0.68716431 -0.15647522 4290528000
2.4567468 -0.68743265 -0.17064357 4290528000
2.4518235 -0.68597198 -0.1841756 4290528000
2.4752262 -0.69243574 -0.1997364 4290528000
2.4816051 -0.69413614 -0.21386984 4290528000
2.479378 -0.69342923 -0.22704946 4290528000
2.4441164 -0.68348444 -0.23675503 4290528000
2.4721184 -0.69123137 -0.25228581 4290528000
2.4840591 -0.69448602 -0.2661038 4290658560
2.4729066 -0.69128424 -0.27715772 4290528000
2.4670806 -0.68957204 -0.28841662 4290528000
2.4127634 -0.67430818 -0.2934013 4290397440
2.4889457 -0.69551498 -0.31401908 4290658560
2.486434 -0.69472885 -0.32469219 4290658560
2.4963548 -0.69741625 -0.33665457 4290658560
2.4955287 -0.697101 -0.34682652 4290658560
2.4777989 -0.69206446 -0.35418293 4290658560
2.4591525 -0.68677306 -0.36086506 4290528000
2.4599595 -0.68691516 -0.36992317 4290528000
2.4669878 -0.6887942 -0.37952194 4290658560
2.4710183 -0.68983579 -0.38826284 4290658560
2.4708047 -0.6896925 -0.39590415 4290658560
2.4821789 -0.69278342 -0.40497959 4290658560
2.4810393 -0.69238132 -0.41157681 4290658560
2.4785013 -0.69158918 -0.41745719 4290658560
2.4638202 -0.68740916 -0.42076829 4290658560
2.447928 -0.68289226 -0.42331606 4290528000
2.4175425 -0.67433387 -0.42277253 4290397440
2.4227383 -0.6757012 -0.4279094 4290528000
2.4065263 -0.67109817 -0.42875075 4290397440
2.4155221 -0.67352498 -0.43357003 4290397440
2.3511605 -0.65549928 -0.42465556 4290266880
2.3555758 -0.65665048 -0.42759863 4290266880
2.3638654 -0.65888131 -0.43075457 4290266880
2.3551586 -0.65637475 -0.43031073 4290266880
2.3455868 -0.65362769 -0.42919806 4290266880
2.4047613 -0.67003602 -0.44016278 4290397440
2.3963058 -0.66759896 -0.4382377 4290397440
2.4206381 -0.67429584 -0.4417879 4290528000
2.4498909 -0.6823616 -0.44569275 4290528000
2.4497633 -0.68224317 -0.44371408 4290528000
2.4557714 -0.68383324 -0.44232193 4290658560
2.470072 -0.6877318 -0.44188312 4290658560
2.4726822 -0.68837482 -0.43881607 4290658560
2.477829 -0.68972379 -0.43567559 4290658560
2.4709289 -0.6877194 -0.42991403 4290658560
2.4756229 -0.68894202 -0.42567328 4290658560
2.465652 -0.68608379 -0.41842988 4290658560
2.4593709 -0.6842528 -0.41136584 4290528000
2.4499297 -0.68154311 -0.40333799 4290528000
2.4380488 -0.67815548 -0.39450181 4290528000
2.4473038 -0.68064696 -0.38863736 4290528000
2.4804103 -0.68977064 -0.38598111 4290658560
2.4851258 -0.69099784 -0.3783434 4290658560
2.4732869 -0.68762231 -0.36777937 4290658560
2.4529381 -0.6818819 -0.35564849 4290528000
2.4353743 -0.67691696 -0.34366101 4290528000
2.4563911 -0.68267548 -0.33671167 4290528000
2.4733305 -0.68729961 -0.32866725 4290658560
2.4810524 -0.68936145 -0.31892321 4290658560
2.4407024 -0.67806756 -0.30278903 4290528000
2.4510741 -0.68086606 -0.29274121 4290528000
2.465404 -0.68476319 -0.28272304 4290528000
2.4845829 -0.69000608 -0.27278417 4290658560
2.4778426 -0.68805033 -0.25963676 4290528000
2.4332895 -0.67559648 -0.24250162 4290397440
2.4620485 -0.68349797 -0.23248263 4290528000
2.4627867 -0.68361956 -0.21940719 4290528000
2.4551032 -0.6814037 -0.20537819 4290528000
2.4376705 -0.67648286 -0.19044663 4290397440
2.4576399 -0.68194145 -0.17821318 4290528000
2.4672167 -0.68451536 -0.16486506 4290528000
2.4570522 -0.68161213 -0.15002237 4290528000
2.4260266 -0.67292321 -0.13398243 4290397440
2.449301 -0.67929614 -0.12083984 4290397440
2.4595759 -0.68206257 -0.10672689 4290528000
2.4658194 -0.68371052 -0.092225194 4290528000
2.4467998 -0.67835408 -0.076756433 4290397440
2.4678886 -0.68411726 -0.062449992 4290528000
2.4807034 -0.68758571 -0.04766104 4290528000
2.4546831 -0.68029058 -0.032155793 4290397440
2.4646926 -0.68298119 -0.017185843 4290528000
2.4822912 -0.68777394 -0.0020812664 4290528000
2.75788 -0.76403862 0.014607718 4291572480
2.5849009 -0.71602929 0.029535254 4290919680
2.9147065 -0.80728835 0.051132672 4292094720
2.8050086 -0.77681041 0.066312887 4291703040
2.7652602 -0.76570904 0.0821646 4291572480
2.717447 -0.75237757 0.097157471 4291441920
2.943224 -0.8147887 0.12289287 4292225280
2.930769 -0.81124157 0.13982843 4292094720
2.9158392 -0.80701035 0.15633167 4292094720
2.6842549 -0.74282449 0.15960708 4291311360
2.9581783 -0.81852835 0.19299608 4292225280
2.9367473 -0.81249905 0.20836632 4292225280
2.9071033 -0.80419922 0.22263671 4292094720
2.7664957 -0.76520902 0.22721809 4291572480
2.987134 -0.82613629 0.2616441 4292355840
2.9624124 -0.81919903 0.27536279 4292225280
2.8791106 -0.79606611 0.28276196 4291964160
2.8694186 -0.79328924 0.29658979 4291964160
2.8159232 -0.77840453 0.30524194 4291833600
2.8149581 -0.7780425 0.31897488 4291833600
2.7126317 -0.74966824 0.3203719 4291441920
2.5698848 -0.71013153 0.31548214 4290919680
2.5117846 -0.69399184 0.3197028 4290789120
2.3670416 -0.65392011 0.31164011 4290266880
2.7166805 -0.75041968 0.36916062 4291441920
2.7433016 -0.75768036 0.38395718 4291572480
2.6671157 -0.73654824 0.3837398 4291311360
2.7068448 -0.74742824 0.39961484 4291441920
2.6816256 -0.74037391 0.40550494 4291311360
2.7404411 -0.75651968 0.42374969 4291572480
2.9334559 -0.80970377 0.46308541 4292225280
2.9285216 -0.80824274 0.47125003 4292225280
2.93924 -0.81110156 0.48140699 4292225280
2.8882325 -0.79692805 0.48079306 4292094720
2.9185636 -0.80519843 0.49310249 4292225280
2.9270699 -0.8074463 0.5012486 4292225280
2.8807886 -0.79458195 0.49935365 4292094720
2.8894598 -0.79687601 0.50632346 4292094720
2.9067643 -0.80155003 0.51426244 4292225280
2.919399 -0.80493546 0.52082384 4292225280
2.9283216 -0.80729663 0.52614534 4292225280
2.92784 -0.80706483 0.52917331 4292225280
2.9322047 -0.80816889 0.53246176 4292225280
2.9366693 -0.80930012 0.53515178 4292355840
2.9450331 -0.8115055 0.53793234 4292355840
2.9269152 -0.80641419 0.5352456 4292225280
2.9136484 -0.80266047 0.5328151 4292225280
2.9042814 -0.79998189 0.53047574 4292225280
2.8864694 -0.79497802 0.52598232 4292094720
2.8687544 -0.79000205 0.52090985 4292094720
2.9363284 -0.80851144 0.53066838 4292225280
2.9140627 -0.80228215 0.52353621 4292225280
2.8918839 -0.79607826 0.5158602 4292094720
2.925271 -0.80517018 0.5174731 4292225280
2.9455431 -0.81065047 0.51607925 4292355840
2.9310849 -0.80657232 0.50799304 4292225280
2.909236 -0.80046165 0.49810907 4292225280
2.8874488 -0.79436952 0.4877539 4292094720
2.8487282 -0.78362072 0.47412017 4291964160
2.8027809 -0.77088696 0.45895576 4291833600
2.7902901 -0.76735711 0.44890001 4291703040
2.7915478 -0.76760876 0.44057202 4291703040
2.6230991 -0.72120076 0.40549639 4291180800
2.5703423 -0.70660877 0.38856652 4290919680
2.9226389 -0.80282068 0.36589575 4292094720
2.9379575 -0.80692929 0.35434806 4292225280
2.9439011 -0.80846226 0.34117529 4292225280
2.9621897 -0.81338465 0.32893628 4292225280
2.9325161 -0.80513752 0.31106454 4292225280
2.9382894 -0.80662334 0.29672617 4292225280
2.9501514 -0.80978006 0.28258359 4292225280
2.9410512 -0.80718279 0.26610821 4292225280
2.9197867 -0.80124807 0.24840279 4292094720
2.9388137 -0.80637014 0.23386304 4292225280
2.9452996 -0.80805033 0.21792854 4292225280
2.9411421 -0.80681032 0.20095591 4292225280
2.7255995 -0.7475909 0.17058221 4291441920
2.8254671 -0.77488768 0.16042031 4291703040
2.9316072 -0.80389768 0.14923732 4292094720
2.8681426 -0.7863977 0.12901172 4291964160
2.6931443 -0.73832506 0.10505124 4291311360
2.4852688 -0.68125206 0.081990965 4290528000
2.4947457 -0.68376559 0.067206211 4290658560
2.4716423 -0.67734987 0.05155459 4290528000
2.4674118 -0.67610717 0.036407564 4290528000
2.4705775 -0.67689121 0.021337112 4290528000
2.4743397 -0.67783839 0.0062066438 4290528000
2.4425256 -0.66904056 -0.0088475067 4290397440
2.4637797 -0.67477906 -0.024019264 4290528000
2.4636214 -0.67465252 -0.039085366 4290528000
2.4726613 -0.67704457 -0.054309152 4290528000
2.4510453 -0.6710431 -0.068724558 4290397440
2.4729381 -0.67695332 -0.084286436 4290528000
2.4881804 -0.68104178 -0.099754162 4290528000
2.48876 -0.68111634 -0.11462086 4290528000
2.4610665 -0.67345423 -0.12790062 4290528000
2.4743714 -0.67701143 -0.14308612 4290528000
2.4864094 -0.6802212 -0.15819027 4290528000
2.478996 -0.67810941 -0.17191164 4290528000
2.4711683 -0.67588466 -0.18532977 4290528000
2.4936438 -0.68194771 -0.20089856 4290658560
2.508678 -0.68597448 -0.21585493 4290658560
2.4977889 -0.68291271 -0.22836719 4290658560
2.4797513 -0.67789733 -0.23982023 4290528000
2.4857035 -0.67944056 -0.25326392 4290658560
2.5075428 -0.68532544 -0.2681872 4290658560
2.4960732 -0.68210649 -0.27930403 4290658560
2.4940622 -0.68147272 -0.29110184 4290658560
2.434855 -0.66521287 -0.29561141 4290397440
2.5111504 -0.68597233 -0.31631091 4290658560
2.5181959 -0.68781191 -0.32831097 4290789120
2.5195084 -0.68808538 -0.33923063 4290789120
2.5177147 -0.68751049 -0.34934729 4290789120
2.5095036 -0.68518358 -0.35813814 4290789120
2.4775586 -0.67637783 -0.36298159 4290658560
2.4868338 -0.67882597 -0.37336335 4290658560
2.5024509 -0.6830045 -0.38435882 4290658560
2.4893034 -0.67933208 -0.39050737 4290658560
2.4995673 -0.68204874 -0.39986932 4290658560
2.4957035 -0.68091017 -0.40653202 4290658560
2.4850311 -0.67791456 -0.41157681 4290658560
2.480572 -0.67661434 -0.41713488 4290658560
2.4858708 -0.67797583 -0.42385226 4290658560
2.4699466 -0.67354935 -0.42643782 4290658560
2.4490201 -0.66776013 -0.42758963 4290528000
2.4447055 -0.6665011 -0.43109608 4290528000
2.4284625 -0.66199082 -0.43196443 4290528000
2.4279616 -0.66177237 -0.43510336 4290528000
2.3634944 -0.64412129 -0.42619818 4290266880
2.3821712 -0.64913082 -0.43173251 4290266880
2.3904712 -0.65131181 -0.43490395 4290397440
2.3855493 -0.6498903 -0.43516421 4290397440
2.37216 -0.64616263 -0.43336421 4290266880
2.4314291 -0.66222513 -0.44433019 4290528000
2.4267612 -0.66087186 -0.44309568 4290528000
2.4378297 -0.66380388 -0.44421211 4290528000
2.4417388 -0.66478592 -0.44349757 4290528000
2.4717567 -0.67287511 -0.44697997 4290658560
2.4825304 -0.67572427 -0.44642496 4290658560
2.4921038 -0.67824596 -0.44511002 4290658560
2.4947221 -0.67887437 -0.44201794 4290658560
2.4951246 -0.67889971 -0.43801373 4290658560
2.4977334 -0.67952526 -0.43388152 4290658560
2.5024419 -0.68072176 -0.42959544 4290789120
2.4924626 -0.67792314 -0.42230228 4290658560
2.4814162 -0.67483491 -0.41438857 4290658560
2.4719667 -0.67218167 -0.40631434 4290658560
2.455307 -0.66756862 -0.39665824 4290528000
2.4788902 -0.67389703 -0.39302319 4290658560
2.4977474 -0.67893916 -0.38805681 4290658560
2.5120242 -0.68273515 -0.38182643 4290789120
2.4963562 -0.67839259 -0.37061575 4290658560
2.4654708 -0.66991621 -0.35689363 4290528000
2.4624357 -0.66900843 -0.34692377 4290528000
2.483288 -0.67458993 -0.33985409 4290658560
2.4954801 -0.67781776 -0.33108017 4290658560
2.5032237 -0.67983657 -0.32125854 4290658560
2.4628179 -0.66877997 -0.30504408 4290528000
2.4684217 -0.67021841 -0.29434171 4290528000
2.5019655 -0.67924172 -0.28645709 4290658560
2.501997 -0.67916584 -0.27425697 4290658560
2.4952521 -0.6772508 -0.26104307 4290658560
2.4602406 -0.66766518 -0.24479572 4290528000
2.4804058 -0.67305398 -0.23384179 4290528000
2.4898055 -0.6755206 -0.22145988 4290658560
2.4768269 -0.67191577 -0.20686448 4290528000
2.464668 -0.66853416 -0.19224828 4290528000
2.4881341 -0.67481536 -0.18013626 4290528000
2.4842515 -0.67367858 -0.16573827 4290528000
2.4901376 -0.67519075 -0.15179972 4290528000
2.4604745 -0.66706473 -0.13566795 4290528000
2.4831908 -0.67313963 -0.12231626 4290528000
2.4770086 -0.67138028 -0.10731179 4290528000
2.491281 -0.67516476 -0.093028799 4290528000
2.4608376 -0.6668312 -0.077073611 4290528000
2.4971981 -0.67659992 -0.063090846 4290658560
2.4971685 -0.67650771 -0.047900841 4290658560
2.4865794 -0.67355514 -0.032521665 4290528000
2.4917948 -0.67488384 -0.01734711 4290528000
2.5152977 -0.68116456 -0.0021055769 4290658560
2.7426302 -0.74263579 0.014503781 4291441920
2.7341051 -0.74023515 0.031190265 4291441920
2.8961976 -0.78402263 0.050726973 4291964160
2.7707374 -0.7499662 0.065398276 4291572480
2.6500297 -0.71720439 0.078615241 4291180800
2.6851256 -0.72661221 0.095848888 4291311360
2.9580526 -0.80036837 0.12331524 4292225280
2.9477081 -0.79747003 0.14041255 4292225280
2.8973548 -0.78374982 0.15509319 4291964160
2.7604718 -0.74662912 0.16387753 4291572480
2.963763 -0.80151367 0.1930525 4292225280
2.9584939 -0.79998899 0.20957501 4292225280
2.8934476 -0.78230268 0.22123809 4291964160
2.7429991 -0.7415334 0.22492962 4291441920
2.9876692 -0.807576 0.2612744 4292355840
2.9714684 -0.80309665 0.27576494 4292225280
2.9301951 -0.791843 0.28732106 4292094720
2.9284565 -0.79127443 0.30221045 4292094720
2.8956511 -0.78231275 0.31338492 4292094720
2.810806 -0.75929558 0.31799772 4291703040
2.6843405 -0.72504234 0.31652629 4291311360
2.5643914 -0.69255757 0.31430709 4290919680
2.5617807 -0.69176614 0.32554784 4290919680
2.3553896 -0.63595426 0.30961296 4290136320
2.8409538 -0.76696068 0.38543394 4291833600
2.754977 -0.74365705 0.38497832 4291572480
2.7258708 -0.73570848 0.39157 4291441920
2.7799735 -0.75021702 0.40975866 4291703040
2.7088225 -0.73092455 0.40896669 4291441920
2.7400274 -0.73925227 0.42301255 4291572480
2.9238062 -0.78873676 0.46082878 4292225280
2.92364 -0.78859341 0.46971717 4292225280
2.9210272 -0.78779018 0.47766411 4292225280
2.9341798 -0.79123849 0.48766604 4292225280
2.8917575 -0.77970141 0.48779771 4292094720
2.9269614 -0.78909475 0.50043422 4292225280
2.9355543 -0.7913124 0.50803894 4292225280
2.8759646 -0.77515239 0.50315875 4292094720
2.8837824 -0.77716231 0.50938678 4292094720
2.9107168 -0.78432292 0.51845092 4292225280
2.9148989 -0.78535157 0.52290255 4292225280
2.9191749 -0.78640532 0.52677017 4292225280
2.9140368 -0.7849229 0.52832317 4292225280
2.9223139 -0.787054 0.53169119 4292225280
2.922133 -0.78690678 0.53290302 4292225280
2.9087412 -0.78320253 0.53107864 4292225280
2.9087658 -0.7831111 0.53107888 4292225280
2.8955791 -0.77946335 0.5280478 4292094720
2.8767862 -0.77430755 0.52338684 4292094720
2.8542848 -0.76815504 0.517461 4291964160
2.922914 -0.78652626 0.52740693 4292225280
2.9053667 -0.78170657 0.52114677 4292225280
2.8917143 -0.77793592 0.51501274 4292094720
2.920393 -0.78555274 0.51579183 4292225280
2.9368854 -0.78989005 0.51374733 4292225280
2.9357343 -0.78948152 0.50799304 4292225280
2.9402587 -0.79059923 0.5026235 4292225280
2.9279778 -0.78719836 0.49381697 4292225280
2.8979135 -0.77901787 0.48154262 4292094720
2.8530121 -0.76685137 0.4664416 4291964160
2.8271604 -0.75980747 0.45411178 4291833600
2.9153163 -0.78340149 0.45937744 4292225280
2.7695806 -0.74414623 0.427463 4291703040
2.6432228 -0.71010661 0.39895186 4291180800
2.9080896 -0.78063136 0.36349872 4292094720
2.9470272 -0.79098433 0.35488009 4292225280
2.9561565 -0.79333502 0.3420541 4292225280
2.9534335 -0.79250485 0.32744566 4292225280
2.9333138 -0.78700727 0.3106575 4292094720
2.938118 -0.78819728 0.29624006 4292225280
2.9448221 -0.78989655 0.28162754 4292225280
2.9360819 -0.78745329 0.26523897 4292094720
2.9244053 -0.78422314 0.24840279 4292094720
2.9386466 -0.78794318 0.23348045 4292094720
2.9499576 -0.79087669 0.21792854 4292225280
2.9322996 -0.78604388 0.20003542 4292094720
2.6757009 -0.71716893 0.16719493 4291180800
2.8600335 -0.76647937 0.16212657 4291833600
2.9173427 -0.78173977 0.14827678 4292094720
2.8540483 -0.76468307 0.12817515 4291833600
2.7292538 -0.73115516 0.10629179 4291441920
2.5216079 -0.67544281 0.083058581 4290658560
2.5181196 -0.67442358 0.067728877 4290658560
2.4833703 -0.66503322 0.051717523 4290528000
2.4944899 -0.66792697 0.036749065 4290528000
2.4976621 -0.66869223 0.021537013 4290528000
2.5014305 -0.669617 0.0062647061 4290658560
2.4734299 -0.66203809 -0.0089453263 4290528000
2.4908524 -0.66661751 -0.024244918 4290528000
2.4906919 -0.66649073 -0.039452564 4290528000
2.4949143 -0.66753662 -0.054711558 4290528000
2.4819524 -0.66398495 -0.069481507 4290528000
2.5004091 -0.66883844 -0.085088477 4290658560
2.5104473 -0.67143905 -0.10048833 4290658560
2.5158484 -0.67279899 -0.11568593 4290658560
2.4842453 -0.6642639 -0.1289019 4290528000
2.5014234 -0.66877294 -0.1444227 4290658560
2.5134726 -0.67190981 -0.15966031 4290658560
2.5108588 -0.67112654 -0.17384712 4290658560
2.4981899 -0.66765618 -0.1870614 4290658560
2.5206912 -0.673585 -0.202758 4290658560
2.5261111 -0.67494828 -0.2170129 4290658560
2.5296345 -0.6758045 -0.23091485 4290789120
2.4932783 -0.66600782 -0.24074908 4290658560
2.5126958 -0.67111015 -0.25561139 4290658560
2.5249476 -0.67429745 -0.26962391 4290789120
2.5230587 -0.67370808 -0.28187963 4290789120
2.516232 -0.67180055 -0.29322764 4290658560
2.4788449 -0.66173524 -0.30047894 4290528000
2.5333276 -0.67619431 -0.31860274 4290789120
2.5403745 -0.67798978 -0.33068189 4290789120
2.5464699 -0.67953086 -0.3423219 4290789120
2.5446613 -0.67896259 -0.3525314 4290789120
2.5268536 -0.67412609 -0.36004755 4290789120
2.5092018 -0.66933244 -0.36703998 4290658560
2.5089152 -0.66917157 -0.37608683 4290658560
2.5111666 -0.66968757 -0.38509169 4290789120
2.5247459 -0.67322397 -0.39544535 4290789120
2.5197358 -0.6718033 -0.40246281 4290789120
2.5129917 -0.66992062 -0.40870544 4290789120
2.5118384 -0.66952866 -0.41536358 4290789120
2.5140519 -0.67003405 -0.42210126 4290789120
2.5126619 -0.66957903 -0.42774785 4290789120
2.5062361 -0.66778237 -0.43202418 4290789120
2.4926198 -0.66407049 -0.43451905 4290658560
2.4666467 -0.65706784 -0.43428275 4290658560
2.441802 -0.65036756 -0.43365583 4290528000
2.4641504 -0.65623713 -0.44089594 4290658560
2.3948159 -0.6376918 -0.43116894 4290397440
2.4039986 -0.64005607 -0.43500519 4290397440
2.4037433 -0.63990718 -0.43663284 4290397440
2.4083297 -0.64104718 -0.43863097 4290397440
2.3892081 -0.63587695 -0.43579447 4290397440
2.4533281 -0.65285975 -0.44762942 4290528000
2.4496047 -0.65178651 -0.44656566 4290528000
2.4644985 -0.65566653 -0.44836792 4290658560
2.4731753 -0.65789175 -0.44850358 4290658560
2.4984834 -0.66453993 -0.4511053 4290658560
2.4997559 -0.66479427 -0.44881839 4290789120
2.5150607 -0.66877991 -0.44850674 4290789120
2.5220304 -0.67054838 -0.44615671 4290789120
2.5219064 -0.67043054 -0.442022 4290789120
2.5149939 -0.66850835 -0.43619588 4290789120
2.5149465 -0.66841114 -0.43106624 4290789120
2.5192611 -0.66947311 -0.4261747 4290789120
2.516793 -0.66873264 -0.4196386 4290789120
2.4939773 -0.66258639 -0.40929073 4290658560
2.4963975 -0.66314542 -0.40266547 4290658560
2.4970305 -0.66322958 -0.39527991 4290658560
2.5211694 -0.66955632 -0.39108303 4290789120
2.5389099 -0.6741823 -0.38530943 4290789120
2.5236211 -0.67003763 -0.37407765 4290789120
2.5152788 -0.66773814 -0.36353436 4290789120
2.4938555 -0.66196692 -0.35080108 4290658560
2.5101733 -0.66621393 -0.34299648 4290658560
2.5188501 -0.66843206 -0.33365837 4290789120
2.5263264 -0.67033112 -0.32371679 4290789120
2.4846971 -0.65920174 -0.30727309 4290658560
2.4871695 -0.65977407 -0.29611388 4290658560
2.5193307 -0.66822076 -0.28799462 4290658560
2.5254254 -0.66975236 -0.27639267 4290789120
2.527045 -0.67009693 -0.26395619 4290789120
2.4732869 -0.65575868 -0.24570949 4290528000
2.503454 -0.66367292 -0.23564614 4290658560
2.513356 -0.66621345 -0.22320557 4290658560
2.5091243 -0.66500741 -0.20923479 4290658560
2.4873748 -0.65915942 -0.1937166 4290528000
2.5125856 -0.66575587 -0.18162261 4290658560
2.5173862 -0.66694319 -0.16768678 4290658560
2.5111473 -0.6652059 -0.15284163 4290658560
2.4800372 -0.65688139 -0.13653328 4290528000
2.4985702 -0.66170615 -0.12288183 4290658560
2.5060344 -0.66359872 -0.10839993 4290658560
2.5087695 -0.66423863 -0.093535744 4290658560
2.4882801 -0.65873003 -0.077811591 4290528000
2.513299 -0.66526884 -0.063398622 4290658560
2.5218942 -0.66745925 -0.048299715 4290658560
2.5136757 -0.66519958 -0.032824807 4290658560
2.5246825 -0.66802746 -0.017548671 4290658560
2.5476403 -0.67401648 -0.002129328 4290789120
2.8129988 -0.74412644 0.014852729 4291703040
2.7409251 -0.72496855 0.031219352 4291441920
2.9360216 -0.77647245 0.051344384 4292094720
2.8811033 -0.76185173 0.067897342 4291964160
2.7143714 -0.71767145 0.080398582 4291311360
2.6931782 -0.71197754 0.095986634 4291311360
2.9491415 -0.77954566 0.12275232 4292094720
2.9339545 -0.77543271 0.13953982 4292094720
2.8922169 -0.7643044 0.15457717 4291964160
2.7464354 -0.72568756 0.16279049 4291441920
2.9689667 -0.78438693 0.1930905 4292225280
2.9486358 -0.77891654 0.20855168 4292225280
2.8931353 -0.76415819 0.22087003 4291964160
2.7376347 -0.72299409 0.2241405 4291441920
2.9778721 -0.7863394 0.26001257 4292225280
2.9664669 -0.78322804 0.2748726 4292225280
2.925133 -0.7722165 0.28637868 4292094720
2.9233959 -0.77165961 0.30121911 4292094720
2.8818884 -0.76060647 0.31141055 4291964160
2.7921138 -0.73681873 0.31539196 4291703040
2.6520123 -0.69975787 0.31222826 4291180800
2.5731838 -0.67887181 0.31489462 4290919680
2.5234628 -0.66566926 0.32018015 4290789120
2.4549787 -0.6475212 0.32220241 4290528000
2.8175702 -0.74306315 0.38166764 4291833600
2.7931495 -0.73652893 0.38970625 4291703040
2.8099544 -0.74086583 0.40302166 4291703040
2.7661083 -0.72921246 0.40708181 4291572480
2.6996391 -0.71159893 0.40694734 4291441920
2.7490702 -0.72453612 0.42374969 4291572480
2.9548488 -0.77867121 0.46499854 4292225280
2.9243627 -0.77053916 0.46910402 4292225280
2.912195 -0.76723528 0.47548077 4292094720
2.9387398 -0.77412993 0.48766604 4292225280
2.8962512 -0.76284015 0.48779771 4292094720
2.9133811 -0.76725411 0.49733955 4292225280
2.8536067 -0.75141639 0.49309072 4291964160
2.8613613 -0.75336218 0.49982744 4291964160
2.8930278 -0.7616024 0.51022738 4292094720
2.8971288 -0.76258469 0.51523048 4292094720
2.9051318 -0.76459366 0.52034247 4292094720
2.9189434 -0.76813066 0.52591187 4292225280
2.9271338 -0.77018762 0.5298751 4292225280
2.9268498 -0.77001464 0.53169119 4292225280
2.9266679 -0.76986849 0.53290302 4292225280
2.9180171 -0.7674948 0.53194672 4292225280
2.9085169 -0.76489836 0.53021073 4292225280
2.895309 -0.76132762 0.52718061 4292094720
2.8774383 -0.75653189 0.52269471 4292094720
2.8453748 -0.74800617 0.51504683 4291964160
2.9322109 -0.77073562 0.52826524 4292225280
2.8917654 -0.76000732 0.51790404 4292094720
2.8780875 -0.75631589 0.5117923 4292094720
2.9153862 -0.76601952 0.51411057 4292225280
2.9271326 -0.76900756 0.51124883 4292225280
2.9269288 -0.76885569 0.50568563 4292225280
2.9314551 -0.76994628 0.5003432 4292225280
2.9277413 -0.7688725 0.49301323 4292225280
2.911953 -0.76462841 0.48312706 4292094720
2.8865423 -0.75785911 0.47119358 4292094720
2.8038208 -0.73604655 0.44966644 4291703040
2.8739321 -0.75435531 0.45215619 4291964160
2.8150063 -0.73879373 0.43380234 4291833600
2.6747098 -0.70188338 0.40308028 4291311360
2.9169166 -0.76480979 0.36403888 4292094720
2.9333298 -0.76901484 0.35268512 4292094720
2.9472697 -0.77257043 0.34049922 4292225280
2.9397261 -0.77049428 0.32542267 4292225280
2.9147539 -0.76385128 0.30821532 4292094720
2.9378464 -0.76980442 0.29575545 4292094720
2.9493742 -0.772726 0.28162754 4292225280
2.9271283 -0.76679939 0.26402205 4292094720
2.900965 -0.75984818 0.24603152 4291964160
2.9248612 -0.76600909 0.23202665 4292094720
2.9361815 -0.7688753 0.21657623 4292094720
2.9319882 -0.7676788 0.19970569 4292094720
2.870065 -0.75136918 0.17906347 4291833600
2.9252086 -0.76570725 0.16556543 4292094720
2.9348841 -0.76814145 0.14893834 4292094720
2.8439572 -0.74424785 0.12752508 4291833600
2.8498428 -0.74569243 0.11081708 4291833600
2.5554636 -0.6685791 0.084044009 4290789120
2.5365129 -0.66353595 0.06811846 4290658560
2.5152533 -0.6578902 0.052300792 4290658560
2.5139368 -0.65746146 0.036978502 4290658560
2.5159431 -0.6579017 0.021661229 4290658560
2.5101268 -0.65629655 0.0062768022 4290658560
2.4944074 -0.65210283 -0.0090073003 4290528000
2.5044885 -0.6546542 -0.024340106 4290658560
2.5091634 -0.655792 -0.039683957 4290658560
2.5268126 -0.66031998 -0.055325758 4290658560
2.5087786 -0.655523 -0.070124388 4290658560
2.5283544 -0.66055316 -0.085907027 4290658560
2.5346162 -0.66210407 -0.10129964 4290658560
2.5409782 -0.66368067 -0.11666168 4290789120
2.5111899 -0.65581602 -0.13009952 4290658560
2.5298254 -0.66059792 -0.14583783 4290658560
2.5329165 -0.66132003 -0.16064793 4290658560
2.5282421 -0.66001475 -0.1747815 4290658560
2.5262835 -0.6594187 -0.18887413 4290658560
2.5393338 -0.66273987 -0.20394351 4290789120
2.5492024 -0.66522998 -0.21865995 4290789120
2.5593019 -0.66777962 -0.23326389 4290789120
2.5031695 -0.65304947 -0.24133269 4290658560
2.5400703 -0.66259116 -0.25799903 4290789120
2.5484791 -0.66469914 -0.27171853 4290789120
2.5463014 -0.66404575 -0.28403926 4290789120
2.5364377 -0.66138834 -0.29512823 4290789120
2.4885728 -0.64882386 -0.30119482 4290658560
2.5616336 -0.66778636 -0.32166788 4290919680
2.5685735 -0.66950929 -0.33383912 4290919680
2.5733333 -0.67066365 -0.34540197 4290919680
2.5617914 -0.6675697 -0.35435972 4290919680
2.5537457 -0.66538739 -0.36332083 4290789120
2.5177748 -0.65593058 -0.36772877 4290789120
2.5452504 -0.66300309 -0.38094798 4290789120
2.5441368 -0.6626277 -0.38954908 4290789120
2.5428946 -0.66221887 -0.39767689 4290789120
2.5447636 -0.66262019 -0.40583682 4290789120
2.5488799 -0.66360646 -0.41390631 4290919680
2.5469832 -0.66302729 -0.42052925 4290919680
2.547514 -0.66308004 -0.42706355 4290919680
2.5242562 -0.65694171 -0.42906275 4290789120
2.5057819 -0.65204966 -0.43128371 4290658560
2.5024428 -0.65109682 -0.43556276 4290658560
2.493331 -0.64864242 -0.438308 4290658560
2.4779806 -0.64456594 -0.43940663 4290658560
2.4170275 -0.62862986 -0.43180186 4290397440
2.4394906 -0.63439029 -0.43853939 4290528000
2.4391477 -0.63421935 -0.4406893 4290528000
2.435075 -0.63307869 -0.44164667 4290528000
2.4349 -0.63295156 -0.44279107 4290528000
2.4348106 -0.63284665 -0.44343239 4290528000
2.4205098 -0.62904847 -0.44096527 4290397440
2.4762368 -0.64344794 -0.45072967 4290658560
2.4911547 -0.64724076 -0.45252374 4290658560
2.4998467 -0.64941519 -0.45264652 4290658560
2.5204289 -0.65467757 -0.45437115 4290789120
2.5360103 -0.65863979 -0.454631 4290789120
2.5303483 -0.65708447 -0.4505426 4290789120
2.5332782 -0.65776032 -0.44746092 4290789120
2.5443802 -0.66055763 -0.44527894 4290919680
2.5447357 -0.66056454 -0.44067922 4290919680
2.5378134 -0.65868258 -0.43432054 4290789120
2.5426161 -0.65984386 -0.42946795 4290789120
2.5358534 -0.65800381 -0.42217022 4290789120
2.5264008 -0.65546632 -0.41397804 4290789120
2.5133989 -0.65200871 -0.40478814 4290789120
2.5238161 -0.65462649 -0.39890957 4290789120
2.5488765 -0.66104114 -0.39477679 4290789120
2.5670266 -0.66566229 -0.38898131 4290919680
2.5504789 -0.6612857 -0.37748131 4290789120
2.5244007 -0.65443957 -0.36429548 4290789120
2.5068393 -0.6498028 -0.35208893 4290658560
2.5245655 -0.65431303 -0.34443629 4290789120
2.5505471 -0.66096139 -0.33734125 4290789120
2.5531621 -0.66155344 -0.32665601 4290789120
2.5029135 -0.64844954 -0.30905339 4290658560
2.517899 -0.65224755 -0.29931489 4290658560
2.5476313 -0.65986407 -0.29078534 4290789120
2.548934 -0.66011602 -0.27853987 4290789120
2.5496895 -0.66022629 -0.26591519 4290789120
2.5098295 -0.64982063 -0.24895948 4290658560
2.5227008 -0.65306854 -0.23709561 4290658560
2.5355213 -0.65630245 -0.22483061 4290789120
2.5262542 -0.65381908 -0.21034202 4290658560
2.5095153 -0.64940274 -0.19514291 4290658560
2.5396001 -0.65710294 -0.1832955 4290789120
2.5357211 -0.65601426 -0.16865064 4290658560
2.5242312 -0.65295708 -0.15340382 4290658560
2.4849381 -0.64270967 -0.13659462 4290528000
2.5207572 -0.65188944 -0.12378411 4290658560
2.5330737 -0.65498972 -0.1094026 4290658560
2.5358179 -0.65561432 -0.094400182 4290658560
2.5201399 -0.65147644 -0.078687854 4290658560
2.5403616 -0.65661877 -0.063983701 4290658560
2.5489728 -0.65875912 -0.048743989 4290789120
2.5092728 -0.64841491 -0.032717425 4290658560
2.5528564 -0.65959167 -0.01771749 4290789120
2.5979984 -0.67116809 -0.0021681122 4290919680
2.7985973 -0.72289717 0.014754199 4291572480
2.7645433 -0.71400809 0.031440448 4291441920
2.9555054 -0.76322955 0.051606473 4292094720
2.9537287 -0.76267171 0.069502965 4292094720
2.8759742 -0.74249864 0.085055612 4291833600
2.6740561 -0.69027925 0.095160156 4291180800
2.9487958 -0.7611016 0.12255128 4292094720
2.9335864 -0.75707763 0.13931017 4292094720
2.8879178 -0.74519509 0.15411274 4291964160
2.737083 -0.70618212 0.16198951 4291441920
2.9458423 -0.75994444 0.19129536 4292094720
2.9395993 -0.75823539 0.20759654 4292094720
2.8878815 -0.74479866 0.22013393 4291964160
2.7331128 -0.70479149 0.22343028 4291441920
2.9737189 -0.76673728 0.25925547 4292225280
2.9622996 -0.76369369 0.27406952 4292225280
2.9209063 -0.75292444 0.28553054 4292094720
2.8365934 -0.73109597 0.29183134 4291833600
2.8766398 -0.74132109 0.3103714 4291964160
