# .PCD v0.7 - Point Cloud Data file format
VERSION 0.7
FIELDS x y z rgba
SIZE 4 4 4 4
TYPE F F F U
COUNT 1 1 1 1
WIDTH 1130
HEIGHT 1
VIEWPOINT 0 0 0 1 0 0 0
POINTS 1130
DATA ascii
2.7634292 2.2150915 0.62218559 4294053120
2.7490485 2.2037063 0.61677831 4293922560
2.7581801 2.2111688 0.61592621 4293922560
2.7607768 2.213393 0.61288142 4293922560
2.7748995 2.2248588 0.61165357 4294053120
2.7858667 2.2337956 0.60897398 4294053120
2.7803142 2.2294869 0.60196477 4294053120
2.7853298 2.2336528 0.59654272 4294053120
2.799015 2.244772 0.59223688 4294183680
2.777343 2.2275345 0.57978851 4294053120
2.7858572 2.2345071 0.57300532 4294053120
2.7671025 2.2196071 0.55998689 4293922560
2.7717271 2.2234597 0.55109936 4294053120
2.7770693 2.2278886 0.54168361 4294053120
2.7901714 2.2385437 0.53308684 4294053120
2.7867599 2.2359507 0.52068621 4294053120
2.7556696 2.2123342 0.4266139 4293922560
2.7602444 2.2161496 0.41169193 4293922560
2.787652 2.2382987 0.39952865 4294053120
2.785114 2.2364049 0.38248253 4293922560
2.7607267 2.2169647 0.36217457 4293922560
2.7507427 2.2090893 0.34356615 4293792000
2.7693086 2.2241426 0.32808611 4293922560
2.7627339 2.2190051 0.30918849 4293922560
2.7389708 2.2000601 0.28822789 4293792000
2.7437756 2.2040613 0.27008224 4293792000
2.7614806 2.2184265 0.25275469 4293792000
2.7669508 2.222964 0.23386948 4293922560
2.7281199 2.1919084 0.21122104 4293661440
2.7598774 2.2175665 0.19385439 4293792000
2.768785 2.2248671 0.17437826 4293922560
2.7666559 2.2232993 0.15396774 4293792000
2.7303307 2.1942492 0.13177033 4293661440
2.7467532 2.2075894 0.11212123 4293792000
2.7471468 2.2080476 0.091570437 4293792000
2.7424119 2.2043839 0.070781447 4293792000
2.7289186 2.1936789 0.049826484 4293661440
2.7318633 2.1961873 0.02919648 4293661440
2.747035 2.2085261 0.0085272854 4293792000
2.709708 2.1786566 -0.012146973 4293530880
2.7295446 2.194747 -0.032932639 4293661440
2.7352583 2.1994824 -0.053707112 4293661440
2.742254 2.2052498 -0.074545935 4293792000
2.7199254 2.1874342 -0.094393089 4293661440
2.7470579 2.2093971 -0.11589096 4293792000
2.7509334 2.2126565 -0.1365153 4293792000
2.7518961 2.2135732 -0.15688428 4293792000
2.7125282 2.1820467 -0.17450385 4293661440
2.7362194 2.2012463 -0.19587533 4293661440
2.7415555 2.2056808 -0.21593101 4293792000
2.7441328 2.2078965 -0.23559181 4293792000
2.7179091 2.1869378 -0.25235859 4293661440
2.7487707 2.2119129 -0.27418011 4293792000
2.7532523 2.2156615 -0.29331401 4293792000
2.7616405 2.2225549 -0.31262922 4293922560
2.7391467 2.2045937 -0.32801381 4293792000
2.739027 2.2046392 -0.34556851 4293792000
2.7478545 2.2118866 -0.36392507 4293792000
2.7421639 2.207448 -0.37997636 4293792000
2.743645 2.2087822 -0.39657339 4293792000
2.7289367 2.1970825 -0.41031203 4293792000
2.7542062 2.2175698 -0.42966038 4293922560
2.762912 2.2247226 -0.44613373 4293922560
2.7630327 2.2249627 -0.46076778 4293922560
2.7618845 2.2241812 -0.47466579 4293922560
2.748122 2.2132404 -0.48578602 4293922560
2.7249303 2.1947038 -0.49451223 4293792000
2.7317553 2.2003422 -0.50804532 4293792000
2.7332287 2.2016706 -0.52004117 4293792000
2.7357421 2.2038367 -0.53165716 4293792000
2.7319195 2.2008991 -0.54142839 4293792000
2.7376304 2.2056417 -0.55247313 4293922560
2.7366033 2.2049558 -0.56153929 4293922560
2.7349429 2.2037599 -0.56981897 4293922560
2.7312455 2.200922 -0.57699943 4293792000
2.723032 2.1944447 -0.58252472 4293792000
2.7190704 2.1913927 -0.58825195 4293792000
2.6904449 2.1684618 -0.58788788 4293661440
2.7042935 2.1797638 -0.59608471 4293792000
2.7006938 2.1770024 -0.59976107 4293792000
2.6736944 2.1553769 -0.59749705 4293661440
2.6801307 2.1607046 -0.60197645 4293661440
2.6835895 2.1636322 -0.6050933 4293661440
2.6794736 2.1604524 -0.60579461 4293661440
2.6792853 2.1604397 -0.60667199 4293661440
2.6987174 2.1762486 -0.61128289 4293792000
2.7016664 2.1787667 -0.61144513 4293792000
2.6871963 2.1672366 -0.60695493 4293661440
2.7189913 2.1930203 -0.61218762 4293792000
2.718498 2.1927636 -0.60941178 4293792000
2.7200289 2.1941392 -0.6063754 4293792000
2.7292044 2.2016823 -0.60431892 4293922560
2.7341349 2.2058017 -0.60059446 4293922560
2.7269478 2.2001448 -0.59351355 4293792000
2.7399251 2.2107573 -0.59011531 4293922560
2.7319689 2.2044792 -0.58151269 4293922560
2.7249331 2.1989434 -0.57247055 4293792000
2.719193 2.1944523 -0.56307393 4293792000
2.7119906 2.1887805 -0.55276394 4293792000
2.7069373 2.1848426 -0.54229498 4293792000
2.7180159 2.1939254 -0.53440964 4293792000
2.7340956 2.2070465 -0.52678889 4293792000
2.740859 2.2126484 -0.51667768 4293922560
2.7327187 2.2062185 -0.50317359 4293792000
2.7160854 2.1929309 -0.48764372 4293792000
2.7103899 2.188473 -0.47362643 4293661440
2.7260811 2.2012844 -0.46275797 4293792000
2.7425039 2.2146878 -0.45132643 4293792000
2.7393413 2.2122762 -0.43609425 4293792000
2.7087638 2.1877224 -0.41619352 4293661440
2.7231944 2.1995187 -0.4028281 4293792000
2.7342436 2.208585 -0.38836387 4293792000
2.739418 2.2129068 -0.3725352 4293792000
2.7387984 2.2125485 -0.35547629 4293792000
2.7106245 2.189929 -0.33462864 4293661440
2.7220902 2.1993334 -0.31840816 4293661440
2.7257316 2.2024171 -0.30082208 4293661440
2.7295284 2.2056267 -0.28287175 4293792000
2.7151341 2.1941364 -0.26279783 4293661440
2.7327738 2.2085328 -0.24551171 4293792000
2.7351007 2.2105556 -0.22644171 4293792000
2.736701 2.2119911 -0.20703588 4293792000
2.7277486 2.2048969 -0.18665864 4293661440
2.729696 2.2066128 -0.16687392 4293661440
2.7362483 2.2120516 -0.14712626 4293792000
2.7369349 2.2127488 -0.12684947 4293792000
2.7185955 2.1980629 -0.10568457 4293661440
2.7435842 2.2184098 -0.08603806 4293792000
2.7484217 2.2224641 -0.065441363 4293792000
2.728179 2.2062368 -0.044292659 4293661440
2.7410185 2.2167625 -0.023688089 4293792000
2.7568121 2.2296786 -0.0028648826 4293792000
2.7463388 2.2213507 0.018030206 4293792000
2.7022727 2.1858485 0.038271934 4293530880
2.772825 2.2430618 0.060296945 4293922560
2.765955 2.237648 0.081057429 4293922560
2.75594 2.2296894 0.10151199 4293792000
2.618921 2.1189706 0.11607834 4293269760
2.7731848 2.2439296 0.14355247 4293922560
2.7716265 2.2428126 0.16394262 4293922560
2.7358639 2.2140157 0.18185952 4293792000
2.4952855 2.0194557 0.18395922 4292747520
2.7819321 2.251586 0.22503932 4293922560
2.7637615 2.2370231 0.24314429 4293922560
2.7356796 2.2144356 0.25978789 4293792000
2.494431 2.0192831 0.2540485 4292747520
2.7929862 2.2611136 0.30336958 4294053120
2.799912 2.2668662 0.32274976 4294053120
2.7737458 2.2458258 0.337836 4293922560
2.6438918 2.1408241 0.33892018 4293400320
2.5370665 2.0544569 0.34108412 4292878080
2.7866676 2.2567229 0.3916434 4294053120
2.7798679 2.2513611 0.40721488 4294053120
2.7429056 2.2215688 0.41765988 4293792000
2.6330152 2.1327019 0.41570285 4293400320
2.5819685 2.0914891 0.42167592 4293139200
2.794045 2.2634242 0.47098318 4294053120
2.7908309 2.2609658 0.48456582 4294053120
2.7705734 2.2446985 0.49452639 4294053120
2.7367892 2.2174692 0.50125563 4293922560
2.6392236 2.1385546 0.49514079 4293400320
2.5738447 2.0857122 0.49378806 4293139200
2.7882864 2.25963 0.54613882 4294053120
2.7821054 2.2547657 0.55548906 4294053120
2.7797046 2.2529645 0.56492364 4294053120
2.7938709 2.2645919 0.57711321 4294183680
2.7611365 2.2382026 0.57889444 4294053120
2.7502463 2.2295179 0.5844534 4293922560
2.7638359 2.2406783 0.59454149 4294053120
2.7541559 2.2329743 0.59894621 4294053120
2.7094114 2.1968379 0.59491193 4293792000
2.7155871 2.2019868 0.60128272 4293792000
2.7149587 2.2016184 0.60545594 4293792000
2.7258968 2.2106304 0.61151516 4293922560
2.7216218 2.2073052 0.61345667 4293922560
2.7250907 2.2102606 0.61642438 4293922560
2.721005 2.2070885 0.61696219 4293922560
2.7208397 2.2070961 0.61766416 4293922560
2.7062392 2.1953933 0.61436558 4293792000
2.7093248 2.1980376 0.61436158 4293792000
2.7502725 2.2314012 0.62220126 4294053120
2.739783 2.2230337 0.61766249 4293922560
2.7595801 2.2392404 0.61921608 4294053120
2.7621648 2.2414818 0.61615914 4294053120
2.7509682 2.2325389 0.60932231 4293922560
2.7657177 2.244653 0.60751176 4294053120
2.7670672 2.2458923 0.60201967 4294053120
2.7789495 2.2556815 0.59808767 4294053120
2.7856758 2.2612865 0.59230542 4294183680
2.7746654 2.2524934 0.5820784 4294053120
2.7725773 2.2509427 0.57308674 4294053120
2.7654133 2.2452707 0.56241363 4294053120
2.7569678 2.2385573 0.55088496 4293922560
2.7665682 2.2464969 0.54232174 4294053120
2.7810893 2.2584331 0.53400558 4294053120
2.7812455 2.2587049 0.52226049 4294053120
2.7425303 2.2286017 0.4266139 4293922560
2.7617888 2.2443953 0.41389677 4293922560
2.784152 2.2627141 0.40094078 4294053120
2.7708275 2.2520299 0.38234669 4293922560
2.7514195 2.2363992 0.36268702 4293922560
2.7515843 2.2366767 0.34532306 4293922560
2.7624371 2.2456427 0.3288464 4293922560
2.7495546 2.2353137 0.30919534 4293922560
2.7297704 2.2193723 0.28864464 4293792000
2.7336833 2.2226961 0.27038792 4293792000
2.7521739 2.237874 0.2531209 4293922560
2.7519765 2.2378571 0.23373057 4293792000
2.7292724 2.219537 0.21233611 4293792000
2.752059 2.2382114 0.19424611 4293792000
2.761071 2.2456849 0.17474157 4293922560
2.758137 2.2434425 0.15424624 4293922560
2.7260277 2.2174673 0.13221115 4293661440
2.748055 2.2355287 0.11273127 4293792000
2.7445705 2.2328374 0.091943458 4293792000
2.7419305 2.2308328 0.071129762 4293792000
2.7329173 2.2236426 0.050161269 4293792000
2.729445 2.2209597 0.029334115 4293792000
2.7369249 2.2271891 0.0085614109 4293792000
2.7085731 2.2042592 -0.012174539 4293661440
2.7235577 2.2165959 -0.032991249 4293661440
2.7328188 2.2242761 -0.053888723 4293792000
2.740788 2.2309053 -0.074834548 4293792000
2.7100961 2.2060647 -0.094473623 4293661440
2.7378123 2.2287691 -0.11602429 4293792000
2.7455425 2.2352054 -0.13686977 4293792000
2.7464976 2.2361267 -0.1572953 4293792000
2.7142854 2.210042 -0.17542192 4293661440
2.7231474 2.2174001 -0.19584137 4293661440
2.7284572 2.2218661 -0.21589634 4293792000
2.7348902 2.2272477 -0.23589018 4293792000
2.7165229 2.2124317 -0.25340527 4293661440
2.7395015 2.2312891 -0.27453119 4293792000
2.7414842 2.2330475 -0.29342592 4293792000
2.7453539 2.2363429 -0.31224078 4293792000
2.7299159 2.2239099 -0.3284412 4293792000
2.7228501 2.2182961 -0.34514019 4293792000
2.7347209 2.2281103 -0.36388779 4293792000
2.7437015 2.2355704 -0.38197803 4293922560
2.7382336 2.2312584 -0.39765513 4293792000
2.7016423 2.2015829 -0.4081229 4293661440
2.7525821 2.2432382 -0.43143299 4293922560
2.7497029 2.2410355 -0.44609746 4293922560
2.7536654 2.2444091 -0.46137598 4293922560
2.7448373 2.2373569 -0.47396734 4293922560
2.7426596 2.2357254 -0.48711559 4293922560
2.7157369 2.2139208 -0.49517879 4293792000
2.7186909 2.2164712 -0.50801301 4293792000
2.7308898 2.2265594 -0.52206171 4293922560
2.7267191 2.2233016 -0.53242016 4293922560
2.7310402 2.2269678 -0.54382646 4293922560
2.7245343 2.2218051 -0.55244541 4293922560
2.7235112 2.2211132 -0.56151301 4293922560
2.7207654 2.2190163 -0.56956547 4293922560
2.7235966 2.2214677 -0.57812661 4293922560
2.7176456 2.2167563 -0.58414632 4293792000
2.7098787 2.2105627 -0.58906287 4293792000
2.6920824 2.1961863 -0.59105694 4293792000
2.6815398 2.187726 -0.59389639 4293661440
2.6877663 2.1929464 -0.59974748 4293792000
2.6715817 2.1798813 -0.5998854 4293661440
2.6711156 2.1796408 -0.60282856 4293661440
2.674556 2.1825881 -0.60595095 4293661440
2.6704583 2.179384 -0.60665685 4293661440
2.6702695 2.1793697 -0.60753798 4293661440
2.6857924 2.1921794 -0.61128342 4293792000
2.6827404 2.1898289 -0.61008716 4293661440
2.6888206 2.1949325 -0.61025089 4293792000
2.7059658 2.20907 -0.61219639 4293792000
2.7054737 2.2088101 -0.60942334 4293792000
2.7168508 2.2182407 -0.60859752 4293922560
2.7191796 2.2202847 -0.60501587 4293922560
2.7210319 2.2219396 -0.60061508 4293922560
2.7207508 2.2218525 -0.59504038 4293922560
2.7267256 2.2268746 -0.59012783 4293922560
2.7188725 2.2206035 -0.58154273 4293922560
2.7187483 2.2206445 -0.57395589 4293922560
2.7099786 2.2136233 -0.56390572 4293792000
2.6989865 2.2047861 -0.5528034 4293792000
2.6939564 2.2008178 -0.5423376 4293792000
2.7118702 2.2155945 -0.53581703 4293792000
2.7240455 2.2256846 -0.52743179 4293922560
2.7430356 2.241344 -0.51963371 4293922560
2.7265084 2.2279825 -0.50450647 4293922560
2.7107239 2.2152262 -0.48908675 4293792000
2.7050583 2.2107379 -0.47503635 4293792000
2.713001 2.2173715 -0.4628242 4293792000
2.7273128 2.2292116 -0.45106044 4293792000
2.730269 2.2317708 -0.43681911 4293792000
2.6953807 2.2033937 -0.41620988 4293661440
2.7139699 2.2187324 -0.40347895 4293792000
2.7326624 2.2341568 -0.39009422 4293792000
2.7339673 2.2353671 -0.37367335 4293792000
2.7295024 2.2318594 -0.35606763 4293792000
2.7014647 2.2090752 -0.33519775 4293661440
2.7167311 2.2217014 -0.31940889 4293792000
2.7203577 2.2248099 -0.30177501 4293792000
2.716423 2.2217343 -0.28297204 4293792000
2.7012298 2.2094495 -0.26281589 4293661440
2.7235124 2.2278183 -0.24596614 4293792000
2.7327805 2.235543 -0.22745015 4293792000
2.7278547 2.2316563 -0.20747352 4293792000
2.7262423 2.2304804 -0.18756916 4293792000
2.7204521 2.2258859 -0.16722675 4293792000
2.7269735 2.2313645 -0.14745295 4293792000
2.7292137 2.2333407 -0.12722197 4293792000
2.7164352 2.2230265 -0.10623147 4293661440
2.7332683 2.2369454 -0.086252004 4293792000
2.7429578 2.2450194 -0.065752335 4293792000
2.7181699 2.224874 -0.044469368 4293661440
2.7338099 2.237819 -0.023868132 4293792000
2.7436373 2.2460074 -0.0029949558 4293792000
2.7483168 2.2499824 0.017998975 4293792000
2.6892922 2.2018013 0.03814254 4293530880
2.7633734 2.2625988 0.06024773 4293922560
2.7712321 2.2691789 0.081469357 4293922560
2.7430823 2.2462728 0.10139229 4293792000
2.621031 2.1464643 0.11660451 4293269760
2.7622573 2.262265 0.1435419 4293922560
2.7728252 2.2710655 0.16466968 4293922560
2.7166591 2.2252054 0.18132202 4293661440
2.4902482 2.0398841 0.18435292 4292747520
2.7772915 2.275161 0.22561395 4294053120
2.7725239 2.2714007 0.24495915 4293922560
2.7234261 2.2313204 0.25974262 4293792000
2.4978678 2.0466502 0.2555083 4292747520
2.7901244 2.2862597 0.30439097 4294053120
2.7826064 2.2802453 0.32217452 4294053120
2.7534871 2.2565277 0.33686179 4293922560
2.6350348 2.1595926 0.33929706 4293400320
2.521028 2.0662887 0.34045276 4292878080
2.7844222 2.2823181 0.39309639 4294053120
2.7665076 2.2677796 0.40709692 4294053120
2.7404742 2.2465832 0.41919073 4293922560
2.6165216 2.1451068 0.41498759 4293400320
2.577229 2.1130288 0.42283285 4293139200
2.7834804 2.2822776 0.47136185 4294053120
2.7804792 2.2799628 0.48499712 4294053120
2.754406 2.2587278 0.49391684 4294053120
2.6934853 2.2089117 0.49561459 4293792000
2.6418352 2.1666927 0.49793789 4293530880
2.5729384 2.1103222 0.49591783 4293269760
2.7737849 2.2752023 0.5458402 4294053120
2.7794204 2.2799706 0.55755556 4294183680
2.7663336 2.269381 0.56484908 4294053120
2.7663033 2.2695017 0.57411104 4294053120
2.7516675 2.2576387 0.57963347 4294053120
2.7553189 2.2607796 0.58830261 4294053120
2.7379775 2.2466946 0.59177268 4293922560
2.7485232 2.2554927 0.60056257 4294053120
2.7032282 2.2184649 0.5963819 4293792000
2.7139421 2.2273998 0.60378718 4293922560
2.7095041 2.2239001 0.60713029 4293922560
2.7158175 2.2292249 0.61217499 4293922560
2.7191746 2.2321234 0.61584985 4293922560
2.7226238 2.2350979 0.61883163 4293922560
2.7223611 2.2350254 0.62024814 4293922560
2.7115381 2.2262824 0.6185292 4293922560
2.7076616 2.2232423 0.6176675 4293922560
2.7000754 2.217155 0.61523795 4293792000
2.7476745 2.2563856 0.62463945 4294053120
2.7372348 2.2479565 0.62009865 4294053120
2.7500842 2.2586536 0.62010294 4294053120
2.7488482 2.2577832 0.61619419 4294053120
2.7559812 2.2637868 0.61343187 4294053120
2.7630446 2.2697341 0.60991395 4294053120
2.7643883 2.2709835 0.6044066 4294053120
2.7640114 2.2708192 0.5978176 4294053120
2.7674646 2.273802 0.59135407 4294053120
2.7689044 2.2751305 0.58376098 4294053120
2.7626774 2.2701595 0.57389069 4294053120
2.7509782 2.2606907 0.56227857 4294053120
2.7505329 2.2604697 0.55235875 4294053120
2.7756908 2.2812912 0.54685062 4294183680
2.7817988 2.2864575 0.53684115 4294183680
2.7784257 2.2838314 0.52437663 4294183680
2.7333148 2.2468436 0.42714608 4293922560
2.7598207 2.2687774 0.41551241 4294053120
2.771338 2.2783914 0.40093726 4294053120
2.765986 2.274137 0.38343808 4294053120
2.7464387 2.2582102 0.36369726 4293922560
2.7361686 2.2499099 0.34496701 4293922560
2.7551794 2.2656872 0.32948768 4293922560
2.7497551 2.2613714 0.31063426 4293922560
2.728749 2.2442398 0.28985527 4293792000
2.7365935 2.2508357 0.27190951 4293792000
2.7478187 2.2602131 0.25386867 4293922560
2.7508631 2.2628622 0.23469371 4293922560
2.7205579 2.2380764 0.21261206 4293792000
2.7417006 2.2556138 0.19438238 4293792000
2.757534 2.2687855 0.17529462 4293922560
2.7554266 2.2671967 0.15477465 4293922560
2.7199836 2.2381771 0.13249339 4293792000
2.73825 2.2533522 0.11281111 4293792000
2.7455876 2.2595351 0.092362873 4293922560
2.7331572 2.2494493 0.07118775 4293792000
2.7156954 2.2352209 0.050031193 4293792000
2.7232006 2.2415419 0.029355315 4293792000
2.7343512 2.2508643 0.008543279 4293792000
2.6995628 2.2223694 -0.012241497 4293661440
2.714864 2.2351089 -0.033091962 4293661440
2.7240813 2.242841 -0.054021221 4293792000
2.7204349 2.2399821 -0.074680835 4293792000
2.7053182 2.2276778 -0.094803482 4293661440
2.7251887 2.2441838 -0.1160862 4293792000
2.7367387 2.2538395 -0.13712686 4293792000
2.7336626 2.2514503 -0.15735109 4293792000
2.7017667 2.2253232 -0.1754882 4293661440
2.7182934 2.239079 -0.19646628 4293792000
2.7266564 2.2461114 -0.21682334 4293792000
2.7265546 2.246171 -0.23633194 4293792000
2.7016776 2.2258196 -0.25325972 4293661440
2.7286732 2.2482042 -0.27478635 4293792000
2.7396009 2.2573524 -0.29465747 4293922560
2.7361445 2.2546487 -0.31271037 4293922560
2.7134857 2.2361205 -0.32805222 4293792000
2.7248738 2.2456489 -0.34707296 4293792000
2.7328432 2.2523608 -0.36539921 4293922560
2.7278991 2.24843 -0.38161406 4293792000
2.733259 2.2529919 -0.3988483 4293922560
2.6998968 2.2256343 -0.40982431 4293792000
2.7429352 2.2612574 -0.43198901 4293922560
2.7408321 2.2596681 -0.446794 4293922560
2.7447734 2.2630625 -0.46209165 4293922560
2.7466891 2.2647867 -0.47655845 4293922560
2.729991 2.2511625 -0.48718423 4293922560
2.7100668 2.2348759 -0.49650472 4293792000
2.709949 2.2349219 -0.50879437 4293792000
2.7154505 2.2396023 -0.52158242 4293922560
2.7179348 2.2417948 -0.53322893 4293922560
2.7184215 2.2423396 -0.54388469 4293922560
2.7188034 2.2427983 -0.5538981 4293922560
2.7185433 2.2427273 -0.56314355 4293922560
2.7119994 2.2374718 -0.57041579 4293922560
2.7140543 2.2393105 -0.57882231 4293922560
2.7088904 2.235193 -0.58501077 4293922560
2.6977298 2.2261264 -0.58918399 4293792000
2.6758387 2.2082036 -0.59025347 4293792000
2.6797884 2.2116044 -0.59629554 4293792000
2.6673865 2.2015102 -0.59799075 4293661440
2.6668317 2.2011931 -0.60162216 4293661440
2.6732032 2.2065933 -0.60611951 4293792000
2.6659915 2.2007813 -0.60682905 4293661440
2.6687477 2.2031975 -0.60909241 4293661440
2.6685588 2.2031827 -0.60997212 4293661440
2.6654267 2.2007375 -0.60946417 4293661440
2.6733775 2.2074435 -0.6107747 4293792000
2.6870239 2.2188535 -0.61266327 4293792000
2.6900346 2.2214818 -0.6114009 4293792000
2.6929679 2.2240462 -0.60940015 4293792000
2.705878 2.2348516 -0.60892522 4293922560
2.706285 2.2353306 -0.60490799 4293922560
2.7084541 2.2372653 -0.60057384 4293922560
2.7119751 2.2403171 -0.59582794 4293922560
2.7072785 2.2365804 -0.58858627 4293922560
2.7139101 2.2422025 -0.58311683 4293922560
2.707171 2.2367778 -0.57409936 4293922560
2.7015693 2.2322924 -0.56469375 4293792000
2.6942182 2.2263606 -0.55431026 4293792000
2.6921661 2.224807 -0.54440856 4293792000
2.6993337 2.2308733 -0.53572446 4293792000
2.7114527 2.2410324 -0.52733219 4293922560
2.7265413 2.2536473 -0.51880109 4293922560
2.7108514 2.2408221 -0.50382614 4293792000
2.6981916 2.2305 -0.48896766 4293792000
2.6925516 2.22598 -0.47491089 4293792000
2.7080979 2.2389755 -0.46400088 4293792000
2.7147021 2.2445796 -0.45092067 4293792000
2.7252924 2.2534797 -0.43790153 4293922560
2.6867423 2.221746 -0.41665214 4293661440
2.7052469 2.237191 -0.40389192 4293792000
2.7137411 2.244359 -0.38902754 4293792000
2.7257643 2.2544467 -0.3741107 4293922560
2.7252502 2.2541659 -0.35698628 4293792000
2.6896751 2.2248824 -0.33510351 4293661440
2.7041624 2.2370095 -0.31921962 4293792000
2.7091506 2.2412791 -0.30173337 4293792000
2.7076933 2.240217 -0.28317302 4293792000
2.6895928 2.2253838 -0.26269534 4293661440
2.7109072 2.2431629 -0.24575429 4293792000
2.7162869 2.2477582 -0.22691132 4293792000
2.7186415 2.2498505 -0.20751198 4293792000
2.7097735 2.2426553 -0.18707682 4293792000
2.7117026 2.244395 -0.16723324 4293792000
2.7181928 2.2499108 -0.14742605 4293792000
2.723501 2.2544487 -0.12730598 4293792000
2.711551 2.2447002 -0.10629078 4293792000
2.7199912 2.2518313 -0.08598505 4293792000
2.7375627 2.2665236 -0.065676101 4293792000
2.7236772 2.2551713 -0.044512793 4293792000
2.7313073 2.2616336 -0.023699729 4293792000
2.73785 2.2671962 -0.0027418777 4293792000
2.7394247 2.2686453 0.018287307 4293922560
2.6876025 2.2258713 0.038556013 4293661440
2.7568731 2.2833872 0.060654186 4293922560
2.7692158 2.2937567 0.082060024 4294053120
2.7342045 2.2649016 0.10180324 4293792000
2.6127167 2.1644046 0.11703314 4293269760
2.7522836 2.280169 0.14396106 4293922560
2.7522621 2.280297 0.16448118 4293922560
2.7177701 2.251864 0.18250886 4293792000
2.4902165 2.0634518 0.18545409 4292747520
2.7647097 2.2910497 0.22590889 4294053120
2.7625189 2.2893806 0.24548152 4294053120
2.705807 2.2425251 0.25952661 4293792000
2.4970083 2.0696087 0.25685048 4292878080
2.7784734 2.3030443 0.30479696 4294053120
2.7735093 2.2990766 0.32287902 4294053120
2.7514198 2.2809117 0.33843371 4293922560
2.6189563 2.1712389 0.33903882 4293400320
2.5200276 2.0893559 0.34213161 4293008640
2.7753029 2.301152 0.39388177 4294053120
2.7678745 2.2951393 0.40943784 4294053120
2.7277308 2.2619965 0.4194192 4293922560
2.6196337 2.1724949 0.41763642 4293400320
2.5652428 2.1275237 0.42303687 4293139200
2.7821808 2.3075924 0.47355816 4294183680
2.7713599 2.2987642 0.48587272 4294053120
2.749217 2.2805431 0.49548876 4294053120
2.7292476 2.2641227 0.50473171 4293922560
2.6363995 2.187238 0.49941158 4293530880
2.5716255 2.1336358 0.49814531 4293269760
2.7760968 2.3034296 0.54901695 4294183680
2.770592 2.2990088 0.55854154 4294183680
2.7572758 2.2881055 0.56578046 4294053120
2.7572327 2.2882161 0.57504308 4294053120
2.7457013 2.2787919 0.58120972 4294053120
2.7493336 2.2819524 0.58988816 4294053120
2.7328296 2.268399 0.59352952 4294053120
2.7425656 2.2766261 0.60216033 4294053120
2.7126491 2.251936 0.60134423 4293922560
2.7043512 2.2451909 0.60454106 4293922560
2.7150955 2.2542551 0.61129123 4293922560
2.7107656 2.2508039 0.61394507 4293922560
2.6529529 2.2029417 0.60370028 4293661440
2.7175393 2.256717 0.62059224 4293922560
2.7203085 2.2591608 0.62269437 4293922560
2.7095361 2.2503583 0.62096608 4293922560
2.7018902 2.2441518 0.61922395 4293922560
2.701916 2.2443166 0.61851454 4293922560
2.6876419 2.2326026 0.61381477 4293792000
2.7351179 2.2721858 0.62246871 4294053120
2.7403319 2.2766628 0.62073231 4294053120
2.7377043 2.2746251 0.61649168 4294053120
2.7537844 2.2881315 0.61572123 4294053120
2.7539945 2.2884524 0.61065763 4294053120
2.7591255 2.2928627 0.60596198 4294183680
2.7587531 2.2926996 0.59934217 4294183680
2.7652285 2.298228 0.59349728 4294183680
2.7666655 2.2995694 0.58586109 4294183680
2.7646027 2.2980015 0.57680744 4294183680
2.7537143 2.2890971 0.56528848 4294053120
2.7491527 2.2854512 0.55446917 4294053120
2.7521527 2.2880914 0.54454154 4294053120
2.7688754 2.3021414 0.53662437 4294183680
2.7723658 2.305191 0.52544516 4294183680
2.7270584 2.269299 0.4282918 4293922560
2.7392056 2.2795527 0.41446537 4293922560
2.7624094 2.2990098 0.40164062 4294053120
2.7609901 2.2979753 0.38465843 4294053120
2.7323139 2.2742534 0.36363748 4293922560
2.7340722 2.2758625 0.34643027 4293922560
2.7481706 2.2877443 0.33029938 4293922560
2.7386327 2.2799499 0.31093386 4293922560
2.7152123 2.2605965 0.28987119 4293792000
2.729913 2.2729812 0.27261645 4293922560
2.7404735 2.2819197 0.25447327 4293922560
2.7430334 2.2841973 0.23521587 4293922560
2.7156956 2.2615769 0.21331581 4293792000
2.7419724 2.2836056 0.19539927 4293922560
2.7400117 2.2821183 0.17508003 4293922560
2.7417514 2.2837133 0.15480772 4293922560
2.7180004 2.2640748 0.13309245 4293792000
2.7284982 2.2729645 0.11300794 4293792000
2.7288866 2.2734332 0.09229932 4293792000
2.7230003 2.2686744 0.071319692 4293792000
2.7106612 2.2585382 0.050232448 4293792000
2.713522 2.2610664 0.029444175 4293792000
2.7107859 2.2589307 0.0085614109 4293792000
2.6903853 2.242074 -0.012209401 4293661440
2.7052245 2.2545846 -0.033085193 4293792000
2.7067142 2.25597 -0.053888723 4293792000
2.7146056 2.2626917 -0.074834548 4293792000
2.6887524 2.2412856 -0.094633661 4293661440
2.7161052 2.264231 -0.11621471 4293792000
2.727216 2.2736385 -0.13726772 4293792000
2.7162492 2.2646403 -0.15706372 4293792000
2.6961138 2.2479963 -0.17592868 4293661440
2.7061698 2.256525 -0.19649823 4293792000
2.7180271 2.266557 -0.21714634 4293792000
2.7130108 2.2625184 -0.23626117 4293792000
2.6951506 2.2477674 -0.25383785 4293792000
2.7189462 2.2677579 -0.27510098 4293792000
2.7308133 2.277801 -0.29510489 4293922560
2.7263758 2.274245 -0.31307536 4293922560
2.7183425 2.2676888 -0.33020583 4293792000
2.7113352 2.2619877 -0.34699842 4293792000
2.7192645 2.2687478 -0.36532438 4293922560
2.7143445 2.2647874 -0.38153949 4293792000
2.7120471 2.2630153 -0.39765513 4293792000
2.6971562 2.2507334 -0.41137961 4293792000
2.7293038 2.2777054 -0.43191546 4293922560
2.7302575 2.2786469 -0.44722044 4293922560
2.7387447 2.2858763 -0.46330789 4294053120
2.7337382 2.2818434 -0.47661021 4293922560
2.7270682 2.2764211 -0.48902485 4293922560
2.7003956 2.2543001 -0.49713787 4293792000
2.7033143 2.2568808 -0.51001966 4293922560
2.7057469 2.2590559 -0.52225244 4293922560
2.7054918 2.2589872 -0.53337938 4293922560
2.7117317 2.2643421 -0.5451991 4293922560
2.7021911 2.2565196 -0.55320942 4293922560
2.7046895 2.25875 -0.56302124 4293922560
2.7098751 2.2632253 -0.57276815 4293922560
2.6970665 2.2526717 -0.57802838 4293922560
2.6916411 2.2482836 -0.58414882 4293792000
2.6918766 2.2486241 -0.59080583 4293922560
2.6806827 2.2394164 -0.59424353 4293792000
2.6808248 2.2396779 -0.59947789 4293792000
2.660918 2.2231889 -0.59949702 4293792000
2.6641431 2.2260256 -0.60399908 4293792000
2.6674562 2.2289362 -0.60782361 4293792000
2.619935 2.1893671 -0.59931576 4293530880
2.663018 2.2255118 -0.61081696 4293792000
2.6552715 2.2191796 -0.60996819 4293661440
2.6589541 2.2223992 -0.61102813 4293792000
2.6781981 2.2386267 -0.61494517 4293792000
2.6706173 2.2324326 -0.61198252 4293792000
2.6841912 2.2439225 -0.61314464 4293792000
2.6946666 2.2528236 -0.61286122 4293922560
2.6881583 2.2475259 -0.60799605 4293922560
2.7003589 2.2578707 -0.60664153 4293922560
2.7055416 2.2623487 -0.60297441 4293922560
2.7022388 2.2597311 -0.59671056 4293922560
2.7005911 2.2584975 -0.59012783 4293922560
2.7003791 2.2584646 -0.58317703 4293922560
2.7050273 2.2624962 -0.57658631 4293922560
2.699456 2.2579806 -0.5671531 4293922560
2.6807806 2.2425027 -0.55438942 4293792000
2.6825268 2.2441065 -0.54526442 4293792000
2.7010312 2.2597308 -0.53884196 4293922560
2.7093022 2.2667954 -0.52965599 4293922560
2.7235606 2.2788703 -0.52094001 4293922560
2.7079525 2.2659552 -0.50592482 4293922560
2.6915619 2.2523837 -0.49033204 4293792000
2.6791131 2.2421095 -0.47503635 4293792000
2.6983819 2.2583792 -0.46478847 4293792000
2.7011509 2.2608411 -0.45106044 4293792000
2.7040772 2.2634346 -0.43681911 4293792000
2.6809425 2.2442131 -0.41799051 4293792000
2.6955488 2.2565842 -0.40462238 4293792000
2.7102532 2.2690389 -0.39064345 4293922560
2.7121532 2.2707746 -0.37428331 4293922560
2.7146926 2.2730455 -0.35756695 4293922560
2.6762428 2.2409942 -0.3352859 4293661440
2.694705 2.2565978 -0.3198894 4293792000
2.6986754 2.260067 -0.30227098 4293792000
2.7014303 2.2625186 -0.28413758 4293792000
2.683744 2.2478492 -0.26364541 4293661440
2.6987412 2.2605548 -0.24609144 4293792000
2.7037151 2.2648656 -0.22721235 4293792000
2.7123775 2.2722671 -0.20829624 4293792000
2.7031276 2.2646625 -0.18778186 4293792000
2.7088768 2.269624 -0.16812965 4293792000
2.7084448 2.269407 -0.14787106 4293792000
2.7098975 2.2707689 -0.12754643 4293792000
2.7010715 2.2635179 -0.10665497 4293792000
2.707016 2.2686439 -0.086252004 4293792000
2.7269545 2.2854996 -0.066002697 4293922560
2.6997225 2.2628205 -0.044595957 4293792000
2.7253292 2.2844288 -0.024024887 4293922560
2.7318394 2.2900319 -0.0030110045 4293922560
2.7279751 2.2869387 0.01803907 4293922560
2.6711149 2.239414 0.038252275 4293661440
2.7461698 2.3024857 0.060453556 4293922560
2.7630472 2.3167841 0.082016885 4294053120
2.7312737 2.2902882 0.10193543 4293922560
2.6073275 2.1864936 0.11712048 4293400320
2.7530861 2.3088737 0.14445372 4294053120
2.7461727 2.3032227 0.16466968 4293922560
2.7187371 2.2803578 0.183222 4293792000
2.4846663 2.0841625 0.18572514 4292878080
2.7564776 2.3123081 0.22609681 4294053120
2.7611539 2.3163786 0.24632286 4294053120
2.7117562 2.2750833 0.26114053 4293792000
2.4990506 2.0967631 0.25811121 4292878080
2.7767475 2.3299062 0.30587298 4294183680
2.7698076 2.3242314 0.3238067 4294053120
2.7241707 2.2860818 0.33651167 4293922560
2.6203616 2.1991072 0.34068444 4293400320
2.5150626 2.1108711 0.3429459 4293008640
2.7644904 2.3203616 0.39407325 4294053120
2.757858 2.3149424 0.40976608 4294053120
2.7141092 2.2783649 0.41919073 4293922560
2.6027503 2.185024 0.4168137 4293400320
2.5562301 2.146107 0.42346218 4293269760
2.771657 2.3271189 0.4739199 4294183680
2.761312 2.3185811 0.48633385 4294183680
2.7385182 2.2995887 0.49583966 4294053120
2.7224364 2.2862303 0.50580978 4293922560
2.6232276 2.203058 0.49923581 4293530880
2.5663497 2.1554277 0.49945542 4293269760
2.7652524 2.3226304 0.54945022 4294183680
2.7564468 2.315382 0.55832183 4294183680
2.754071 2.313534 0.56781179 4294183680
2.7464733 2.3072989 0.57553685 4294053120
2.7433093 2.3047876 0.58349109 4294053120
2.739363 2.3016191 0.59058261 4294053120
2.7259588 2.290503 0.59490383 4294053120
2.7326224 2.2962484 0.60289431 4294053120
2.6915321 2.2618642 0.59957606 4293922560
2.6983647 2.2677507 0.60615999 4293922560
2.7052798 2.2737074 0.6120795 4293922560
2.7077558 2.2759335 0.6162945 4293922560
2.6502285 2.2277224 0.60607326 4293661440
2.7107184 2.2787142 0.62211919 4294053120
2.6458523 2.2243276 0.60868126 4293661440
2.7102869 2.2786422 0.62425876 4294053120
2.6996615 2.2698538 0.62183446 4293922560
2.6883779 2.2605107 0.61853307 4293922560
2.6817107 2.2550485 0.61557603 4293922560
2.7251778 2.2917459 0.62337518 4294053120
2.7416728 2.3057647 0.62422282 4294183680
2.7404499 2.304883 0.62029058 4294183680
2.7475154 2.3109732 0.61750007 4294183680
2.74018 2.3049502 0.61075467 4294053120
2.7528284 2.3157372 0.60773826 4294183680
2.7554765 2.3181126 0.60177356 4294183680
2.7636268 2.3251178 0.59628344 4294183680
2.7603302 2.3224921 0.58761954 4294183680
2.7613001 2.3234565 0.5791899 4294183680
2.7466891 2.3113098 0.56686878 4294183680
2.7353466 2.3019116 0.55465847 4294053120
2.7489188 2.3134809 0.54685062 4294183680
2.7549663 2.3187182 0.53684115 4294183680
2.754652 2.3186018 0.52495372 4294183680
2.7206376 2.2904878 0.42933923 4293922560
2.7263029 2.295404 0.41449714 4293922560
2.760896 2.3246775 0.40335041 4294053120
2.75157 2.316973 0.38518807 4294053120
2.7226064 2.2927301 0.36408564 4293922560
2.7274466 2.2969525 0.34724927 4293922560
2.7388148 2.3066735 0.33075348 4294053120
2.729553 2.2990196 0.31138778 4293922560
2.7128766 2.2851193 0.291008 4293922560
2.7175372 2.289191 0.27267781 4293922560
2.728714 2.2987525 0.25459078 4293922560
2.7347822 2.3040116 0.23562576 4293922560
2.7171865 2.2893333 0.21444781 4293922560
2.7257121 2.2966628 0.19516179 4293922560
2.7427649 2.3111789 0.17608452 4293922560
2.7431264 2.3116307 0.15561463 4293922560
2.7087936 2.2828441 0.13326278 4293792000
2.7222979 2.2943711 0.11327523 4293922560
2.7265062 2.2980645 0.092642777 4293922560
2.7172539 2.2904122 0.071490631 4293792000
2.6976652 2.2740455 0.050210025 4293792000
2.7073925 2.2823906 0.029495515 4293792000
2.7107873 2.2853985 0.0085777985 4293792000
2.6809232 2.2603648 -0.012250794 4293661440
2.692251 2.2700603 -0.033112101 4293792000
2.6975546 2.274677 -0.053993199 4293792000
2.7046423 2.2807992 -0.074948341 4293792000
2.6796758 2.2598891 -0.094798602 4293661440
2.7068956 2.2829905 -0.11640999 4293792000
2.7179511 2.2924607 -0.13749294 4293922560
2.7253623 2.2988582 -0.1583834 4293922560
2.6763065 2.2576232 -0.17551135 4293661440
2.7000523 2.2777994 -0.19703352 4293792000
2.7011688 2.2788866 -0.21687494 4293792000
2.7068534 2.2838283 -0.23689723 4293792000
2.6898375 2.2696161 -0.25459504 4293792000
2.7127526 2.2890973 -0.27583468 4293922560
2.724329 2.2990122 -0.2958613 4293922560
2.724324 2.2991545 -0.31438622 4293922560
2.7129002 2.2896593 -0.3311719 4293922560
2.7021191 2.2807057 -0.34752473 4293792000
2.7138081 2.2907176 -0.36638802 4293922560
2.7120116 2.2893472 -0.38308853 4293922560
2.7134492 2.2907069 -0.39981803 4293922560
2.6811662 2.2635975 -0.41095099 4293792000
2.7199864 2.2965183 -0.43255535 4293922560
2.7209327 2.2974637 -0.44788074 4293922560
2.7255878 2.3015411 -0.46334383 4294053120
2.7206044 2.2974794 -0.4766455 4293922560
2.721534 2.2984109 -0.49042317 4294053120
2.6980107 2.2786899 -0.49913043 4293922560
2.68383 2.2668576 -0.50882089 4293792000
2.7003012 2.280915 -0.52374965 4293922560
2.6992874 2.2802041 -0.53475642 4293922560
2.6986988 2.2798522 -0.5452283 4293922560
2.7005227 2.2815382 -0.55556583 4293922560
2.6992319 2.2805932 -0.56462544 4293922560
2.6983476 2.2799911 -0.57311136 4293922560
2.6954067 2.2776515 -0.5804863 4293922560
2.6862357 2.2700465 -0.58581328 4293922560
2.6894796 2.2729325 -0.59315097 4293922560
2.6790886 2.2642953 -0.59677696 4293922560
2.6679351 2.2550125 -0.59949362 4293792000
2.6518865 2.2415905 -0.60036242 4293792000
2.6550946 2.2444453 -0.60486752 4293792000
2.6107135 2.2070689 -0.59777737 4293530880
2.6141057 2.2100775 -0.60087854 4293530880
2.6100669 2.2068036 -0.60156888 4293530880
2.6575422 2.247087 -0.61344194 4293792000
2.653686 2.2439694 -0.612764 4293792000
2.6690772 2.257128 -0.61580944 4293792000
2.6720607 2.259795 -0.61526656 4293792000
2.6818094 2.2681842 -0.6155526 4293922560
2.6817164 2.26825 -0.61285216 4293922560
2.68275 2.269269 -0.60969108 4293922560
2.6941404 2.2790489 -0.60815245 4293922560
2.6929476 2.2781849 -0.60304803 4293922560
2.6899328 2.2757795 -0.59684074 4293922560
2.6913633 2.2771349 -0.59092748 4293922560
2.6914625 2.2773638 -0.58403116 4293922560
2.6950262 2.2805245 -0.57719827 4293922560
2.6864679 2.2734272 -0.56711656 4293922560
2.667882 2.2578428 -0.55434984 4293792000
2.6733899 2.2626483 -0.54599172 4293792000
2.6842613 2.2719941 -0.53803927 4293922560
2.703058 2.2880497 -0.53094035 4293922560
2.7104537 2.294456 -0.52088636 4293922560
2.6986978 2.2846501 -0.50657725 4293922560
2.6823871 2.2709866 -0.49096408 4293792000
2.6730244 2.2632041 -0.4761861 4293792000
2.692203 2.2795875 -0.46590036 4293922560
2.6987462 2.2852733 -0.45276853 4293922560
2.7092361 2.2943022 -0.43969578 4293922560
2.6676559 2.2592342 -0.41785514 4293792000
2.6825709 2.2720103 -0.40454292 4293792000
2.70403 2.2903311 -0.39154878 4293922560
2.7091126 2.2947822 -0.375586 4293922560
2.704716 2.291204 -0.35788715 4293922560
2.6739879 2.2653179 -0.33653295 4293792000
2.6921358 2.2808378 -0.32103586 4293792000
2.693279 2.2819514 -0.30302846 4293792000
2.6960225 2.2844217 -0.28484035 4293792000
2.6784232 2.2696538 -0.26429334 4293792000
2.6925888 2.2818027 -0.24661282 4293792000
2.7021077 2.2900152 -0.2280675 4293792000
2.7031155 2.2910151 -0.20847838 4293792000
2.6939099 2.2833586 -0.18793407 4293792000
2.6920116 2.2818949 -0.1677762 4293792000
2.6992009 2.2881348 -0.14796183 4293792000
2.7006459 2.2895055 -0.1276063 4293792000
2.6880498 2.2789721 -0.10653325 4293792000
2.7078445 2.2959003 -0.086571991 4293792000
2.7107549 2.2985146 -0.065802313 4293792000
2.6970043 2.2870007 -0.044639874 4293792000
2.7152357 2.3026073 -0.023922609 4293922560
2.7224758 2.3088942 -0.0028843449 4293922560
2.7293053 2.3148336 0.018267652 4293922560
2.6921399 2.2834575 0.038871691 4293792000
2.7512193 2.3337169 0.060993448 4294053120
2.7459021 2.329355 0.082038641 4294053120
2.7142808 2.3026772 0.10192684 4293922560
2.5977912 2.2039928 0.11738692 4293400320
2.7438354 2.3280466 0.14480288 4294053120
2.7516217 2.3348017 0.16593337 4294053120
2.7026823 2.2934215 0.18315756 4293792000
2.4764745 2.1016018 0.1861333 4292878080
2.7517655 2.3353696 0.22694087 4294053120
2.7478182 2.3321683 0.24645717 4294053120
2.6948564 2.2873633 0.26090342 4293792000
2.4831784 2.1078277 0.25783631 4292878080
2.7664373 2.3484194 0.30634838 4294183680
2.7611787 2.3441048 0.32449511 4294183680
2.7216322 2.310679 0.33795691 4293922560
2.5444653 2.1604009 0.33253968 4293139200
2.4387369 2.0707631 0.33426303 4292747520
2.7551312 2.3395665 0.39476824 4294183680
2.7478554 2.3335369 0.41038185 4294053120
2.712343 2.3035254 0.42106757 4293922560
2.6045413 2.2121131 0.41923422 4293530880
2.5506763 2.1665018 0.4246974 4293269760
2.7586787 2.3433249 0.47410011 4294183680
2.7517364 2.3375766 0.48710611 4294183680
2.7222562 2.3126807 0.49538952 4294053120
2.709271 2.3017957 0.50590491 4293922560
2.6218529 2.2276671 0.50148731 4293530880
2.5501692 2.166899 0.49880049 4293269760
2.7559674 2.3419163 0.55035114 4294183680
2.7506447 2.3375418 0.55993432 4294183680
2.7445133 2.33248 0.56866652 4294183680
2.7369502 2.3262005 0.57639915 4294183680
2.7262793 2.3172784 0.58275241 4294053120
2.7298706 2.3204787 0.59145701 4294053120
2.7165296 2.3092854 0.59578252 4294053120
2.7194033 2.3118753 0.60294378 4294053120
2.6822667 2.2804494 0.60046005 4293922560
2.6928194 2.2895668 0.60789305 4293922560
2.6989484 2.2949243 0.61364818 4294053120
2.705914 2.3009934 0.61889625 4294053120
2.6942086 2.2911856 0.61914724 4293922560
2.6976044 2.2942195 0.62213439 4294053120
2.6973424 2.2941427 0.62355238 4294053120
2.7009258 2.2973368 0.62513 4294053120
2.6903517 2.2884884 0.6226995 4293922560
2.6828732 2.2822723 0.62025809 4293922560
2.7230337 2.3165834 0.62808436 4294053120
2.715745 2.3105297 0.62421525 4294053120
2.7246575 2.31826 0.62333578 4294053120
2.7271922 2.3205643 0.62025529 4294183680
2.7342236 2.3266954 0.61745811 4294183680
2.7381845 2.3302143 0.61322808 4294183680
2.7357562 2.3282959 0.60685009 4294183680
2.7436576 2.3351691 0.60204321 4294183680
2.753262 2.343493 0.59686595 4294183680
2.7508986 2.3416302 0.58838302 4294183680
2.7441819 2.3360612 0.57831544 4294183680
2.7334006 2.3270316 0.56678039 4294183680
2.7364085 2.3297405 0.55747628 4294183680
2.7431462 2.3356256 0.54825348 4294183680
2.7457795 2.3380165 0.53754383 4294183680
2.7497044 2.3415077 0.52644348 4294183680
2.7102695 2.3088753 0.42981863 4293922560
2.7274151 2.3236294 0.41671744 4294053120
2.7500203 2.3430371 0.40374905 4294183680
2.7475524 2.3410833 0.38652849 4294053120
2.7245121 2.3215995 0.36614311 4294053120
2.7143977 2.313128 0.34729788 4293922560
2.729347 2.3260152 0.33124107 4294053120
2.734309 2.3303924 0.31347394 4294053120
2.7033095 2.3041186 0.29141682 4293922560
2.707948 2.308219 0.27306038 4293922560
2.7221065 2.3204353 0.25523135 4293922560
2.7346687 2.3312922 0.23678225 4294053120
2.7000043 2.3018875 0.21414658 4293792000
2.7267876 2.3248694 0.19620532 4293922560
2.7316873 2.3291953 0.17624159 4293922560
2.7265708 2.3249805 0.15544127 4293922560
2.6954474 2.2985873 0.13326278 4293792000
2.7164891 2.3166785 0.11359324 4293922560
2.7130711 2.3139107 0.092642777 4293922560
2.714848 2.3155737 0.071781062 4293922560
2.6904588 2.2949173 0.050323907 4293792000
2.7016566 2.3046155 0.029578809 4293792000
2.6943831 2.2985573 0.0085681211 4293792000
2.6707513 2.278542 -0.012264769 4293661440
2.6820223 2.2883034 -0.033149712 4293792000
2.6844852 2.2905505 -0.053997811 4293792000
2.6958117 2.3003614 -0.075073764 4293792000
2.6695054 2.2780588 -0.094906732 4293661440
2.6935484 2.2987225 -0.11640999 4293792000
2.7045486 2.3082571 -0.13749294 4293922560
2.7119224 2.3146977 -0.1583834 4293922560
2.6728888 2.2815266 -0.17615595 4293792000
2.6853709 2.2923272 -0.19693345 4293792000
2.6974027 2.3027442 -0.21764606 4293792000
2.6930768 2.2991977 -0.23685989 4293792000
2.6788468 2.2871943 -0.25481173 4293792000
2.7051659 2.3098125 -0.27642694 4293922560
2.707099 2.31161 -0.29544774 4293922560
2.7070949 2.3117535 -0.31394696 4293922560
2.7025425 2.308013 -0.33154345 4293922560
2.6955962 2.302227 -0.34840506 4293922560
2.7004158 2.3064899 -0.36638802 4293922560
2.7054312 2.3109207 -0.38405439 4293922560
2.7000573 2.3064771 -0.39981803 4293922560
2.670953 2.2817607 -0.41141626 4293792000
2.714108 2.3187747 -0.43376157 4294053120
2.7050848 2.3112128 -0.44748104 4293922560
2.7124419 2.3176463 -0.46339673 4294053120
2.7071729 2.3132911 -0.4766455 4293922560
2.6990499 2.3064969 -0.48878482 4293922560
2.6787603 2.2893038 -0.49802822 4293922560
2.6886334 2.2978876 -0.51226103 4293922560
2.6872749 2.2968729 -0.52380979 4293922560
2.6979167 2.3061152 -0.53713757 4293922560
2.6943824 2.3032405 -0.54705811 4293922560
2.6905642 2.300123 -0.5562647 4293922560
2.6887054 2.2986801 -0.56521547 4293922560
2.6850181 2.2956736 -0.57311136 4293922560
2.6783412 2.2901106 -0.57967472 4293922560
2.6804612 2.2920692 -0.58745635 4293922560
2.6724441 2.2853589 -0.59232044 4293922560
2.6487346 2.2652276 -0.59294534 4293792000
2.6584969 2.2737212 -0.60033929 4293792000
2.6425257 2.2602053 -0.60121429 4293792000
2.6561978 2.2720439 -0.6081242 4293792000
2.6052957 2.2286453 -0.59949982 4293661440
2.5974429 2.222069 -0.60001409 4293530880
2.6046488 2.2283754 -0.60330224 4293661440
2.6444051 2.2625322 -0.61344194 4293792000
2.6405671 2.2593923 -0.612764 4293792000
2.6596227 2.2758417 -0.61667693 4293792000
2.6625907 2.2785263 -0.61613238 4293922560
2.6685491 2.2837706 -0.6155526 4293922560
2.67594 2.2902412 -0.61457103 4293922560
2.687448 2.3002369 -0.61379409 4293922560
2.683053 2.2966211 -0.6086598 4293922560
2.693856 2.306015 -0.60624987 4294053120
2.6837447 2.2975054 -0.59842753 4293922560
2.6832924 2.2972643 -0.59208411 4293922560
2.6863267 2.3000083 -0.5858146 4293922560
2.679003 2.2938836 -0.57661915 4293922560
2.6701121 2.2864163 -0.56646633 4293922560
2.6696854 2.2861965 -0.5574829 4293922560
2.6706684 2.2871835 -0.54814816 4293922560
2.6748257 2.2908895 -0.53881419 4293922560
2.6906588 2.3045967 -0.53113329 4293922560
2.7007968 2.3134272 -0.52161199 4293922560
2.6930852 2.3069682 -0.50803816 4293922560
2.6691103 2.286576 -0.49096408 4293792000
2.6673181 2.2851861 -0.47753328 4293792000
2.6788759 2.295234 -0.46590036 4293922560
2.6853859 2.3009579 -0.45276853 4293922560
2.6852729 2.3010073 -0.43797499 4293922560
2.6582177 2.2779686 -0.41844857 4293792000
2.6723056 2.2901869 -0.40500021 4293792000
2.6944137 2.3092804 -0.39209792 4293922560
2.6956968 2.3105271 -0.375586 4293922560
2.6950982 2.3101609 -0.35838941 4293922560
2.6569655 2.2776194 -0.33605501 4293661440
2.6788015 2.296484 -0.32103586 4293792000
2.6861429 2.3029239 -0.30373007 4293792000
2.6860714 2.303009 -0.28520179 4293792000
2.6644564 2.284622 -0.26422414 4293792000
2.6930335 2.3092721 -0.24788164 4293922560
2.6945517 2.3107207 -0.22856219 4293922560
2.6930864 2.3096111 -0.20873918 4293792000
2.684351 2.3022656 -0.18819977 4293792000
2.6786711 2.2975404 -0.1677762 4293792000
2.6888573 2.3064239 -0.14812893 4293792000
2.6910534 2.3084545 -0.1277864 4293792000
2.6812427 2.3001847 -0.10679279 4293792000
2.6868346 2.3051286 -0.086328208 4293792000
2.7034471 2.3195283 -0.065951854 4293922560
2.6950169 2.3124423 -0.04482922 4293792000
2.7055686 2.3216436 -0.023956208 4293922560
2.7117014 2.327054 -0.002887245 4293922560
2.7142642 2.3294015 0.018257508 4293922560
2.6749964 2.2958474 0.038816638 4293792000
2.7345409 2.3471014 0.06092583 4294053120
2.7458448 2.3569536 0.082445808 4294053120
2.7224405 2.3370125 0.10274281 4293922560
2.5818729 2.2164867 0.11724918 4293400320
2.7324252 2.3458819 0.14491956 4294053120
2.7377141 2.3505721 0.16591774 4294053120
2.6959767 2.3148839 0.18361403 4293922560
2.4679754 2.1192467 0.18641937 4292878080
2.7381124 2.3513625 0.22694087 4294053120
2.7372115 2.350738 0.24673006 4294053120
2.696615 2.3160207 0.26237565 4293922560
2.4746368 2.1255071 0.25823087 4292878080
2.7554209 2.366828 0.30665034 4294183680
2.7576292 2.3688753 0.32569444 4294183680
2.7252781 2.3412337 0.34009773 4294053120
2.6166432 2.2480502 0.34367865 4293530880
2.4304028 2.0881772 0.3347826 4292747520
2.7482395 2.3614097 0.3957454 4294183680
2.7379811 2.3527446 0.41094738 4294053120
2.6827052 2.3053925 0.41854468 4293922560
2.5991366 2.2337193 0.42045194 4293530880
2.4694862 2.1224318 0.4132309 4292878080
2.7545583 2.3675911 0.47575459 4294183680
2.7418282 2.3567991 0.48777461 4294183680
2.7192516 2.3375416 0.49731272 4294053120
2.7033217 2.3239954 0.50731373 4294053120
2.6050777 2.2396793 0.5007661 4293530880
2.545001 2.188168 0.50027472 4293269760
2.7382071 2.3544345 0.54953456 4294183680
2.7474685 2.3625481 0.56208032 4294183680
2.7451067 2.3606672 0.57162964 4294183680
2.7270939 2.3453259 0.57719135 4294183680
2.7232082 2.342133 0.58500296 4294183680
2.7200449 2.339561 0.59227139 4294183680
2.706768 2.3282893 0.59660661 4294053120
2.7096252 2.3308952 0.60377663 4294053120
2.6726713 2.2992525 0.60130072 4293922560
2.6824224 2.3077879 0.60857099 4293922560
2.6892664 2.3138232 0.61450154 4294053120
2.6991827 2.3225026 0.62044114 4294053120
2.6920135 2.3164809 0.62173384 4294053120
2.6953902 2.3195341 0.62472987 4294053120
2.6876628 2.3130312 0.62441951 4294053120
2.683763 2.3098218 0.62426186 4294053120
2.6799586 2.3066938 0.62339401 4293922560
2.6732628 2.3010769 0.62112522 4293922560
2.7124763 2.3349793 0.62877649 4294053120
2.7097023 2.3327396 0.62593967 4294053120
2.7215569 2.3430939 0.62573898 4294183680
2.7173593 2.3396285 0.62110865 4294183680
2.731077 2.3515887 0.61983103 4294183680
2.7275496 2.3487008 0.6139006 4294183680
2.7363408 2.3564205 0.61001486 4294183680
2.7359753 2.3562555 0.60335964 4294183680
2.7348812 2.355463 0.59584624 4294183680
2.7437756 2.3632736 0.58979458 4294183680
2.734684 2.3555925 0.57919633 4294183680
2.7269597 2.3490882 0.56827313 4294183680
2.7206078 2.3437653 0.55702984 4294053120
2.729171 2.3512919 0.54818904 4294183680
2.7426014 2.3630128 0.53960782 4294183680
2.7465107 2.3665314 0.52846289 4294183680
2.7165189 2.3416491 0.43296602 4294053120
2.7209771 2.3456409 0.41781473 4294053120
2.7391067 2.3614197 0.40415984 4294183680
2.7413967 2.3635442 0.38759324 4294183680
2.7100213 2.3366416 0.36601904 4294053120
2.7084124 2.3354027 0.34826714 4293922560
2.726079 2.3507855 0.33250105 4294053120
2.7206852 2.3462834 0.31347394 4294053120
2.7004056 2.3289425 0.29256156 4293922560
2.7042346 2.3323927 0.27405158 4293922560
2.7185135 2.3448572 0.25617108 4294053120
2.7248175 2.3504443 0.23711099 4294053120
2.6941054 2.3240993 0.21474904 4293922560
2.7094159 2.3374555 0.19593196 4293922560
2.7218518 2.3483334 0.17648676 4294053120
2.7235687 2.3499639 0.15604801 4294053120
2.6859584 2.3176599 0.13345899 4293792000
2.6978023 2.3280277 0.11337709 4293922560
2.7057519 2.335036 0.092855826 4293922560
2.7013109 2.3313515 0.071781062 4293922560
2.6770425 2.3105536 0.050323907 4293792000
2.6919684 2.3235836 0.029620454 4293922560
2.6892698 2.3214018 0.0085947253 4293792000
2.6578102 2.2943914 -0.01226652 4293661440
2.6686447 2.3038907 -0.033149712 4293792000
2.6776779 2.311836 -0.054130897 4293792000
2.6892333 2.32196 -0.075266033 4293792000
2.6630561 2.299504 -0.095152155 4293792000
2.6787508 2.3132029 -0.11635096 4293792000
2.6938517 2.326391 -0.13763586 4293922560
2.6983905 2.3304586 -0.1583834 4293922560
2.6671093 2.3035889 -0.1766566 4293792000
2.6795259 2.3144603 -0.19749035 4293792000
2.6839406 2.3184206 -0.21764606 4293792000
