# .PCD v0.7 - Point Cloud Data file format
VERSION 0.7
FIELDS x y z rgba
SIZE 4 4 4 4
TYPE F F F U
COUNT 1 1 1 1
WIDTH 1079
HEIGHT 1
VIEWPOINT 0 0 0 1 0 0 0
POINTS 1079
DATA ascii
3.1169133 -0.46667376 0.36654884 4292616960
3.1434431 -0.47054493 0.3552101 4292616960
3.1401298 -0.46994808 0.33999673 4292616960
3.1122279 -0.46567234 0.3218939 4292486400
3.1133637 -0.46574229 0.30656713 4292486400
3.127269 -0.467722 0.2920827 4292616960
3.1225407 -0.46691453 0.27548975 4292486400
3.0787213 -0.46026334 0.25540027 4292355840
3.0815072 -0.46058086 0.23911275 4292355840
3.117878 -0.4659169 0.22495651 4292486400
3.1124551 -0.46500659 0.20737104 4292486400
3.088448 -0.4613207 0.18848568 4292355840
3.1195061 -0.46585962 0.17271434 4292486400
3.1264901 -0.46680221 0.15520673 4292486400
3.1114655 -0.464459 0.13648516 4292486400
3.0731609 -0.45864245 0.11690462 4292355840
3.0993555 -0.46245223 0.099720813 4292486400
3.104836 -0.46317029 0.081576936 4292486400
3.0703144 -0.45792183 0.062466461 4292355840
3.0666795 -0.4572812 0.044143461 4292355840
3.0744288 -0.45833799 0.0259123 4292355840
3.0759115 -0.45846027 0.0075454656 4292355840
3.0525687 -0.45488304 -0.010759548 4292225280
3.0628822 -0.45632157 -0.029093498 4292355840
3.0769427 -0.45831755 -0.047576968 4292355840
3.0756788 -0.45803052 -0.065848343 4292355840
3.0515294 -0.4543362 -0.083407953 4292225280
3.0855708 -0.45930547 -0.10252545 4292355840
3.1037257 -0.46190825 -0.12131108 4292486400
3.0824044 -0.45863616 -0.13840467 4292355840
3.0583639 -0.45496094 -0.15496336 4292355840
3.072629 -0.45698434 -0.17323744 4292355840
3.0761547 -0.45740992 -0.19081897 4292355840
3.0687537 -0.45621091 -0.20749332 4292355840
3.0680926 -0.45601407 -0.22435185 4292355840
3.0980549 -0.46036795 -0.24336328 4292486400
3.1053772 -0.46135631 -0.26053122 4292486400
3.107018 -0.46150032 -0.27698392 4292486400
3.0401888 -0.45147622 -0.28669181 4292225280
3.0814683 -0.45750743 -0.30614191 4292355840
3.1009014 -0.46029308 -0.323387 4292486400
3.1065621 -0.46103361 -0.33896005 4292486400
3.0898511 -0.4584544 -0.35166362 4292486400
2.9901154 -0.44356015 -0.35399061 4292094720
3.1071661 -0.46082398 -0.38164982 4292486400
3.1117146 -0.46139863 -0.39560169 4292486400
3.1137865 -0.46160591 -0.40882164 4292616960
3.1157744 -0.46180055 -0.42158577 4292616960
3.0857885 -0.45725715 -0.42943874 4292486400
3.069561 -0.45475397 -0.43854323 4292486400
3.0826802 -0.45659864 -0.45132786 4292486400
3.0865316 -0.45706999 -0.46230003 4292486400
3.0798054 -0.45597506 -0.47115058 4292486400
3.086252 -0.45683041 -0.48147401 4292486400
3.0957801 -0.45814139 -0.49177137 4292486400
3.0793884 -0.45561674 -0.49736825 4292486400
3.0699267 -0.45411825 -0.50344312 4292486400
3.0554464 -0.45187819 -0.50805593 4292355840
3.0307131 -0.44812301 -0.51029009 4292355840
2.9835815 -0.44105834 -0.50801915 4292225280
2.9964225 -0.44286039 -0.51530129 4292225280
2.9257925 -0.4323276 -0.5075444 4291964160
2.9397993 -0.43430296 -0.51378989 4291964160
2.9441502 -0.4348512 -0.51777077 4292094720
2.9573684 -0.43670857 -0.52272248 4292094720
2.9619145 -0.43728483 -0.52554482 4292094720
2.9616911 -0.43715677 -0.52690876 4292094720
2.9430604 -0.43431234 -0.52437586 4292094720
2.9430454 -0.43421564 -0.52454066 4292094720
2.9285197 -0.43197855 -0.52150714 4291964160
2.9985697 -0.44221517 -0.53290093 4292225280
2.9706113 -0.43799666 -0.52624369 4292094720
3.0269315 -0.44620353 -0.53387284 4292355840
3.0560174 -0.45039302 -0.5360021 4292486400
3.0651321 -0.45163795 -0.53396302 4292486400
3.0741298 -0.45286506 -0.53125709 4292486400
3.0949447 -0.45583209 -0.52992862 4292616960
3.0918815 -0.45528167 -0.52386719 4292486400
3.0831211 -0.45389274 -0.51625454 4292486400
3.0842018 -0.45395282 -0.5097059 4292486400
3.0687442 -0.45157918 -0.49986824 4292486400
3.0671246 -0.45124245 -0.49174786 4292486400
3.0541403 -0.44923413 -0.48127806 4292355840
3.082401 -0.45329204 -0.47670695 4292486400
3.1057742 -0.4566296 -0.4706775 4292616960
3.1133792 -0.45764783 -0.46162191 4292616960
3.0936606 -0.45464998 -0.4480308 4292486400
3.066273 -0.45052665 -0.43298569 4292355840
3.0723507 -0.45132107 -0.42225036 4292486400
3.0801697 -0.45237079 -0.41122222 4292486400
3.0977323 -0.45485073 -0.40092799 4292486400
3.0947363 -0.45431149 -0.38746223 4292486400
3.0604789 -0.44918421 -0.36980948 4292355840
3.0792897 -0.45184624 -0.3582198 4292355840
3.1081183 -0.45597675 -0.34717715 4292486400
3.1133759 -0.45664814 -0.33295631 4292486400
3.0983317 -0.45434213 -0.31624281 4292486400
3.0589695 -0.44847187 -0.29696655 4292355840
3.0804694 -0.45152506 -0.28335747 4292355840
3.0907459 -0.45293218 -0.26824081 4292486400
3.0715425 -0.45001948 -0.25031897 4292355840
3.073307 -0.45017937 -0.23392358 4292355840
3.0946114 -0.45320073 -0.21863359 4292486400
3.0953374 -0.45320773 -0.20153065 4292486400
3.0641694 -0.44854587 -0.18230252 4292355840
2.9323585 -0.42915678 -0.15781176 4291833600
3.0937738 -0.45268095 -0.14875287 4292355840
3.1020515 -0.45379263 -0.13119599 4292486400
3.0625908 -0.44792172 -0.11166045 4292355840
3.0954745 -0.45263183 -0.09467902 4292355840
3.1013527 -0.45339182 -0.07654161 4292486400
3.1038771 -0.45366129 -0.058189273 4292486400
2.9924691 -0.43728194 -0.038286638 4292094720
3.1175058 -0.45545322 -0.021285186 4292486400
3.1256573 -0.45654383 -0.0026681605 4292486400
3.0895321 -0.45116812 0.015822219 4292355840
2.8728013 -0.41942647 0.031860881 4291703040
3.1506729 -0.45989439 0.053712063 4292616960
3.1530712 -0.4601433 0.072478525 4292616960
3.057853 -0.44614953 0.08837384 4292225280
2.8514686 -0.41594598 0.099183552 4291572480
3.1473889 -0.45901108 0.12787324 4292616960
3.1349201 -0.45709208 0.14555232 4292486400
2.9891775 -0.43574592 0.15597519 4292094720
2.822222 -0.41131756 0.16333295 4291441920
3.1625521 -0.46081662 0.20083724 4292616960
3.1507254 -0.45899227 0.21760949 4292616960
2.9949706 -0.4362061 0.22328313 4292094720
2.8328879 -0.41250846 0.22651008 4291572480
3.1808693 -0.46307743 0.27124608 4292747520
3.1869266 -0.463857 0.28840828 4292747520
3.0742366 -0.44735637 0.29396057 4292355840
2.9772069 -0.43314129 0.29962125 4292094720
2.8785961 -0.41870248 0.30382022 4291703040
3.1777844 -0.4621186 0.35061622 4292747520
3.1485467 -0.45776579 0.36208162 4292616960
3.0011108 -0.43623388 0.35874447 4292094720
2.955997 -0.4295814 0.36636913 4291964160
2.9013855 -0.42155191 0.37197357 4291833600
3.1776304 -0.46158651 0.42048195 4292747520
3.1552143 -0.45822909 0.43004405 4292747520
3.0823708 -0.44755122 0.43187904 4292486400
3.0390151 -0.44115862 0.43691865 4292355840
2.965704 -0.43042129 0.43673933 4292094720
2.9966111 -0.43481079 0.45125559 4292225280
3.1693778 -0.45977771 0.48726529 4292747520
3.173363 -0.46025407 0.49732375 4292747520
3.14607 -0.45619467 0.50184393 4292747520
3.1384993 -0.4549962 0.50883543 4292747520
3.0900712 -0.44787633 0.50847787 4292486400
3.088994 -0.44762111 0.51520354 4292486400
3.1163073 -0.45147908 0.52612019 4292616960
3.0551841 -0.4425258 0.52143812 4292355840
3.0729127 -0.44499511 0.52952355 4292486400
3.0819485 -0.44620475 0.53553629 4292486400
3.0901031 -0.44728628 0.54079431 4292486400
3.0944562 -0.44781715 0.54477 4292616960
3.098912 -0.44836256 0.54813516 4292616960
3.0985992 -0.4482179 0.55001909 4292616960
3.1032677 -0.44879368 0.55214512 4292616960
3.0846524 -0.4460026 0.54947996 4292486400
3.0846653 -0.44590557 0.54948562 4292486400
3.0701666 -0.44371119 0.54626572 4292486400
3.0655217 -0.44294161 0.54416436 4292486400
3.0424595 -0.43951175 0.53817308 4292355840
3.1079292 -0.44886979 0.54717243 4292616960
3.0948277 -0.44687831 0.54165828 4292616960
3.1426675 -0.45368537 0.54613179 4292747520
3.1448631 -0.45390147 0.54197359 4292747520
3.1484988 -0.45432523 0.53742296 4292747520
3.1662652 -0.45678738 0.5346204 4292747520
3.177063 -0.45824322 0.5299654 4292878080
3.1790764 -0.45843169 0.52320403 4292878080
3.1794136 -0.45837834 0.51555598 4292878080
3.1621425 -0.45578697 0.50450152 4292747520
3.1541946 -0.45454019 0.49442035 4292747520
3.1785898 -0.45795378 0.48879009 4292747520
3.1854529 -0.45884043 0.47980899 4292878080
3.1908114 -0.45950997 0.47001275 4292878080
3.1498666 -0.45311099 0.38417214 4292616960
3.1716676 -0.45614535 0.37267089 4292747520
3.1785724 -0.4570365 0.35887364 4292747520
3.1846929 -0.45781443 0.34452704 4292747520
3.1366303 -0.45080462 0.3241396 4292616960
3.1449625 -0.45190132 0.30941203 4292616960
3.1562757 -0.45342571 0.29453698 4292616960
3.1523762 -0.45276442 0.27788028 4292616960
3.1237516 -0.448553 0.25890929 4292486400
3.1314919 -0.44956407 0.24277748 4292616960
3.1491523 -0.45199847 0.2270114 4292616960
3.1575632 -0.45310444 0.21018803 4292616960
3.1009591 -0.44488245 0.18907785 4292486400
3.1488211 -0.45164806 0.17417739 4292616960
3.163305 -0.45362413 0.15688781 4292616960
3.1566234 -0.45256475 0.13833417 4292616960
3.1182959 -0.44696975 0.11850561 4292486400
3.1293302 -0.44845107 0.1005833 4292486400
3.0404084 -0.43561059 0.079799227 4292225280
3.0035241 -0.43022972 0.061037716 4292094720
3.1118329 -0.44564429 0.044735618 4292486400
3.1245403 -0.44736397 0.026291315 4292486400
3.1199994 -0.44661379 0.0076250518 4292486400
3.0932887 -0.44269109 -0.010916785 4292355840
3.1190495 -0.44627783 -0.029626098 4292486400
3.1181424 -0.44604805 -0.048198365 4292486400
3.1011374 -0.44351611 -0.066363201 4292355840
3.087749 -0.44150233 -0.084353343 4292355840
3.1208231 -0.44613141 -0.10363706 4292486400
3.1296597 -0.44729427 -0.12225019 4292486400
3.1176383 -0.44547623 -0.13989797 4292486400
3.0850601 -0.44072223 -0.15621392 4292355840
3.1137655 -0.44472319 -0.17543942 4292486400
3.1113524 -0.44427881 -0.1928709 4292486400
3.1049209 -0.44326091 -0.20979357 4292486400
3.1091828 -0.44376966 -0.22719726 4292486400
3.1280398 -0.44636086 -0.24554464 4292486400
3.1405463 -0.44804481 -0.26329333 4292616960
3.12255 -0.44537729 -0.27816772 4292486400
3.0811868 -0.43937877 -0.29034665 4292355840
3.1171343 -0.44440499 -0.30945849 4292486400
3.1258996 -0.44555441 -0.32575369 4292616960
3.1258914 -0.44545308 -0.3408162 4292616960
3.1249106 -0.44521311 -0.35538861 4292616960
3.0211408 -0.43033195 -0.3573955 4292225280
3.1378536 -0.44685599 -0.38512874 4292616960
3.1504135 -0.44854364 -0.40021837 4292616960
3.1483765 -0.44815272 -0.41304871 4292616960
3.1413438 -0.44705096 -0.42472076 4292616960
3.1256452 -0.44471666 -0.4346517 4292616960
3.1054637 -0.44174573 -0.44333073 4292486400
3.1166053 -0.44323069 -0.45594165 4292616960
3.1170995 -0.44320107 -0.46651572 4292616960
3.1205623 -0.44359341 -0.47701317 4292616960
3.1260185 -0.44426882 -0.48729581 4292616960
3.1124511 -0.44224086 -0.49403074 4292616960
3.1191175 -0.44308814 -0.50338727 4292616960
3.1047471 -0.4409472 -0.50874966 4292616960
3.0737855 -0.43645144 -0.51069844 4292486400
3.0762205 -0.43669862 -0.51753825 4292486400
3.0182967 -0.42837903 -0.51351756 4292225280
3.0360196 -0.4307971 -0.52168995 4292355840
2.9711761 -0.42150089 -0.51499987 4292094720
2.9890878 -0.42394611 -0.52197927 4292225280
2.9885566 -0.42377499 -0.52515101 4292225280
2.9969029 -0.42486244 -0.52927572 4292225280
2.9965727 -0.4247196 -0.53125614 4292225280
2.9963467 -0.42459151 -0.53263277 4292225280
2.9874496 -0.42323506 -0.53184187 4292225280
2.9728081 -0.42106551 -0.5294022 4292094720
2.9592462 -0.41904977 -0.52653587 4292094720
3.0381329 -0.43012333 -0.53947586 4292355840
3.0199072 -0.42744625 -0.534522 4292355840
3.0675023 -0.43408468 -0.54056633 4292486400
3.0743313 -0.43495256 -0.53875101 4292486400
3.099894 -0.4384698 -0.53955209 4292616960
3.1186664 -0.44102514 -0.53848517 4292616960
3.1258423 -0.44193977 -0.53475082 4292616960
3.1198428 -0.44099158 -0.52813929 4292616960
3.1189103 -0.44075984 -0.52178431 4292616960
3.1239121 -0.44136655 -0.51580769 4292616960
3.1143208 -0.43991163 -0.50683606 4292616960
3.0837641 -0.4354966 -0.49396765 4292486400
3.0997396 -0.43765333 -0.48801759 4292486400
3.1182547 -0.44016758 -0.4818078 4292616960
3.1406832 -0.44323292 -0.47552583 4292616960
3.1470745 -0.44403407 -0.46618053 4292747520
3.1246691 -0.44077268 -0.45209333 4292616960
3.1070795 -0.43819189 -0.43832859 4292486400
3.0984638 -0.43687755 -0.42542782 4292486400
3.1200445 -0.43982044 -0.41613886 4292616960
3.1314917 -0.44133374 -0.40489665 4292616960
3.1258171 -0.44043386 -0.39096171 4292616960
3.0954783 -0.43605986 -0.37365901 4292486400
3.1241584 -0.43999994 -0.36306527 4292616960
3.1380122 -0.44185054 -0.35014978 4292616960
3.1445286 -0.44266737 -0.33593035 4292616960
3.1295004 -0.4404515 -0.31907833 4292616960
3.0944357 -0.43541729 -0.30007789 4292486400
3.1017725 -0.43635029 -0.28499514 4292486400
3.116576 -0.43833297 -0.27017009 4292486400
3.106672 -0.4368405 -0.25288168 4292486400
3.1143758 -0.43782395 -0.23676011 4292486400
3.1258335 -0.43933454 -0.22056086 4292486400
3.1245809 -0.43905839 -0.20316835 4292486400
3.0943961 -0.4347178 -0.18384947 4292355840
2.9723725 -0.41748002 -0.15973578 4291964160
3.1264327 -0.43901816 -0.15009478 4292486400
3.16927 -0.44493189 -0.1338207 4292616960
3.173439 -0.44541553 -0.11549702 4292616960
3.1321208 -0.43951586 -0.095611252 4292486400
3.1526926 -0.4423016 -0.077632658 4292616960
3.1401289 -0.44043842 -0.058707561 4292486400
3.0176642 -0.4231647 -0.038467541 4292094720
3.104439 -0.43523362 -0.021064583 4292486400
3.1560469 -0.44236779 -0.0025750273 4292616960
3.1297195 -0.43857735 0.016131613 4292486400
2.9177577 -0.40878105 0.032442424 4291833600
3.1869428 -0.44639206 0.054406028 4292747520
3.1932983 -0.44718 0.073463932 4292747520
3.0092003 -0.42130306 0.087010697 4292094720
2.892422 -0.40486085 0.10063556 4291703040
3.1885769 -0.44621241 0.12956177 4292747520
3.1711407 -0.44367078 0.1472339 4292616960
3.0252674 -0.42316493 0.1578438 4292225280
2.8581634 -0.39969939 0.16538557 4291572480
3.198338 -0.44716865 0.20306383 4292747520
3.1809835 -0.44464034 0.21963841 4292747520
3.0310149 -0.42358056 0.22589789 4292225280
2.8826065 -0.40274832 0.23040289 4291703040
3.2259185 -0.45061144 0.27498001 4292878080
3.2092876 -0.44818556 0.29030982 4292878080
3.114228 -0.43481049 0.29765162 4292486400
3.0131578 -0.4206025 0.30309674 4292225280
2.8169122 -0.39311865 0.29716367 4291441920
3.2040198 -0.44703943 0.35333005 4292878080
3.1621044 -0.44108993 0.36344814 4292747520
3.050781 -0.42546344 0.36448255 4292355840
2.995775 -0.4176963 0.37109038 4292094720
2.9371688 -0.40943086 0.37634373 4291964160
3.2224605 -0.44909632 0.42616189 4292878080
3.2000041 -0.4458642 0.43588489 4292878080
3.1221738 -0.43491995 0.43718573 4292616960
3.0885696 -0.43013996 0.44376332 4292486400
3.0102749 -0.41913956 0.4430185 4292225280
2.9421663 -0.40956217 0.44276741 4291964160
3.2091799 -0.44662881 0.4930568 4292878080
3.2082582 -0.44639781 0.50245309 4292878080
3.1819074 -0.44262949 0.50721258 4292878080
3.1743174 -0.44147196 0.51428443 4292747520
3.1346354 -0.43585277 0.5154469 4292616960
3.1530876 -0.43831748 0.52551705 4292747520
3.0820289 -0.42834073 0.51995546 4292486400
3.1045628 -0.43137309 0.52947599 4292616960
3.1135061 -0.43251604 0.53611881 4292616960
3.131326 -0.43489125 0.5437057 4292616960
3.1306944 -0.43470329 0.54747927 4292616960
3.1301661 -0.43452966 0.55063003 4292616960
3.1434021 -0.43626648 0.55556881 4292747520
3.1382072 -0.43544501 0.55660772 4292747520
3.138 -0.43531576 0.55787635 4292747520
3.1291237 -0.43398419 0.55694848 4292616960
3.1193824 -0.43253326 0.5552125 4292616960
3.1146283 -0.43177435 0.55371487 4292616960
3.106081 -0.43048999 0.55089891 4292616960
3.087883 -0.42786896 0.54574138 4292486400
3.1524372 -0.43671289 0.55452836 4292747520
3.1393325 -0.43479699 0.54896641 4292747520
3.1872211 -0.44132745 0.55338299 4292878080
3.1943111 -0.44220692 0.55000067 4292878080
3.1891723 -0.44139344 0.54387009 4292878080
3.2157583 -0.44497007 0.54247642 4293008640
3.2168074 -0.44501224 0.53609341 4293008640
3.2188358 -0.4451898 0.52924538 4293008640
3.2142973 -0.4444592 0.52071148 4292878080
3.2019179 -0.44264486 0.51034915 4292878080
3.180275 -0.43955109 0.4980149 4292747520
3.2233076 -0.4453955 0.49516833 4293008640
3.2262769 -0.44570249 0.48546177 4293008640
3.2180204 -0.44445884 0.47352862 4292878080
3.171154 -0.43733054 0.38645115 4292747520
3.1923714 -0.4401544 0.37479591 4292747520
3.2195768 -0.44380236 0.36320511 4292878080
3.2158713 -0.44318861 0.34761474 4292878080
3.1727107 -0.43713894 0.32759938 4292747520
3.1850095 -0.43873152 0.31309515 4292747520
3.2022679 -0.44100633 0.29858401 4292747520
3.1983843 -0.44036913 0.28170493 4292747520
3.1648183 -0.43564627 0.26209822 4292616960
3.1666541 -0.43579763 0.24530251 4292616960
3.1742022 -0.4367348 0.22862984 4292747520
3.1888168 -0.43864352 0.21209475 4292747520
3.1559088 -0.43401578 0.1922709 4292616960
3.1840427 -0.43778294 0.1759816 4292747520
3.1945896 -0.43913084 0.15830983 4292747520
3.1968172 -0.43933472 0.13998105 4292747520
3.1396718 -0.43138081 0.11922044 4292486400
3.1655564 -0.43483594 0.10166453 4292616960
3.0953844 -0.42509767 0.081175752 4292355840
3.0673912 -0.4211551 0.062284701 4292355840
3.1480572 -0.43212986 0.045219414 4292616960
3.1552691 -0.43301883 0.0265282 4292616960
3.1671433 -0.43454704 0.007733949 4292616960
3.1323645 -0.42967495 -0.011045668 4292486400
3.1510816 -0.4321416 -0.02990593 4292616960
3.1484253 -0.43167654 -0.048626758 4292616960
3.1413083 -0.4306002 -0.067168012 4292486400
3.1121573 -0.42650467 -0.08495082 4292486400
3.1467104 -0.43113926 -0.10441154 4292616960
3.1698329 -0.43420589 -0.12371852 4292616960
3.1587822 -0.43259105 -0.14162873 4292616960
3.1251769 -0.42788884 -0.15811636 4292486400
3.144002 -0.43036568 -0.17699875 4292616960
3.1524553 -0.43142194 -0.19525972 4292616960
3.121778 -0.42712376 -0.21076086 4292486400
3.1259401 -0.42759314 -0.22823584 4292486400
3.168124 -0.43326202 -0.24848877 4292616960
3.171315 -0.43359691 -0.26565653 4292747520
3.1635833 -0.43243858 -0.28159386 4292616960
3.1261141 -0.4272168 -0.29434073 4292486400
3.1620705 -0.4320294 -0.31366438 4292616960
3.1658938 -0.43245047 -0.32965338 4292747520
3.1619265 -0.43180734 -0.34446496 4292616960
3.1560044 -0.43089759 -0.35863322 4292616960
3.0521352 -0.41661838 -0.3607688 4292355840
3.1826978 -0.43433842 -0.39031556 4292747520
3.1952455 -0.43594855 -0.40558416 4292747520
3.1931846 -0.43556517 -0.41858724 4292747520
3.1861241 -0.43450013 -0.43042564 4292747520
3.1530006 -0.42988208 -0.43809998 4292747520
3.1358423 -0.42744237 -0.4473044 4292616960
3.151495 -0.4294751 -0.4606719 4292747520
3.1666756 -0.43144256 -0.47355121 4292747520
3.1583505 -0.43020722 -0.48239815 4292747520
3.1667449 -0.43124935 -0.49324438 4292747520
3.1619594 -0.43049645 -0.50148243 4292747520
3.1461222 -0.42823958 -0.50733423 4292747520
3.1231897 -0.42501813 -0.51135725 4292616960
3.11343 -0.42359039 -0.51686639 4292616960
3.1060801 -0.42249104 -0.52213877 4292616960
3.0588489 -0.41596872 -0.51999575 4292355840
3.076575 -0.41828084 -0.52823102 4292486400
3.0243654 -0.41108581 -0.52379525 4292355840
3.0198231 -0.41037178 -0.52691996 4292225280
3.0427151 -0.4133853 -0.53423548 4292355840
3.0276341 -0.4112395 -0.53427088 4292355840
3.0419397 -0.41308531 -0.5388633 4292355840
3.0319505 -0.41163176 -0.53852624 4292355840
3.026948 -0.41085577 -0.53843826 4292355840
3.0181489 -0.40956488 -0.53704244 4292225280
3.0036008 -0.4074946 -0.53399634 4292225280
3.0737698 -0.41691598 -0.54536325 4292486400
3.0555322 -0.41434455 -0.54039115 4292355840
3.1070743 -0.42123449 -0.5470981 4292616960
3.1187963 -0.42272389 -0.54610223 4292616960
3.1355987 -0.42490098 -0.54532653 4292616960
3.1358492 -0.42483464 -0.54101551 4292616960
3.1609917 -0.42813972 -0.54032803 4292747520
3.1527417 -0.4269214 -0.53327841 4292747520
3.1536875 -0.42694858 -0.52717733 4292747520
3.1577134 -0.4273926 -0.52096885 4292747520
3.1442246 -0.42546633 -0.51129061 4292747520
3.1332285 -0.42387813 -0.5014869 4292616960
3.1394444 -0.42461863 -0.49387079 4292616960
3.1628883 -0.4276883 -0.48831093 4292747520
3.1761136 -0.42937505 -0.48050335 4292747520
3.1966722 -0.43205205 -0.47314656 4292878080
3.1624868 -0.42733052 -0.45719701 4292747520
3.1468754 -0.42512035 -0.44358581 4292616960
3.1347308 -0.42337942 -0.43006143 4292616960
3.1555376 -0.42608866 -0.42053449 4292747520
3.1625164 -0.42692983 -0.40857953 4292747520
3.1677561 -0.42753583 -0.39588895 4292747520
3.1256182 -0.42174873 -0.37699422 4292616960
3.1523526 -0.42525524 -0.36604765 4292616960
3.1690991 -0.42741299 -0.3533347 4292747520
3.1742272 -0.42800307 -0.33883092 4292747520
3.1655383 -0.42673022 -0.32249373 4292616960
3.134407 -0.42243332 -0.30371022 4292616960
3.1512139 -0.42459762 -0.28930569 4292616960
3.1526492 -0.42469019 -0.27307805 4292616960
3.1427515 -0.42325634 -0.25561345 4292616960
3.1449349 -0.42344981 -0.23889165 4292616960
3.1619542 -0.42564026 -0.2229308 4292616960
3.1646686 -0.42590442 -0.20561011 4292616960
3.140408 -0.42253897 -0.18643378 4292616960
3.0133517 -0.40534726 -0.16180834 4292094720
3.1558177 -0.42441043 -0.15138422 4292616960
3.1685071 -0.42601565 -0.1336814 4292616960
3.1478126 -0.42313254 -0.11447268 4292616960
3.1633568 -0.42512083 -0.096487515 4292616960
3.1870327 -0.42820066 -0.078415498 4292747520
3.1852367 -0.42785749 -0.059503276 4292747520
3.0501683 -0.40961683 -0.038850803 4292225280
3.1597626 -0.42423359 -0.021422835 4292616960
3.1922684 -0.42849573 -0.0026024994 4292747520
3.1708746 -0.42552266 0.016330684 4292616960
2.9726162 -0.39882183 0.033025995 4291964160
3.2209425 -0.4320356 0.054942552 4292747520
3.2344935 -0.43374979 0.074352257 4292878080
3.0591586 -0.41013932 0.088384643 4292225280
2.9373252 -0.39371127 0.10211632 4291833600
3.2233796 -0.43195015 0.13087143 4292878080
3.2112954 -0.43022811 0.14897935 4292747520
3.0702441 -0.41123283 0.16006273 4292355840
2.9217944 -0.3912558 0.16893277 4291833600
3.2384789 -0.43355927 0.20544852 4292878080
3.208729 -0.42947382 0.22137763 4292747520
3.0709934 -0.41094035 0.22869512 4292355840
2.922451 -0.3909699 0.23340158 4291833600
3.2620695 -0.43630028 0.27784017 4293008640
3.2542951 -0.43515638 0.29414684 4293008640
3.1601264 -0.42246333 0.30179814 4292616960
3.0530367 -0.40804935 0.30686387 4292355840
2.9542305 -0.39474908 0.31140181 4291964160
3.253866 -0.43468282 0.35854158 4293008640
3.2030294 -0.42778912 0.3678593 4292878080
3.0955346 -0.41333339 0.36953536 4292486400
3.0404623 -0.40588263 0.37632653 4292225280
2.9965372 -0.39992309 0.38364562 4292094720
3.2682664 -0.43608403 0.43187624 4293008640
3.2447872 -0.43284744 0.44163394 4293008640
3.1678553 -0.42248359 0.44323009 4292747520
3.119482 -0.41593254 0.44784904 4292616960
3.0597475 -0.40787005 0.44994193 4292355840
2.9827383 -0.39750922 0.44851696 4292094720
3.2538657 -0.43353829 0.49952576 4293008640
3.2306724 -0.43034479 0.50556219 4293008640
3.2353466 -0.43086395 0.51532215 4293008640
3.2238145 -0.42922512 0.52188969 4293008640
3.1801696 -0.42331246 0.52251995 4292878080
3.1927528 -0.42488533 0.53170633 4292878080
3.1216249 -0.41531998 0.52621841 4292616960
3.1490524 -0.41886839 0.53663832 4292747520
3.1579912 -0.41995642 0.54334819 4292747520
3.157253 -0.41975731 0.54777354 4292747520
3.17029 -0.42138922 0.55396479 4292747520
3.1795199 -0.42251441 0.55886942 4292878080
3.1927598 -0.42417172 0.56384593 4292878080
3.2022007 -0.42532361 0.56750876 4292878080
3.1922257 -0.42389664 0.56706792 4292878080
3.1833401 -0.42261496 0.56615055 4292878080
3.1638281 -0.41992345 0.56267834 4292747520
3.1600478 -0.41932067 0.56134564 4292747520
3.145638 -0.41730803 0.55747414 4292747520
3.1274292 -0.41479242 0.55229419 4292616960
3.2018054 -0.42455459 0.56276774 4292878080
3.1750231 -0.42090181 0.55476928 4292878080
3.2317486 -0.42831838 0.56067133 4293008640
3.2090776 -0.42521113 0.55210727 4292878080
3.2434969 -0.42966807 0.55269814 4293008640
3.2383342 -0.42888066 0.54585397 4293008640
3.2526011 -0.43066618 0.54163128 4293008640
3.2439785 -0.42942077 0.53295892 4293008640
3.2501128 -0.4301289 0.52609855 4293008640
3.2426324 -0.42903528 0.51643139 4293008640
3.2347033 -0.42788276 0.5061391 4293008640
3.2454646 -0.4292025 0.4981795 4293008640
3.2615635 -0.4312273 0.49038503 4293008640
3.2676437 -0.43192676 0.48045218 4293139200
3.2208776 -0.42508051 0.39220223 4292878080
3.2332876 -0.426615 0.37930137 4292878080
3.2595487 -0.42997578 0.3674255 4293008640
3.2558584 -0.42938495 0.3516607 4293008640
3.2176135 -0.42423832 0.33197498 4292878080
3.2210612 -0.42458996 0.3163906 4292878080
3.2472336 -0.42793614 0.30253905 4292878080
3.233489 -0.42602149 0.28457341 4292878080
3.1949699 -0.42084435 0.26438773 4292747520
3.2031395 -0.42181808 0.24793424 4292747520
3.2192168 -0.42383242 0.23169035 4292878080
3.2318671 -0.42539462 0.21478963 4292878080
3.1910424 -0.41991907 0.19425903 4292747520
3.2201984 -0.42365286 0.17784047 4292878080
3.2334754 -0.42529628 0.16011134 4292878080
3.2185335 -0.42322811 0.14082159 4292747520
3.175818 -0.41750965 0.12049857 4292616960
3.2085795 -0.4217141 0.10296559 4292747520
3.2097113 -0.42176029 0.084108084 4292747520
3.2145367 -0.42229161 0.065221488 4292747520
3.1743145 -0.41690621 0.045560919 4292616960
3.1803396 -0.41759589 0.026718073 4292616960
3.1790102 -0.41731972 0.0077568577 4292616960
3.1582921 -0.41449904 -0.011128391 4292616960
3.1724784 -0.41625953 -0.030085472 4292616960
3.1861398 -0.41795021 -0.049170807 4292747520
3.1814327 -0.41723108 -0.067972824 4292616960
3.1532445 -0.41343352 -0.086005136 4292616960
3.1878173 -0.41786465 -0.10569294 4292747520
3.1990473 -0.41923448 -0.12476131 4292747520
3.1988897 -0.41911161 -0.14331509 4292747520
3.1652477 -0.41460276 -0.16001877 4292616960
3.1846418 -0.41704136 -0.17914684 4292747520
3.1905313 -0.41771063 -0.197464 4292747520
3.1627975 -0.41397861 -0.21336375 4292616960
3.1659589 -0.41429123 -0.23097759 4292616960
3.2042058 -0.41919377 -0.25112298 4292747520
3.2212188 -0.42131659 -0.26962671 4292878080
3.2035825 -0.41890749 -0.28493217 4292747520
3.1044819 -0.4058497 -0.29207632 4292486400
3.1862314 -0.416435 -0.315815 4292747520
3.2058403 -0.41889545 -0.33355311 4292747520
3.2067802 -0.41891578 -0.34907955 4292878080
3.2008314 -0.4180364 -0.36344424 4292747520
3.1106472 -0.40615872 -0.3673991 4292486400
3.2068174 -0.41861326 -0.39296773 4292878080
3.2262626 -0.42104852 -0.40920293 4292878080
3.2340183 -0.42195734 -0.42361057 4292878080
3.2220178 -0.42028865 -0.43493646 4292878080
3.1790276 -0.41457933 -0.44137326 4292747520
3.1716623 -0.41351748 -0.45206252 4292747520
3.197124 -0.41673499 -0.46697894 4292878080
3.1926773 -0.41605338 -0.47706896 4292878080
3.1980608 -0.41665271 -0.48808432 4292878080
3.18889 -0.41535604 -0.49630824 4292878080
3.1977205 -0.41640407 -0.50676072 4292878080
3.1857738 -0.41474661 -0.51332992 4292878080
3.1677029 -0.41229281 -0.51824325 4292747520
3.1588986 -0.41104597 -0.52400827 4292747520
3.1466374 -0.40934998 -0.52854663 4292747520
3.1032689 -0.40360895 -0.52713829 4292616960
3.120997 -0.40581495 -0.53544295 4292616960
3.0501659 -0.39650753 -0.52785462 4292355840
3.0641806 -0.39823151 -0.53424591 4292486400
3.0587499 -0.39742798 -0.53663516 4292355840
3.0768673 -0.39968371 -0.54253864 4292486400
3.0765271 -0.39954126 -0.54456866 4292486400
3.0811772 -0.40004671 -0.54684645 4292486400
3.0761683 -0.3992981 -0.54677057 4292486400
3.0624785 -0.39742327 -0.54450911 4292486400
3.0479198 -0.39543661 -0.54145682 4292355840
3.1083782 -0.40318117 -0.55107749 4292616960
3.0998971 -0.4019821 -0.54781389 4292616960
3.1378069 -0.40679786 -0.55208284 4292747520
3.1632218 -0.40999168 -0.55345351 4292747520
3.1849313 -0.41270378 -0.55347866 4292878080
3.1900804 -0.41326907 -0.54994702 4292878080
3.1956995 -0.41389495 -0.54583937 4292878080
3.1874518 -0.41272494 -0.53873366 4292878080
3.2011149 -0.41439182 -0.53469276 4292878080
3.1953967 -0.41354954 -0.52677947 4292878080
3.1750441 -0.41081405 -0.51590425 4292747520
3.1738453 -0.41055757 -0.50759631 4292747520
3.1791015 -0.41113594 -0.499724 4292747520
3.199724 -0.41370073 -0.49361739 4292878080
3.2158313 -0.41568059 -0.48613745 4292878080
3.2226851 -0.41646358 -0.47662959 4292878080
3.2022288 -0.41371775 -0.46258613 4292878080
3.1777835 -0.41045797 -0.44759792 4292747520
3.1843152 -0.41119996 -0.43652791 4292747520
3.2002454 -0.41315487 -0.42616463 4292878080
3.2072511 -0.41395685 -0.41404039 4292878080
3.1987367 -0.41275573 -0.39945343 4292747520
3.1654437 -0.4083586 -0.3815043 4292747520
3.1872911 -0.41107523 -0.36982027 4292747520
3.2139244 -0.41440758 -0.35805717 4292878080
3.2200637 -0.41509637 -0.3434597 4292878080
3.2005346 -0.41247663 -0.32580864 4292747520
3.175318 -0.40912539 -0.30743814 4292747520
3.1961064 -0.4117018 -0.29320195 4292747520
3.2025023 -0.4124234 -0.27718344 4292747520
3.187674 -0.41041201 -0.25906831 4292747520
3.1809752 -0.40944794 -0.24144401 4292747520
3.2015543 -0.41199458 -0.2255497 4292747520
3.2047076 -0.41229802 -0.20805188 4292747520
3.1804411 -0.40907446 -0.18866567 4292747520
3.0632029 -0.39389724 -0.1643592 4292225280
3.2057912 -0.4121303 -0.15366365 4292747520
3.2011421 -0.41143039 -0.13495488 4292747520
3.1360345 -0.40296221 -0.11395705 4292486400
3.1925883 -0.4101271 -0.09730459 4292747520
3.18331 -0.40883353 -0.078263968 4292616960
3.1941297 -0.41012108 -0.059623756 4292747520
3.043577 -0.39069316 -0.038737196 4292225280
3.2312384 -0.41467941 -0.021890681 4292878080
3.2452095 -0.41636875 -0.0026436371 4292878080
3.1758091 -0.40736312 0.016343597 4292616960
3.008611 -0.38582042 0.03340036 4292094720
3.2571242 -0.4175854 0.05551729 4292878080
3.2558067 -0.41731253 0.074785024 4292878080
3.1653018 -0.40561101 0.091381483 4292616960
2.9584041 -0.37900406 0.10277062 4291964160
3.2750881 -0.41947019 0.13286933 4293008640
3.2612936 -0.41759926 0.15118344 4293008640
3.101315 -0.39701545 0.16155922 4292355840
2.94383 -0.37676099 0.17007701 4291833600
3.2849319 -0.42031145 0.2082366 4293008640
3.2670963 -0.417925 0.22523271 4293008640
3.1208186 -0.39911363 0.23222846 4292486400
2.9671991 -0.37937286 0.23679484 4291964160
3.3070579 -0.4227201 0.28145739 4293139200
3.2903664 -0.42048147 0.29718074 4293139200
3.1951225 -0.40820807 0.30490801 4292747520
3.1076763 -0.39693674 0.31211799 4292486400
2.916013 -0.37236291 0.30713946 4291833600
3.2830672 -0.41912943 0.36148405 4293139200
3.2665737 -0.4169195 0.37487185 4293008640
3.1412339 -0.40082183 0.37470567 4292616960
3.0851123 -0.3935622 0.38156271 4292355840
3.0411315 -0.38785455 0.3890591 4292225280
3.2943723 -0.42004675 0.43499514 4293139200
3.26805 -0.41658622 0.44446227 4293008640
3.2174263 -0.41003036 0.44982398 4292878080
3.1640823 -0.40313116 0.45390713 4292747520
3.1042812 -0.39541286 0.45614418 4292486400
3.045835 -0.38787097 0.45765728 4292355840
3.2764342 -0.41713193 0.50260878 4293139200
3.2724872 -0.41652498 0.51171726 4293139200
3.2549789 -0.41419259 0.51805598 4293008640
3.2111979 -0.408519 0.51945305 4292878080
3.2295792 -0.41075429 0.53023601 4293008640
3.1680648 -0.40282947 0.5271951 4292747520
3.1856341 -0.40496176 0.53660166 4292878080
3.2032821 -0.40710291 0.54546624 4292878080
3.212213 -0.40813541 0.55225885 4292878080
3.234926 -0.41091797 0.56082469 4293008640
3.2381823 -0.41122824 0.56539977 4293008640
3.242521 -0.41167572 0.56951195 4293008640
3.2518532 -0.41275677 0.57384753 4293008640
3.2466388 -0.41199124 0.57494909 4293008640
3.251308 -0.41247997 0.57712668 4293008640
3.2365515 -0.41050455 0.57517898 4293008640
3.2277715 -0.4092879 0.57361662 4293008640
3.2230129 -0.40858164 0.57209808 4293008640
3.2095733 -0.40677544 0.56837517 4292878080
3.1952658 -0.40486014 0.56384772 4292878080
3.1771545 -0.40246394 0.55801344 4292878080
3.2429154 -0.41069064 0.56620431 4293008640
3.2152424 -0.40708342 0.55738676 4292878080
3.2584426 -0.41244903 0.56017739 4293139200
3.2705519 -0.41387737 0.55688798 4293139200
3.2743249 -0.41425034 0.55150443 4293139200
3.2790451 -0.41474283 0.54562312 4293139200
3.2895248 -0.41596338 0.54003453 4293139200
3.2858839 -0.41539806 0.53148812 4293139200
3.2778993 -0.41428405 0.52165478 4293139200
3.2619286 -0.41216144 0.51001471 4293008640
3.280761 -0.41443631 0.50321829 4293139200
3.3053336 -0.4174349 0.49659187 4293269760
3.3077986 -0.41764063 0.48599026 4293269760
3.2617295 -0.41115201 0.39687824 4293008640
3.2673542 -0.41175675 0.38300985 4293008640
3.2970603 -0.41539511 0.37137482 4293139200
3.2909338 -0.41451821 0.35518226 4293139200
3.2486689 -0.40909094 0.3349275 4293008640
3.2601175 -0.41042858 0.31998661 4293008640
3.2729597 -0.4119409 0.30470714 4293008640
3.2625911 -0.41053176 0.28691927 4293008640
3.2310038 -0.406454 0.26716906 4292878080
3.2431352 -0.40787664 0.25084186 4292878080
3.2740841 -0.41166449 0.23546258 4293008640
3.2649949 -0.41041744 0.21682867 4293008640
3.2271082 -0.40555203 0.19630742 4292878080
3.262253 -0.40986457 0.18002808 4293008640
3.2653327 -0.41014731 0.16156773 4293008640
3.2720134 -0.41088203 0.14305434 4293008640
3.2127843 -0.40334183 0.12180993 4292747520
3.244067 -0.40716559 0.10402651 4292878080
3.2446263 -0.4071323 0.08495941 4292878080
3.2382529 -0.40622923 0.065653548 4292878080
3.2098212 -0.40256014 0.046036102 4292747520
3.1908083 -0.4000738 0.026785985 4292747520
3.1872344 -0.39952397 0.0077711134 4292747520
3.1813898 -0.39868987 -0.011201403 4292616960
3.2077334 -0.40188885 -0.030397084 4292747520
3.226918 -0.40418947 -0.049762938 4292878080
3.2233906 -0.40364477 -0.068817861 4292747520
3.204102 -0.40112716 -0.087327056 4292747520
3.2233493 -0.40343392 -0.10679127 4292747520
3.2375677 -0.40511018 -0.12616938 4292878080
3.2528093 -0.40691355 -0.14562207 4292878080
3.2013044 -0.40036836 -0.16172095 4292747520
3.2250898 -0.40324014 -0.18128693 4292878080
3.2236261 -0.40295428 -0.19936359 4292878080
3.2112007 -0.40129864 -0.21646765 4292747520
3.2203825 -0.4023433 -0.23477314 4292878080
3.2392409 -0.40459606 -0.25367972 4292878080
3.2527201 -0.40617591 -0.27206078 4292878080
3.2543035 -0.40626979 -0.28922793 4293008640
3.1921368 -0.39840701 -0.30009958 4292747520
3.2310679 -0.40316287 -0.32002088 4292878080
3.241787 -0.40439692 -0.3370423 4292878080
3.2515895 -0.405516 -0.35369414 4293008640
3.2318094 -0.40294605 -0.36668885 4292878080
3.1366148 -0.390977 -0.3701908 4292616960
3.2673342 -0.40716684 -0.40008602 4293008640
3.2621365 -0.40641505 -0.41344562 4293008640
3.2688959 -0.40715289 -0.42786106 4293008640
3.2529352 -0.40506116 -0.43878394 4293008640
3.2236609 -0.40131304 -0.44723791 4292878080
3.2162685 -0.40029013 -0.45808014 4292878080
3.2269964 -0.40152237 -0.47099248 4292878080
3.2470739 -0.40391693 -0.48483732 4293008640
3.2386999 -0.40277195 -0.49392012 4293008640
3.2344086 -0.40213507 -0.50301945 4293008640
3.2324431 -0.40178761 -0.51188374 4293008640
3.2214541 -0.40031889 -0.51869452 4292878080
3.2158134 -0.39951536 -0.52572447 4292878080
3.1935539 -0.39664811 -0.52936465 4292878080
3.1910615 -0.39623672 -0.53561175 4292878080
3.1378615 -0.38953072 -0.53261983 4292616960
3.0815363 -0.3824403 -0.52828181 4292486400
3.0856795 -0.38285604 -0.5336054 4292486400
3.0948074 -0.38388988 -0.53918666 4292486400
3.1079435 -0.3854202 -0.54486263 4292616960
3.1123812 -0.38587123 -0.54839498 4292616960
3.1120365 -0.38572922 -0.55044693 4292616960
3.102026 -0.38438949 -0.5501399 4292616960
3.1116722 -0.38548556 -0.55267256 4292616960
3.0930848 -0.38308421 -0.54954475 4292486400
3.0882895 -0.38239178 -0.54822332 4292486400
3.1536815 -0.39038804 -0.55869651 4292747520
3.1442206 -0.38911659 -0.55523664 4292747520
3.1821632 -0.39371073 -0.55947405 4292878080
3.1988027 -0.3956674 -0.55926609 4292878080
3.2156444 -0.39764804 -0.55840391 4292878080
3.219825 -0.39806232 -0.55466557 4293008640
3.2313261 -0.3993811 -0.55151772 4293008640
3.2396355 -0.40030479 -0.54715008 4293008640
3.2387354 -0.40009028 -0.54057807 4293008640
3.2349713 -0.3995221 -0.53291076 4293008640
3.219516 -0.39751065 -0.52274519 4292878080
3.2085304 -0.39605194 -0.51276582 4292878080
3.2196875 -0.39732644 -0.50573123 4292878080
3.2305305 -0.39856151 -0.49800321 4293008640
3.2519903 -0.40110534 -0.49124199 4293008640
3.262372 -0.40228179 -0.48214436 4293008640
3.2448781 -0.40002114 -0.4684025 4293008640
3.2086263 -0.39544976 -0.45161003 4292878080
3.2053423 -0.39494279 -0.43908757 4292878080
3.2262132 -0.3974115 -0.42930704 4292878080
3.2430804 -0.39938578 -0.41835827 4293008640
3.2364602 -0.3984673 -0.40386754 4292878080
3.2169442 -0.39596194 -0.38742661 4292878080
3.230958 -0.39758381 -0.37461179 4292878080
3.2461369 -0.39934811 -0.36138055 4293008640
3.2465386 -0.39929399 -0.34602955 4292878080
3.2403936 -0.39843488 -0.32962433 4292878080
3.2059095 -0.39409253 -0.31017247 4292747520
3.2287853 -0.39680159 -0.29598272 4292878080
3.2401435 -0.39809415 -0.28023586 4292878080
3.2186868 -0.39535525 -0.26139712 4292878080
3.2165678 -0.39499238 -0.24396673 4292747520
3.2342863 -0.39706507 -0.22768883 4292878080
3.2530551 -0.39926556 -0.21103603 4292878080
3.233525 -0.39676538 -0.19167426 4292878080
3.1593056 -0.38755766 -0.16939165 4292616960
3.2293041 -0.39604148 -0.15467747 4292878080
3.2050302 -0.39296234 -0.13501997 4292747520
3.2024503 -0.39254391 -0.11628538 4292747520
3.1790962 -0.38957989 -0.096822552 4292616960
3.2332675 -0.39611518 -0.079434127 4292878080
3.23545 -0.39627936 -0.060350947 4292878080
3.1261947 -0.38279805 -0.039759655 4292486400
3.2684262 -0.40010986 -0.022126447 4293008640
3.2827992 -0.40176472 -0.0026723065 4293008640
3.1737826 -0.38832152 0.016321247 4292616960
3.086241 -0.37751216 0.034237176 4292355840
3.3008344 -0.40365618 0.056221288 4293008640
3.2915349 -0.40241402 0.075550564 4293008640
3.1728725 -0.38780552 0.091533273 4292616960
3.065717 -0.3746106 0.10642089 4292225280
3.2891603 -0.40180904 0.13334301 4293008640
3.2852793 -0.40123019 0.1521844 4293008640
3.1848624 -0.38886479 0.16579069 4292747520
3.0549858 -0.37290972 0.17637041 4292225280
3.3141141 -0.40443477 0.20993356 4293139200
3.2900512 -0.40139338 0.22665013 4293008640
3.1894178 -0.38901418 0.23716041 4292747520
3.05545 -0.37257671 0.24366026 4292225280
3.3425703 -0.4074811 0.28427291 4293269760
3.3044035 -0.40272298 0.29823157 4293139200
3.1888514 -0.38853845 0.30408838 4292747520
3.0851626 -0.37580636 0.30963168 4292355840
3.012913 -0.3669095 0.31711525 4292094720
3.3155591 -0.40365976 0.36479643 4293139200
3.286237 -0.3999851 0.3768546 4293139200
3.2095644 -0.39055055 0.38257864 4292878080
3.063627 -0.37269473 0.37863046 4292355840
3.0220273 -0.36753771 0.38633454 4292225280
3.3395731 -0.40605104 0.4406437 4293269760
3.3112779 -0.40250513 0.45001477 4293139200
3.201376 -0.38904384 0.44725549 4292878080
3.2469668 -0.39448071 0.46545982 4293008640
3.1723478 -0.38531396 0.46580815 4292747520
3.104991 -0.3770338 0.46620789 4292486400
3.3271761 -0.40390727 0.510023 4293269760
3.3268504 -0.40376171 0.51984131 4293269760
3.3279381 -0.40378761 0.5292846 4293269760
3.2801759 -0.39788795 0.53022718 4293139200
3.3024642 -0.40048626 0.54181004 4293269760
3.2261882 -0.39113349 0.536479 4293008640
3.2535431 -0.39434621 0.54764426 4293008640
3.2662895 -0.395787 0.55579329 4293139200
3.2889109 -0.39842328 0.56503642 4293139200
3.2930329 -0.39881766 0.57048589 4293139200
3.2020197 -0.38769302 0.55868179 4292878080
3.2249498 -0.39036655 0.56601667 4293008640
3.2098439 -0.38843572 0.5660252 4292878080
3.2144072 -0.38888547 0.56883031 4292878080
3.2005048 -0.38710153 0.56769884 4292878080
3.2043147 -0.3874602 0.56903923 4292878080
3.3004951 -0.39898497 0.58611751 4293269760
3.2908468 -0.39771372 0.58371764 4293139200
3.2822907 -0.39657506 0.58083349 4293139200
3.2630904 -0.39415121 0.57540131 4293139200
3.2400846 -0.39126906 0.56865597 4293008640
3.2171807 -0.38840067 0.56130648 4292878080
3.2831144 -0.396256 0.56874305 4293139200
3.2653134 -0.39400342 0.56095439 4293139200
3.3037732 -0.3985388 0.56213981 4293269760
3.3160031 -0.39990842 0.55812246 4293269760
3.3208652 -0.40038896 0.55218434 4293269760
3.329612 -0.40133741 0.54622239 4293269760
3.3406863 -0.40256578 0.53996378 4293400320
3.3099551 -0.39875707 0.52637762 4293269760
3.3300078 -0.40106669 0.52028495 4293269760
3.3275666 -0.40066662 0.51003087 4293269760
3.3499496 -0.40325496 0.50293344 4293400320
3.351553 -0.40334114 0.49206513 4293400320
3.3069408 -0.39729202 0.40209097 4293139200
3.3170512 -0.39840093 0.38855678 4293139200
3.3393691 -0.40097505 0.37587088 4293269760
3.3342586 -0.40025517 0.35960042 4293269760
3.2998827 -0.39602339 0.33996382 4293139200
3.3049612 -0.39652756 0.32415584 4293139200
3.3222358 -0.3984943 0.30907327 4293139200
3.3080368 -0.39668572 0.29070765 4293139200
3.286252 -0.39396867 0.27154309 4293008640
3.2822011 -0.39337841 0.25368184 4293008640
3.3087595 -0.39645606 0.23778617 4293139200
3.3035626 -0.39572811 0.21923314 4293139200
3.2688386 -0.39146441 0.1987038 4293008640
3.3008423 -0.39519188 0.18202749 4293139200
3.3132317 -0.39656961 0.16382065 4293139200
3.3037126 -0.39532495 0.1443371 4293139200
3.2712486 -0.39133605 0.123938 4293008640
3.2911627 -0.39361349 0.1054614 4293008640
3.2827964 -0.3925083 0.085897535 4293008640
3.2614586 -0.38985312 0.066076852 4292878080
3.2539268 -0.38884911 0.046635389 4292878080
3.278471 -0.39167771 0.027502265 4293008640
3.2642004 -0.38986883 0.007953099 4292878080
3.2219956 -0.3847253 -0.011336287 4292747520
3.2451096 -0.38738185 -0.030729357 4292878080
3.259778 -0.389029 -0.050233871 4292878080
3.2491252 -0.38765416 -0.069317892 4292878080
3.2481892 -0.38743898 -0.088465616 4292878080
3.2679687 -0.38969412 -0.10819247 4293008640
3.2811956 -0.39116684 -0.1277786 4293008640
3.2479742 -0.38710284 -0.14530218 4292878080
3.2354183 -0.38550335 -0.16332805 4292878080
3.2675962 -0.38923326 -0.18354568 4293008640
3.2636557 -0.38865986 -0.20169573 4293008640
3.225152 -0.38397181 -0.21725361 4292878080
3.2517843 -0.38703892 -0.23689401 4292878080
3.2797296 -0.39026058 -0.25666818 4293008640
3.2902205 -0.39140409 -0.27500194 4293008640
3.2844269 -0.39061022 -0.29169795 4293008640
3.1900747 -0.37928748 -0.2996929 4292747520
3.2620213 -0.38773772 -0.32285744 4293008640
3.2861392 -0.39049977 -0.34141117 4293008640
3.288538 -0.39068007 -0.3574596 4293139200
3.2632055 -0.3875666 -0.36998865 4293008640
3.182236 -0.37784857 -0.37530893 4292747520
3.2863967 -0.39011157 -0.4021351 4293139200
3.296541 -0.39121073 -0.41751012 4293139200
3.3027127 -0.39183792 -0.43198112 4293139200
3.2926419 -0.39053822 -0.44382545 4293139200
3.2643113 -0.38707393 -0.452557 4293008640
3.2519774 -0.38550785 -0.46283826 4293008640
3.2577822 -0.38609216 -0.47514939 4293008640
3.2660592 -0.38696906 -0.48732719 4293008640
3.2645566 -0.38668704 -0.49751139 4293008640
3.2690842 -0.3871192 -0.50805283 4293139200
3.268084 -0.38689664 -0.51716202 4293139200
3.2609956 -0.38595361 -0.52469027 4293008640
3.2379692 -0.38312516 -0.52897263 4293008640
3.2428463 -0.38359892 -0.53715575 4293008640
3.2266216 -0.38157693 -0.54119807 4293008640
3.1831663 -0.37633651 -0.53992856 4292878080
3.1023135 -0.36667871 -0.53146845 4292486400
3.1162424 -0.36822578 -0.5385105 4292616960
3.1439631 -0.37140122 -0.54736441 4292747520
3.1619916 -0.37343022 -0.55394709 4292747520
3.1517503 -0.37212032 -0.55494034 4292747520
3.1562915 -0.37255594 -0.55788124 4292747520
3.14627 -0.37127286 -0.55759346 4292747520
3.1422284 -0.37069583 -0.55770665 4292747520
3.1461217 -0.37105492 -0.5585742 4292747520
3.1276312 -0.3687745 -0.55481631 4292616960
3.1930711 -0.37638873 -0.56527656 4292878080
3.1699114 -0.37355778 -0.55937952 4292747520
3.231364 -0.38069671 -0.56772465 4293008640
3.2333448 -0.38082707 -0.56490779 4293008640
3.2502041 -0.38270926 -0.56400847 4293008640
3.2553735 -0.38321427 -0.56039524 4293008640
3.2708075 -0.38492697 -0.55786413 4293139200
3.2674651 -0.38442951 -0.55146265 4293139200
3.266474 -0.38420886 -0.54482502 4293139200
3.2725167 -0.38481542 -0.53871733 4293139200
3.2571614 -0.38290605 -0.52848643 4293008640
3.2490387 -0.38184765 -0.51887524 4293008640
3.2485423 -0.38168585 -0.50990564 4293008640
3.2701044 -0.38411513 -0.50375015 4293139200
3.2891982 -0.38625318 -0.49651417 4293139200
3.3025634 -0.38771749 -0.48774213 4293139200
3.2796707 -0.38492545 -0.47309312 4293139200
3.2562225 -0.38206971 -0.45798805 4293008640
3.249022 -0.38112137 -0.44475937 4293008640
3.2708869 -0.38358203 -0.43494695 4293008640
3.2754576 -0.38401371 -0.42223915 4293008640
3.2786288 -0.38428107 -0.40884328 4293008640
3.2370625 -0.37930608 -0.38957676 4292878080
3.2682295 -0.38285404 -0.37866819 4293008640
3.287204 -0.3849721 -0.36569649 4293139200
3.2850058 -0.38461003 -0.34988478 4293008640
3.2777491 -0.38365602 -0.33319122 4293008640
3.2590637 -0.38136515 -0.31509483 4293008640
3.2709894 -0.38265648 -0.29964212 4293008640
3.26792 -0.38219333 -0.28244081 4293008640
3.2464697 -0.3795813 -0.26346937 4292878080
3.259928 -0.38105103 -0.2470829 4293008640
3.2864685 -0.38404867 -0.23120092 4293008640
3.2812381 -0.38333297 -0.21271583 4293008640
3.2421875 -0.37866762 -0.19205372 4292878080
3.1816473 -0.37149554 -0.1704706 4292616960
3.2763224 -0.38244569 -0.15682016 4293008640
3.2862179 -0.38349617 -0.13834374 4293008640
3.1927502 -0.37248695 -0.11585239 4292747520
3.291568 -0.38391089 -0.10017817 4293008640
3.2979627 -0.3845517 -0.080967113 4293008640
3.2953038 -0.38413674 -0.061424613 4293008640
3.1909432 -0.37186971 -0.0405549 4292747520
3.3088374 -0.38550362 -0.022384439 4293139200
3.3308759 -0.3879652 -0.0027095564 4293139200
3.2524734 -0.37872967 0.016714286 4292878080
3.1559279 -0.36738709 0.034985907 4292616960
3.3561592 -0.39058948 0.057123873 4293269760
3.3414898 -0.38877586 0.076643877 4293139200
3.2376306 -0.37658897 0.093336575 4292878080
3.1343596 -0.36447707 0.10872813 4292486400
3.3481185 -0.3892273 0.13563895 4293269760
3.3264124 -0.38659799 0.15398286 4293139200
3.2584975 -0.37860113 0.16950613 4292878080
3.1285086 -0.36339825 0.18048973 4292486400
3.3581517 -0.38996598 0.21257561 4293269760
3.3321273 -0.38683781 0.22938959 4293139200
3.2580028 -0.37812871 0.24209237 4292878080
3.0456681 -0.35338786 0.24271189 4292225280
3.3905191 -0.39329287 0.288151 4293400320
3.3503792 -0.38853005 0.30217156 4293269760
3.2672083 -0.37878102 0.31134474 4293008640
3.1495726 -0.36504275 0.31587714 4292616960
3.0723021 -0.3559891 0.32314229 4292355840
3.3741415 -0.39085594 0.37098512 4293400320
3.2930732 -0.38136026 0.37737733 4293139200
3.2729473 -0.37892535 0.38986406 4293008640
3.1268771 -0.36191452 0.38618028 4292486400
3.0950711 -0.35813466 0.39539897 4292486400
3.3815596 -0.39117697 0.44587538 4293400320
3.3647587 -0.38912633 0.45696715 4293400320
3.2596743 -0.37686977 0.45508569 4293008640
3.3052683 -0.38203594 0.47349036 4293139200
3.1459532 -0.36352152 0.46161368 4292616960
3.172965 -0.3665418 0.47608534 4292747520
3.3679259 -0.38895649 0.51591343 4293400320
3.351263 -0.38692543 0.52329481 4293400320
3.311219 -0.38219669 0.52626246 4293269760
3.3432517 -0.38578764 0.54005063 4293400320
3.2766042 -0.37799266 0.53719693 4293139200
3.2989829 -0.38046929 0.54820609 4293139200
3.3165352 -0.382388 0.55786276 4293269760
3.3302512 -0.38386342 0.56628686 4293269760
3.3381822 -0.3846713 0.57310647 4293400320
3.2518675 -0.37462142 0.5629667 4293008640
3.2747018 -0.37714773 0.57097012 4293139200
3.269253 -0.37641615 0.57339776 4293139200
3.2776158 -0.37727466 0.57757872 4293139200
3.2870674 -0.37825796 0.58128858 4293139200
3.2819557 -0.37756529 0.58174634 4293139200
3.2730465 -0.37643614 0.58084565 4293139200
3.2583828 -0.37464595 0.57824153 4293139200
3.3547475 -0.3856191 0.59464347 4293400320
3.3403187 -0.38385421 0.59069633 4293400320
3.3357894 -0.38322753 0.58781707 4293400320
3.3039689 -0.37946674 0.57947022 4293269760
3.276165 -0.37616912 0.5712055 4293139200
3.2670608 -0.37501979 0.56557393 4293139200
3.3243551 -0.38149068 0.57070577 4293269760
3.3765707 -0.38737527 0.57413256 4293530880
3.3702116 -0.38653845 0.5668577 4293400320
3.3701923 -0.38642898 0.56000245 4293400320
3.3936698 -0.3890129 0.55634981 4293530880
3.3677766 -0.3859376 0.54396981 4293400320
3.3779724 -0.3869985 0.53682661 4293400320
3.366801 -0.38561147 0.52567363 4293400320
3.380919 -0.38712084 0.51785392 4293400320
3.3812239 -0.38704816 0.50728154 4293400320
3.3971035 -0.38875777 0.49841172 4293530880
