# .PCD v0.7 - Point Cloud Data file format
VERSION 0.7
FIELDS x y z rgba
SIZE 4 4 4 4
TYPE F F F U
COUNT 1 1 1 1
WIDTH 1078
HEIGHT 1
VIEWPOINT 0 0 0 1 0 0 0
POINTS 1078
DATA ascii
3.1179323 -0.45199955 -0.34006634 4292486400
3.0953069 -0.44862032 -0.35214397 4292486400
2.9965026 -0.43420392 -0.3546038 4292094720
3.1171172 -0.45158142 -0.3827163 4292616960
3.1306648 -0.45344371 -0.39784744 4292616960
3.1423786 -0.4550395 -0.41240469 4292616960
3.1353509 -0.45392129 -0.42405739 4292616960
3.1059344 -0.44956288 -0.43206033 4292486400
3.0857694 -0.44654518 -0.4406718 4292486400
3.0969164 -0.44805893 -0.45321816 4292486400
3.1111257 -0.45001492 -0.46578285 4292616960
3.0959971 -0.44772735 -0.4734219 4292486400
3.1063528 -0.44912526 -0.4843978 4292616960
3.1158774 -0.45040244 -0.4947457 4292616960
3.1131525 -0.4499087 -0.5025984 4292616960
3.0802269 -0.44505155 -0.5049063 4292486400
3.0590508 -0.44189379 -0.50842601 4292486400
3.0517271 -0.44073793 -0.51359493 4292355840
3.0035901 -0.43368959 -0.51119208 4292225280
3.021311 -0.43615142 -0.51934189 4292355840
2.9652729 -0.42796674 -0.5141542 4292094720
2.9597728 -0.42707804 -0.51703852 4292094720
2.9689982 -0.42831394 -0.52189428 4292094720
2.9870942 -0.43082875 -0.52772552 4292225280
2.9770167 -0.4292798 -0.52797121 4292225280
2.9767923 -0.42915195 -0.52933931 4292225280
2.9717984 -0.42833671 -0.52923805 4292094720
2.9678841 -0.42767736 -0.52870762 4292094720
2.9484785 -0.42478642 -0.5248009 4292094720
3.018564 -0.43478683 -0.5361858 4292355840
3.0003431 -0.43206611 -0.53124219 4292225280
3.056695 -0.44008309 -0.53884745 4292486400
3.0760477 -0.44277072 -0.5392375 4292486400
3.0802937 -0.44328311 -0.53632522 4292486400
3.0990555 -0.44588375 -0.53528333 4292616960
3.1052485 -0.44667521 -0.53141057 4292616960
3.1099837 -0.44725659 -0.5266515 4292616960
3.1031897 -0.44618005 -0.51933295 4292616960
3.1042774 -0.44623691 -0.51274204 4292616960
3.0937054 -0.44461799 -0.50365418 4292486400
3.077816 -0.44223571 -0.49318439 4292486400
3.0840037 -0.44302592 -0.48570713 4292486400
3.1122909 -0.44698966 -0.48105162 4292616960
3.1210051 -0.44814113 -0.47270876 4292616960
3.1322825 -0.44966 -0.46414879 4292616960
3.1137977 -0.44690654 -0.45067516 4292616960
3.086406 -0.44287619 -0.4355616 4292486400
3.093477 -0.44379166 -0.42488897 4292486400
3.1003284 -0.44467515 -0.41365111 4292486400
3.1129999 -0.4463928 -0.40264383 4292616960
3.1247449 -0.4479768 -0.39096171 4292616960
3.0855708 -0.4422617 -0.37259084 4292486400
3.1132534 -0.44612968 -0.36192206 4292486400
3.1231618 -0.44744945 -0.34861222 4292616960
3.1198254 -0.44687143 -0.33340555 4292486400
3.1185644 -0.44659081 -0.31807229 4292486400
3.0746536 -0.44020405 -0.29826173 4292355840
3.1056395 -0.44454077 -0.28544819 4292486400
3.1070547 -0.44464377 -0.26943696 4292486400
3.0917947 -0.44236082 -0.25175682 4292486400
3.0935674 -0.44251525 -0.23525873 4292486400
3.1109388 -0.44490039 -0.21958502 4292486400
3.1205609 -0.44617644 -0.20297639 4292486400
3.089385 -0.44161987 -0.18361452 4292355840
2.9664135 -0.42394629 -0.15947007 4291964160
3.1064198 -0.44385579 -0.14918499 4292486400
3.1353571 -0.44788995 -0.13243401 4292616960
3.1375003 -0.44809553 -0.11422806 4292616960
3.1157846 -0.44489422 -0.095145069 4292486400
3.126616 -0.44634056 -0.077016853 4292486400
3.1113424 -0.44406044 -0.058189239 4292486400
2.9740686 -0.42437297 -0.037924755 4291964160
3.0845704 -0.44004172 -0.020936914 4292355840
3.1460602 -0.44871294 -0.0025677553 4292616960
3.1147921 -0.44415343 0.016060151 4292486400
2.9078534 -0.41455179 0.032343328 4291833600
3.1759577 -0.45267171 0.054236989 4292616960
3.1783533 -0.45291129 0.073145047 4292747520
3.0781364 -0.43853185 0.089034326 4292355840
2.8726373 -0.409163 0.099981263 4291703040
3.1677063 -0.4510895 0.1287576 4292616960
3.1601708 -0.44991511 0.14677458 4292616960
3.0005085 -0.42708775 0.15660532 4292094720
2.8384106 -0.40392402 0.16429852 4291572480
3.1873689 -0.45348081 0.20243628 4292747520
3.1759501 -0.45175445 0.21936551 4292747520
3.0151734 -0.42878857 0.22479372 4292225280
2.857939 -0.40633664 0.22850898 4291572480
3.21101 -0.4564327 0.27380231 4292878080
3.212126 -0.4564884 0.29066542 4292878080
3.0993705 -0.4403649 0.2963323 4292486400
2.9973562 -0.42577443 0.30160972 4292094720
2.8888414 -0.41026729 0.3048552 4291703040
3.2029314 -0.4547711 0.35333005 4292878080
3.1648138 -0.44925749 0.36388314 4292747520
3.031064 -0.43017408 0.36224994 4292225280
2.9760864 -0.42227617 0.36877671 4292094720
2.922421 -0.41456795 0.37458122 4291964160
3.2076232 -0.45492327 0.42434368 4292878080
3.1891065 -0.4521949 0.4345479 4292878080
3.1073852 -0.44050774 0.43526253 4292486400
3.0590956 -0.43356413 0.43967763 4292355840
2.9906392 -0.42376599 0.44027796 4292094720
3.0215499 -0.42804912 0.45486802 4292225280
3.1894944 -0.45173883 0.49019843 4292878080
3.1983657 -0.45289281 0.50107354 4292878080
3.1710498 -0.44892323 0.50565302 4292747520
3.1634662 -0.44774827 0.51270002 4292747520
3.1062109 -0.43954498 0.51094586 4292616960
3.1373668 -0.44385314 0.52307391 4292747520
3.1461229 -0.44499108 0.5309481 4292747520
3.080081 -0.43555135 0.52547848 4292486400
3.0890276 -0.43671748 0.53208375 4292486400
3.1019681 -0.43844756 0.53879029 4292616960
3.1150017 -0.44018999 0.54491919 4292616960
3.114476 -0.44001591 0.54805523 4292616960
3.118932 -0.44054553 0.55143023 4292616960
3.1234939 -0.44108978 0.55418527 4292616960
3.1232877 -0.44096062 0.55544841 4292616960
3.1134398 -0.43947047 0.55434418 4292616960
3.0949256 -0.43675798 0.55104554 4292616960
3.0950487 -0.43667617 0.55041975 4292616960
3.086503 -0.43537158 0.5476113 4292486400
3.0673339 -0.43256938 0.54229259 4292486400
3.1328392 -0.44170687 0.55126691 4292747520
3.1246145 -0.44044712 0.54657698 4292616960
3.1627252 -0.44571787 0.54931509 4292747520
3.1785927 -0.44785219 0.5474788 4292878080
3.1783338 -0.44771391 0.54220444 4292878080
3.1961181 -0.45011666 0.53934491 4292878080
3.1922758 -0.44947326 0.53218436 4292878080
3.1942954 -0.44965532 0.52538735 4292878080
3.1848612 -0.44822523 0.51611656 4292878080
3.1773651 -0.44706845 0.50660622 4292878080
3.170398 -0.44598657 0.49663532 4292747520
3.2124336 -0.45179689 0.49366391 4292878080
3.2105002 -0.45142215 0.48325038 4292878080
3.2158728 -0.45207456 0.47337177 4292878080
3.160243 -0.4436008 0.38525081 4292747520
3.1869771 -0.44725138 0.37428823 4292747520
3.2086546 -0.45019075 0.36209446 4292878080
3.1950989 -0.44818643 0.3454853 4292747520
3.1617947 -0.44341347 0.32658181 4292747520
3.1652138 -0.4437916 0.31125361 4292747520
3.1814716 -0.44596919 0.29674444 4292747520
3.1775806 -0.44532198 0.27996644 4292747520
3.1440172 -0.44051751 0.26046288 4292616960
3.1567063 -0.44219428 0.24461387 4292616960
3.1694453 -0.44387725 0.22836371 4292616960
3.1788552 -0.44509327 0.21150301 4292747520
3.1400239 -0.43955567 0.19136721 4292616960
3.1641881 -0.44283694 0.17494282 4292616960
3.178683 -0.44476372 0.15757431 4292747520
3.1680436 -0.44317359 0.13876756 4292616960
3.1336584 -0.43826309 0.1190319 4292486400
3.1595485 -0.44178277 0.10150553 4292616960
3.0943494 -0.43256721 0.081175752 4292355840
3.0525031 -0.42661968 0.062003125 4292225280
3.1271994 -0.43695912 0.044934828 4292486400
3.1399138 -0.43863511 0.026407924 4292616960
3.1526442 -0.4403125 0.0077011157 4292616960
3.1337247 -0.43756977 -0.011054156 4292486400
3.1528573 -0.44014034 -0.029932778 4292616960
3.1258464 -0.43626946 -0.048294153 4292486400
3.1214466 -0.4355554 -0.066765606 4292486400
3.112999 -0.43427697 -0.085002154 4292486400
3.1318026 -0.43679982 -0.10395155 4292486400
3.1549201 -0.43992308 -0.12317755 4292616960
3.1428874 -0.43814453 -0.14096305 4292616960
3.1053407 -0.43281078 -0.15716514 4292486400
3.1340542 -0.43671238 -0.17649753 4292486400
3.1415193 -0.43765199 -0.19464721 4292616960
3.1069028 -0.43273002 -0.20982648 4292486400
3.1248989 -0.43513644 -0.22823584 4292486400
3.1532443 -0.43898249 -0.24740408 4292616960
3.1657465 -0.44062161 -0.2652784 4292616960
3.1526642 -0.43869978 -0.28071535 4292616960
3.1063366 -0.43215376 -0.2925759 4292486400
3.1373615 -0.43636945 -0.31131691 4292616960
3.1461213 -0.4374871 -0.32770354 4292616960
3.1559515 -0.43875298 -0.34392837 4292616960
3.1411755 -0.43659818 -0.35706687 4292616960
3.0462019 -0.42330006 -0.3601872 4292355840
3.1580422 -0.43874025 -0.38742059 4292747520
3.1666672 -0.4398371 -0.40209016 4292747520
3.1734614 -0.44067916 -0.41613999 4292747520
3.1713216 -0.4402805 -0.42856824 4292747520
3.1284039 -0.43422195 -0.4348267 4292616960
3.1308784 -0.43446517 -0.44674462 4292616960
3.1318238 -0.43449607 -0.45794842 4292616960
3.1421094 -0.43582246 -0.47003347 4292616960
3.1455629 -0.43620074 -0.48060441 4292747520
3.1461163 -0.43617672 -0.49019384 4292747520
3.1423192 -0.43554971 -0.4985328 4292747520
3.1255169 -0.4331207 -0.50417858 4292616960
3.1296999 -0.43360013 -0.51259297 4292616960
3.1123986 -0.4311035 -0.51686639 4292616960
3.1011431 -0.42944518 -0.52148157 4292616960
3.0383 -0.42064542 -0.51667356 4292355840
3.0657914 -0.42435336 -0.52655381 4292486400
2.9911468 -0.41392565 -0.51821357 4292225280
3.0041826 -0.41563335 -0.52436441 4292225280
3.0182867 -0.41748807 -0.53012174 4292355840
3.0178509 -0.41733116 -0.53272063 4292355840
3.017518 -0.41718853 -0.53471392 4292355840
3.0260701 -0.41827402 -0.53765953 4292355840
3.0025344 -0.41492468 -0.53427213 4292225280
3.0122738 -0.41617417 -0.53617424 4292225280
2.9889505 -0.41285613 -0.53156739 4292225280
3.05812 -0.42231244 -0.54276586 4292486400
3.0496447 -0.42104438 -0.53952801 4292355840
3.0826278 -0.42549947 -0.54297274 4292486400
3.0943422 -0.42701736 -0.54199922 4292616960
3.1248016 -0.43112069 -0.54362816 4292616960
3.1396971 -0.43307528 -0.54185814 4292747520
3.1413918 -0.43320847 -0.53715485 4292747520
3.1398926 -0.4329012 -0.53128022 4292747520
3.1477611 -0.43388528 -0.52636021 4292747520
3.140065 -0.43272391 -0.51822793 4292747520
3.1343863 -0.43184102 -0.50985879 4292616960
3.1087143 -0.42820457 -0.49772727 4292616960
3.1198127 -0.42963341 -0.49094421 4292616960
3.1432409 -0.43275911 -0.48543745 4292747520
3.1705892 -0.43642291 -0.47982553 4292747520
3.1671948 -0.43585432 -0.46893793 4292747520
3.1516397 -0.43361279 -0.45577884 4292747520
3.1321042 -0.43082479 -0.44164893 4292616960
3.1189752 -0.42891902 -0.42804062 4292616960
3.1397676 -0.43167788 -0.41857052 4292616960
3.1516502 -0.4332107 -0.40730959 4292616960
3.1597466 -0.43422246 -0.39501783 4292747520
3.1098359 -0.427264 -0.37521392 4292486400
3.131633 -0.4301585 -0.36376122 4292616960
3.1493487 -0.43249112 -0.35124803 4292616960
3.1544662 -0.43309289 -0.33683211 4292616960
3.1497135 -0.43233958 -0.32098693 4292616960
3.1195717 -0.42810237 -0.30237201 4292486400
3.1304469 -0.42949459 -0.28749344 4292616960
3.1368084 -0.43026698 -0.27179512 4292616960
3.1180201 -0.42759004 -0.25368515 4292486400
3.1201932 -0.4277882 -0.23708999 4292486400
3.1559761 -0.43259311 -0.22258228 4292616960
3.1497896 -0.43164432 -0.20471051 4292616960
3.1195986 -0.42740712 -0.18525909 4292486400
3.002471 -0.4112637 -0.16127692 4292094720
3.1426008 -0.43035743 -0.15079959 4292616960
3.1682787 -0.43377244 -0.13371556 4292616960
3.1817603 -0.43551639 -0.1157451 4292747520
3.1474669 -0.43072161 -0.096034274 4292616960
3.1690407 -0.4335725 -0.077998333 4292616960
3.1515198 -0.4310745 -0.058892678 4292616960
3.0190909 -0.41286385 -0.038467541 4292094720
3.1247308 -0.42721021 -0.021192253 4292486400
3.1813171 -0.43484482 -0.0025944195 4292747520
3.1510136 -0.43060189 0.016233701 4292616960
2.9478672 -0.40274659 0.032761738 4291964160
3.2010679 -0.4372372 0.054621376 4292747520
3.2096641 -0.43830863 0.073805593 4292747520
3.1143129 -0.42518792 0.090007536 4292486400
2.9225032 -0.39890718 0.10163421 4291833600
3.2138414 -0.43857056 0.13052677 4292747520
3.2062886 -0.43743727 0.14879562 4292747520
3.050442 -0.41607735 0.15908228 4292225280
2.8931439 -0.39452943 0.1673308 4291703040
3.2186344 -0.43881261 0.20425618 4292878080
3.1879125 -0.43452215 0.22001316 4292747520
3.0512178 -0.41579261 0.2272965 4292225280
2.9126091 -0.39681104 0.23269136 4291833600
3.2422476 -0.44161692 0.27624184 4292878080
3.2295496 -0.43978405 0.29200524 4292878080
3.1354227 -0.42686597 0.29953641 4292616960
3.0421832 -0.41407472 0.30587253 4292225280
2.9246898 -0.39798898 0.30838829 4291833600
3.229167 -0.43931863 0.35593581 4292878080
3.2047892 -0.43589956 0.36818117 4292878080
3.0571353 -0.41571859 0.3650701 4292355840
3.0158696 -0.41001067 0.37340403 4292225280
2.952311 -0.40127534 0.37810627 4291964160
3.2436244 -0.44076657 0.42875931 4293008640
3.220165 -0.43747571 0.43842518 4292878080
3.1521037 -0.42812839 0.44116953 4292747520
3.108659 -0.42212814 0.44644016 4292486400
3.0352209 -0.4120588 0.44648021 4292355840
3.0671163 -0.41629076 0.4613547 4292355840
3.239095 -0.43952927 0.4974196 4293008640
3.2159154 -0.43628106 0.50341618 4292878080
3.2254879 -0.43747649 0.51391858 4293008640
3.1992874 -0.43382052 0.51808703 4292878080
3.1644681 -0.42899778 0.52010864 4292747520
3.1731415 -0.43007213 0.52861166 4292747520
3.1020432 -0.42033654 0.52308691 4292616960
3.1245818 -0.42329064 0.53264076 4292616960
3.1335239 -0.42440179 0.5393132 4292616960
3.1562307 -0.42737621 0.54777354 4292747520
3.1643817 -0.42837867 0.55311143 4292747520
3.1687284 -0.42886573 0.55715287 4292747520
3.1829417 -0.43068758 0.56229401 4292878080
3.1728599 -0.4292219 0.56249082 4292878080
3.1628904 -0.42777205 0.5620386 4292747520
3.1540089 -0.42646995 0.56111544 4292747520
3.1540222 -0.42637086 0.56111574 4292747520
3.1395071 -0.42430824 0.55787712 4292747520
3.1358373 -0.42371193 0.55591685 4292747520
3.107872 -0.41983387 0.54901779 4292616960
3.1773403 -0.42911649 0.55864805 4292878080
3.1642334 -0.42724514 0.55306256 4292747520
3.2072654 -0.43295285 0.55660343 4292878080
3.2192473 -0.43446735 0.55403572 4293008640
3.2189982 -0.43433073 0.54870051 4293008640
3.2226276 -0.43471736 0.54338175 4293008640
3.2417743 -0.43719646 0.54000247 4293008640
3.2380419 -0.43658954 0.53215522 4293008640
3.23928 -0.43665284 0.52451414 4293008640
3.2180934 -0.43369398 0.51268846 4293008640
3.2101572 -0.43252173 0.50246024 4292878080
3.2248237 -0.43439469 0.49517062 4293008640
3.2562056 -0.43851781 0.48973715 4293008640
3.2430551 -0.43664306 0.4769904 4293008640
3.1962428 -0.42968038 0.38932759 4292878080
3.2174819 -0.43243271 0.37756851 4292878080
3.2447119 -0.43598866 0.36587062 4293008640
3.2449579 -0.43591797 0.35059598 4293008640
3.2027767 -0.43014902 0.33055037 4292878080
3.2052305 -0.43037605 0.31493673 4292878080
3.2274399 -0.43325499 0.30079147 4292878080
3.2235653 -0.43263173 0.2837911 4292878080
3.1850548 -0.4273614 0.26365182 4292747520
3.19223 -0.42822206 0.24716908 4292747520
3.2092872 -0.43040755 0.23104978 4292747520
3.2120404 -0.43067408 0.21354039 4292878080
3.1712224 -0.42509976 0.19311436 4292616960
3.2142181 -0.4307605 0.17756711 4292878080
3.2136307 -0.43057901 0.15917967 4292747520
3.2036397 -0.42913792 0.14021485 4292747520
3.1648965 -0.42384693 0.12012265 4292616960
3.1907978 -0.42721361 0.10242776 4292747520
3.1953161 -0.42771637 0.083757676 4292747520
3.2002273 -0.42827144 0.064951941 4292747520
3.1732252 -0.4245564 0.045559857 4292616960
3.1722651 -0.42432648 0.026658764 4292616960
3.1776025 -0.42493883 0.0077559031 4292616960
3.1403322 -0.41985428 -0.011068648 4292486400
3.152633 -0.42139804 -0.02990683 4292616960
3.1732416 -0.42405123 -0.048987404 4292616960
3.1714978 -0.42371678 -0.067782216 4292616960
3.142329 -0.41971931 -0.0857348 4292616960
3.1719396 -0.42357296 -0.10520009 4292616960
3.1950674 -0.42655924 -0.12464587 4292747520
3.1790545 -0.42431977 -0.14247191 4292747520
3.1503782 -0.4203915 -0.15931788 4292616960
3.1598737 -0.42155758 -0.17781027 4292616960
3.1756628 -0.42356244 -0.19660649 4292747520
3.1518991 -0.42029211 -0.21269634 4292616960
3.1560519 -0.42074496 -0.23032823 4292616960
3.1844077 -0.42442337 -0.24965093 4292747520
3.1915452 -0.42527258 -0.26722807 4292747520
3.1926882 -0.4253228 -0.28405365 4292747520
3.0699368 -0.40887198 -0.28891823 4292355840
3.1704195 -0.4221535 -0.31434783 4292747520
3.1811557 -0.42348135 -0.33109012 4292747520
3.1909766 -0.42468673 -0.34746981 4292747520
3.1628675 -0.42084455 -0.35924783 4292747520
3.077168 -0.40934318 -0.3635605 4292355840
3.1910374 -0.42438871 -0.39115837 4292747520
3.2065501 -0.42634931 -0.40683201 4292878080
3.218245 -0.4278014 -0.42167851 4292878080
3.2072387 -0.4262358 -0.43307906 4292878080
3.1780179 -0.42225078 -0.44137326 4292747520
3.1608396 -0.41986734 -0.45066309 4292747520
3.1764877 -0.42184436 -0.4641121 4292747520
3.1749814 -0.42154282 -0.47457537 4292747520
3.1784229 -0.42189816 -0.48524123 4292747520
3.1839592 -0.42253125 -0.49569815 4292878080
3.1869133 -0.42282137 -0.50520825 4292878080
3.1710589 -0.42061654 -0.51112098 4292747520
3.143214 -0.41682264 -0.51439989 4292747520
3.1432247 -0.41672358 -0.52157354 4292747520
3.1270611 -0.41448066 -0.52542484 4292616960
3.0788243 -0.40798861 -0.52315176 4292486400
3.0176883 -0.39979073 -0.51788318 4292225280
3.0404065 -0.40270334 -0.52633232 4292355840
3.0446503 -0.40316811 -0.53100884 4292355840
3.0626652 -0.40545568 -0.53749222 4292486400
3.0622222 -0.40529916 -0.54012722 4292486400
3.066766 -0.40580255 -0.54301268 4292486400
3.0567701 -0.40438214 -0.54268634 4292486400
3.0566456 -0.40426794 -0.54347235 4292486400
3.0429604 -0.40236071 -0.54120988 4292355840
3.0332878 -0.40098476 -0.53902787 4292355840
3.1034904 -0.41016597 -0.55038488 4292616960
3.0842705 -0.40752724 -0.54522455 4292486400
3.1231432 -0.41256368 -0.54967642 4292616960
3.1387799 -0.41452894 -0.54935044 4292747520
3.1604781 -0.41729355 -0.54940259 4292747520
3.1695292 -0.41838729 -0.54657668 4292747520
3.1712317 -0.41851068 -0.54183114 4292747520
3.1776466 -0.41925567 -0.53724587 4292878080
3.171741 -0.41837513 -0.52995342 4292747520
3.1728516 -0.4184202 -0.52322775 4292747520
3.1691492 -0.41783068 -0.51510882 4292747520
3.1630533 -0.41692585 -0.50602978 4292747520
3.1594877 -0.41635486 -0.49679741 4292747520
3.1751955 -0.41832337 -0.48998773 4292747520
3.1961896 -0.42098713 -0.48332042 4292878080
3.2118611 -0.42294866 -0.47517833 4292878080
3.1825738 -0.41899028 -0.45989156 4292747520
3.1669643 -0.41683406 -0.44621444 4292747520
3.1597354 -0.41578162 -0.43329465 4292747520
3.1805634 -0.41842067 -0.42367691 4292747520
3.1924746 -0.41988561 -0.41226244 4292747520
3.182972 -0.41853407 -0.39760974 4292747520
3.1457441 -0.41353837 -0.37924927 4292616960
3.1813648 -0.4181194 -0.36924866 4292747520
3.1843359 -0.41840813 -0.35487223 4292747520
3.195389 -0.41975832 -0.3409349 4292747520
3.185719 -0.41838625 -0.3244023 4292747520
3.1545825 -0.41419619 -0.30552641 4292616960
3.1763425 -0.41695178 -0.29148033 4292747520
3.1777887 -0.41704008 -0.27513075 4292747520
3.1678967 -0.41564065 -0.25754175 4292616960
3.1602037 -0.41453031 -0.23994263 4292616960
3.1817577 -0.41725591 -0.22422533 4292747520
3.1849034 -0.41756666 -0.20683099 4292747520
3.1556892 -0.41363558 -0.18725605 4292616960
3.0384803 -0.39817521 -0.16308378 4292225280
3.1810174 -0.41675222 -0.15252393 4292747520
3.1862705 -0.41733864 -0.13436998 4292747520
3.1464186 -0.41201827 -0.11437019 4292616960
3.1762452 -0.41582254 -0.09683679 4292616960
3.202353 -0.41913813 -0.078756794 4292747520
3.1827278 -0.41646779 -0.059429511 4292747520
3.1507707 -0.41218543 -0.040114053 4292616960
3.2060177 -0.41931045 -0.021726612 4292747520
3.2125518 -0.42006236 -0.0026178516 4292747520
3.1609349 -0.41321212 0.016272135 4292616960
2.9927986 -0.39113691 0.0332352 4292094720
3.2461925 -0.42414993 0.055348251 4292878080
3.2597466 -0.42581677 0.074898914 4293008640
3.0694611 -0.40086192 0.088642262 4292355840
2.9525256 -0.3854962 0.10259844 4291964160
3.2539918 -0.42475316 0.13205469 4292878080
3.2365181 -0.42236882 0.15008175 4292878080
3.0864837 -0.40269059 0.16083679 4292355840
2.9191527 -0.3807658 0.16870391 4291833600
3.2636912 -0.42560211 0.20695464 4293008640
3.2472813 -0.42335844 0.22393647 4292878080
3.0862229 -0.40226212 0.22972567 4292355840
2.9385962 -0.38292637 0.23458527 4291833600
3.2921946 -0.42889836 0.2802797 4293139200
3.2794502 -0.42713329 0.29628706 4293008640
3.1753707 -0.41347596 0.30311745 4292747520
3.0682261 -0.39942625 0.30825174 4292355840
2.9792311 -0.38774556 0.31389576 4292094720
3.2789893 -0.42665419 0.36114734 4293139200
3.2496414 -0.42273173 0.37304473 4293008640
3.0969272 -0.40276685 0.36953536 4292486400
3.0605309 -0.39793563 0.3786402 4292355840
3.0067384 -0.39084536 0.38477868 4292225280
3.2835014 -0.4267168 0.43369445 4293139200
3.2609868 -0.42368671 0.44363946 4293008640
3.1879416 -0.41409439 0.44584018 4292747520
3.154264 -0.40961909 0.45263916 4292747520
3.0748599 -0.39920929 0.45196128 4292486400
3.012522 -0.39101973 0.45279229 4292225280
3.2607119 -0.42313015 0.50035214 4293139200
3.2605414 -0.42300388 0.51000744 4293139200
3.2701032 -0.42413992 0.52062452 4293139200
3.2487607 -0.42126796 0.52569228 4293008640
3.2050869 -0.4155024 0.52637798 4292878080
3.2078826 -0.41576234 0.53398657 4292878080
3.1611719 -0.40960735 0.53264612 4292747520
3.1739321 -0.41115937 0.54063588 4292747520
3.1916668 -0.41335478 0.54889637 4292878080
3.1958072 -0.41378894 0.55421436 4292878080
3.2049336 -0.41486824 0.5597676 4292878080
3.2131846 -0.41583368 0.56453395 4293008640
3.2176337 -0.4163067 0.56798452 4293008640
3.2221923 -0.41679356 0.57079637 4293008640
3.2122111 -0.41539991 0.57036304 4293008640
3.2121108 -0.41528431 0.57101202 4293008640
3.2121239 -0.4151834 0.57101226 4293008640
3.1888089 -0.41206795 0.56620157 4292878080
3.1851392 -0.41149202 0.5642224 4292878080
3.1659491 -0.40891171 0.55884695 4292747520
3.1478398 -0.40647218 0.55303544 4292747520
3.2086892 -0.41422704 0.56040144 4292878080
3.2044764 -0.41358081 0.55569184 4292878080
3.233974 -0.41728458 0.55614233 4293008640
3.2509627 -0.41937286 0.55372322 4293008640
3.2720604 -0.42198992 0.5512929 4293139200
3.2677665 -0.42133176 0.54391402 4293139200
3.273813 -0.42200685 0.53762078 4293139200
3.2701826 -0.42143443 0.52911144 4293139200
3.2582762 -0.41979596 0.51869166 4293139200
3.2459455 -0.41810361 0.50767201 4293008640
3.2792675 -0.42229101 0.50314409 4293139200
3.2914646 -0.4237566 0.49466041 4293139200
3.2838204 -0.42266759 0.4826158 4293139200
3.2321715 -0.41535345 0.39340255 4292878080
3.2678332 -0.41983181 0.38318363 4293008640
3.2797256 -0.42125496 0.36953571 4293139200
3.2809741 -0.42131054 0.35421607 4293139200
3.2338431 -0.41515517 0.33350134 4292878080
3.2408586 -0.41595232 0.31819394 4292878080
3.2575641 -0.41799238 0.30336687 4293008640
3.2536983 -0.41739246 0.28622496 4293008640
3.2161586 -0.41247407 0.26602307 4292878080
3.2377954 -0.41514558 0.2505056 4292878080
3.2416792 -0.41554007 0.23320356 4292878080
3.2501383 -0.41652063 0.21590818 4292878080
3.2162042 -0.41206911 0.19570404 4292878080
3.2523408 -0.41659516 0.17953603 4292878080
3.2599342 -0.41746372 0.16135 4293008640
3.2486973 -0.415921 0.14207843 4292878080
3.1960573 -0.40907961 0.12121283 4292747520
3.2268665 -0.41292 0.10350661 4292878080
3.2224653 -0.41225392 0.084404938 4292878080
3.2125854 -0.41088739 0.06515307 4292747520
3.1980455 -0.40892565 0.045881234 4292747520
3.1749551 -0.40587175 0.026661046 4292616960
3.1934261 -0.40813103 0.0077885892 4292747520
3.1696224 -0.40498763 -0.01116338 4292616960
3.1976862 -0.40847129 -0.030311126 4292747520
3.2073843 -0.40960771 -0.049476802 4292747520
3.2026727 -0.40890375 -0.068396412 4292747520
3.1824014 -0.406214 -0.086762086 4292747520
3.2169845 -0.41052562 -0.10661291 4292747520
3.2242486 -0.41134965 -0.12568866 4292878080
3.2107 -0.40951863 -0.14378075 4292747520
3.1815052 -0.40569329 -0.16076973 4292747520
3.2098169 -0.40920103 -0.18048342 4292747520
3.2157009 -0.40984848 -0.19893405 4292878080
3.1879463 -0.40620932 -0.21496552 4292747520
3.1861527 -0.40587905 -0.23234847 4292747520
3.2244089 -0.41064948 -0.25259507 4292878080
3.2364783 -0.41208327 -0.27078468 4292878080
3.2287095 -0.41099104 -0.28704056 4292878080
3.115726 -0.39650962 -0.29300517 4292486400
3.2133148 -0.40882626 -0.31835935 4292878080
3.2358677 -0.41159233 -0.33652917 4292878080
3.2318618 -0.41097963 -0.35165516 4292878080
3.1987824 -0.40667096 -0.36305186 4292747520
3.1169417 -0.39616677 -0.36798072 4292486400
3.2338443 -0.41092199 -0.39610547 4292878080
3.246382 -0.41241154 -0.41157386 4293008640
3.2492123 -0.41266733 -0.42541382 4293008640
3.2421155 -0.41166252 -0.43745723 4293008640
3.1941826 -0.40547439 -0.44328269 4292878080
3.2015412 -0.40630627 -0.45612094 4292878080
3.2122729 -0.40756568 -0.46898571 4292878080
3.2274442 -0.40938756 -0.48205245 4293008640
3.2092729 -0.40698016 -0.48958069 4292878080
3.2138197 -0.40745416 -0.49996892 4292878080
3.2177436 -0.40784895 -0.50971031 4292878080
3.2106822 -0.40685141 -0.51711673 4292878080
3.1876976 -0.40383711 -0.52128589 4292878080
3.1876929 -0.40373474 -0.52855307 4292878080
3.1666095 -0.40096337 -0.53166842 4292747520
3.1134329 -0.39413065 -0.5286333 4292616960
3.0620217 -0.38752475 -0.52509511 4292486400
3.0749683 -0.38906512 -0.531914 4292486400
3.088984 -0.39073986 -0.53833479 4292486400
3.1021173 -0.39230213 -0.54400557 4292616960
3.1016681 -0.39214632 -0.54667252 4292616960
3.1062107 -0.39262152 -0.54958248 4292616960
3.0962038 -0.39125782 -0.54927319 4292486400
3.096077 -0.39114299 -0.55006874 4292486400
3.087266 -0.38993132 -0.54867655 4292486400
3.0687931 -0.3875002 -0.54492682 4292486400
3.0592206 -0.38619381 -0.54212564 4292486400
3.1247046 -0.39436075 -0.55195677 4292616960
3.1724074 -0.40027994 -0.55792701 4292747520
3.1831756 -0.40153703 -0.55670172 4292878080
3.2000093 -0.40355837 -0.55585635 4292878080
3.2051635 -0.40410608 -0.55230629 4292878080
3.2205706 -0.40594581 -0.54984766 4293008640
3.2123258 -0.40480405 -0.54270113 4292878080
3.221108 -0.40580794 -0.53779781 4293008640
3.2173395 -0.40523049 -0.53016579 4292878080
3.2185473 -0.40527987 -0.52274519 4292878080
3.1889467 -0.40145081 -0.50978941 4292878080
3.2000928 -0.40275183 -0.50280464 4292878080
3.2109246 -0.40401265 -0.49512976 4292878080
3.2309682 -0.4064315 -0.48821318 4293008640
3.2525563 -0.40904331 -0.48083824 4293008640
3.2232652 -0.40525678 -0.46542251 4292878080
3.2027493 -0.40257514 -0.45091829 4292878080
3.1994641 -0.40206009 -0.43841398 4292878080
3.2203262 -0.40457898 -0.42865238 4292878080
3.2322652 -0.40597576 -0.4170883 4292878080
3.2354891 -0.40627745 -0.40386754 4292878080
3.1904635 -0.40052179 -0.38435277 4292747520
3.2172611 -0.4037832 -0.37313563 4292878080
3.2251823 -0.40467444 -0.35915542 4292878080
3.2303421 -0.40521878 -0.34440652 4292878080
3.2305527 -0.4051421 -0.32872176 4292878080
3.1905234 -0.40002027 -0.30877638 4292747520
3.2265723 -0.40443704 -0.29586849 4292878080
3.2177315 -0.4032262 -0.27838084 4292878080
3.2038918 -0.40138966 -0.26027352 4292747520
3.215605 -0.40275449 -0.24396673 4292878080
3.2271216 -0.40409398 -0.22725244 4292878080
3.2229421 -0.4034678 -0.20914505 4292878080
3.2181883 -0.40276998 -0.19082221 4292878080
3.0645292 -0.38344112 -0.1643592 4292355840
3.2231658 -0.40318725 -0.15442961 4292878080
3.2140875 -0.40194911 -0.13544202 4292747520
3.1939468 -0.39932844 -0.11601127 4292747520
3.1760101 -0.39698452 -0.096757457 4292616960
3.2084944 -0.40094253 -0.078849047 4292747520
3.2385592 -0.40459615 -0.06042698 4292878080
3.1918149 -0.39865452 -0.040606346 4292747520
3.2553179 -0.4064821 -0.022044286 4292878080
3.2602077 -0.40698865 -0.002654708 4292878080
3.2400086 -0.40436372 0.016666787 4292878080
3.0188406 -0.37666491 0.033499457 4292094720
3.2873032 -0.4100565 0.056007508 4293008640
3.289058 -0.41017044 0.075516209 4293008640
3.1292753 -0.3901445 0.090302445 4292486400
3.0172007 -0.37607527 0.10476793 4292094720
3.2867115 -0.40956324 0.13328342 4293008640
3.2830293 -0.40899965 0.15212545 4293008640
3.1502202 -0.39235383 0.16403618 4292616960
2.9966156 -0.37312707 0.17305207 4292094720
3.2988722 -0.41065764 0.20903024 4293139200
3.2564018 -0.40526685 0.22439876 4293008640
3.1558108 -0.39264742 0.23473124 4292616960
3.0159609 -0.37515098 0.24058266 4292094720
3.3174548 -0.41254753 0.28222078 4293139200
3.3110492 -0.41164535 0.29892015 4293139200
3.1503625 -0.3915675 0.30050731 4292616960
3.0467224 -0.37858859 0.30586457 4292225280
2.9597077 -0.36768165 0.31160778 4291964160
3.3180349 -0.41209042 0.36517718 4293139200
3.2714579 -0.40620136 0.37527111 4293008640
3.1751053 -0.39413643 0.3785834 4292747520
3.0292287 -0.37593162 0.37449023 4292225280
2.9827361 -0.37006667 0.38142464 4292094720
3.3198876 -0.41179103 0.43817613 4293269760
3.2866931 -0.40756881 0.44680598 4293139200
3.2512457 -0.40306944 0.45435724 4293008640
3.2175124 -0.39878476 0.46137413 4292878080
3.1576602 -0.39126581 0.46378881 4292747520
3.0854223 -0.38221636 0.46340683 4292486400
3.3026445 -0.40902013 0.50641239 4293269760
3.2925227 -0.40766156 0.51462966 4293139200
3.303427 -0.40890628 0.52554172 4293269760
3.2596083 -0.40337834 0.5270583 4293139200
3.2681842 -0.40433535 0.53634453 4293139200
3.2017343 -0.39601216 0.53257 4292878080
3.2241948 -0.39868736 0.54286462 4293008640
3.2379243 -0.40028185 0.55112946 4293008640
3.2605467 -0.40297449 0.5603289 4293139200
3.2597837 -0.40277618 0.56489259 4293139200
3.2630363 -0.403074 0.56949592 4293139200
3.1721785 -0.39174941 0.55691904 4292747520
3.1854346 -0.39328489 0.56188661 4292878080
3.1802242 -0.39254016 0.56294721 4292878080
3.1800127 -0.3924126 0.56423026 4292878080
3.2848489 -0.40524462 0.5835129 4293139200
3.280952 -0.40465921 0.58281869 4293139200
3.2576218 -0.40167785 0.57799459 4293139200
3.2480886 -0.40039879 0.5749504 4293008640
3.2298679 -0.39804968 0.56971073 4293008640
3.2068648 -0.39511248 0.56299138 4292878080
3.1888518 -0.39279142 0.55652767 4292878080
3.2586732 -0.40128785 0.56467509 4293139200
3.2310882 -0.39778787 0.55523807 4293008640
3.2793143 -0.40362051 0.55814219 4293139200
3.3090036 -0.40716919 0.55710816 4293269760
3.3137362 -0.40764585 0.55116093 4293269760
3.3051231 -0.40648088 0.5423643 4293269760
3.3161852 -0.40773562 0.53616112 4293269760
3.2952578 -0.40505743 0.52419424 4293139200
3.2966635 -0.40512508 0.51522648 4293139200
3.2932277 -0.40459785 0.50491577 4293139200
3.3254058 -0.40844512 0.49939519 4293269760
3.322072 -0.40792969 0.48787996 4293269760
3.2685266 -0.40068185 0.39753661 4293008640
3.2973473 -0.40410978 0.38636181 4293139200
3.3147171 -0.40613285 0.37320536 4293139200
3.3164051 -0.40623394 0.35777962 4293139200
3.2752187 -0.40108448 0.33752164 4293008640
3.2753448 -0.40099549 0.32134503 4293008640
3.2971532 -0.40356031 0.30682951 4293139200
3.2891707 -0.4024784 0.28913423 4293139200
3.2575917 -0.39851037 0.26925358 4293008640
3.2574894 -0.39839399 0.25184545 4293008640
3.2840309 -0.4015353 0.23607798 4293008640
3.2837791 -0.40139982 0.2179839 4293008640
3.2441049 -0.39644673 0.19725788 4292878080
3.2909589 -0.4020676 0.18153544 4293008640
3.2934277 -0.40226421 0.16288899 4293008640
3.2878735 -0.40148097 0.14368701 4293008640
3.2464881 -0.39632392 0.12303579 4292878080
3.2759218 -0.39981267 0.10500363 4293008640
3.2719164 -0.39921951 0.085637815 4293008640
3.2317274 -0.39421284 0.065493591 4292878080
3.2390831 -0.39500684 0.046436176 4292878080
3.2383034 -0.3948085 0.027173223 4292878080
3.1946883 -0.38938916 0.007786002 4292747520
3.1855903 -0.38817868 -0.011211462 4292747520
3.1972249 -0.38949445 -0.030284729 4292747520
3.2355351 -0.39405838 -0.049874794 4292878080
3.232789 -0.39362088 -0.068989433 4292878080
3.2184527 -0.39177266 -0.087681234 4292747520
3.2480938 -0.39527726 -0.10756575 4292878080
3.2712405 -0.39798978 -0.12742795 4293008640
3.2601445 -0.39653587 -0.14588901 4293008640
3.2260556 -0.39228675 -0.16290273 4292878080
3.2452791 -0.39452085 -0.18234505 4292878080
3.2537167 -0.39544287 -0.20113988 4292878080
3.2363234 -0.39322579 -0.21806942 4292878080
3.2217367 -0.39135075 -0.23477314 4292878080
3.2616448 -0.3960945 -0.25532696 4293008640
3.2679377 -0.39675453 -0.27321875 4293008640
3.2705042 -0.39696184 -0.29054567 4293008640
3.2221422 -0.39098912 -0.30279326 4292878080
3.2585475 -0.39530283 -0.32260713 4293008640
3.2730303 -0.39695543 -0.34014776 4293008640
3.2697458 -0.39645287 -0.35551989 4293008640
3.2469766 -0.3935886 -0.36825523 4293008640
3.1527207 -0.3820627 -0.37193561 4292616960
3.2789817 -0.39725912 -0.40134391 4293139200
3.2883859 -0.39829364 -0.41659778 4293139200
3.2854552 -0.39783394 -0.42984825 4293139200
3.2922854 -0.39855608 -0.4439058 4293139200
3.2621055 -0.39479858 -0.45238197 4293008640
3.2368879 -0.39164343 -0.46082383 4293008640
3.2548883 -0.39371762 -0.47486451 4293008640
3.2572718 -0.39390209 -0.48615646 4293008640
3.2606816 -0.39421052 -0.49706438 4293008640
3.2523561 -0.39310029 -0.50559908 4293008640
3.2618501 -0.39414385 -0.51632458 4293139200
3.240433 -0.39145261 -0.52153224 4293008640
3.2308776 -0.39019534 -0.52796644 4293008640
3.2095835 -0.3875213 -0.53179938 4292878080
3.2061052 -0.38699916 -0.53791201 4292878080
3.1489625 -0.38000128 -0.5342809 4292747520
3.176486 -0.38322142 -0.54433209 4292747520
3.100667 -0.37397555 -0.53597337 4292486400
3.1146872 -0.37556726 -0.54242367 4292616960
3.127825 -0.37705174 -0.54811931 4292616960
3.1273715 -0.37689739 -0.55080646 4292616960
3.1270249 -0.37675595 -0.55286741 4292616960
3.1316757 -0.37721649 -0.55516672 4292616960
3.1266582 -0.37651247 -0.55510283 4292616960
3.1266398 -0.3764106 -0.55527496 4292616960
3.0944653 -0.37243855 -0.54909086 4292486400
3.1686852 -0.38127041 -0.56112075 4292747520
3.1455302 -0.37838402 -0.55523664 4292747520
3.2020717 -0.3850835 -0.56273991 4292878080
3.231287 -0.38849398 -0.56471044 4293008640
3.2257886 -0.38773012 -0.55993241 4293008640
3.2544243 -0.39106831 -0.56039268 4293139200
3.2655671 -0.39230323 -0.55713022 4293139200
3.2576418 -0.3912473 -0.54996252 4293139200
3.2689075 -0.39249617 -0.54538739 4293139200
3.255353 -0.39076492 -0.53604555 4293008640
3.2473326 -0.38969868 -0.52704269 4293008640
3.2379146 -0.38846529 -0.5172469 4293008640
3.2298539 -0.38739529 -0.50711751 4293008640
3.2533784 -0.3901132 -0.5013172 4293008640
3.2769063 -0.39282998 -0.49480036 4293139200
3.2833736 -0.39350063 -0.48504689 4293139200
3.2747273 -0.39236006 -0.47251523 4293139200
3.2424078 -0.3883844 -0.45617554 4293008640
3.2391386 -0.38788959 -0.44353327 4293008640
3.2511752 -0.38922736 -0.43244943 4293008640
3.2680614 -0.39114481 -0.42140618 4293008640
3.2635076 -0.39049581 -0.407074 4293008640
3.2351367 -0.386998 -0.38945627 4292878080
3.2570426 -0.38951465 -0.37747985 4293008640
3.273448 -0.39137229 -0.36427015 4293008640
3.2829943 -0.39240903 -0.34977037 4293008640
3.2713869 -0.39091739 -0.33263943 4293008640
3.2245283 -0.38521522 -0.31184486 4292878080
3.2590926 -0.38924056 -0.29863748 4293008640
3.265522 -0.38990438 -0.28231406 4293008640
3.2393255 -0.3866733 -0.26296455 4292878080
3.2451217 -0.38726181 -0.24603079 4292878080
3.2646439 -0.38948748 -0.22973105 4293008640
3.2772305 -0.3908847 -0.21251656 4293008640
3.2476778 -0.38725638 -0.19243374 4292878080
3.1519859 -0.37574556 -0.16892946 4292616960
3.2611125 -0.38865054 -0.15613659 4293008640
3.2604651 -0.38846949 -0.13729866 4293008640
3.163064 -0.37676382 -0.11480786 4292616960
3.2618487 -0.38842648 -0.099301904 4293008640
3.2781637 -0.39026487 -0.080503933 4293008640
3.2606113 -0.38807136 -0.060795221 4292878080
3.1701782 -0.37720719 -0.040302441 4292616960
3.2985687 -0.39237881 -0.022321312 4293008640
3.3021257 -0.39269671 -0.0026869322 4293139200
3.2177882 -0.38256454 0.016540736 4292747520
3.116307 -0.37040013 0.034556489 4292486400
3.3409147 -0.39699027 0.056880545 4293269760
3.3167155 -0.39400905 0.07609722 4293139200
3.2029634 -0.38039386 0.092363365 4292747520
3.1235464 -0.37086254 0.10838377 4292486400
3.3341701 -0.39576393 0.13511218 4293139200
3.3016622 -0.39180008 0.15288047 4293139200
3.2288146 -0.38305256 0.16800964 4292878080
3.0939145 -0.36695004 0.17854451 4292355840
3.3522453 -0.39748228 0.21226184 4293269760
3.3074064 -0.39206025 0.22775222 4293139200
3.2333121 -0.38317409 0.2403257 4292878080
3.0071881 -0.35628074 0.23971319 4292094720
3.3658111 -0.39866188 0.2861321 4293269760
3.3256934 -0.39380419 0.30002999 4293139200
3.2237728 -0.38163283 0.30729249 4292878080
3.1249661 -0.36983648 0.31349793 4292486400
3.0477293 -0.36059847 0.32064834 4292225280
3.3494952 -0.39619586 0.36837935 4293269760
3.2684622 -0.38650671 0.37466279 4293008640
3.2532854 -0.38460839 0.38763145 4293008640
3.1023376 -0.36666426 0.38325778 4292486400
3.0607011 -0.36164576 0.39111853 4292355840
3.3569732 -0.39654571 0.44275844 4293400320
3.3451102 -0.39503783 0.45442685 4293269760
3.2400651 -0.38252941 0.45247564 4293008640
3.2807398 -0.38722703 0.47010908 4293139200
3.1214812 -0.36833027 0.45815197 4292616960
3.1484969 -0.37141779 0.47254714 4292616960
3.3560259 -0.39579239 0.51423532 4293400320
3.3306918 -0.39269853 0.5202291 4293269760
3.2867434 -0.38741219 0.52251959 4293139200
3.3050487 -0.38946459 0.53402978 4293269760
3.247256 -0.3825509 0.53253514 4293008640
3.2608199 -0.38404495 0.5420168 4293139200
3.2969909 -0.38820001 0.55473125 4293269760
3.3058126 -0.38913342 0.5622893 4293269760
3.3186429 -0.39053798 0.56991208 4293269760
3.3364623 -0.39252871 0.57777423 4293400320
3.2454031 -0.38171241 0.56602061 4293008640
3.2399609 -0.38096911 0.56841981 4293008640
3.2493038 -0.38196418 0.57275039 4293008640
3.2489738 -0.38182193 0.57471341 4293008640
3.2438664 -0.38111839 0.57515615 4293008640
3.2388735 -0.38042861 0.57494247 4293008640
3.2388854 -0.38032684 0.57494271 4293008640
3.3254414 -0.39038479 0.58961415 4293269760
3.3110147 -0.38858575 0.5856784 4293269760
3.2878959 -0.38576779 0.5795399 4293139200
3.2795606 -0.38468537 0.57535052 4293139200
3.2566538 -0.38189471 0.56796271 4293139200
3.3177278 -0.38895094 0.57450587 4293269760
3.2999272 -0.38675901 0.56667072 4293269760
3.343308 -0.39173687 0.56863588 4293400320
3.3545744 -0.39295012 0.56438547 4293400320
3.3408313 -0.39123389 0.55527902 4293400320
3.359391 -0.39330035 0.55088425 4293400320
3.3432992 -0.39130995 0.54016709 4293400320
3.3495586 -0.39193588 0.53245986 4293400320
3.3549128 -0.39245555 0.52396381 4293400320
3.3524809 -0.3920643 0.51364148 4293400320
3.3665266 -0.39359972 0.50521755 4293400320
3.3725669 -0.39419854 0.49494994 4293400320
3.3233483 -0.38776255 0.40392271 4293269760
3.3386104 -0.38943696 0.39092425 4293269760
3.36747 -0.39269614 0.3788808 4293400320
3.3553576 -0.39117679 0.36172986 4293269760
3.333823 -0.38856006 0.34332183 4293269760
3.3349645 -0.38858694 0.32696664 4293269760
3.3473144 -0.38991931 0.31128076 4293269760
3.3380675 -0.38873589 0.29322845 4293269760
3.3113365 -0.38551748 0.27350551 4293139200
3.3171973 -0.38609421 0.25628337 4293139200
3.329309 -0.38739789 0.23916656 4293139200
3.3336372 -0.38779539 0.22113986 4293139200
3.2939517 -0.38307396 0.20014971 4293008640
3.340853 -0.38842201 0.18415973 4293269760
3.3433373 -0.38860437 0.16524266 4293269760
3.3243871 -0.38629591 0.14518191 4293139200
3.2837648 -0.38147104 0.12436216 4293008640
3.3163145 -0.38514671 0.10622462 4293139200
3.3129137 -0.38464624 0.086650729 4293139200
3.2915709 -0.38206345 0.066660121 4293008640
3.2741063 -0.37993202 0.046905745 4293008640
3.2940867 -0.3821457 0.02762216 4293008640
3.2982922 -0.38252857 0.0080329347 4293008640
3.2660034 -0.37867978 -0.011486512 4293008640
3.2743256 -0.37954047 -0.030993572 4293008640
3.2898905 -0.38123992 -0.050677564 4293008640
3.2792301 -0.37990019 -0.069932088 4293008640
3.2599123 -0.37755838 -0.08874929 4292878080
3.2974703 -0.38180336 -0.10912541 4293008640
3.3098042 -0.38312608 -0.12884103 4293139200
3.2702696 -0.37844563 -0.14624096 4293008640
3.265502 -0.37778994 -0.16478066 4293008640
3.2941794 -0.38100281 -0.18496479 4293008640
3.2922254 -0.38067198 -0.20337988 4293008640
3.2563317 -0.37641802 -0.21926613 4292878080
3.2710357 -0.37801361 -0.23820111 4293008640
3.3038957 -0.38170585 -0.25845593 4293139200
3.3118141 -0.38251525 -0.27669606 4293139200
3.2911766 -0.38002682 -0.29218051 4293139200
3.2289367 -0.37273729 -0.30322254 4292878080
3.2934613 -0.38008094 -0.32583892 4293139200
3.3013608 -0.38088751 -0.34285557 4293139200
3.2933047 -0.37985322 -0.35783473 4293139200
3.2756476 -0.37771234 -0.37125108 4293008640
3.1413784 -0.36212987 -0.37034234 4292616960
3.3183663 -0.38242692 -0.40588495 4293269760
3.3244572 -0.38302305 -0.42087772 4293269760
3.3198793 -0.38238993 -0.43405324 4293269760
3.3078551 -0.38089967 -0.44569829 4293139200
3.2854481 -0.37821493 -0.45530578 4293139200
3.2750142 -0.37690955 -0.46593121 4293139200
3.2984943 -0.37950677 -0.48089555 4293139200
3.3018417 -0.37978682 -0.49247006 4293139200
3.2954113 -0.37894225 -0.50201356 4293139200
3.2992468 -0.3792783 -0.51253629 4293139200
3.2959828 -0.37879816 -0.52136928 4293139200
3.277493 -0.37656882 -0.52713484 4293139200
3.2550995 -0.37389231 -0.53155959 4293008640
3.2475967 -0.37292716 -0.53772873 4293008640
3.199115 -0.3672581 -0.53637111 4292878080
3.211863 -0.36861932 -0.54457951 4292878080
3.1603525 -0.36260697 -0.54119617 4292747520
3.1732936 -0.36399078 -0.54815155 4292747520
3.1775181 -0.36437422 -0.55298662 4292747520
3.1916325 -0.36589116 -0.55891788 4292878080
3.1950839 -0.36618513 -0.56234694 4292878080
3.1996217 -0.36660337 -0.56531549 4292878080
3.1905713 -0.36546484 -0.5652203 4292878080
3.1904395 -0.36534822 -0.56603897 4292878080
3.185528 -0.3646844 -0.5653463 4292878080
3.1670308 -0.36246601 -0.5615828 4292747520
3.1525574 -0.36070919 -0.55788314 4292747520
3.2181411 -0.36811069 -0.5676654 4293008640
3.1999757 -0.36593097 -0.56198734 4292878080
3.2429755 -0.37074497 -0.56636602 4293008640
3.2723296 -0.37399668 -0.56762314 4293139200
3.2806492 -0.37484312 -0.5645228 4293139200
3.2761345 -0.37422299 -0.55855161 4293139200
3.296581 -0.37645364 -0.55615658 4293269760
3.2982376 -0.37653786 -0.54990548 4293269760
3.2895854 -0.37544537 -0.54131305 4293139200
3.2863014 -0.374966 -0.53300375 4293139200
3.2720103 -0.37323126 -0.52233738 4293139200
3.2645664 -0.37227824 -0.51221848 4293139200
3.2953548 -0.37568438 -0.50743949 4293139200
3.3200605 -0.37839526 -0.50097513 4293269760
3.3216357 -0.37846911 -0.49036524 4293269760
3.2951229 -0.37534332 -0.47513452 4293139200
3.2821229 -0.37375808 -0.46144885 4293139200
3.2739472 -0.37272289 -0.44799465 4293139200
3.2952213 -0.37503996 -0.43801007 4293139200
3.3014739 -0.3756465 -0.42542517 4293139200
3.3115747 -0.37669042 -0.4127889 4293139200
3.2625024 -0.37100464 -0.39248374 4293008640
3.3012035 -0.37530062 -0.38233805 4293139200
3.3132749 -0.37656751 -0.36845171 4293139200
3.3242366 -0.37770757 -0.35392389 4293269760
3.304034 -0.37530696 -0.33573097 4293139200
3.2791533 -0.37237641 -0.31691244 4293008640
3.2865202 -0.37310842 -0.30094641 4293008640
3.3028646 -0.37485883 -0.2853488 4293139200
3.2863724 -0.37288249 -0.26660287 4293008640
3.2948976 -0.37374493 -0.24963525 4293139200
3.3109488 -0.3754603 -0.23283161 4293139200
3.3162408 -0.3759549 -0.21490057 4293139200
3.267267 -0.37029886 -0.19346334 4293008640
3.2116714 -0.36389568 -0.17201173 4292747520
3.3063917 -0.37452269 -0.15819733 4293139200
3.2969322 -0.3733463 -0.13874035 4293008640
3.2228 -0.36484897 -0.11689691 4292747520
3.3117299 -0.37481123 -0.10075227 4293139200
3.3330302 -0.37711588 -0.081795976 4293139200
3.3154721 -0.37502375 -0.061776333 4293139200
3.2200143 -0.36412379 -0.040908344 4292747520
3.3389497 -0.37746692 -0.022579301 4293139200
3.3520539 -0.3788417 -0.0027257164 4293269760
3.2676582 -0.36919951 0.016785746 4293008640
3.1760421 -0.35874712 0.035195112 4292616960
3.3713822 -0.38070434 0.05736053 4293269760
3.3579798 -0.37908408 0.07699199 4293269760
3.2577693 -0.36766762 0.09388043 4292878080
3.1733232 -0.35803616 0.11003672 4292616960
3.3732569 -0.38048673 0.13660395 4293269760
3.3515363 -0.3779301 0.15508525 4293269760
3.278626 -0.3696042 0.1704866 4293008640
3.1485801 -0.3548438 0.18157677 4292616960
3.3882239 -0.38174376 0.21439551 4293400320
3.3572218 -0.378144 0.23102695 4293269760
3.2790947 -0.36923978 0.24356459 4293008640
3.0518095 -0.34354943 0.24310644 4292225280
3.4205577 -0.38495144 0.29059055 4293530880
3.380389 -0.38032329 0.30475929 4293400320
3.2823324 -0.36918664 0.31266409 4293008640
3.1794765 -0.35751659 0.31875205 4292747520
3.1061151 -0.34916863 0.32657146 4292486400
3.3915412 -0.38114643 0.37275305 4293400320
3.3229892 -0.37333673 0.3806574 4293269760
3.3028407 -0.37096798 0.39327177 4293139200
3.1714938 -0.35611448 0.39153823 4292747520
3.1199355 -0.35022599 0.39842042 4292486400
3.4065232 -0.38228828 0.44899228 4293530880
3.3946276 -0.38084534 0.46084443 4293530880
3.2894876 -0.36894497 0.45906949 4293139200
3.3498425 -0.37560776 0.47968936 4293400320
3.1756935 -0.35597995 0.46579659 4292747520
3.2076168 -0.35945636 0.48109776 4292878080
3.392813 -0.38010213 0.51952398 4293530880
3.3898816 -0.37966588 0.52911961 4293530880
3.3596222 -0.37616998 0.53374821 4293400320
3.3680985 -0.37701192 0.54385322 4293400320
3.316129 -0.37108916 0.54346621 4293269760
3.3149703 -0.37085402 0.55064923 4293269760
3.3511481 -0.37479475 0.56346643 4293400320
3.3638794 -0.37611163 0.57178354 4293400320
3.3864994 -0.37853301 0.58117652 4293530880
3.2952428 -0.36822781 0.57025498 4293269760
3.2994716 -0.36859539 0.57506621 4293269760
3.3077233 -0.36941203 0.57992065 4293269760
3.3170629 -0.37034956 0.58430392 4293269760
3.3167255 -0.37020639 0.58630651 4293269760
3.3018219 -0.36843789 0.5850414 4293269760
3.3163979 -0.36995888 0.58831143 4293269760
3.2978134 -0.3677808 0.58501285 4293269760
3.2930474 -0.36714455 0.58348137 4293269760
3.3699961 -0.37561643 0.59571427 4293530880
3.3654675 -0.37500465 0.5928179 4293400320
3.3375549 -0.37178826 0.5851348 4293400320
3.3146422 -0.36913046 0.57769102 4293269760
3.3016241 -0.36757571 0.57133681 4293269760
3.3579683 -0.37374181 0.57625395 4293400320
3.3925726 -0.37748536 0.57663107 4293530880
3.4136629 -0.37972349 0.57394481 4293661440
3.4038513 -0.37852383 0.56537735 4293530880
3.3962364 -0.37756899 0.55655611 4293530880
3.4063644 -0.37858659 0.54999065 4293530880
3.3989079 -0.37764978 0.53994572 4293530880
3.3965795 -0.37728307 0.53011894 4293530880
3.4107151 -0.37874472 0.52221674 4293530880
3.4110332 -0.37867156 0.51155692 4293530880
3.4220145 -0.37978181 0.50187349 4293530880
3.3689682 -0.37320304 0.40919617 4293400320
3.3931479 -0.37577367 0.39704704 4293400320
3.4072366 -0.37722555 0.38310122 4293530880
3.4139118 -0.37785605 0.36779881 4293530880
3.3785474 -0.37383443 0.34769744 4293400320
3.380198 -0.37390956 0.33118221 4293400320
3.3970361 -0.37566414 0.3156957 4293400320
3.3917654 -0.37497342 0.29774848 4293400320
3.3484786 -0.37008139 0.27639055 4293269760
3.3486195 -0.36999047 0.25854006 4293269760
3.3880212 -0.37423626 0.24322349 4293400320
3.3794947 -0.37318698 0.22403382 4293400320
3.348712 -0.36968124 0.20334277 4293269760
3.3817809 -0.37322438 0.1862928 4293400320
3.3975604 -0.37485778 0.16781183 4293400320
3.3742471 -0.37217832 0.1472622 4293269760
3.3336089 -0.36758992 0.1261666 4293139200
3.362215 -0.37063736 0.10762386 4293269760
3.3667679 -0.37103221 0.088001281 4293269760
3.3464117 -0.36868244 0.067726091 4293269760
3.3388791 -0.36774641 0.047802195 4293139200
3.348937 -0.36874768 0.028063608 4293269760
3.324811 -0.36598548 0.0080921901 4293139200
3.3158658 -0.3648954 -0.011654203 4293139200
3.333137 -0.36669004 -0.031529501 4293139200
3.3289301 -0.36612138 -0.051245205 4293139200
3.3114829 -0.36409721 -0.070573464 4293139200
3.3147199 -0.36434773 -0.090182081 4293139200
3.3383846 -0.36684275 -0.1104068 4293139200
3.350718 -0.36809149 -0.130348 4293269760
3.3200853 -0.36462077 -0.14837112 4293139200
3.3202651 -0.36453494 -0.16743405 4293139200
3.3390203 -0.36648795 -0.18735948 4293269760
3.3420115 -0.36671001 -0.20631996 4293269760
3.3159952 -0.36374986 -0.2231371 4293139200
3.3257294 -0.36471194 -0.24202514 4293139200
3.3540251 -0.3677083 -0.26220539 4293269760
3.3606467 -0.36832741 -0.28059188 4293269760
3.3282726 -0.36467338 -0.29528013 4293139200
3.2174966 -0.35243353 -0.30195028 4292878080
