# .PCD v0.7 - Point Cloud Data file format
VERSION 0.7
FIELDS x y z rgba
SIZE 4 4 4 4
TYPE F F F U
COUNT 1 1 1 1
WIDTH 1079
HEIGHT 1
VIEWPOINT 0 0 0 1 0 0 0
POINTS 1079
DATA ascii
2.818547 -0.51884532 0.50348699 4291703040
2.8965263 -0.53310585 0.51862955 4291964160
2.8877239 -0.53139198 0.51765704 4291964160
2.8877406 -0.53130126 0.51765728 4291964160
2.9014194 -0.53372371 0.51949739 4291964160
2.8696744 -0.52779096 0.51260644 4291833600
2.9255798 -0.53797805 0.52075046 4292094720
2.9027507 -0.5336858 0.51425451 4291964160
2.9231079 -0.53733361 0.51480609 4292094720
2.9274545 -0.53803754 0.51191002 4292094720
2.9317715 -0.53873575 0.50839978 4292094720
2.9495399 -0.54190505 0.506594 4292094720
2.9470456 -0.54135108 0.5006938 4292094720
2.9518216 -0.5421325 0.49544203 4292094720
2.9548345 -0.5425899 0.48930326 4292094720
2.9491584 -0.54145187 0.48116639 4292094720
2.9333398 -0.53845239 0.47087437 4292094720
2.9297371 -0.53769588 0.46205232 4292094720
2.9665589 -0.54435748 0.45897424 4292094720
2.9566941 -0.54245132 0.44806749 4292094720
2.9642086 -0.54373372 0.43928787 4292094720
2.9197431 -0.53496528 0.35834461 4291964160
2.9411545 -0.53879279 0.34775841 4291964160
2.9587281 -0.54191607 0.33615217 4292094720
2.9458456 -0.5394609 0.32069093 4291964160
2.9120438 -0.53317636 0.30282173 4291964160
2.9182951 -0.53422618 0.28891546 4291964160
2.9361897 -0.53740662 0.27572 4291964160
2.9280221 -0.53581667 0.25972444 4291964160
2.9037783 -0.53128588 0.24218811 4291833600
2.9151645 -0.53327447 0.22742482 4291833600
2.9226358 -0.53454632 0.21200489 4291964160
2.9328547 -0.53632009 0.196455 4291964160
2.9028051 -0.53073084 0.17810601 4291833600
2.9299409 -0.53559709 0.16308658 4291964160
2.935452 -0.53650922 0.14650017 4291964160
2.9344275 -0.53622669 0.12940307 4291964160
2.8919485 -0.52837032 0.11059261 4291833600
2.9095311 -0.5314883 0.09410461 4291833600
2.9149551 -0.53238446 0.076985955 4291833600
2.9018142 -0.52989024 0.059340212 4291833600
2.8901806 -0.52767205 0.041809402 4291833600
2.9060507 -0.53047514 0.024605976 4291833600
2.8851581 -0.5265677 0.0070952647 4291703040
2.8665476 -0.52307808 -0.010179903 4291703040
2.8877172 -0.5268473 -0.027600469 4291703040
2.8968096 -0.5284121 -0.045057323 4291833600
2.8924413 -0.52752143 -0.062284417 4291833600
2.8733644 -0.52394891 -0.078987628 4291703040
2.9007659 -0.52885133 -0.096931763 4291833600
2.9088142 -0.5302242 -0.11433399 4291833600
2.9055223 -0.52952987 -0.13119471 4291833600
2.8679411 -0.5225876 -0.1461276 4291703040
2.8880723 -0.52616215 -0.16373996 4291833600
2.9006789 -0.52836472 -0.18093474 4291833600
2.8833184 -0.52510887 -0.19603722 4291833600
2.8831875 -0.52499145 -0.21199884 4291833600
2.9118862 -0.53012258 -0.23000419 4291833600
2.911166 -0.52989697 -0.24558635 4291833600
2.9291444 -0.53307438 -0.26256704 4291964160
2.8803358 -0.52409822 -0.27311373 4291833600
2.9023223 -0.52800465 -0.28993028 4291833600
2.9102213 -0.52934718 -0.30516931 4291833600
2.9178684 -0.53064346 -0.32011941 4291964160
2.9001186 -0.52732134 -0.33188003 4291833600
2.8337393 -0.51515979 -0.33731598 4291703040
2.9234192 -0.53136832 -0.36104617 4291964160
2.926312 -0.53179908 -0.37406573 4291964160
2.9389629 -0.53400278 -0.38797703 4291964160
2.9316943 -0.53258693 -0.39884436 4291964160
2.9176862 -0.52994752 -0.40825969 4291964160
2.8859017 -0.52408075 -0.41455162 4291833600
2.891027 -0.52491766 -0.42557368 4291833600
2.8986335 -0.52620471 -0.43651938 4291964160
2.9021699 -0.52675253 -0.44638997 4291964160
2.9104006 -0.52815193 -0.456507 4291964160
2.9075177 -0.52753443 -0.46437284 4291964160
2.9088368 -0.52767938 -0.47237 4291964160
2.8937325 -0.52484548 -0.47712064 4291964160
2.8927221 -0.52456838 -0.48360306 4291964160
2.8711736 -0.5205676 -0.48604366 4291833600
2.86658 -0.5196417 -0.4907358 4291833600
2.8459458 -0.51580888 -0.49206707 4291703040
2.8031926 -0.50796914 -0.48890096 4291572480
2.8113327 -0.50935304 -0.49398696 4291703040
2.8108363 -0.5091719 -0.49698862 4291703040
2.820127 -0.51076335 -0.50114751 4291703040
2.7503324 -0.49803337 -0.49062693 4291441920
2.7452826 -0.49702987 -0.49103159 4291441920
2.8195 -0.51037532 -0.50505656 4291703040
2.8049529 -0.50765109 -0.50260854 4291572480
2.7963188 -0.50599772 -0.50063193 4291572480
2.8433914 -0.51442331 -0.50802642 4291703040
2.868367 -0.51884884 -0.51084667 4291833600
2.8676379 -0.51862389 -0.50847751 4291833600
2.8935499 -0.52321637 -0.51021266 4291964160
2.9046915 -0.52513671 -0.5087083 4291964160
2.9039369 -0.5249061 -0.50451458 4291964160
2.8973756 -0.52362609 -0.49873558 4291964160
2.904737 -0.52486223 -0.49476984 4291964160
2.9010384 -0.52409983 -0.48833936 4291964160
2.9156551 -0.5266459 -0.48440069 4291964160
2.8883667 -0.52162319 -0.47297212 4291833600
2.8787076 -0.5197854 -0.46397373 4291833600
2.8750627 -0.51903403 -0.45544463 4291833600
2.8925705 -0.52210081 -0.44970077 4291833600
2.9217954 -0.52728105 -0.44511953 4291964160
2.927568 -0.52822781 -0.43634543 4291964160
2.9058979 -0.52422363 -0.42303884 4291964160
2.8867619 -0.5206778 -0.40976387 4291833600
2.8833606 -0.51997083 -0.39833933 4291833600
2.9056821 -0.52390194 -0.38994178 4291964160
2.9164712 -0.52575266 -0.37942359 4291964160
2.913939 -0.52520162 -0.36671129 4291964160
2.8737378 -0.51786262 -0.34903377 4291833600
2.8961985 -0.52181625 -0.33865076 4291833600
2.9137547 -0.52488488 -0.32713252 4291964160
2.9245365 -0.52673221 -0.31435597 4291964160
2.9188738 -0.52561766 -0.2994388 4291964160
2.8761251 -0.51782644 -0.28062752 4291703040
2.891562 -0.52051193 -0.26731876 4291833600
2.9014933 -0.52220553 -0.25307542 4291833600
2.8913271 -0.52028209 -0.23680314 4291833600
2.8881502 -0.51961678 -0.22091493 4291833600
2.9053457 -0.52261621 -0.20626602 4291833600
2.9018505 -0.52189338 -0.18984799 4291833600
2.8948944 -0.52054846 -0.17305548 4291833600
2.8123593 -0.50561613 -0.15206717 4291572480
2.908994 -0.5228951 -0.14051555 4291833600
2.9076593 -0.52256089 -0.12352991 4291833600
2.8936515 -0.51994962 -0.10596218 4291833600
2.8955524 -0.52019721 -0.088933505 4291833600
2.9264548 -0.52565408 -0.072504945 4291833600
2.9236178 -0.52504969 -0.054995809 4291833600
2.8014634 -0.50302118 -0.035931084 4291441920
2.9273083 -0.52552259 -0.019984787 4291833600
2.9360325 -0.52699357 -0.0024102386 4291964160
2.9143081 -0.5229997 0.015113606 4291833600
2.7743196 -0.49778751 0.03103704 4291311360
2.9688468 -0.53259468 0.05099408 4292094720
2.9666998 -0.53211331 0.068669982 4292094720
2.8905559 -0.51836222 0.084093228 4291833600
2.6150744 -0.46887544 0.091544323 4290789120
2.9625125 -0.53107405 0.12111479 4291964160
2.9546452 -0.5295679 0.13802385 4291964160
2.8551416 -0.51164109 0.14988127 4291703040
2.678241 -0.47985366 0.15592496 4291050240
2.9728863 -0.53254813 0.18990718 4292094720
2.9696009 -0.53186333 0.20630004 4292094720
2.8512585 -0.51057547 0.21380335 4291703040
2.5961788 -0.46481413 0.20878075 4290789120
3.0016153 -0.53730524 0.25742784 4292225280
2.996017 -0.53620595 0.27267766 4292225280
2.9520454 -0.5282405 0.28387854 4291964160
2.7450423 -0.49111027 0.27781749 4291311360
2.6323731 -0.47086751 0.27939615 4290919680
2.9922709 -0.53514749 0.33199871 4292225280
2.9805801 -0.53296 0.3446804 4292094720
2.8677013 -0.51268309 0.34470582 4291703040
2.7196143 -0.48612016 0.33894271 4291311360
2.6712661 -0.47739151 0.34436646 4291050240
3.0061173 -0.5371365 0.39998186 4292225280
2.9817612 -0.53268784 0.40864012 4292225280
2.9558215 -0.52795792 0.41642174 4292094720
2.8173876 -0.50314009 0.40727374 4291572480
2.7396939 -0.48917642 0.40566075 4291311360
2.7666457 -0.49389902 0.41889647 4291441920
2.9945557 -0.5344882 0.46289176 4292225280
2.9820573 -0.53216076 0.46987876 4292225280
2.9638047 -0.5288074 0.47532991 4292094720
2.9541595 -0.52699071 0.48153684 4292094720
2.9638977 -0.52863181 0.49034539 4292094720
2.9429848 -0.5248065 0.49349219 4292094720
2.8999197 -0.51703298 0.49221674 4291964160
2.9078078 -0.51834506 0.49894419 4291964160
2.9215999 -0.52070892 0.50614148 4291964160
2.9345047 -0.52291381 0.51263672 4292094720
2.8507857 -0.5079031 0.50156862 4291833600
2.8735852 -0.51187199 0.50857484 4291833600
2.8683517 -0.51084673 0.51004446 4291833600
2.8680658 -0.51070291 0.51179254 4291833600
2.8678799 -0.51057684 0.512959 4291833600
2.8542206 -0.50805253 0.51111192 4291833600
2.8445408 -0.50623733 0.50937593 4291703040
2.919024 -0.51939833 0.52209878 4291964160
2.9143975 -0.51848066 0.52004683 4291964160
2.9001734 -0.51585615 0.51568443 4291964160
2.9475183 -0.5241819 0.52163565 4292094720
2.9393141 -0.52262765 0.51711524 4292094720
2.9549472 -0.52531153 0.51617354 4292094720
2.9668889 -0.52733827 0.51394796 4292225280
2.9769323 -0.52902687 0.51076066 4292225280
2.9835505 -0.53010637 0.50636256 4292225280
2.9793007 -0.52925467 0.4995282 4292225280
2.9831998 -0.52985066 0.4934808 4292225280
2.9815128 -0.52945441 0.48593357 4292225280
2.9733841 -0.52791458 0.47680065 4292225280
2.973783 -0.52788907 0.46850586 4292225280
2.9902067 -0.53070754 0.4621467 4292225280
2.9929156 -0.53109139 0.45308 4292225280
2.9894817 -0.53038514 0.4425678 4292225280
2.9417696 -0.52130491 0.36066911 4291964160
2.9672985 -0.52573264 0.35048154 4292094720
2.984833 -0.52874267 0.33876234 4292094720
2.991039 -0.5297451 0.32526925 4292225280
2.9435084 -0.52123147 0.30577272 4291964160
2.9448793 -0.52137887 0.29124165 4291964160
2.963295 -0.52454323 0.27797359 4292094720
2.9595423 -0.52378309 0.26224524 4292094720
2.9303782 -0.51852667 0.24415055 4291964160
2.9413652 -0.52037549 0.22922844 4291964160
2.9630249 -0.52411145 0.21470951 4292094720
2.9551485 -0.52262253 0.19774102 4291964160
2.9255066 -0.51728553 0.17931093 4291964160
2.9620764 -0.52365577 0.16470268 4291964160
2.9768865 -0.52617759 0.14841254 4292094720
2.9561944 -0.5224244 0.13022651 4291964160
2.9284356 -0.51742393 0.11187074 4291964160
2.9411216 -0.51957011 0.095026836 4291964160
2.9414179 -0.51952714 0.077603593 4291964160
2.9383273 -0.51888615 0.060024042 4291964160
2.9262631 -0.51666087 0.042287108 4291833600
2.9287868 -0.51701158 0.02477256 4291833600
2.9354463 -0.51809204 0.007211389 4291964160
2.9020443 -0.51210272 -0.010295191 4291833600
2.9082065 -0.51309592 -0.02776726 4291833600
2.9274099 -0.51638919 -0.04548572 4291833600
2.930012 -0.51675332 -0.063027546 4291964160
2.8961434 -0.51068622 -0.079530664 4291833600
2.9262207 -0.51589501 -0.097680256 4291833600
2.9403923 -0.51829827 -0.11545455 4291964160
2.9420092 -0.51848799 -0.13270357 4291964160
2.8974817 -0.5105468 -0.14747868 4291833600
2.9193892 -0.51431239 -0.16534278 4291833600
2.9278498 -0.51570809 -0.18243906 4291964160
2.9178731 -0.51385629 -0.19817968 4291833600
2.9191744 -0.51399088 -0.21442109 4291833600
2.9291642 -0.51565498 -0.23112772 4291964160
2.9463778 -0.51858979 -0.24829772 4291964160
2.9557459 -0.52014297 -0.26467544 4291964160
2.9068751 -0.51144868 -0.27534297 4291833600
2.9335589 -0.51604855 -0.29274538 4291964160
2.9509752 -0.51901668 -0.30912048 4291964160
2.9449594 -0.51786327 -0.32275507 4291964160
2.9364178 -0.51626617 -0.33568406 4291964160
2.8738647 -0.50517529 -0.34173617 4291833600
2.9497163 -0.51841313 -0.36391467 4292094720
2.9620986 -0.52049345 -0.37824622 4292094720
2.9603677 -0.52009338 -0.39039606 4292094720
2.9616635 -0.52022511 -0.40250236 4292094720
2.9500108 -0.5180828 -0.41235337 4292094720
2.9216466 -0.51300681 -0.4192498 4291964160
2.926749 -0.51380795 -0.43038413 4291964160
2.9433315 -0.5166238 -0.44278988 4292094720
2.9380875 -0.51560819 -0.45144477 4292094720
2.9363618 -0.51521027 -0.46010047 4292094720
2.9432077 -0.51631618 -0.46958464 4292094720
2.9362624 -0.51500267 -0.47632834 4292094720
2.9297981 -0.51377398 -0.4825654 4291964160
2.9059277 -0.50949395 -0.48530626 4291964160
2.9013627 -0.50859958 -0.49064419 4291964160
2.8768725 -0.50421339 -0.49198654 4291833600
2.8252304 -0.4950709 -0.48797834 4291703040
2.833287 -0.49639094 -0.49363691 4291703040
2.8472531 -0.49874556 -0.49977955 4291703040
2.7723205 -0.48553008 -0.4896701 4291441920
2.7719233 -0.48537076 -0.49207065 4291441920
2.7764719 -0.48607731 -0.49477628 4291572480
2.757833 -0.48272491 -0.49276495 4291441920
2.7713053 -0.48499337 -0.49590889 4291441920
2.7674136 -0.48422268 -0.49536812 4291441920
2.8457842 -0.4978433 -0.50895989 4291703040
2.8226891 -0.49371162 -0.50380504 4291703040
2.8737957 -0.50255758 -0.5112834 4291833600
2.9026339 -0.50750667 -0.51414984 4291964160
2.9018807 -0.50728101 -0.51115173 4291964160
2.9204197 -0.5104273 -0.51093334 4291964160
2.9313052 -0.51223499 -0.50874233 4292094720
2.9329834 -0.51243329 -0.50434244 4292094720
2.9452074 -0.51447362 -0.50114417 4292094720
2.9320133 -0.51207387 -0.49304283 4292094720
2.9330437 -0.51215893 -0.48678556 4292094720
2.918879 -0.50959104 -0.47747424 4291964160
2.9215653 -0.50996548 -0.47039446 4291964160
2.909173 -0.50770819 -0.4603717 4291964160
2.9362082 -0.51233131 -0.45601323 4292094720
2.9481995 -0.51432818 -0.4486779 4292094720
2.9593508 -0.51617777 -0.44062686 4292094720
2.9416294 -0.51299155 -0.42779821 4292094720
2.9209552 -0.50929159 -0.41418928 4291964160
2.9029236 -0.50605369 -0.40062782 4291833600
2.9416778 -0.51271427 -0.3943648 4291964160
2.9385414 -0.5120725 -0.38190019 4291964160
2.9430921 -0.5127703 -0.36999786 4291964160
2.9012468 -0.5053857 -0.35201129 4291833600
2.9373593 -0.5115813 -0.34310934 4291964160
2.9358594 -0.51122504 -0.3292743 4291964160
2.9508541 -0.51374054 -0.3168577 4291964160
2.944818 -0.51259434 -0.30178884 4291964160
2.9124365 -0.50686359 -0.28387749 4291833600
2.9267082 -0.50925261 -0.27028903 4291964160
2.9378607 -0.51109809 -0.25598338 4291964160
2.9267161 -0.5090645 -0.23945457 4291964160
2.9176419 -0.50739175 -0.22294085 4291833600
2.9366276 -0.51059842 -0.20827214 4291964160
2.942203 -0.51147258 -0.19228975 4291964160
2.9401698 -0.511024 -0.17558105 4291964160
2.8437889 -0.4941802 -0.15360829 4291572480
2.9405308 -0.51089638 -0.14189272 4291964160
2.9254203 -0.50817639 -0.12415658 4291833600
2.8978953 -0.5033012 -0.1060084 4291833600
2.9270933 -0.50827754 -0.089809768 4291833600
2.951906 -0.51249063 -0.073060296 4291964160
2.9502697 -0.51211107 -0.055440083 4291964160
2.8476949 -0.49421385 -0.036486495 4291572480
2.9539666 -0.51256156 -0.020146053 4291964160
2.9721189 -0.51561505 -0.002437355 4292094720
2.9508049 -0.51182199 0.015287155 4291964160
2.8146117 -0.48810792 0.03145545 4291441920
2.9861858 -0.51776558 0.051239211 4292094720
2.998316 -0.51977181 0.069330528 4292094720
2.9408023 -0.50970632 0.085467175 4291964160
2.6601052 -0.46096921 0.093025096 4290919680
2.9941075 -0.51875156 0.12228084 4292094720
2.9950831 -0.51882368 0.13976932 4292094720
2.8767705 -0.49823585 0.15086173 4291703040
2.6124833 -0.45237866 0.15194057 4290789120
3.0140755 -0.52182102 0.19234087 4292225280
2.9966302 -0.51870382 0.20796432 4292094720
2.8915267 -0.50041729 0.21660058 4291833600
2.6322405 -0.45545918 0.21146379 4290919680
3.0280445 -0.52384752 0.25942832 4292225280
3.0246933 -0.52316993 0.27500549 4292225280
2.9575546 -0.5114615 0.28411695 4292094720
2.7811947 -0.48087293 0.28118804 4291441920
2.6732938 -0.46213016 0.28344882 4291050240
3.0286434 -0.52346116 0.3356902 4292355840
2.9841175 -0.51566893 0.34473619 4292094720
2.9078255 -0.50239122 0.34917107 4291833600
2.7644575 -0.47753182 0.34417889 4291441920
2.7209256 -0.46992406 0.35040942 4291311360
3.0297997 -0.52317089 0.40272051 4292355840
3.0180178 -0.52103883 0.41318589 4292225280
2.9574122 -0.51048005 0.41621977 4292094720
2.8485639 -0.49159953 0.41135943 4291703040
2.789304 -0.48128232 0.41258419 4291572480
2.8113875 -0.4850018 0.42523572 4291572480
3.0067713 -0.51861084 0.4643051 4292225280
2.9997289 -0.51729912 0.47218037 4292225280
3.0086918 -0.51874739 0.48203591 4292225280
2.9865203 -0.51482809 0.48631456 4292225280
2.974251 -0.51261687 0.49155581 4292225280
2.9926636 -0.51569349 0.50131023 4292225280
2.9349592 -0.50565493 0.4976556 4292094720
2.9525623 -0.50859225 0.5061065 4292094720
2.9614997 -0.51003593 0.51253027 4292094720
2.8872912 -0.49716216 0.5038743 4291833600
2.8905962 -0.49763775 0.50805414 4291964160
2.8998199 -0.49913192 0.51269454 4291964160
2.9042847 -0.49980646 0.51590741 4291964160
2.9127307 -0.50116575 0.51923287 4291964160
2.9125414 -0.50103897 0.52041632 4291964160
2.8988664 -0.4985927 0.51857769 4291964160
2.8940291 -0.49766713 0.51770985 4291964160
2.8854115 -0.49609187 0.51556104 4291833600
2.9591079 -0.50866687 0.52748722 4292094720
2.9409902 -0.50545734 0.52240962 4292094720
2.9181142 -0.50143135 0.5159061 4291964160
2.9889221 -0.51350188 0.52530754 4292225280
2.9861255 -0.51292485 0.52108896 4292225280
2.9760153 -0.51109195 0.51500434 4292225280
3.0081463 -0.51651275 0.51559108 4292355840
3.0177941 -0.51807171 0.51165336 4292355840
3.024148 -0.51906472 0.50653189 4292355840
3.0164771 -0.51765054 0.49847817 4292355840
3.0127683 -0.51691657 0.49052846 4292355840
2.9891639 -0.51277 0.47884384 4292225280
3.0089488 -0.51606667 0.47356436 4292225280
3.0215054 -0.51812255 0.46650955 4292355840
3.0277116 -0.51908886 0.45788196 4292355840
3.0208054 -0.51780713 0.44675079 4292355840
2.9780278 -0.50985283 0.36474407 4292094720
3.0124109 -0.51564199 0.35544908 4292225280
3.0258515 -0.5178448 0.34306946 4292225280
3.0083442 -0.51475126 0.32681945 4292225280
2.9788537 -0.50960892 0.30913073 4292094720
2.984153 -0.51041901 0.29482663 4292094720
3.0035982 -0.51364785 0.28146878 4292225280
2.9949486 -0.51207185 0.26511371 4292094720
2.9474907 -0.50386226 0.24532755 4291964160
2.9767802 -0.50877291 0.23175347 4292094720
2.9901183 -0.51095593 0.21645337 4292094720
2.9906015 -0.5109418 0.19991073 4292094720
2.9609406 -0.50577849 0.18129906 4291964160
2.982537 -0.5093711 0.16567254 4292094720
2.994179 -0.5112626 0.14912361 4292094720
3.0025196 -0.51258969 0.13213342 4292094720
2.950505 -0.50361437 0.11259983 4291964160
2.972455 -0.50726485 0.095942095 4292094720
2.9729719 -0.50725698 0.078356788 4292094720
2.9600263 -0.50495243 0.060406182 4291964160
2.9528794 -0.50363779 0.042628612 4291964160
2.9502623 -0.50309598 0.024928989 4291964160
2.9581304 -0.50434208 0.0072597745 4291964160
2.9290261 -0.49928531 -0.010380415 4291833600
2.939733 -0.50101537 -0.028039925 4291964160
2.9496484 -0.50260985 -0.045784976 4291964160
2.9566269 -0.50370342 -0.063535847 4291964160
2.9325745 -0.49951097 -0.080449812 4291964160
2.9533746 -0.50295842 -0.098487191 4291964160
2.9764209 -0.50678694 -0.1167513 4292094720
2.9735405 -0.50620043 -0.13399053 4292094720
2.9328985 -0.4991869 -0.14913079 4291964160
2.9498963 -0.50198466 -0.16690211 4291964160
2.9593403 -0.50349605 -0.18421537 4291964160
2.9542611 -0.50253636 -0.20044886 4291964160
2.9437389 -0.50065136 -0.2160075 4291964160
2.9741673 -0.50573027 -0.23444225 4292094720
2.9729285 -0.50542349 -0.25028279 4292094720
2.9833634 -0.50710106 -0.26687938 4292094720
2.9471066 -0.50084305 -0.27887258 4291964160
2.9596312 -0.50287586 -0.29504979 4292094720
2.9674633 -0.50411069 -0.31053472 4292094720
2.9790368 -0.50598055 -0.32616121 4292094720
2.9561296 -0.50199425 -0.3375974 4292094720
2.90026 -0.49241301 -0.34452787 4291833600
2.9855313 -0.5067941 -0.36796275 4292094720
2.9834521 -0.50634474 -0.38058978 4292094720
3.0010471 -0.50923389 -0.39536265 4292225280
2.9910159 -0.50743508 -0.40608281 4292225280
2.9803269 -0.50552535 -0.41617221 4292094720
2.9460504 -0.49961612 -0.4223268 4292094720
2.9606624 -0.50199842 -0.43493369 4292094720
2.9614666 -0.50203907 -0.44507048 4292094720
2.9640083 -0.50237423 -0.45497012 4292094720
2.971215 -0.50349963 -0.46509409 4292094720
2.9627116 -0.5019629 -0.47222182 4292094720
2.9678319 -0.50273448 -0.48096627 4292094720
2.9463816 -0.49900573 -0.48480979 4292094720
2.950681 -0.49963853 -0.49228582 4292094720
2.9248505 -0.49517015 -0.49411994 4291964160
2.9079573 -0.4922162 -0.49680364 4291964160
2.8601432 -0.48403051 -0.49351308 4291833600
2.8740304 -0.48628777 -0.50023341 4291833600
2.8037689 -0.47430891 -0.49165335 4291572480
2.80813 -0.47495592 -0.49549788 4291572480
2.8125834 -0.47561827 -0.49878824 4291572480
2.8122761 -0.4754754 -0.50065458 4291572480
2.8169215 -0.47616979 -0.50281858 4291703040
2.8168101 -0.47605991 -0.50354683 4291703040
2.8255372 -0.47744358 -0.50526577 4291703040
2.8767977 -0.48601234 -0.51399136 4291833600
2.8575652 -0.48267081 -0.50951928 4291833600
2.9145534 -0.49220249 -0.51801562 4291964160
2.9163764 -0.49241614 -0.51606715 4291964160
2.9465628 -0.49741778 -0.51850301 4292094720
2.9554112 -0.49881598 -0.5165379 4292094720
2.96281 -0.49996904 -0.51369584 4292094720
2.9660456 -0.5004192 -0.50951761 4292094720
2.9702687 -0.50103575 -0.50490326 4292225280
2.9724584 -0.50130904 -0.49934438 4292225280
2.9637709 -0.49974814 -0.49139366 4292094720
2.9539249 -0.49799246 -0.48272425 4292094720
2.9390957 -0.49539751 -0.47274423 4292094720
2.9413967 -0.49569032 -0.46500611 4292094720
2.972285 -0.50079972 -0.46115524 4292094720
2.9840891 -0.50269216 -0.45368645 4292225280
2.9991696 -0.50513566 -0.44610983 4292225280
2.9679959 -0.49978933 -0.43120188 4292094720
2.9483743 -0.49638993 -0.41766009 4292094720
2.9488165 -0.49636915 -0.40655544 4292094720
2.9686255 -0.49960762 -0.39758047 4292094720
2.9698415 -0.49971631 -0.38558307 4292094720
2.9793043 -0.50121236 -0.37417689 4292094720
2.9423299 -0.49489704 -0.35664007 4291964160
2.963383 -0.49834242 -0.3458041 4292094720
2.9758205 -0.5003379 -0.33342355 4292094720
2.9822371 -0.50132036 -0.3199085 4292094720
2.9762087 -0.50021082 -0.30470195 4292094720
2.9428265 -0.49450526 -0.28655395 4291964160
2.9630177 -0.49780241 -0.27336982 4292094720
2.9600072 -0.49720103 -0.25765631 4291964160
2.9532244 -0.49596629 -0.24138287 4291964160
2.9530013 -0.49583343 -0.22541812 4291964160
2.972018 -0.49893051 -0.21057238 4292094720
2.9675121 -0.49807823 -0.1937509 4292094720
2.961803 -0.4970243 -0.17669702 4291964160
2.8889673 -0.48470831 -0.15589343 4291703040
2.9627256 -0.49698776 -0.14282157 4291964160
2.9736457 -0.49872351 -0.12607783 4292094720
2.9392164 -0.4928543 -0.10741311 4291964160
2.9635217 -0.49683413 -0.090837114 4291964160
2.9785047 -0.49924979 -0.073645376 4292094720
2.9723277 -0.49811846 -0.055799104 4292094720
2.8781388 -0.48224083 -0.036839936 4291703040
2.9892323 -0.50075829 -0.020366322 4292094720
3.003674 -0.50308061 -0.0024607871 4292094720
2.9599338 -0.49565899 0.015319227 4291964160
2.8410769 -0.4756639 0.031719707 4291572480
3.0226803 -0.50597107 0.051813953 4292225280
3.0318477 -0.50740772 0.070036344 4292225280
2.9821715 -0.4989976 0.08658351 4292094720
2.7051311 -0.45255393 0.094505861 4291180800
3.020515 -0.50521839 0.12323702 4292225280
3.0270164 -0.50620812 0.1411195 4292225280
2.8375678 -0.47443497 0.14865841 4291572480
2.6672635 -0.4458743 0.15497285 4291050240
3.0495491 -0.50968075 0.19441178 4292355840
3.0419147 -0.50830656 0.21089791 4292225280
2.8484592 -0.47588804 0.21316314 4291572480
2.6820459 -0.447999 0.21525161 4291050240
3.0551834 -0.5102278 0.26149434 4292355840
3.0555851 -0.51019621 0.27753922 4292355840
2.993871 -0.49979505 0.28732106 4292094720
2.8261535 -0.47170514 0.28545082 4291572480
2.7132196 -0.45276806 0.28739756 4291180800
3.0620258 -0.51087618 0.33905461 4292355840
3.0243127 -0.50448638 0.34903422 4292225280
2.8649611 -0.47781235 0.34368384 4291703040
2.8053753 -0.4677842 0.34892797 4291572480
2.7471023 -0.45797867 0.3534309 4291311360
3.0650716 -0.51088947 0.40700629 4292486400
3.0312598 -0.5051558 0.41458881 4292355840
3.0072346 -0.50105494 0.42281365 4292225280
2.8884892 -0.48117673 0.41671312 4291833600
2.8389132 -0.47282651 0.41950762 4291703040
2.8463616 -0.47397512 0.43010074 4291703040
3.0428984 -0.50660414 0.46942008 4292355840
3.0446072 -0.50679028 0.4787716 4292355840
3.0226569 -0.503039 0.48379555 4292355840
3.0128446 -0.50130868 0.49011719 4292355840
3.0200262 -0.50240618 0.49862885 4292355840
2.9621577 -0.49268365 0.49571079 4292094720
2.9796927 -0.49550396 0.50474262 4292225280
2.9885466 -0.49687982 0.51176971 4292225280
2.9180391 -0.48506296 0.50451112 4291964160
2.9270821 -0.48647165 0.51031512 4291964160
2.9401023 -0.48854068 0.51624638 4292094720
2.9541862 -0.49078551 0.52179217 4292094720
2.9392138 -0.48820323 0.52159798 4292094720
2.9534941 -0.49047983 0.52598113 4292094720
2.9533014 -0.49035251 0.52717996 4292094720
2.9434974 -0.48862967 0.52604353 4292094720
2.9250538 -0.48547354 0.52274489 4291964160
2.9300299 -0.48620486 0.52301842 4292094720
2.9901989 -0.49609268 0.53250515 4292225280
2.9856701 -0.49524498 0.52982461 4292225280
2.972496 -0.49296376 0.52500379 4292225280
3.0288012 -0.50220376 0.53179306 4292355840
3.0308704 -0.50244904 0.52837729 4292355840
3.0120075 -0.49922475 0.52072066 4292355840
3.0203393 -0.50050819 0.51717234 4292355840
3.04898 -0.50515592 0.516433 4292486400
3.050482 -0.5053063 0.51044095 4292486400
3.0476801 -0.50474381 0.50314003 4292355840
3.0433879 -0.50393474 0.49502742 4292355840
3.0340042 -0.50228298 0.4855499 4292355840
3.0216684 -0.50014329 0.47509953 4292355840
3.0521677 -0.50509292 0.47078133 4292355840
3.0638621 -0.50692934 0.46289447 4292486400
3.0555699 -0.50545877 0.45144898 4292355840
3.0328619 -0.5010705 0.37109619 4292355840
3.032012 -0.5008322 0.35741153 4292355840
3.0474474 -0.5032835 0.34517965 4292355840
3.0495524 -0.50353271 0.3309719 4292355840
3.0106237 -0.49700779 0.31212187 4292225280
3.0145724 -0.49756238 0.29754052 4292225280
3.0348163 -0.50080574 0.28411597 4292225280
3.0318508 -0.50021851 0.26811779 4292225280
2.9975777 -0.49446714 0.24925241 4292094720
3.0111623 -0.49661082 0.234201 4292225280
3.0304432 -0.49969289 0.21915799 4292225280
3.0270023 -0.49902785 0.2021462 4292225280
2.9865892 -0.49226901 0.18269081 4292094720
3.017966 -0.49734339 0.16747674 4292225280
3.0394838 -0.50079131 0.15123211 4292225280
3.0310729 -0.49930766 0.1332597 4292225280
3.0007176 -0.49421042 0.11440425 4292094720
3.003526 -0.49457604 0.096850313 4292094720
3.0040476 -0.49456501 0.079098538 4292094720
2.9866095 -0.49159777 0.060889188 4292094720
2.9814036 -0.49064463 0.042998396 4292094720
2.9857044 -0.49125609 0.025203854 4292094720
2.9915948 -0.49212876 0.0073347408 4292094720
2.9555671 -0.48610669 -0.01046426 4291964160
2.9698074 -0.48835298 -0.028299162 4291964160
2.9860723 -0.49093124 -0.046305172 4292094720
2.9969997 -0.49263111 -0.064340666 4292094720
2.9640408 -0.48711783 -0.081233792 4291964160
2.9947181 -0.49206278 -0.099768586 4292094720
3.0079181 -0.49413463 -0.11787186 4292094720
2.9942834 -0.49179816 -0.13479382 4292094720
2.9614675 -0.48631272 -0.15043683 4291964160
2.9862697 -0.49028927 -0.16879559 4292094720
2.9947267 -0.49158108 -0.18623666 4292094720
2.9856923 -0.4900018 -0.20238434 4292094720
2.9790857 -0.48882142 -0.2183885 4292094720
3.0006757 -0.49226722 -0.23630171 4292094720
3.0230274 -0.49583656 -0.25425297 4292225280
3.0196893 -0.4951916 -0.26986629 4292225280
2.9686432 -0.48672488 -0.28063741 4292094720
2.9909916 -0.49029255 -0.29788631 4292094720
3.0037253 -0.49228299 -0.31402391 4292225280
3.0054817 -0.4924739 -0.32873678 4292225280
3.0021527 -0.49183157 -0.34252027 4292225280
2.9364047 -0.48096558 -0.34848279 4291964160
3.02566 -0.49548745 -0.3725464 4292225280
3.0333505 -0.49664906 -0.38657948 4292355840
3.0323436 -0.49638638 -0.39909792 4292355840
3.0310912 -0.49608356 -0.41112432 4292355840
3.0066853 -0.49199221 -0.41944548 4292225280
2.9909296 -0.48931754 -0.42834443 4292225280
2.9918609 -0.48937342 -0.43909058 4292225280
2.996557 -0.49004489 -0.44990739 4292225280
3.0037103 -0.49111784 -0.46061727 4292225280
3.0062847 -0.49144179 -0.47012749 4292225280
2.9977589 -0.48995137 -0.47734484 4292225280
2.9940996 -0.48925671 -0.48475304 4292225280
2.987232 -0.48803815 -0.49105525 4292225280
2.9547915 -0.48264289 -0.49249411 4292094720
2.9598119 -0.48336744 -0.499542 4292094720
2.9487314 -0.48146281 -0.50328183 4292094720
2.9008601 -0.47355291 -0.50005412 4291964160
2.9050238 -0.47413892 -0.50513852 4291964160
2.8298252 -0.46177423 -0.49574223 4291703040
2.8439093 -0.46398076 -0.50132567 4291703040
2.8522506 -0.46524966 -0.5053336 4291703040
2.8567986 -0.46589938 -0.50808883 4291833600
2.8517249 -0.46497995 -0.50853872 4291703040
2.8516114 -0.46486947 -0.50927526 4291703040
2.8467386 -0.4639833 -0.50856501 4291703040
2.9067969 -0.47367832 -0.51884937 4291964160
2.8933794 -0.47139856 -0.51540673 4291964160
2.9543142 -0.48123097 -0.52457523 4292094720
2.961005 -0.48222536 -0.5234583 4292094720
2.9603834 -0.48202866 -0.520432 4292094720
2.9825985 -0.48554969 -0.5207864 4292225280
2.9977782 -0.48792419 -0.51925701 4292225280
2.9971323 -0.48772237 -0.5143609 4292225280
3.0052612 -0.48894829 -0.51035851 4292225280
2.9974711 -0.4875842 -0.50306052 4292225280
2.9985235 -0.48765868 -0.49667615 4292225280
2.9846182 -0.48530099 -0.48726979 4292225280
2.983851 -0.48508 -0.47948024 4292225280
2.9725175 -0.48314169 -0.46947303 4292094720
2.9883945 -0.48562592 -0.46320778 4292225280
3.010941 -0.48919275 -0.45732778 4292225280
3.0206172 -0.49066746 -0.4488672 4292355840
2.997961 -0.48689052 -0.43513581 4292225280
2.9746783 -0.4830133 -0.42098045 4292094720
2.9859767 -0.48475164 -0.41128239 4292225280
2.9988863 -0.48675069 -0.40124661 4292225280
3.0096934 -0.48840776 -0.3903811 4292225280
3.005265 -0.48759222 -0.37707415 4292225280
2.9686863 -0.48156175 -0.35948852 4292094720
2.9985969 -0.48631701 -0.34957674 4292225280
3.007138 -0.48760524 -0.33660847 4292225280
3.0278668 -0.49086881 -0.32449099 4292225280
3.0075541 -0.48747876 -0.30761507 4292225280
2.9762044 -0.4823015 -0.28952554 4292094720
2.9890282 -0.4842833 -0.27550459 4292094720
2.9953098 -0.48520446 -0.26047873 4292094720
2.9837136 -0.48322982 -0.24364068 4292094720
2.9893081 -0.48403949 -0.22797047 4292094720
2.9990594 -0.48552176 -0.21228427 4292094720
3.0087831 -0.48699898 -0.19625692 4292225280
2.9848435 -0.48302788 -0.17790066 4292094720
2.9203293 -0.47249362 -0.15743457 4291833600
2.9981108 -0.48498157 -0.14438868 4292094720
3.0041175 -0.48585641 -0.12724762 4292094720
2.9657149 -0.47954994 -0.10827754 4291964160
2.9985058 -0.48475549 -0.091821305 4292094720
3.010535 -0.48660314 -0.074365981 4292094720
3.0126865 -0.48685375 -0.056502543 4292094720
2.9144616 -0.47088659 -0.037269115 4291833600
3.0256631 -0.48875573 -0.020594783 4292225280
3.0339384 -0.4899947 -0.0024832005 4292225280
3.0052209 -0.48525983 0.015538716 4292094720
2.8822989 -0.46531844 0.032149125 4291703040
3.0579343 -0.49357441 0.052368078 4292355840
3.0732446 -0.49594656 0.070924662 4292355840
2.9422212 -0.47470775 0.085341848 4291964160
2.7462013 -0.44299275 0.095848888 4291311360
3.0658243 -0.49445266 0.12496599 4292355840
3.0535834 -0.49238002 0.14222188 4292355840
2.868876 -0.46250412 0.1501549 4291703040
2.6974139 -0.43477499 0.1565748 4291050240
3.0717392 -0.49501055 0.19563924 4292355840
3.0626535 -0.49344769 0.21213281 4292355840
2.8885982 -0.4653112 0.21596037 4291703040
2.7269311 -0.43918109 0.21864487 4291180800
3.1004069 -0.49923065 0.26511157 4292486400
3.0958731 -0.49840081 0.28093004 4292486400
3.0340822 -0.4883554 0.29090211 4292225280
2.8661864 -0.4612391 0.28921795 4291703040
2.7580357 -0.44374612 0.29186589 4291311360
3.0934131 -0.49760598 0.34220323 4292486400
3.0693827 -0.49364156 0.35389778 4292355840
2.9049544 -0.46710333 0.34814909 4291833600
2.8452923 -0.4574182 0.35355529 4291703040
2.791841 -0.44873527 0.35884437 4291441920
3.0967724 -0.49764737 0.41082382 4292486400
3.0811181 -0.49503243 0.42100638 4292486400
3.0472662 -0.48949537 0.42803377 4292355840
2.9244785 -0.46967724 0.42150328 4291964160
2.8601835 -0.45925912 0.42224815 4291703040
2.8959501 -0.46490884 0.43717709 4291833600
3.0828912 -0.49482056 0.47513685 4292486400
3.0806818 -0.49436668 0.48398331 4292486400
3.0625975 -0.49136594 0.48972178 4292486400
3.0625095 -0.49125314 0.49772245 4292486400
3.0462911 -0.4885534 0.50248688 4292355840
3.0029719 -0.48150924 0.50206298 4292225280
3.0156415 -0.48344356 0.51034629 4292355840
3.0283878 -0.48538935 0.51809919 4292355840
2.9675364 -0.47554049 0.51258117 4292094720
2.9765766 -0.47689325 0.51845092 4292225280
2.9808428 -0.47748074 0.52290255 4292225280
2.9803417 -0.4773044 0.52591187 4292225280
2.9984207 -0.48010319 0.53159952 4292225280
2.9932578 -0.47918004 0.5325563 4292225280
2.9843097 -0.47765142 0.53220928 4292225280
2.9793572 -0.47676274 0.53194672 4292225280
2.979372 -0.47666913 0.53194696 4292225280
2.9794922 -0.47659236 0.53134286 4292225280
2.9563756 -0.47279942 0.52598232 4292094720
3.0167122 -0.48235157 0.53482538 4292355840
3.0025561 -0.47999141 0.52981013 4292225280
3.0550272 -0.48828104 0.53588921 4292486400
3.0371816 -0.48533094 0.52897555 4292355840
3.0529785 -0.48775688 0.52730352 4292486400
3.069941 -0.49036795 0.52516752 4292486400
3.0840127 -0.49251631 0.52187192 4292486400
3.0820136 -0.49209777 0.51522869 4292486400
3.0924792 -0.49366915 0.51005238 4292616960
3.0842984 -0.49226382 0.50120676 4292486400
3.0749207 -0.49066806 0.49163216 4292486400
3.0674682 -0.48938003 0.48184416 4292486400
3.0882518 -0.49259636 0.47589639 4292486400
3.0970297 -0.49389672 0.46746281 4292616960
3.0965738 -0.49372426 0.45707437 4292486400
3.0436726 -0.48465666 0.37206712 4292355840
3.0682309 -0.48846835 0.36133939 4292355840
3.0930798 -0.49232471 0.35001752 4292486400
3.083601 -0.49071664 0.33435124 4292486400
3.0508015 -0.48539874 0.31598866 4292355840
3.0528917 -0.48563296 0.30103827 4292355840
3.0750518 -0.48905897 0.28761113 4292355840
3.0721002 -0.48849061 0.27142087 4292355840
3.019109 -0.47996733 0.250806 4292225280
3.0464997 -0.48422366 0.23672603 4292355840
3.0518038 -0.48496845 0.2204947 4292355840
3.0660639 -0.48713577 0.20456177 4292355840
3.0268679 -0.48081082 0.18498018 4292225280
3.0592723 -0.48585963 0.16960898 4292355840
3.0707405 -0.48758206 0.15264338 4292355840
3.0625448 -0.48618212 0.13451654 4292355840
3.0115414 -0.47798824 0.1147088 4292094720
3.0399194 -0.48239446 0.097931549 4292225280
3.0453835 -0.48316345 0.080111451 4292225280
3.0328708 -0.48108062 0.061774146 4292225280
3.0227263 -0.47937408 0.043553337 4292225280
3.0309839 -0.48058605 0.025562011 4292225280
3.0230536 -0.47923127 0.0074048992 4292225280
2.9958804 -0.47482714 -0.010597017 4292094720
3.0061817 -0.47636303 -0.028618839 4292094720
3.0251644 -0.47927362 -0.046867277 4292225280
3.0239079 -0.47897717 -0.064857326 4292225280
2.9948633 -0.47428018 -0.082001403 4292094720
3.0338016 -0.48034891 -0.1009757 4292225280
3.0331888 -0.48015419 -0.1187505 4292225280
3.0395274 -0.48105976 -0.13670208 4292225280
2.996804 -0.4742015 -0.15208894 4292094720
3.0271025 -0.47889829 -0.17094299 4292225280
3.0199578 -0.47767073 -0.18762949 4292225280
3.0170915 -0.47712022 -0.20432083 4292225280
3.0203042 -0.47753099 -0.22120239 4292225280
3.0418987 -0.4808473 -0.23932332 4292225280
3.0451186 -0.48125824 -0.25587079 4292355840
3.0599124 -0.48349774 -0.27320457 4292355840
2.9837513 -0.47136742 -0.28180122 4292094720
3.0259807 -0.4779413 -0.30108857 4292225280
3.0493417 -0.4815329 -0.31849417 4292355840
3.0412695 -0.48016027 -0.33233958 4292355840
3.0324512 -0.47867039 -0.34565303 4292225280
2.9201455 -0.46084896 -0.34622866 4291964160
3.0507927 -0.48136911 -0.37528929 4292355840
3.0465417 -0.48060027 -0.38789716 4292355840
3.0662749 -0.4836145 -0.40318605 4292355840
3.0594711 -0.48244292 -0.41458538 4292355840
3.0295548 -0.4776279 -0.4222405 4292355840
3.0182672 -0.47575119 -0.43185529 4292225280
3.0274813 -0.47710606 -0.44390279 4292355840
3.0313523 -0.47761849 -0.45470607 4292355840
3.0387518 -0.47868651 -0.46555528 4292355840
3.0321093 -0.47754255 -0.47372282 4292355840
3.0337415 -0.47770193 -0.48262313 4292355840
3.0339668 -0.47763973 -0.49074876 4292355840
3.0134268 -0.47430909 -0.49489862 4292225280
2.9955685 -0.47140175 -0.49882439 4292225280
3.0005803 -0.47209385 -0.50594985 4292225280
2.9885035 -0.47009754 -0.50959384 4292225280
2.931812 -0.46108547 -0.50491804 4291964160
2.9583657 -0.46516633 -0.51393384 4292094720
2.8840592 -0.4533897 -0.50477189 4291833600
2.8932803 -0.45474619 -0.50955313 4291833600
2.8928642 -0.45458767 -0.51205117 4291833600
2.8925469 -0.45444468 -0.5139671 4291833600
2.9010863 -0.45569292 -0.51685899 4291964160
2.8922143 -0.45420623 -0.51604527 4291833600
2.8776073 -0.45181966 -0.51360065 4291833600
2.9562073 -0.46406564 -0.52717733 4292094720
2.9242933 -0.45896167 -0.52042836 4291964160
2.9852872 -0.46843842 -0.52958131 4292225280
2.9822555 -0.46786669 -0.52672422 4292225280
2.9913695 -0.46920025 -0.52538979 4292225280
3.0175047 -0.47320247 -0.52639097 4292355840
3.0239413 -0.47411451 -0.52330142 4292355840
3.0281708 -0.47468016 -0.51920426 4292355840
3.0310259 -0.47503015 -0.51425523 4292355840
3.0324249 -0.47515181 -0.50845355 4292355840
3.033489 -0.47522089 -0.50200069 4292355840
3.0205576 -0.47309789 -0.49267891 4292355840
3.0072029 -0.47090936 -0.48278362 4292225280
3.0123765 -0.47162259 -0.47532624 4292225280
3.0282841 -0.47401562 -0.46895471 4292355840
3.0557535 -0.47821707 -0.46370322 4292355840
3.0572073 -0.4783462 -0.45388269 4292355840
3.033999 -0.47461721 -0.43995765 4292355840
3.0156028 -0.47164243 -0.42637604 4292225280
3.0171411 -0.47178587 -0.41518921 4292225280
3.0386367 -0.47504932 -0.40618792 4292355840
3.0409081 -0.47530654 -0.39406401 4292355840
3.0453143 -0.47589728 -0.38174483 4292355840
3.0042026 -0.46937597 -0.36345199 4292225280
3.0347519 -0.47405133 -0.35346368 4292355840
3.0423355 -0.47513804 -0.3402327 4292355840
3.0630994 -0.47828227 -0.32796258 4292355840
3.0330524 -0.47349301 -0.30993563 4292225280
3.0074856 -0.469405 -0.29229757 4292225280
3.0252545 -0.47208095 -0.27858537 4292225280
3.0303154 -0.47277316 -0.2632789 4292225280
3.0239031 -0.47167546 -0.24669382 4292225280
3.0128541 -0.46985507 -0.22955348 4292225280
3.0353496 -0.47326559 -0.21465421 4292225280
3.0387559 -0.47369888 -0.19802861 4292225280
3.025089 -0.47147107 -0.18013257 4292225280
2.8710375 -0.44736916 -0.1546341 4291703040
3.0381329 -0.47330847 -0.14618085 4292225280
3.0326514 -0.47235692 -0.12833749 4292225280
3.0021842 -0.46751484 -0.10950772 4292094720
3.0299208 -0.47173664 -0.092697568 4292225280
3.0508556 -0.47489786 -0.075292356 4292225280
3.0481734 -0.47438228 -0.057115294 4292225280
2.8799095 -0.44810298 -0.036793265 4291703040
3.047786 -0.47412583 -0.020726211 4292225280
3.0738671 -0.47808424 -0.0025135586 4292355840
3.0328524 -0.47160754 0.015667113 4292225280
2.8213668 -0.43863079 0.031440448 4291441920
3.0992897 -0.48173907 0.053027339 4292486400
3.0919743 -0.48050252 0.071291089 4292355840
2.997287 -0.46569139 0.086858913 4292094720
2.7961388 -0.43434882 0.097501837 4291441920
3.1017883 -0.48172826 0.12631537 4292486400
3.0880876 -0.4795011 0.14369637 4292355840
2.9336934 -0.45543322 0.15340592 4291833600
2.7571211 -0.42793304 0.15989314 4291311360
3.1108043 -0.48272815 0.19794481 4292486400
3.0980103 -0.48064315 0.21438418 4292486400
2.9198396 -0.45290679 0.21809509 4291833600
2.7718031 -0.42985514 0.22203812 4291311360
3.1295929 -0.485241 0.26736093 4292616960
3.111619 -0.48235407 0.2820991 4292486400
3.0178115 -0.4677152 0.28907594 4292225280
2.912092 -0.45123661 0.29357985 4291833600
2.7989058 -0.43360806 0.29591855 4291441920
3.1307287 -0.48491353 0.3460128 4292616960
3.0783761 -0.47670567 0.35460845 4292486400
2.9547329 -0.45746371 0.35378942 4291964160
2.8900867 -0.44736195 0.35879144 4291833600
2.8365643 -0.43898585 0.36425784 4291572480
3.1368544 -0.48535776 0.41575897 4292616960
3.1211662 -0.48282996 0.42608696 4292616960
3.0213084 -0.46728525 0.423998 4292225280
2.982934 -0.46125421 0.42953378 4292094720
2.89606 -0.44772762 0.42715228 4291833600
2.9318433 -0.45316538 0.44218954 4291964160
3.1170852 -0.48169735 0.47996616 4292616960
3.1074297 -0.48010528 0.48773772 4292616960
3.1025035 -0.47924435 0.495648 4292616960
3.0984969 -0.47852582 0.50310951 4292616960
3.0998085 -0.47862867 0.51084596 4292616960
3.0379045 -0.46897259 0.50743783 4292355840
3.0651963 -0.47308716 0.51825738 4292486400
2.9905305 -0.46146691 0.51115388 4292225280
2.9985096 -0.46260172 0.51745683 4292225280
3.0163169 -0.46525198 0.52489173 4292355840
3.0254483 -0.46656314 0.53024143 4292355840
3.0346756 -0.4678885 0.5350095 4292355840
3.0342669 -0.4677279 0.53746253 4292355840
3.0427232 -0.46893355 0.54086185 4292355840
3.0376568 -0.46805504 0.54122746 4292355840
3.0239375 -0.46584389 0.53941256 4292355840
3.0190854 -0.46499932 0.53854465 4292355840
3.0055792 -0.46282244 0.53550512 4292225280
3.0009382 -0.46201125 0.53342271 4292225280
3.0710697 -0.4727096 0.5439648 4292486400
3.0520391 -0.46968222 0.53804952 4292486400
3.0292096 -0.46607152 0.53087515 4292355840
3.0867133 -0.47481972 0.5371114 4292486400
3.0888951 -0.47505599 0.53301984 4292616960
3.1156273 -0.47906709 0.53249645 4292616960
3.1112165 -0.47828883 0.52599484 4292616960
3.1218858 -0.47982863 0.52141804 4292616960
3.1278808 -0.48064947 0.51542068 4292616960
3.1105361 -0.47788414 0.50500941 4292616960
3.1011734 -0.47634599 0.49537745 4292616960
3.0976157 -0.4756999 0.4861362 4292616960
3.1175518 -0.47866124 0.47997355 4292616960
3.1330938 -0.48094678 0.47247535 4292616960
3.1248157 -0.47957554 0.46082279 4292616960
3.0788286 -0.47187871 0.37602222 4292486400
3.1005659 -0.47511059 0.36481521 4292486400
3.1283133 -0.47926185 0.35368261 4292616960
3.1198246 -0.47786108 0.33797133 4292616960
3.0870116 -0.47273585 0.31944844 4292486400
3.0881355 -0.47280869 0.30423677 4292486400
3.1069443 -0.4755885 0.29032996 4292486400
3.0923629 -0.47325704 0.27296284 4292486400
3.0691433 -0.46960482 0.25473085 4292355840
3.074981 -0.4703992 0.23872213 4292355840
3.0925972 -0.47299466 0.22323915 4292486400
3.0925229 -0.47288385 0.20613974 4292486400
3.0631661 -0.46829638 0.18702856 4292355840
3.0892656 -0.4721871 0.17111641 4292355840
3.106111 -0.47466207 0.15426153 4292486400
3.1028543 -0.47406462 0.13616341 4292486400
3.0478613 -0.46556461 0.11598693 4292225280
3.0789781 -0.47021875 0.099099897 4292355840
3.0795116 -0.47020125 0.080935791 4292355840
3.0682378 -0.46838123 0.062437862 4292355840
3.0541329 -0.46612987 0.043965992 4292225280
3.0580101 -0.46662331 0.025766572 4292355840
3.065423 -0.4676559 0.0075018811 4292355840
3.032207 -0.46249104 -0.010715798 4292225280
3.0464702 -0.46456859 -0.028976126 4292225280
3.0565705 -0.4660106 -0.047310974 4292355840
3.0503678 -0.46496686 -0.065365627 4292225280
3.0311754 -0.46194392 -0.082920551 4292225280
3.0602622 -0.46627831 -0.10176425 4292355840
3.0734732 -0.46819243 -0.12021882 4292355840
3.0798085 -0.46905848 -0.13838845 4292355840
3.0330865 -0.46184519 -0.15379111 4292225280
3.0584664 -0.46561146 -0.17255802 4292355840
3.06512 -0.46652585 -0.19026332 4292355840
3.0484262 -0.46388698 -0.20625632 4292225280
3.038898 -0.46233937 -0.22236313 4292225280
3.0777268 -0.46814787 -0.24192341 4292355840
3.1000888 -0.47144967 -0.26025453 4292486400
3.0817773 -0.46856588 -0.27490839 4292355840
3.0199153 -0.45906308 -0.28495932 4292225280
3.0611827 -0.46523783 -0.30431637 4292355840
3.0756979 -0.46734494 -0.32095712 4292355840
3.0764525 -0.46736076 -0.33588102 4292355840
3.0685921 -0.466068 -0.34945709 4292355840
2.9512577 -0.44815201 -0.34960198 4291964160
3.086915 -0.46865252 -0.37939048 4292486400
3.1002994 -0.47058487 -0.39438599 4292486400
3.092571 -0.46931243 -0.4062773 4292486400
3.0906484 -0.46892133 -0.41843286 4292486400
3.0695052 -0.46561477 -0.42742318 4292486400
3.0542727 -0.46320596 -0.43661341 4292355840
3.0624998 -0.46435526 -0.44863307 4292355840
3.0663583 -0.46484178 -0.45954299 4292486400
3.0698388 -0.46527076 -0.46989471 4292486400
3.068063 -0.464903 -0.47890875 4292486400
3.0658605 -0.46447074 -0.48729402 4292486400
3.0631578 -0.46396285 -0.49502483 4292486400
3.0400436 -0.46036413 -0.49882096 4292355840
3.0304594 -0.4588154 -0.50418079 4292355840
3.0018461 -0.4543868 -0.50570834 4292225280
2.9586475 -0.44775277 -0.50404948 4292094720
2.9714887 -0.44960067 -0.51129133 4292094720
2.9057739 -0.43956429 -0.50434399 4291964160
2.9149065 -0.44085214 -0.50971258 4291964160
2.9280269 -0.44274241 -0.5152095 4291964160
2.942215 -0.44479322 -0.52031893 4292094720
2.9272835 -0.44244188 -0.51967245 4291964160
2.9368014 -0.44378608 -0.52275246 4292094720
2.9269459 -0.44220272 -0.5217737 4291964160
2.9181676 -0.44078276 -0.52037275 4291964160
2.9085186 -0.43923181 -0.51820791 4291964160
2.9639244 -0.44750372 -0.52700835 4292094720
2.9593525 -0.44671834 -0.52450997 4292094720
3.0316868 -0.45753989 -0.53497481 4292355840
3.031074 -0.45735005 -0.53188622 4292355840
3.0582139 -0.46134683 -0.5330146 4292486400
3.0579405 -0.46120733 -0.52871108 4292486400
3.0602181 -0.46145251 -0.52422917 4292486400
3.0668995 -0.46236148 -0.51987582 4292486400
3.06831 -0.46247554 -0.51400995 4292486400
3.069386 -0.46253911 -0.50748658 4292486400
3.055479 -0.46034521 -0.49792892 4292355840
3.0470076 -0.45897099 -0.48873636 4292355840
3.043793 -0.45838901 -0.47985393 4292355840
3.0740035 -0.46283987 -0.47560906 4292486400
3.0907595 -0.46526346 -0.46859598 4292486400
3.1020133 -0.46685788 -0.46012309 4292616960
3.0734906 -0.46246642 -0.44528604 4292486400
3.0461082 -0.45824835 -0.43030438 4292355840
3.0433552 -0.45773643 -0.41842246 4292355840
3.0648816 -0.46087563 -0.40933031 4292355840
3.0863523 -0.46400508 -0.39959592 4292486400
3.0696137 -0.46138996 -0.38444734 4292355840
3.040271 -0.45688185 -0.36748734 4292355840
3.0629926 -0.46019799 -0.35643461 4292355840
3.0741069 -0.46176907 -0.34347907 4292355840
3.078362 -0.46230936 -0.32930276 4292355840
3.0829873 -0.46290496 -0.31475735 4292486400
3.0426543 -0.45675129 -0.29545197 4292225280
3.0641363 -0.45987764 -0.28191435 4292355840
3.060607 -0.45924962 -0.2656737 4292355840
3.0463295 -0.4570094 -0.24830195 4292225280
3.053014 -0.45791417 -0.23240609 4292355840
3.0743001 -0.46100804 -0.21721508 4292355840
3.0700843 -0.46027726 -0.19989206 4292355840
3.0613508 -0.45886955 -0.18212953 4292355840
2.9071722 -0.43566614 -0.15644094 4291833600
3.059608 -0.45841175 -0.14708312 4292355840
3.0728998 -0.46030453 -0.12992504 4292355840
3.0335186 -0.454308 -0.11055225 4292225280
3.0800669 -0.46118027 -0.094147943 4292355840
3.080996 -0.46122041 -0.075968586 4292355840
3.0785725 -0.46075872 -0.057633616 4292355840
2.91115 -0.4356077 -0.037159331 4291833600
3.0930223 -0.46272272 -0.021015149 4292355840
3.1052814 -0.46445695 -0.0025369907 4292486400
3.0691743 -0.45895782 0.015840663 4292355840
2.8574986 -0.42721251 0.031814814 4291572480
3.1352298 -0.46863425 0.053594634 4292616960
3.1277406 -0.46741432 0.072051734 4292486400
3.0236762 -0.45176569 0.087545887 4292225280
2.8312404 -0.42292303 0.098638244 4291572480
3.1319551 -0.46774238 0.12743072 4292486400
3.1283727 -0.46710688 0.14544183 4292486400
2.9600024 -0.44187194 0.15464438 4291964160
2.7931399 -0.41687286 0.16183838 4291441920
3.1471252 -0.46960369 0.20007847 4292616960
3.1343224 -0.46759263 0.2167048 4292616960
2.9747066 -0.44368491 0.22199649 4292094720
2.8127139 -0.41943291 0.22511573 4291441920
3.1658759 -0.47199491 0.27022108 4292747520
3.1665883 -0.47199941 0.2868284 4292747520
3.0539641 -0.45511404 0.29228005 4292355840
2.9619136 -0.44130117 0.29833829 4291964160
2.7521803 -0.4099642 0.29072094 4291311360
3.1570985 -0.47017938 0.34861857 4292747520
3.1282732 -0.46578601 0.36003754 4292616960
2.9858332 -0.44448146 0.35719714 4292094720
2.934859 -0.43679902 0.36402762 4291964160
2.8763609 -0.4280003 0.36904183 4291703040
3.1778777 -0.47276372 0.42082399 4292747520
3.1349864 -0.46628225 0.42759553 4292616960
3.0670884 -0.45608497 0.43004239 4292486400
3.0188658 -0.44881716 0.43432394 4292225280
2.9456015 -0.4378303 0.43407571 4291964160
2.9813936 -0.44305471 0.4492659 4292094720
3.1618879 -0.4697758 0.48643512 4292747520
3.1434078 -0.4669292 0.49294943 4292747520
3.1307969 -0.46495542 0.49972683 4292616960
3.1134696 -0.46228218 0.50509477 4292616960
3.1259756 -0.46403867 0.51470399 4292616960
3.0923109 -0.45894197 0.51607025 4292486400
3.1010725 -0.46014276 0.52386111 4292616960
3.0351086 -0.45025745 0.51831615 4292355840
3.0479586 -0.45206591 0.52552688 4292355840
3.0569963 -0.45330822 0.53150201 4292486400
3.0651529 -0.45441929 0.53672695 4292486400
3.0841265 -0.45713317 0.54324889 4292486400
