# .PCD v0.7 - Point Cloud Data file format
VERSION 0.7
FIELDS x y z rgba
SIZE 4 4 4 4
TYPE F F F U
COUNT 1 1 1 1
WIDTH 1126
HEIGHT 1
VIEWPOINT 0 0 0 1 0 0 0
POINTS 1126
DATA ascii
1.1890218 1.321264 -0.31331182 4288047360
1.1889689 1.3212887 -0.313409 4288047360
1.1945616 1.3275877 -0.31462604 4288047360
1.2076912 1.3422642 -0.31745154 4288177920
1.2100823 1.3450068 -0.31707376 4288177920
1.2118059 1.3470076 -0.31614599 4288177920
1.2165226 1.3523359 -0.31562048 4288177920
1.223611 1.3603017 -0.31532225 4288177920
1.2143422 1.3500829 -0.31044722 4288177920
1.2191908 1.3555591 -0.3088268 4288177920
1.2308218 1.3685776 -0.30852258 4288177920
1.2242602 1.3613675 -0.3032878 4288177920
1.22492 1.3621873 -0.29950696 4288177920
1.2160907 1.3524539 -0.29308757 4288177920
1.213227 1.3493544 -0.28780863 4288177920
1.2070847 1.3426077 -0.28145534 4288047360
1.2072905 1.3429216 -0.27628204 4288047360
1.2011863 1.336216 -0.26937422 4288047360
1.2052968 1.3408732 -0.26445627 4288047360
1.2328001 1.371557 -0.26420841 4288177920
1.2196351 1.3569959 -0.25487334 4288177920
1.2066816 1.3426684 -0.24543488 4288047360
1.2047515 1.3406055 -0.23804341 4288047360
1.2147486 1.3518153 -0.23268996 4288177920
1.215336 1.3525544 -0.2252073 4288177920
1.2126052 1.3496006 -0.2168701 4288047360
1.207077 1.3435328 -0.20784342 4288047360
1.2109723 1.3479536 -0.20021665 4288047360
1.2287836 1.367866 -0.19451493 4288177920
1.21489 1.3524853 -0.18355246 4288047360
1.2001694 1.336182 -0.17246985 4288047360
1.2048553 1.3414837 -0.16405807 4288047360
1.2070081 1.3439656 -0.15506795 4288047360
1.2108184 1.3482934 -0.14607315 4288047360
1.2062918 1.3433378 -0.13591783 4288047360
1.2118782 1.3496441 -0.12674336 4288047360
1.2112955 1.3490804 -0.11674415 4288047360
1.2124789 1.3504838 -0.10678212 4288047360
1.2149873 1.3533633 -0.096788935 4288047360
1.2099562 1.3478442 -0.086110927 4288047360
1.2068858 1.344509 -0.07554739 4288047360
1.2123452 1.3506763 -0.065414384 4288047360
1.1943486 1.3307103 -0.054053653 4287916800
1.2074547 1.3453977 -0.044083316 4288047360
1.2175812 1.3567669 -0.033752207 4288047360
1.2226869 1.3625424 -0.023110725 4288177920
1.2191876 1.3587286 -0.012266825 4288047360
1.2268389 1.3673422 -0.0014843455 4288177920
1.2348566 1.3763651 0.0094387624 4288177920
1.2357736 1.3774741 0.02037728 4288177920
1.2425592 1.3851254 0.031459387 4288177920
1.2929597 1.4413997 0.044116106 4288439040
1.3999562 1.5607787 0.060038611 4288961280
1.391651 1.5516175 0.071817763 4288961280
1.3962967 1.5568957 0.084156282 4288961280
1.4011271 1.5623804 0.096497454 4289091840
1.3954698 1.5561703 0.10800585 4288961280
1.3658607 1.5232477 0.11724577 4288830720
1.3978083 1.5589752 0.13165979 4288961280
1.4051374 1.5672485 0.14393955 4289091840
1.3966738 1.5579069 0.15443677 4288961280
1.3597188 1.5167816 0.16125025 4288830720
1.4123186 1.5755569 0.17862666 4289091840
1.4128568 1.576257 0.18964188 4289091840
1.4012531 1.56341 0.1987351 4289091840
1.3872341 1.5478665 0.20707439 4288961280
1.3422728 1.4977936 0.21013457 4288830720
1.4144064 1.5783848 0.23147874 4289091840
1.4040705 1.5669496 0.23951009 4289091840
1.3986987 1.5610533 0.24801369 4289091840
1.3834841 1.5441703 0.25435928 4288961280
1.3652231 1.5238845 0.25964466 4288961280
1.409366 1.5732572 0.27666101 4289091840
1.3999709 1.5628684 0.28307047 4289091840
1.3906798 1.5525942 0.28907296 4289091840
1.3938136 1.5561912 0.29729477 4289091840
1.3816319 1.5426879 0.30186567 4288961280
1.3842762 1.5457381 0.30928156 4288961280
1.3988613 1.5621233 0.3190932 4289091840
1.3897326 1.5520272 0.32315773 4289091840
1.3829265 1.544524 0.32732245 4288961280
1.380258 1.541641 0.33205089 4288961280
1.3790517 1.5403911 0.33673319 4288961280
1.3787951 1.5402019 0.34125274 4288961280
1.3785207 1.5399927 0.34537071 4288961280
1.3772321 1.5386504 0.34882927 4288961280
1.3758748 1.5372312 0.3518579 4288961280
1.3682611 1.5288213 0.35285702 4288961280
1.3686458 1.5293478 0.35549164 4288961280
1.3716455 1.5327965 0.35839576 4288961280
1.371406 1.5326258 0.360039 4288961280
1.3714726 1.5327971 0.36134121 4288961280
1.3710687 1.5324427 0.36209637 4288961280
1.3709722 1.5324317 0.36250836 4288961280
1.367641 1.5288048 0.36164039 4288961280
1.3695537 1.5310396 0.36173484 4288961280
1.3742067 1.5363384 0.36212599 4288961280
1.3686742 1.53025 0.35941133 4288961280
1.375845 1.5383645 0.3596082 4288961280
1.3791337 1.5421392 0.358356 4289091840
1.3786823 1.541732 0.35570905 4288961280
1.3826939 1.5463157 0.35379058 4289091840
1.38446 1.5483887 0.35087219 4289091840
1.3894724 1.5540928 0.34835002 4289091840
1.3882203 1.5527905 0.34384242 4289091840
1.3881381 1.5527968 0.33922955 4289091840
1.3824136 1.546491 0.33286569 4289091840
1.3746142 1.5378633 0.32566804 4288961280
1.3713837 1.534346 0.31922057 4288961280
1.3876268 1.5526174 0.31688026 4289091840
1.4051476 1.5723209 0.31431413 4289091840
1.3996137 1.5662278 0.30617613 4289091840
1.375232 1.5398815 0.24924028 4288961280
1.3836248 1.549377 0.24159215 4288961280
1.4055779 1.5740595 0.23583555 4289091840
1.3964683 1.5639569 0.22451749 4289091840
1.3685567 1.5327946 0.2101907 4288961280
1.3766372 1.5419424 0.20129913 4288961280
1.3945903 1.56215 0.19343328 4289091840
1.3858889 1.5525014 0.18158796 4288961280
1.3573883 1.5206704 0.16723751 4288830720
1.3689412 1.53371 0.15776849 4288961280
1.3775171 1.5434158 0.14762154 4288961280
1.3732209 1.5386996 0.13589893 4288961280
1.3665476 1.5313188 0.12388272 4288830720
1.3035742 1.4608449 0.10721204 4288569600
1.2467225 1.3972225 0.091940284 4288308480
1.2354792 1.3847096 0.080511108 4288177920
1.2208513 1.3684014 0.068996392 4288177920
1.2356298 1.3850535 0.059065972 4288177920
1.2334784 1.3827294 0.048151761 4288177920
1.2209927 1.3688196 0.036910195 4288177920
1.2135416 1.3605523 0.025956089 4288047360
1.2069237 1.3532184 0.015115594 4288047360
1.207047 1.3534422 0.0044000503 4288047360
1.1927873 1.3375375 -0.0062478432 4288047360
1.1974677 1.3428708 -0.016903838 4288047360
1.2033273 1.3495274 -0.027652496 4288047360
1.2099367 1.3570256 -0.038499676 4288047360
1.1969566 1.3425524 -0.048626859 4288047360
1.2116858 1.3591592 -0.059842732 4288047360
1.2156988 1.3637469 -0.070629433 4288177920
1.2246044 1.3738239 -0.081736647 4288177920
1.2048568 1.3517555 -0.090751231 4288047360
1.2077765 1.355117 -0.10123083 4288047360
1.2183105 1.3670224 -0.11235262 4288177920
1.2114868 1.3594519 -0.12178393 4288047360
1.2124811 1.3606538 -0.13182046 4288047360
1.2185854 1.3675904 -0.14232652 4288177920
1.2245227 1.3743407 -0.15275432 4288177920
1.2209237 1.370388 -0.16184449 4288177920
1.2159843 1.3649303 -0.17051347 4288177920
1.2162273 1.3652893 -0.17968553 4288177920
1.2179589 1.3673197 -0.18889387 4288177920
1.2248988 1.3751976 -0.19876352 4288177920
1.2196058 1.3693419 -0.2064404 4288177920
1.1955494 1.3424168 -0.21051061 4288047360
1.2221931 1.3724203 -0.22328547 4288177920
1.2248156 1.3754522 -0.23161487 4288177920
1.2273012 1.3783307 -0.23969056 4288177920
1.2232339 1.3738497 -0.24620762 4288177920
1.2111859 1.3604044 -0.25074673 4288177920
1.2063427 1.3550502 -0.2563974 4288177920
1.2134362 1.3631043 -0.26430458 4288177920
1.2116657 1.3612016 -0.2700085 4288177920
1.2166996 1.3669431 -0.27693546 4288177920
1.2228272 1.3739144 -0.28384593 4288177920
1.2203981 1.3712717 -0.28846169 4288177920
1.2078024 1.3572049 -0.29028216 4288177920
1.2144245 1.3647323 -0.296361 4288177920
1.2073559 1.3568747 -0.29875672 4288177920
1.2041837 1.3533953 -0.30173656 4288177920
1.2039682 1.3532387 -0.30509663 4288177920
1.2016838 1.3507565 -0.30757138 4288177920
1.1938088 1.3419895 -0.30823377 4288047360
1.1843512 1.3314422 -0.30809218 4288047360
1.1752497 1.3212938 -0.30765033 4288047360
1.1841983 1.3314388 -0.31157112 4288047360
1.1840205 1.3313231 -0.31273812 4288047360
1.1838839 1.3312538 -0.31354976 4288047360
1.1746268 1.320928 -0.31157491 4288047360
1.1899567 1.3382517 -0.31575465 4288047360
1.1958246 1.344936 -0.31705406 4288047360
1.1905535 1.3390925 -0.31503037 4288047360
1.1955454 1.3447922 -0.31535205 4288047360
1.2020085 1.3521477 -0.31568113 4288177920
1.208158 1.3591512 -0.31554231 4288177920
1.2083824 1.3594897 -0.3134779 4288177920
1.2145989 1.3665701 -0.31258878 4288177920
1.210526 1.3620737 -0.30868384 4288177920
1.2135165 1.3655249 -0.3062222 4288177920
1.2194459 1.3722841 -0.30412063 4288177920
1.2043692 1.3554033 -0.29645848 4288177920
1.2124749 1.364612 -0.29417947 4288177920
1.2052071 1.356518 -0.28782919 4288177920
1.1958236 1.3460414 -0.28070727 4288047360
1.1927437 1.3426597 -0.27479342 4288047360
1.1932441 1.343308 -0.26939964 4288047360
1.2006121 1.351688 -0.26520923 4288047360
1.2154447 1.3684738 -0.26225233 4288177920
1.2127162 1.3654882 -0.2551457 4288177920
1.1954108 1.3460879 -0.24479362 4288047360
1.1959805 1.3468146 -0.23791789 4288047360
1.2034202 1.3552784 -0.23209094 4288047360
1.2072961 1.3597294 -0.22524507 4288177920
1.2045829 1.3567594 -0.21690945 4288047360
1.195793 1.3469443 -0.20731254 4288047360
1.1988562 1.3504803 -0.19957612 4288047360
1.214051 1.3676833 -0.19350755 4288177920
1.2068505 1.3596576 -0.1835984 4288047360
1.1953604 1.3467979 -0.17297019 4288047360
1.1953864 1.3469124 -0.1639017 4288047360
1.2015203 1.3539095 -0.15544164 4288047360
1.2028043 1.3554422 -0.14612493 4288047360
1.1890415 1.3400176 -0.13491945 4288047360
1.2003751 1.3528758 -0.1264313 4288047360
1.203277 1.3562323 -0.11680003 4288047360
1.2110772 1.3651104 -0.10742698 4288177920
1.2069438 1.3605373 -0.096847482 4288047360
1.2052598 1.3587251 -0.086407982 4288047360
1.1929283 1.3449085 -0.075231485 4288047360
1.2010026 1.3540971 -0.065295838 4288047360
1.1912429 1.3431785 -0.054334465 4288047360
1.1934898 1.3457969 -0.043926947 4288047360
1.2062018 1.3602173 -0.0337242 4288047360
1.2112733 1.3660228 -0.023113213 4288047360
1.2062963 1.3604962 -0.012284068 4288047360
1.2187144 1.3745886 -0.0015517006 4288177920
1.2234085 1.3799703 0.0093454225 4288177920
1.2242727 1.3810326 0.020253519 4288177920
1.2341847 1.3923018 0.031386018 4288177920
1.2843962 1.4490378 0.044043269 4288439040
1.3906838 1.5690494 0.059959482 4288961280
1.3782833 1.5551567 0.071523577 4288961280
1.3843971 1.5621542 0.083916441 4288961280
1.3852209 1.5631826 0.095959105 4288961280
1.3802651 1.5576887 0.10746282 4288961280
1.3568127 1.5313185 0.11716875 4288830720
1.3918576 1.5709702 0.1318949 4289091840
1.3840648 1.5622735 0.14264868 4288961280
1.3757166 1.5529486 0.15305719 4288961280
1.3348559 1.5069193 0.1592837 4288700160
1.3996576 1.580174 0.1781294 4289091840
1.4034956 1.5846071 0.18956593 4289091840
1.3886679 1.5679654 0.19818975 4289091840
1.3681458 1.5448914 0.2055154 4288961280
1.3267841 1.4982811 0.2090268 4288700160
1.3984429 1.5793022 0.230322 4289091840
1.3947653 1.5752487 0.23944071 4289091840
1.3749436 1.5529605 0.24536127 4288961280
1.3710245 1.5486319 0.25368536 4288961280
1.3502654 1.5252802 0.25845116 4288830720
1.3901653 1.5704511 0.2746506 4289091840
1.3847784 1.5644647 0.28180707 4289091840
1.3791034 1.558152 0.28852206 4289091840
1.3780107 1.557016 0.29583028 4289091840
1.3724706 1.5508543 0.30181253 4288961280
1.3718194 1.5502166 0.30849367 4288961280
1.3764817 1.5555836 0.31603587 4289091840
1.3706931 1.5491399 0.3208127 4288961280
1.3711356 1.5497382 0.32665551 4288961280
1.3711021 1.5497984 0.33201048 4288961280
1.3725189 1.5514981 0.33733857 4288961280
1.3663788 1.544655 0.34040377 4288961280
1.3661064 1.5444449 0.344515 4288961280
1.3648267 1.5430957 0.34796789 4288961280
1.3667437 1.545361 0.35183242 4288961280
1.3617913 1.5398588 0.35351279 4288961280
1.3562971 1.5337435 0.35461938 4288961280
1.3560138 1.53352 0.35666364 4288961280
1.3623008 1.5407275 0.36002672 4288961280
1.3555847 1.533229 0.35953385 4288961280
1.3619639 1.5405416 0.362091 4288961280
1.3553443 1.5331511 0.36077031 4288961280
1.358557 1.5368825 0.36164218 4288961280
1.3578469 1.5361766 0.36104652 4288961280
1.3592067 1.5378122 0.36057776 4288961280
1.3595803 1.5383323 0.35942408 4288961280
1.3634405 1.5427977 0.35876644 4288961280
1.364096 1.5436373 0.35684025 4288961280
1.3616902 1.5410123 0.35369971 4288961280
1.3637121 1.5433983 0.35129654 4288961280
1.3719919 1.5528673 0.35007125 4289091840
1.3769691 1.5585994 0.34756181 4289091840
1.3723145 1.553429 0.34221759 4289091840
1.378907 1.5609905 0.33927318 4289091840
1.3732196 1.5546505 0.33291295 4289091840
1.3595862 1.5393133 0.32431501 4288961280
1.3586001 1.5382944 0.31841698 4288961280
1.3692337 1.5504324 0.31483254 4288961280
1.3892519 1.5731995 0.31290299 4289091840
1.3844062 1.5678115 0.30494463 4289091840
1.3573469 1.5371757 0.24756236 4288961280
1.3781732 1.5608599 0.24216878 4288961280
1.3901224 1.5744927 0.23472285 4289091840
1.3843571 1.5680621 0.22398196 4289091840
1.3566198 1.5367414 0.20967765 4288830720
1.3646473 1.5459325 0.20080905 4288961280
1.3765545 1.5595202 0.19213881 4288961280
1.3705407 1.5528054 0.1807107 4288961280
1.3455143 1.5245475 0.1668195 4288830720
1.3602912 1.5413882 0.15775789 4288961280
1.3610616 1.5423586 0.14677365 4288961280
1.371145 1.5538837 0.13654299 4288961280
1.351307 1.5314988 0.12326556 4288830720
1.2893898 1.4614178 0.10670462 4288569600
1.2322346 1.3967254 0.091433935 4288177920
1.2200052 1.382951 0.079991378 4288177920
1.2190832 1.3819934 0.06931641 4288177920
1.2179008 1.3807404 0.058569252 4288177920
1.218233 1.3812046 0.0478383 4288177920
1.2119522 1.3741705 0.036847975 4288177920
1.2025611 1.3636088 0.025861798 4288047360
1.2059053 1.3674874 0.015174566 4288047360
1.2016642 1.3627644 0.0043828203 4288047360
1.1819365 1.3404768 -0.0062566185 4287916800
1.1898934 1.3495865 -0.016931335 4288047360
1.1957154 1.3562757 -0.027681211 4288047360
1.2045325 1.3663633 -0.038601708 4288047360
1.1893837 1.3492647 -0.048657451 4288047360
1.201655 1.363272 -0.059757099 4288047360
1.2111394 1.3741189 -0.070845664 4288177920
1.2093539 1.3721801 -0.081266657 4288177920
1.1912884 1.3517678 -0.090334862 4288047360
1.2026283 1.3647217 -0.10147655 4288047360
1.2091062 1.3721597 -0.11225015 4288177920
1.2151653 1.3791231 -0.12296873 4288177920
1.205955 1.368757 -0.13198334 4288177920
1.2087241 1.3719869 -0.14211191 4288177920
1.2225538 1.3877723 -0.15351896 4288177920
1.2187253 1.3835142 -0.16262123 4288177920
1.2084278 1.371911 -0.1705723 4288177920
1.2129605 1.3771442 -0.18038385 4288177920
1.2170968 1.3819278 -0.19000229 4288177920
1.2171397 1.3820641 -0.19880238 4288177920
1.211025 1.375208 -0.20633334 4288177920
1.1898868 1.3512896 -0.21088699 4288047360
1.2188736 1.3842961 -0.22413705 4288177920
1.2170547 1.3823178 -0.23165254 4288177920
1.2169029 1.3822329 -0.2392125 4288177920
1.2143301 1.3793979 -0.24601071 4288177920
1.2028575 1.3664525 -0.25064614 4288177920
1.1998378 1.3631084 -0.25667584 4288177920
1.2024754 1.3661915 -0.26362145 4288177920
1.2007174 1.3642806 -0.26930812 4288177920
1.2059968 1.3703659 -0.27628201 4288177920
1.209199 1.3740914 -0.28250352 4288177920
1.2096299 1.3746682 -0.28776959 4288177920
1.2018729 1.3659395 -0.29072741 4288177920
1.1966761 1.3601195 -0.29391882 4288177920
1.1990994 1.3629601 -0.29863107 4288177920
1.199441 1.3634347 -0.30248833 4288177920
1.1911312 1.3540745 -0.30379015 4288177920
1.1875521 1.3500913 -0.30591246 4288047360
1.187474 1.350088 -0.30857113 4288047360
1.1800939 1.3417823 -0.30895796 4288047360
1.1798369 1.341575 -0.31083417 4288047360
1.1675807 1.3277228 -0.30916905 4288047360
1.1706573 1.3313057 -0.31118914 4288047360
1.170522 1.3312362 -0.31199428 4288047360
1.1824622 1.3449011 -0.31565747 4288047360
1.1759063 1.3375293 -0.31401762 4288047360
1.1849881 1.3479447 -0.31618324 4288047360
1.1924988 1.3565742 -0.31755328 4288177920
1.1925219 1.3566865 -0.31655356 4288177920
1.18788 1.3514912 -0.31395027 4288047360
1.1907374 1.3548278 -0.31296286 4288177920
1.2007167 1.366269 -0.31345969 4288177920
1.1988575 1.3642399 -0.31048608 4288177920
1.2028464 1.3688657 -0.3086592 4288177920
1.2023951 1.3684388 -0.30532509 4288177920
1.2019421 1.3680099 -0.30163798 4288177920
1.1967282 1.362162 -0.29642415 4288177920
1.2047824 1.3714164 -0.29414153 4288177920
1.1954381 1.3608661 -0.28727806 4288177920
1.1856279 1.3497838 -0.280047 4288047360
1.1861038 1.3504112 -0.27496111 4288047360
1.1866012 1.351063 -0.26955971 4288047360
1.1882563 1.3530333 -0.26410168 4288047360
1.204466 1.3715776 -0.26148453 4288177920
1.1984856 1.364854 -0.25370023 4288177920
1.1910936 1.3565217 -0.24540246 4288047360
1.1825033 1.3468238 -0.23667155 4288047360
1.1866205 1.3515987 -0.23024134 4288047360
1.2040489 1.3715371 -0.22599833 4288177920
1.1910414 1.3568062 -0.21576273 4288047360
1.1880589 1.3534944 -0.20720609 4288047360
1.1945239 1.3609459 -0.20004022 4288047360
1.1971596 1.3640352 -0.19194585 4288047360
1.2036141 1.3714763 -0.18418381 4288177920
1.1812046 1.3460268 -0.17192048 4288047360
1.1818837 1.346886 -0.16298932 4288047360
1.1879756 1.3539141 -0.15457155 4288047360
1.1951649 1.3621941 -0.14602135 4288047360
1.1832896 1.3487446 -0.13501975 4288047360
1.1927497 1.3596137 -0.12632242 4288047360
1.2022133 1.3704879 -0.11733051 4288047360
1.1967994 1.3644028 -0.1067249 4288047360
1.2017097 1.3700876 -0.096926823 4288047360
1.1910138 1.3579791 -0.085814178 4288047360
1.1943992 1.3619254 -0.075684935 4288047360
1.1927557 1.3601375 -0.065139279 4288047360
1.1810337 1.3468559 -0.054089706 4288047360
1.1857314 1.3522989 -0.043794595 4288047360
1.1952358 1.3632249 -0.033502709 4288047360
1.2020204 1.3710499 -0.022952413 4288047360
1.1986235 1.367262 -0.012151984 4288047360
1.2108175 1.381259 -0.0014168142 4288177920
1.2182615 1.3898389 0.0095023485 4288177920
1.2224659 1.3947239 0.020491237 4288177920
1.2230352 1.395462 0.031440657 4288177920
1.2705696 1.4497896 0.043993261 4288439040
1.3785372 1.5730864 0.059974439 4288961280
1.3703388 1.56383 0.071724229 4288961280
1.3755822 1.5699134 0.08407446 4288961280
1.379691 1.5747025 0.096347004 4288961280
1.3747647 1.5691793 0.10787823 4288961280
1.3422493 1.5321627 0.11680755 4288830720
1.3764143 1.5712614 0.13142432 4288961280
1.3777322 1.5728654 0.14306235 4288961280
1.3636647 1.5569043 0.15284246 4288961280
1.3355343 1.5248842 0.16053547 4288830720
1.3940192 1.5917619 0.17870347 4289091840
1.3912683 1.5887215 0.18927148 4289091840
1.376536 1.5719979 0.19786669 4288961280
1.359423 1.5525534 0.20565933 4288961280
1.309908 1.4960989 0.20782876 4288700160
1.3895252 1.5871333 0.230464 4289091840
1.3799801 1.5763307 0.23856121 4289091840
1.3661743 1.5606595 0.24549499 4288961280
1.3557421 1.5488404 0.25259742 4288961280
1.3383853 1.5291084 0.25794625 4288830720
1.378032 1.5745046 0.27412573 4289091840
1.375944 1.5722185 0.28192729 4289091840
1.3703048 1.5658742 0.28863767 4289091840
1.3658159 1.5608437 0.29520604 4288961280
1.3637134 1.5585397 0.30191877 4288961280
1.3532968 1.546733 0.30638343 4288961280
1.3676983 1.563292 0.31613284 4289091840
1.3651997 1.5605351 0.32167071 4288961280
1.3591342 1.5537003 0.32596189 4288961280
1.3591022 1.5537622 0.33129898 4288961280
1.3514141 1.5450709 0.33435923 4288961280
1.3518133 1.5456253 0.3390069 4288961280
1.3508955 1.5446739 0.34292993 4288961280
1.3528717 1.5470314 0.34719208 4288961280
1.345693 1.5389202 0.34868872 4288961280
1.3472629 1.540813 0.35203165 4288961280
1.3476424 1.5413449 0.35465714 4288961280
1.3538452 1.5485375 0.35841137 4288961280
1.3536081 1.5483644 0.36005121 4288961280
1.350432 1.5448292 0.36048484 4288961280
1.3467923 1.5407634 0.36036739 4288961280
1.3499373 1.5444592 0.361642 4288961280
1.340816 1.5341208 0.35920787 4288961280
1.3427032 1.5363774 0.35930148 4288961280
1.3472948 1.5417291 0.35969448 4288961280
1.3418328 1.5355761 0.35698444 4288961280
1.3515017 1.5467392 0.35787511 4288961280
1.3553944 1.5512927 0.35679963 4288961280
1.3510567 1.5464261 0.35314256 4288961280
1.3491765 1.544372 0.34972772 4288961280
1.3574024 1.5538864 0.34850851 4288961280
1.3616977 1.5589023 0.34584206 4288961280
1.3637035 1.5612975 0.34217402 4289091840
1.3675151 1.5657607 0.33854297 4289091840
1.3670592 1.565338 0.33345205 4289091840
1.3541635 1.5506703 0.32499346 4288961280
1.3401855 1.5347612 0.3160094 4288961280
1.3539984 1.5506779 0.31321135 4288961280
1.3745368 1.5742993 0.31145006 4289091840
1.3788304 1.5793172 0.30553228 4289091840
1.350824 1.5481851 0.24804176 4288961280
1.3597564 1.5585214 0.24055193 4288961280
1.3742335 1.5752146 0.23361325 4289091840
1.3717715 1.5724924 0.22345118 4288961280
1.3474885 1.5447541 0.20967978 4288830720
1.3521901 1.5502424 0.20032714 4288961280
1.3672878 1.5676507 0.19214219 4288961280
1.3568978 1.5558369 0.18012848 4288961280
1.3430059 1.5400059 0.16764176 4288830720
1.3478557 1.545665 0.15738061 4288830720
1.3628732 1.5629857 0.14797139 4288961280
1.3586329 1.5582216 0.13622098 4288961280
1.3389268 1.5357181 0.12297165 4288830720
1.2807059 1.4690332 0.10671228 4288569600
1.2239351 1.4040033 0.091441914 4288177920
1.2117875 1.3901566 0.079999916 4288177920
1.2049619 1.382414 0.068987258 4288177920
1.2121794 1.3907827 0.058699314 4288177920
1.2067419 1.3846318 0.047718894 4288177920
1.1999028 1.3768718 0.036740076 4288047360
1.1944586 1.3707117 0.025873354 4288047360
1.1976104 1.3744156 0.015184613 4288047360
1.1909391 1.3668462 0.0043858876 4288047360
1.1739715 1.3474579 -0.0062435148 4287916800
1.181705 1.3564203 -0.016915161 4288047360
1.1817456 1.356553 -0.027529154 4288047360
1.1905037 1.3666933 -0.038396101 4288047360
1.1903895 1.3666488 -0.049013656 4288047360
1.1902728 1.3666016 -0.059576884 4288047360
1.1996936 1.3775053 -0.070635945 4288177920
1.2029393 1.3813196 -0.081367314 4288177920
1.1824574 1.3578868 -0.09025678 4288047360
1.1912415 1.3680607 -0.10118051 4288047360
1.1950548 1.3725272 -0.11168087 4288047360
1.1995316 1.3777562 -0.12219245 4288177920
1.1952033 1.3728719 -0.1316762 4288047360
1.2038461 1.3828871 -0.14248049 4288177920
1.2077657 1.3874778 -0.15267263 4288177920
1.2072358 1.3869569 -0.16216268 4288177920
1.1937404 1.3715395 -0.16962421 4288047360
1.1982454 1.3768029 -0.17938636 4288177920
1.2030097 1.3823649 -0.18905923 4288177920
1.2115396 1.3922547 -0.19921222 4288177920
1.201683 1.3810155 -0.20611304 4288177920
1.1831712 1.3598274 -0.21110231 4288047360
1.2073919 1.3877524 -0.22351485 4288177920
1.2055866 1.3857653 -0.23100978 4288177920
1.2054371 1.3856814 -0.23854993 4288177920
1.2022781 1.3821378 -0.24520579 4288177920
1.1973969 1.3766137 -0.25118586 4288177920
1.194989 1.3739326 -0.25735837 4288177920
1.191112 1.3695619 -0.26288795 4288177920
1.1937449 1.3726763 -0.26954755 4288177920
1.1978558 1.3774908 -0.27626631 4288177920
1.1945509 1.3737774 -0.28096312 4288177920
1.1988704 1.3788326 -0.28713417 4288177920
1.1927236 1.3718501 -0.29046187 4288177920
1.1950721 1.3746384 -0.29550743 4288177920
1.1910022 1.370044 -0.29861909 4288177920
1.1881052 1.3667982 -0.30165571 4288177920
1.1863211 1.3648324 -0.30461058 4288177920
1.1762975 1.3533864 -0.30506477 4288047360
1.1762203 1.3533833 -0.30771732 4288047360
1.1779295 1.355436 -0.31048173 4288047360
1.168635 1.3448262 -0.30997127 4288047360
1.1564616 1.3309019 -0.30830315 4288047360
1.1627473 1.3382206 -0.31118563 4288047360
1.1593826 1.3344328 -0.31112531 4288047360
1.1712418 1.3481681 -0.31478852 4288047360
1.1711881 1.348192 -0.31488615 4288047360
1.1711661 1.3482521 -0.31462342 4288047360
1.1779794 1.3561816 -0.31582478 4288047360
1.1812308 1.3600112 -0.31569499 4288177920
1.1830788 1.3622254 -0.3148157 4288177920
1.1827368 1.361918 -0.31298372 4288177920
1.1925975 1.3733598 -0.31346881 4288177920
1.1955007 1.3767904 -0.31173545 4288177920
1.2014054 1.3836782 -0.31040099 4288177920
1.1877967 1.3680917 -0.30368593 4288177920
1.190578 1.3713822 -0.30083644 4288177920
1.1918674 1.3729545 -0.29724807 4288177920
1.1901598 1.3710746 -0.29256958 4288177920
1.190587 1.3716538 -0.28808185 4288177920
1.1743672 1.353053 -0.2792989 4288047360
1.1882784 1.3691678 -0.27736595 4288177920
1.1785709 1.3580687 -0.26958516 4288047360
1.1892928 1.3705105 -0.26616064 4288177920
1.1995573 1.3824269 -0.26222295 4288177920
1.1871277 1.3681892 -0.25303939 4288177920
1.1742139 1.3533916 -0.24360579 4288047360
1.1780208 1.3578657 -0.23741546 4288047360
1.1818365 1.3623503 -0.23091201 4288047360
1.1926448 1.3748968 -0.22542168 4288177920
1.1899667 1.3718964 -0.21707711 4288177920
1.176759 1.3567556 -0.2066752 4288047360
1.1808486 1.3615572 -0.19914082 4288047360
1.1890517 1.3711027 -0.19199014 4288047360
1.1922028 1.3748235 -0.18372767 4288177920
1.1789303 1.3596041 -0.17280665 4288047360
1.1830115 1.3643975 -0.16430619 4288047360
1.1831914 1.3646916 -0.15504925 4288047360
1.1862725 1.3683321 -0.14597522 4288047360
1.1752731 1.3557305 -0.13507243 4288047360
1.182055 1.3636404 -0.12609805 4288047360
1.191076 1.3741344 -0.1170926 4288047360
1.1919593 1.3752408 -0.10707579 4288047360
1.1891216 1.372054 -0.096624292 4288047360
1.1829431 1.3650116 -0.085873485 4288047360
1.1804165 1.3621824 -0.075369507 4288047360
1.1846725 1.3671807 -0.065200806 4288047360
1.1756939 1.356905 -0.054274578 4288047360
1.1809684 1.3630788 -0.043979518 4288047360
1.1902397 1.3738672 -0.033654876 4288047360
1.1938733 1.3781488 -0.023017939 4288047360
1.1904993 1.3743412 -0.01221803 4288047360
1.1993366 1.3846312 -0.0014801287 4288177920
1.2100035 1.3970348 0.0094340174 4288177920
1.210906 1.3981656 0.020367131 4288177920
1.2147444 1.4026866 0.031371169 4288177920
1.2652285 1.4610742 0.044034626 4288439040
1.3626484 1.5736736 0.059609253 4288961280
1.3610486 1.5719259 0.07164558 4288961280
1.3585752 1.5691689 0.083523236 4288961280
1.3637985 1.5753018 0.095808461 4288961280
1.3556391 1.5659765 0.10702539 4288961280
1.3357619 1.5431131 0.11695971 4288830720
1.3644688 1.5763763 0.13109501 4288961280
1.3626566 1.5743825 0.14238535 4288961280
1.3503052 1.5602112 0.15230204 4288961280
1.333001 1.5403148 0.16125025 4288830720
1.3813053 1.596233 0.17820604 4289091840
1.3797109 1.5944917 0.18890518 4289091840
1.3613374 1.5733578 0.19694456 4288961280
1.3502028 1.5605881 0.20558737 4288961280
1.3042768 1.5076019 0.20828015 4288700160
1.3742465 1.5885799 0.22941585 4289091840
1.3706189 1.5844873 0.23849215 4289091840
1.3588576 1.5709904 0.24578106 4288961280
1.343298 1.5531003 0.25192383 4288961280
1.3351356 1.5437611 0.2590152 4288830720
1.3686819 1.5826499 0.27406356 4289091840
1.3633664 1.5766034 0.28119868 4289091840
1.3577665 1.5702275 0.28789303 4288961280
1.3599265 1.5728253 0.29588589 4289091840
1.3453972 1.5561204 0.29984632 4288961280
1.3473457 1.5584729 0.3070702 4288961280
1.3558282 1.5683842 0.31548259 4288961280
1.3494697 1.5611279 0.32009202 4288961280
1.3531367 1.5654694 0.32669863 4288961280
1.3466461 1.5580593 0.33046648 4288961280
1.3422376 1.5530573 0.33432195 4288961280
1.3484395 1.5603324 0.34043837 4288961280
1.3359168 1.5459402 0.34141517 4288961280
1.3346571 1.5445805 0.34483171 4288961280
1.3429968 1.5543306 0.35034475 4288961280
1.3413317 1.552502 0.35285702 4288961280
1.3359096 1.5463246 0.3539556 4288961280
1.3356297 1.5460987 0.35599262 4288961280
1.3379704 1.5489067 0.35831457 4288961280
1.337781 1.5487857 0.35954264 4288961280
1.3314546 1.5415595 0.35869625 4288961280
1.3349674 1.5457247 0.36007762 4288961280
1.3349189 1.5457666 0.3600778 4288961280
1.3367921 1.5480341 0.360174 4288961280
1.3413516 1.5534128 0.3605687 4288961280
1.3352822 1.546482 0.35768691 4288961280
1.3423095 1.5547194 0.35789165 4288961280
1.3429552 1.5555662 0.3559666 4288961280
1.3360695 1.5476886 0.35164112 4288961280
1.3399972 1.5523371 0.34975553 4288961280
1.3449446 1.5581675 0.34770745 4288961280
1.3466311 1.5602204 0.34439445 4288961280
1.3544225 1.5693471 0.34221366 4289091840
1.3517587 1.5663602 0.33697903 4288961280
1.3487225 1.5629412 0.33128121 4288961280
1.3384916 1.5511838 0.32348466 4288961280
1.3342887 1.5464113 0.3168298 4288961280
1.3512371 1.5661536 0.31477404 4288961280
1.3651766 1.5824107 0.31151301 4289091840
1.3662083 1.5837073 0.30487794 4289091840
1.3327043 1.545503 0.24636383 4288830720
1.3506531 1.5664171 0.24055193 4288961280
1.3682774 1.5869578 0.23416857 4289091840
1.3599895 1.5774455 0.22302529 4288961280
1.33197 1.5450439 0.2086622 4288830720
1.340678 1.5552437 0.19996065 4288961280
1.3581311 1.5755901 0.19214219 4288961280
1.3413061 1.5561701 0.17925924 4288961280
1.3249013 1.5372351 0.16649701 4288830720
1.3363662 1.5506358 0.15709129 4288830720
1.3402362 1.5552251 0.14649495 4288830720
1.3430176 1.5585518 0.13556349 4288961280
1.324587 1.5372609 0.12247515 4288830720
1.2753842 1.4802523 0.10698565 4288569600
1.2157344 1.4111104 0.091441914 4288177920
1.2036676 1.3971932 0.079999916 4288177920
1.1968871 1.3894109 0.068987258 4288177920
1.2040559 1.3978215 0.058699314 4288177920
1.201748 1.3952309 0.047842059 4288177920
1.1942024 1.3865584 0.036812268 4288177920
1.1897148 1.3814359 0.025944501 4288047360
1.1804471 1.3707618 0.015068004 4288047360
1.1818078 1.3724289 0.0043816324 4288047360
1.1720194 1.3611481 -0.0062752026 4288047360
1.1672578 1.3557043 -0.016821139 4287916800
1.1640364 1.3520489 -0.027299657 4287916800
1.1781123 1.3684851 -0.038252957 4288047360
1.1732767 1.3629547 -0.048635185 4288047360
1.1822906 1.3735131 -0.059576884 4288047360
1.1851289 1.3768981 -0.070249543 4288047360
1.1948711 1.3883048 -0.081367314 4288177920
1.1745261 1.364753 -0.09025678 4288047360
1.1773893 1.3681668 -0.10067929 4288047360
1.1902931 1.3832494 -0.11198712 4288177920
1.1940873 1.3877468 -0.12245941 4288177920
1.1871843 1.3798121 -0.1316762 4288047360
1.1866654 1.3792967 -0.14139581 4288047360
1.2029111 1.3982682 -0.1530862 4288177920
1.2012402 1.3964146 -0.16244742 4288177920
1.1922222 1.3860196 -0.17055306 4288177920
1.1902035 1.3837607 -0.17938636 4288177920
1.1975299 1.392367 -0.18946972 4288177920
1.1975729 1.3925055 -0.19824637 4288177920
1.1915412 1.3855799 -0.20575467 4288177920
1.177163 1.3689474 -0.21144979 4288047360
1.1966972 1.3917526 -0.22303237 4288177920
1.2018548 1.3978397 -0.23185135 4288177920
1.1997879 1.3955244 -0.23903696 4288177920
1.1976655 1.3931442 -0.24591632 4288177920
1.1942573 1.389268 -0.25222096 4288177920
1.182611 1.3758074 -0.25641456 4288177920
1.1895635 1.3839836 -0.26432139 4288177920
1.1878264 1.3820505 -0.27002478 4288177920
1.1895374 1.3841293 -0.27620304 4288177920
1.1865267 1.3807138 -0.28096312 4288177920
1.1841495 1.3780352 -0.28552654 4288177920
1.1808155 1.3742425 -0.28950685 4288177920
1.1873071 1.3818853 -0.2955732 4288177920
1.1835926 1.3776497 -0.29876873 4288177920
1.1804814 1.3741158 -0.30174765 4288177920
1.177056 1.3702155 -0.30427626 4288177920
1.1744272 1.3672422 -0.30664042 4288177920
1.1703067 1.3625318 -0.30824184 4288047360
1.1674541 1.3592972 -0.30980283 4288047360
1.1610965 1.3519807 -0.31005579 4288047360
1.1437355 1.3318502 -0.30697396 4287916800
1.1461291 1.3347224 -0.30881414 4287916800
1.1459956 1.3346517 -0.30961436 4287916800
1.1604759 1.3516017 -0.31400618 4288047360
1.1546487 1.3449003 -0.31254077 4288047360
1.1665082 1.3588002 -0.31549352 4288047360
1.170311 1.3633165 -0.31589311 4288047360
1.1701272 1.363189 -0.31484476 4288047360
1.1800877 1.3748804 -0.31614599 4288177920
1.1872457 1.3833078 -0.31630433 4288177920
1.1851618 1.3809676 -0.31362388 4288177920
1.1857613 1.381754 -0.31128982 4288177920
1.1904818 1.3873428 -0.30966184 4288177920
1.1896048 1.3864089 -0.30620822 4288177920
1.1889919 1.3857828 -0.30247068 4288177920
1.183848 1.3798753 -0.29724807 4288177920
1.1757232 1.3704923 -0.29097867 4288177920
1.17936 1.3748189 -0.28729859 4288177920
1.1696806 1.363622 -0.28006905 4288047360
1.1712714 1.3655634 -0.27524865 4288047360
1.1717614 1.3662215 -0.26984376 4288047360
1.1812876 1.3774163 -0.26616064 4288177920
1.1940602 1.392398 -0.26279023 4288177920
1.1855831 1.3826007 -0.25442287 4288177920
1.1660361 1.3598918 -0.24354883 4288047360
1.172398 1.3673984 -0.23788384 4288047360
1.1829176 1.3797554 -0.23268996 4288177920
1.1846142 1.3818221 -0.22542168 4288177920
1.1775953 1.373722 -0.21627666 4288047360
1.1688342 1.3635886 -0.2066752 4288047360
1.1784439 1.3748869 -0.20008279 4288047360
1.1901033 1.3885781 -0.19346294 4288177920
1.1938841 1.3930781 -0.18523446 4288177920
1.1717783 1.367371 -0.17292315 4288047360
1.1692101 1.3644608 -0.1634907 4288047360
1.1810548 1.3783712 -0.155819 4288047360
1.1782801 1.3752203 -0.14597522 4288047360
1.1673543 1.3625549 -0.13507243 4288047360
1.1799312 1.3773224 -0.12672539 4288047360
1.1862959 1.38484 -0.11741389 4288047360
1.1839266 1.3821621 -0.10707579 4288047360
1.1857185 1.3843421 -0.097001508 4288047360
1.1723711 1.3688458 -0.085683532 4288047360
1.1784767 1.3760622 -0.075756274 4288047360
1.1810346 1.3791366 -0.065441713 4288047360
1.1699041 1.366226 -0.054373842 4288047360
1.1822772 1.3807632 -0.044327099 4288047360
1.2027111 1.4047168 -0.03423835 4288177920
1.2156101 1.4198728 -0.023596123 4288308480
1.2210106 1.4262713 -0.012616236 4288308480
1.2388636 1.4472176 -0.0015392897 4288308480
1.2590218 1.4708595 0.009882845 4288439040
1.2781138 1.493259 0.021643518 4288569600
1.2815925 1.4974184 0.033322286 4288569600
1.3155733 1.5372195 0.046097744 4288830720
1.3589182 1.587968 0.059849791 4288961280
1.349268 1.5767915 0.071507834 4288961280
1.3429137 1.5694656 0.083121151 4288961280
1.3578445 1.587016 0.096038125 4288961280
1.3432463 1.5700539 0.10676737 4288961280
1.3238966 1.5475355 0.11670829 4288830720
1.3520175 1.5805072 0.13078123 4288961280
1.3559129 1.5851617 0.14264332 4288961280
1.3411922 1.5680519 0.15230204 4288961280
1.3149331 1.5374488 0.16014548 4288830720
1.3655055 1.5966808 0.17736483 4289091840
1.3703977 1.6025031 0.18890518 4289091840
1.3489126 1.5774794 0.19647337 4288961280
1.3352674 1.5616215 0.20469517 4288961280
1.2940787 1.5135467 0.20805629 4288700160
1.3649677 1.5965596 0.22941585 4289091840
1.3516797 1.5811175 0.23679554 4288961280
1.3464552 1.5751065 0.24519353 4288961280
1.3439002 1.5722176 0.25375041 4288961280
1.3203175 1.5447267 0.25788215 4288830720
1.356861 1.5875823 0.27354407 4289091840
1.3477191 1.5769862 0.27986169 4288961280
1.3509048 1.5808144 0.28838608 4288961280
1.3417356 1.5701846 0.29391348 4288961280
1.3330941 1.5601709 0.29912513 4288961280
1.329248 1.5557686 0.30500624 4288961280
1.3466674 1.5762569 0.31548259 4288961280
1.340948 1.5696622 0.32023454 4288961280
1.3375772 1.565816 0.32513911 4288961280
1.331774 1.5591218 0.3290405 4288961280
1.3299613 1.5570986 0.33351818 4288961280
1.3303549 1.5576587 0.3381581 4288961280
1.3268871 1.5536972 0.34141517 4288961280
1.3281966 1.5553296 0.34549797 4288961280
1.3275168 1.5546323 0.34866351 4288961280
1.3290639 1.5565431 0.35200956 4288961280
1.3236787 1.5503348 0.35310224 4288961280
1.3234009 1.550108 0.35513434 4288961280
1.3289235 1.5566757 0.35831457 4288961280
1.3225924 1.5493581 0.35788056 4288961280
1.3260347 1.5534894 0.3596684 4288961280
1.3284965 1.5564725 0.36077213 4288961280
1.3284476 1.5565143 0.36077228 4288961280
1.3181604 1.5445594 0.35757262 4288961280
1.3226882 1.5499635 0.35797322 4288961280
1.3262495 1.5542355 0.35768691 4288961280
1.3274735 1.5557688 0.35634676 4288961280
1.3306717 1.5596163 0.35511324 4288961280
1.3270296 1.5554465 0.35164112 4288961280
1.3277314 1.5563681 0.34891489 4288961280
1.332644 1.5622261 0.34687462 4288961280
1.3366504 1.5670224 0.34417105 4288961280
1.3419147 1.573294 0.34136364 4288961280
1.3426098 1.5742092 0.33697903 4288961280
1.3395935 1.5707726 0.33128121 4288961280
1.3262267 1.555198 0.32270488 4288961280
1.3284622 1.5579185 0.31759623 4288961280
1.335675 1.5664768 0.31326962 4288961280
1.3527254 1.5865744 0.31077588 4289091840
1.3537482 1.5878751 0.30415675 4289091840
1.3204575 1.5494633 0.24576458 4288830720
1.33184 1.5629193 0.23881906 4288961280
1.3557855 1.5911205 0.23361325 4289091840
1.3533554 1.5883697 0.22345118 4288961280
1.3197198 1.5489918 0.20815341 4288830720
1.3283668 1.5592402 0.19947603 4288830720
1.342471 1.5758961 0.1912224 4288961280
1.3322167 1.5639584 0.17925924 4288961280
1.3159226 1.5449282 0.16649701 4288830720
1.3247231 1.5553592 0.15678522 4288830720
1.3311523 1.5630072 0.14649495 4288830720
1.3306795 1.5625516 0.13523474 4288830720
1.315117 1.5443755 0.12242944 4288830720
1.3323934 1.5647632 0.11253072 4288830720
1.3353249 1.5683057 0.10112252 4288961280
1.3248218 1.5560693 0.088653311 4288830720
1.3157824 1.5455503 0.076357983 4288830720
1.3237991 1.555066 0.064977549 4288830720
1.3244891 1.5559756 0.053088434 4288830720
1.3252362 1.5569522 0.041130424 4288830720
1.3093174 1.538348 0.028747682 4288700160
1.3059486 1.5344876 0.016783824 4288700160
1.3066963 1.5354638 0.0048777508 4288700160
1.2793795 1.5034603 -0.0068968115 4288569600
1.2748537 1.4982373 -0.018497165 4288569600
1.2805454 1.5050219 -0.030237226 4288569600
1.2833374 1.5083994 -0.041954231 4288569600
1.2472675 1.4660971 -0.052055486 4288439040
1.2487423 1.4679241 -0.063355356 4288439040
1.2457157 1.4644597 -0.07434538 4288439040
1.2562466 1.4769336 -0.086131327 4288439040
1.2139323 1.4272767 -0.093922399 4288308480
1.2192055 1.433568 -0.10496747 4288308480
1.2253703 1.4409084 -0.1160752 4288308480
1.2340424 1.4511982 -0.12742196 4288439040
1.2191831 1.4338155 -0.13614959 4288308480
1.2186496 1.4332793 -0.14619939 4288308480
1.2192737 1.4341046 -0.15622926 4288308480
1.229445 1.44616 -0.16739824 4288308480
1.2153009 1.4296137 -0.17504315 4288308480
1.2040362 1.4164529 -0.18271196 4288308480
1.2080798 1.4213002 -0.19244581 4288308480
1.2054762 1.4183273 -0.20091921 4288308480
1.2050847 1.4179569 -0.20951638 4288308480
1.1817625 1.3906037 -0.2137277 4288177920
1.2007818 1.4130739 -0.22532421 4288308480
1.194121 1.4053251 -0.23193501 4288177920
1.1994494 1.4116857 -0.2406041 4288308480
1.1975378 1.4095256 -0.24757212 4288177920
1.1905696 1.4014132 -0.25316229 4288177920
1.1777804 1.3864474 -0.25711429 4288177920
1.1826544 1.3922734 -0.26458412 4288177920
1.1796234 1.3887937 -0.26999485 4288177920
1.1855984 1.3959171 -0.27717218 4288177920
1.1925968 1.4042463 -0.28433302 4288177920
1.1829019 1.3929195 -0.28717768 4288177920
1.1829288 1.3930399 -0.29200995 4288177920
1.1849575 1.3955178 -0.29700735 4288177920
1.1842196 1.3947376 -0.30097315 4288177920
1.1847758 1.3954817 -0.30491847 4288177920
1.1726159 1.381247 -0.30520362 4288177920
1.1690675 1.3771551 -0.30733079 4288177920
1.1545616 1.3601538 -0.3061769 4288047360
1.1460798 1.3502476 -0.30621326 4288047360
1.1553912 1.3613045 -0.31064501 4288047360
1.1383046 1.3412582 -0.30760854 4287916800
1.1413186 1.344895 -0.30962396 4288047360
1.141185 1.3448234 -0.31042629 4288047360
1.1547717 1.3609211 -0.31460288 4288047360
1.1515322 1.3571897 -0.31383225 4288047360
1.1628892 1.3706623 -0.31666923 4288047360
1.1678337 1.3765779 -0.31738389 4288177920
1.176499 1.3868804 -0.318728 4288177920
1.1775672 1.3882282 -0.3176322 4288177920
1.1808559 1.3921937 -0.31675759 4288177920
1.1855894 1.3978635 -0.31588691 4288177920
1.181783 1.3934642 -0.31237143 4288177920
1.184839 1.3971567 -0.31030622 4288177920
1.190559 1.4039911 -0.30855423 4288177920
1.1858352 1.3985095 -0.30373532 4288177920
1.1847581 1.3973281 -0.29951563 4288177920
1.1792436 1.3909128 -0.29385057 4288177920
1.1756941 1.3868146 -0.288369 4288177920
1.1647801 1.3740283 -0.28080776 4288047360
1.1644671 1.3737464 -0.27552587 4288047360
1.1652241 1.3747271 -0.27017823 4288047360
1.1764411 1.3880492 -0.26688629 4288177920
1.1987276 1.4144347 -0.26562661 4288308480
1.191758 1.4063004 -0.25750193 4288177920
1.1865848 1.4002851 -0.24954064 4288177920
1.1879569 1.4019936 -0.24269409 4288177920
1.1989535 1.4150616 -0.23746212 4288308480
1.2030096 1.4199393 -0.23049255 4288308480
1.2097353 1.4279686 -0.22370371 4288308480
1.2056512 1.4232384 -0.21464781 4288308480
1.2230934 1.4439205 -0.20908844 4288308480
1.2372683 1.4607477 -0.20251013 4288439040
1.2431418 1.4677755 -0.19420043 4288439040
1.2329608 1.4558476 -0.18320069 4288439040
1.2442641 1.4692879 -0.17517954 4288439040
1.2502673 1.4764707 -0.16608244 4288439040
1.2670058 1.496333 -0.1580447 4288569600
1.2682317 1.4978762 -0.14775205 4288569600
1.2956467 1.5303527 -0.14010854 4288700160
1.3084562 1.5455812 -0.13039379 4288830720
1.3088883 1.5461903 -0.1191902 4288830720
1.3178998 1.5569347 -0.10855527 4288830720
1.3005408 1.536525 -0.09570355 4288700160
1.3096949 1.5474386 -0.084769532 4288830720
1.3119375 1.5501871 -0.073194318 4288830720
1.2966446 1.5322145 -0.060678259 4288700160
1.3044919 1.5415858 -0.049245205 4288700160
1.3136493 1.5525064 -0.037653361 4288830720
1.3219879 1.5624608 -0.02583728 4288830720
1.3105178 1.549003 -0.0136341 4288830720
1.3226285 1.5634172 -0.0016546575 4288830720
1.324331 1.5655295 0.010466918 4288830720
1.3242538 1.5655379 0.022578925 4288830720
1.334834 1.5781463 0.034945078 4288961280
1.3408118 1.5853149 0.047304947 4288961280
1.3496432 1.5958583 0.059849791 4288961280
1.3400583 1.5846258 0.071507834 4288961280
1.3337469 1.5772631 0.083121151 4288961280
1.3429112 1.5882018 0.095634773 4288961280
1.3372999 1.5816664 0.10702539 4288961280
1.314858 1.5552226 0.11670829 4288830720
1.3460078 1.5921683 0.13109501 4288961280
1.3409986 1.5863441 0.14204423 4288961280
1.3352526 1.5796475 0.1526701 4288961280
1.3027356 1.5412771 0.15975091 4288830720
1.3593959 1.6084146 0.17778544 4289091840
1.3599166 1.6091332 0.18874955 4289091840
1.3478273 1.5949302 0.19766544 4288961280
1.3322018 1.5765405 0.20562983 4288961280
1.2826709 1.5180218 0.20764062 4288700160
1.3582089 1.6075225 0.22985014 4289091840
1.3456509 1.5927608 0.23736107 4288961280
1.3372555 1.5829245 0.24519353 4288961280
1.3251097 1.5686473 0.25192383 4288961280
1.3112953 1.552393 0.25788215 4288830720
1.3475884 1.5954608 0.27354407 4289091840
1.3417056 1.5885971 0.28053018 4288961280
1.3327242 1.5780636 0.28646287 4288961280
1.326177 1.5704112 0.29250461 4288961280
1.3306392 1.5757955 0.30062929 4288961280
1.3233516 1.5672652 0.30574337 4288961280
1.3278942 1.5727453 0.31322598 4288961280
1.3317801 1.5774481 0.32023454 4288961280
1.3220599 1.5660348 0.32357958 4288961280
1.3226677 1.5668546 0.3290405 4288961280
1.3183202 1.5618039 0.33287516 4288961280
1.3180752 1.5616133 0.33734372 4288961280
1.3209933 1.5651703 0.34223923 4288961280
1.3191124 1.5630414 0.34549797 4288961280
1.3184367 1.5623404 0.34866351 4288961280
1.3167948 1.5604941 0.35116208 4288961280
1.3146237 1.5580206 0.35310224 4288961280
1.3175236 1.5615568 0.35599262 4288961280
1.3172907 1.5613804 0.35762483 4288961280
1.3135431 1.5570376 0.35788056 4288961280
1.3137861 1.5574249 0.35880125 4288961280
1.3168657 1.5611751 0.36007762 4288961280
1.3168166 1.5612165 0.3600778 4288961280
1.3123139 1.5559772 0.35843974 4288961280
1.3136353 1.5576434 0.35797322 4288961280
1.3114566 1.555159 0.35613492 4288961280
1.3123913 1.5563666 0.35472625 4288961280
1.3187052 1.5639539 0.35434547 4288961280
1.3204858 1.5661656 0.35231912 4288961280
1.321818 1.5678456 0.34975553 4288961280
1.3218356 1.5679665 0.34643331 4288961280
1.3249551 1.571767 0.34351179 4288961280
1.3239621 1.5706891 0.33911899 4288961280
1.3302349 1.5782315 0.33617526 4288961280
1.3215108 1.5679809 0.329063 4288961280
1.3114144 1.5561006 0.32130128 4288830720
1.307264 1.5512747 0.31468379 4288830720
1.3233404 1.5704521 0.31251737 4288961280
1.3370856 1.5868651 0.30930161 4288961280
1.3412859 1.5919516 0.30343553 4289091840
1.3178029 1.5647238 0.2469631 4288830720
1.3291099 1.5782501 0.23997431 4288961280
1.3439317 1.5959519 0.233169 4288961280
1.335112 1.5855794 0.22196057 4288961280
1.3138764 1.5604595 0.2086622 4288830720
1.3134905 1.5601007 0.1986037 4288830720
1.3300602 1.5798821 0.19076252 4288961280
1.3230822 1.5716937 0.17925924 4288961280
1.3036901 1.5487565 0.16608816 4288830720
1.309218 1.5554228 0.15602006 4288830720
1.3188119 1.5669206 0.14613907 4288830720
1.3223363 1.5712084 0.13531488 4288830720
1.3040136 1.549536 0.12223417 4288830720
1.3232541 1.5724994 0.11253072 4288830720
1.3325956 1.5837014 0.10161287 4288961280
1.3221655 1.5714061 0.089086704 4288830720
1.309972 1.5570134 0.076545946 4288830720
1.3234527 1.5731366 0.065409318 4288830720
1.3244106 1.5743756 0.053452045 4288830720
1.3193605 1.5684725 0.041230988 4288830720
1.3125614 1.5604891 0.029018039 4288830720
1.3059973 1.5527841 0.016900433 4288830720
1.3073828 1.5545306 0.0049140397 4288830720
1.2892632 1.5330836 -0.006998125 4288700160
1.2968285 1.5421778 -0.01894605 4288700160
1.300069 1.5461299 -0.030910419 4288700160
1.3079845 1.5556428 -0.043055557 4288830720
1.3004605 1.5467929 -0.054650728 4288700160
1.3106438 1.5590045 -0.066955656 4288830720
1.3233242 1.5741881 -0.079523146 4288830720
1.3247588 1.5759952 -0.091456704 4288961280
1.3103437 1.5589459 -0.1020828 4288830720
1.309904 1.558522 -0.11355601 4288830720
1.3185836 1.5689492 -0.12576875 4288830720
1.3255762 1.57737 -0.13781996 4288961280
1.3110715 1.5602098 -0.14742365 4288830720
1.3180296 1.5685902 -0.15921555 4288830720
1.3218049 1.5731834 -0.17053844 4288961280
1.3222409 1.5738028 -0.18127854 4288961280
1.3081433 1.5571223 -0.18971899 4288830720
1.2836249 1.5280348 -0.19613716 4288700160
1.2794822 1.5232005 -0.20523039 4288700160
1.29014 1.5359864 -0.21651822 4288700160
1.2901698 1.5361198 -0.2258615 4288700160
1.2693888 1.5114737 -0.2311641 4288700160
1.2399334 1.4764949 -0.23428118 4288439040
1.2335018 1.4689301 -0.24124219 4288439040
1.2326871 1.4680535 -0.24898297 4288439040
1.2287261 1.4634297 -0.25577819 4288439040
1.2323363 1.4678229 -0.26385754 4288439040
1.2128447 1.4446989 -0.26660198 4288308480
1.2235185 1.4575061 -0.27562141 4288439040
1.2268424 1.4615589 -0.2827467 4288439040
1.2303718 1.4658571 -0.2896311 4288439040
1.2306228 1.4662497 -0.29543072 4288439040
1.237734 1.4748166 -0.30257043 4288569600
1.2351178 1.4717932 -0.30700457 4288569600
1.2319088 1.4680629 -0.31091422 4288439040
1.2316084 1.4677986 -0.31518528 4288439040
1.2226446 1.4572088 -0.31684417 4288439040
1.2285724 1.464367 -0.32198292 4288439040
1.2052348 1.4366421 -0.31903362 4288308480
1.2024566 1.4334221 -0.32108742 4288308480
1.198056 1.4282672 -0.32231832 4288308480
1.1977928 1.4280446 -0.32427683 4288308480
1.2007347 1.4316435 -0.32672781 4288308480
1.1579076 1.3806684 -0.31630126 4288177920
1.1634672 1.3873861 -0.31868094 4288177920
1.1971484 1.4276407 -0.32840839 4288308480
1.1907645 1.4201182 -0.32677382 4288308480
1.2100304 1.443187 -0.33179048 4288439040
1.2124921 1.4462154 -0.33180514 4288439040
1.2180789 1.4529717 -0.33228025 4288439040
1.2292615 1.4664044 -0.33387488 4288439040
1.2385422 1.4775698 -0.33453518 4288569600
1.2385511 1.4776747 -0.33228618 4288569600
1.2408379 1.4804975 -0.33025536 4288569600
1.2414665 1.481342 -0.32739162 4288569600
1.24216 1.4822639 -0.32416019 4288569600
1.2416648 1.4817678 -0.32024112 4288569600
1.2315772 1.4698232 -0.31351149 4288439040
1.2312157 1.4694855 -0.30892947 4288439040
1.2259476 1.4632914 -0.30278093 4288439040
1.2146595 1.4499104 -0.29486436 4288439040
1.2119709 1.4467936 -0.28875542 4288439040
1.2097732 1.444262 -0.28245404 4288308480
1.2293237 1.4676958 -0.28081834 4288439040
1.2451276 1.4866589 -0.277823 4288569600
1.2503123 1.4929446 -0.27202854 4288569600
1.2530061 1.4962568 -0.26533797 4288569600
1.2763474 1.5242267 -0.26256168 4288700160
1.2953913 1.5470679 -0.25834322 4288830720
1.2960144 1.5479107 -0.25003564 4288830720
1.2957305 1.5476704 -0.24126926 4288830720
1.2987338 1.5513567 -0.23282503 4288830720
1.3065332 1.5607728 -0.22490324 4288830720
1.3163477 1.5725975 -0.21694946 4288961280
1.3262569 1.5845367 -0.20862311 4288961280
1.3043177 1.5584246 -0.19514915 4288830720
1.3048785 1.5591942 -0.18498927 4288830720
1.3070043 1.561834 -0.17482507 4288830720
1.3164765 1.5732534 -0.16535617 4288830720
1.2965981 1.5495967 -0.15210605 4288830720
1.3084731 1.5638885 -0.14247848 4288830720
1.311325 1.5673971 -0.13158751 4288830720
1.3094659 1.565275 -0.12007122 4288830720
1.3061879 1.5614563 -0.10833809 4288830720
1.3005389 1.5548025 -0.096368387 4288830720
1.3006569 1.555043 -0.084769532 4288830720
1.3086537 1.5647036 -0.073518485 4288830720
1.2902604 1.5428101 -0.060799122 4288700160
1.2954881 1.5491599 -0.049245205 4288700160
1.3047471 1.5603315 -0.037658133 4288830720
1.3096552 1.566301 -0.025774164 4288830720
