# .PCD v0.7 - Point Cloud Data file format
VERSION 0.7
FIELDS x y z rgba
SIZE 4 4 4 4
TYPE F F F U
COUNT 1 1 1 1
WIDTH 1103
HEIGHT 1
VIEWPOINT 0 0 0 1 0 0 0
POINTS 1103
DATA ascii
1.9660095 0.61589622 0.35629556 4288961280
1.9480534 0.61033922 0.35514122 4288961280
1.9477626 0.61031443 0.35677373 4288961280
1.9522382 0.61178291 0.3588641 4288961280
1.9567807 0.61327291 0.36055055 4288961280
1.9472945 0.61036801 0.35922706 4288961280
1.964865 0.61594105 0.36247423 4288961280
1.9602158 0.6145522 0.36119518 4288961280
1.9636303 0.61569059 0.36097842 4288961280
1.9816622 0.62141144 0.36301374 4289091840
1.9874642 0.62329984 0.36236486 4289091840
1.9836566 0.62217593 0.35953712 4289091840
1.9802135 0.62116635 0.35636294 4289091840
1.9775503 0.62040138 0.35292077 4289091840
1.9867518 0.62335765 0.3511734 4289091840
1.9869061 0.62347692 0.34740001 4289091840
1.9833416 0.62242991 0.3425785 4289091840
1.9840215 0.62271452 0.33809817 4289091840
1.9723761 0.61913192 0.33115107 4288961280
1.9542561 0.61351699 0.32281068 4288961280
1.9692049 0.61827958 0.31956974 4288961280
1.984246 0.6230725 0.31588539 4289091840
1.9988123 0.62771773 0.31166777 4289091840
1.9979448 0.62751859 0.30463892 4289091840
1.9743211 0.6207267 0.24918252 4288961280
1.9886686 0.62531006 0.24177921 4289091840
2.0104377 0.63222766 0.2348378 4289091840
1.9857142 0.62453032 0.22221133 4288961280
1.9475598 0.61260813 0.20814368 4288830720
1.9721807 0.62042391 0.20063052 4288961280
2.0094881 0.63223159 0.19386473 4289091840
1.9897233 0.62609071 0.18127619 4288961280
1.9566436 0.61575985 0.16755767 4288961280
1.981872 0.62377131 0.15870047 4288961280
2.0020678 0.63020128 0.14900991 4289091840
1.9940318 0.62774849 0.13697962 4288961280
1.9697567 0.6201843 0.12386625 4288961280
1.982723 0.62434077 0.11303236 4288961280
1.8266634 0.57528788 0.093246855 4288439040
1.7349359 0.54647768 0.0781359 4288047360
1.7744169 0.55897588 0.069197878 4288177920
2.424433 0.76374727 0.079981111 4290528000
2.7640347 0.87080067 0.074336708 4291703040
2.7476313 0.86573941 0.056988806 4291703040
2.7379193 0.86278498 0.03987883 4291572480
2.7501552 0.866745 0.023032835 4291703040
2.7365017 0.86254793 0.0059470888 4291572480
2.7160113 0.85619521 -0.01095129 4291572480
2.7381556 0.86327887 -0.028011886 4291572480
2.7469816 0.86616594 -0.045102336 4291703040
2.7382064 0.86350459 -0.06186118 4291703040
2.7168252 0.85686785 -0.078087457 4291572480
2.7448432 0.86580706 -0.095678702 4291703040
2.745121 0.86599958 -0.1123808 4291703040
2.7555063 0.86938012 -0.12943839 4291703040
2.7190437 0.85798299 -0.14401287 4291572480
2.7474215 0.86703974 -0.16179995 4291703040
2.7829468 0.87835383 -0.18020812 4291833600
2.7791646 0.87726623 -0.19607283 4291833600
2.8056617 0.88573462 -0.21398281 4291964160
2.8466733 0.89878625 -0.23314585 4292094720
2.8497832 0.89987594 -0.24920914 4292094720
2.8509333 0.90034699 -0.26485288 4292094720
2.7651825 0.8733781 -0.27170512 4291833600
2.8427763 0.89798641 -0.29421002 4292094720
2.8499691 0.90036517 -0.30956802 4292094720
2.8534501 0.90157187 -0.32423618 4292094720
2.8361847 0.89622468 -0.33612689 4292094720
2.7850494 0.88017476 -0.34331292 4291833600
2.8704286 0.90725738 -0.36705378 4292225280
2.8689072 0.90688354 -0.3796846 4292225280
2.8731055 0.90831715 -0.39265627 4292225280
2.8745739 0.90888786 -0.40483829 4292225280
2.8575733 0.90361983 -0.41390628 4292094720
2.8423271 0.89890486 -0.42263293 4292094720
2.8611312 0.90495545 -0.43594292 4292225280
2.8691614 0.90759993 -0.44721606 4292225280
2.875879 0.90982956 -0.45782536 4292225280
2.8699205 0.90804964 -0.46590084 4292225280
2.8719521 0.90879679 -0.47472408 4292225280
2.8754723 0.91001463 -0.48326311 4292225280
2.8496563 0.9019497 -0.48626813 4292225280
2.849685 0.90206146 -0.49304724 4292225280
2.7792549 0.8798728 -0.48693576 4291964160
2.7962363 0.88534743 -0.4954254 4291964160
2.7195892 0.86118311 -0.48668146 4291703040
2.7320445 0.86522305 -0.49316964 4291703040
2.7539737 0.87226355 -0.50083983 4291833600
2.7675312 0.87665391 -0.50645185 4291833600
2.775542 0.87928832 -0.51048297 4291964160
2.7798898 0.8807627 -0.51325619 4291964160
2.766495 0.87661648 -0.51215678 4291833600
2.7616484 0.8751772 -0.51203042 4291833600
2.7522061 0.87228101 -0.5104531 4291833600
2.747555 0.87090218 -0.50916624 4291833600
2.7345512 0.86687541 -0.50574481 4291833600
2.8021047 0.88838029 -0.51656783 4291964160
2.7752101 0.87995064 -0.50939059 4291964160
2.821075 0.89458507 -0.51492345 4292094720
2.8444457 0.90209037 -0.51568246 4292225280
2.86971 0.91019732 -0.51611823 4292225280
2.8712611 0.91078556 -0.51165766 4292225280
2.872637 0.91131812 -0.50656641 4292225280
2.8781583 0.91316521 -0.50160313 4292225280
2.8663609 0.90951848 -0.49306172 4292225280
2.8626945 0.90845025 -0.48538205 4292225280
2.8455107 0.9030925 -0.47490957 4292094720
2.8325458 0.89907199 -0.46467575 4292094720
2.8303936 0.89848185 -0.45572194 4292094720
2.8453214 0.90331215 -0.44894892 4292094720
2.8569782 0.90710479 -0.44105986 4292225280
2.8536205 0.90613157 -0.43032724 4292094720
2.8361647 0.90068191 -0.41706115 4292094720
2.8198223 0.89558446 -0.40361494 4291964160
2.8248291 0.89726496 -0.39280492 4292094720
2.8413582 0.90260476 -0.38306025 4292094720
2.8455598 0.90403014 -0.37113827 4292094720
2.8346028 0.90064037 -0.35685882 4292094720
2.8183343 0.89556241 -0.34163901 4291964160
2.8416722 0.90306634 -0.33079141 4292094720
2.8522892 0.90652961 -0.31793442 4292094720
2.8485355 0.90542686 -0.30309391 4292094720
2.7935789 0.88805121 -0.28278831 4291833600
2.8056381 0.89197177 -0.2691564 4291964160
2.7897151 0.88699841 -0.25257415 4291833600
2.7753711 0.8825258 -0.2360222 4291833600
2.7166967 0.86395848 -0.21586113 4291572480
2.7422371 0.87216395 -0.20231538 4291703040
2.7374713 0.8707338 -0.18620436 4291703040
2.7294667 0.86827332 -0.16974582 4291572480
2.6999342 0.85896522 -0.15199102 4291572480
2.7228916 0.86635131 -0.13705036 4291572480
2.7288039 0.86831647 -0.12093611 4291572480
2.7310386 0.86911196 -0.1044806 4291572480
2.7147348 0.86400896 -0.087294161 4291572480
2.7432466 0.87316543 -0.071368895 4291703040
2.7487376 0.87499762 -0.054565307 4291703040
2.7325127 0.86991876 -0.037344113 4291572480
2.7357633 0.87103778 -0.020425314 4291572480
2.5673678 0.81751704 -0.0032669015 4291050240
1.8726211 0.59641701 0.0090851849 4288569600
1.6669158 0.53098023 0.018367793 4287916800
1.761832 0.5612551 0.030358698 4288177920
1.9653125 0.62610835 0.046063855 4288961280
2.0191178 0.64330524 0.059753686 4289091840
2.011065 0.6408028 0.071812265 4289091840
1.9954262 0.63588339 0.083375387 4289091840
2.0113416 0.64101547 0.09617503 4289091840
2.0071945 0.63975662 0.10797642 4289091840
1.9754798 0.62971348 0.11795769 4288961280
2.0008898 0.63787228 0.13119581 4289091840
2.0002046 0.63771623 0.14271772 4289091840
1.9941045 0.63583434 0.15365669 4289091840
1.9388468 0.61828256 0.16028292 4288830720
2.020453 0.64435875 0.17821822 4289091840
2.024085 0.64558011 0.18953307 4289091840
2.0076673 0.64040887 0.19868909 4289091840
1.9186358 0.61208099 0.19987254 4288830720
1.7665977 0.56365359 0.19301815 4288308480
1.9981793 0.63757277 0.22832306 4289091840
1.9777501 0.63111949 0.23558308 4288961280
1.9194379 0.61257994 0.23768583 4288830720
1.913699 0.61081022 0.24574029 4288830720
1.9188045 0.61250043 0.25490883 4288830720
2.008944 0.64132643 0.27550945 4289091840
2.0067034 0.6406759 0.28349066 4289091840
1.9956955 0.63722718 0.28985718 4289091840
1.9835232 0.63340628 0.29563448 4289091840
1.9760134 0.63107318 0.30169642 4289091840
1.9788643 0.63204777 0.30897909 4289091840
1.9834478 0.63357598 0.31620294 4289091840
1.9755579 0.63112146 0.32106343 4289091840
1.9603988 0.62634504 0.32430291 4288961280
1.9519569 0.62371337 0.32821283 4288961280
1.9516779 0.62368894 0.33309275 4288961280
1.9222448 0.61435086 0.3325375 4288830720
1.9061236 0.60926425 0.33379775 4288830720
1.864792 0.59612113 0.33013761 4288700160
1.8821135 0.60171926 0.33643427 4288700160
1.8011961 0.5759213 0.32467273 4288439040
1.8148854 0.58035791 0.32949322 4288439040
1.8192446 0.58181316 0.33225527 4288439040
1.8227252 0.58298808 0.33447513 4288569600
1.8272055 0.58448303 0.33649221 4288569600
1.8223677 0.58299887 0.33639807 4288569600
1.809152 0.57883531 0.33435643 4288439040
1.804443 0.57739192 0.33349252 4288439040
1.8801858 0.6016832 0.34710002 4288700160
1.8671652 0.59758335 0.34389204 4288700160
1.8626511 0.59620458 0.34185678 4288700160
1.9082856 0.61087239 0.34859437 4288830720
1.9193604 0.61448389 0.34855479 4288830720
1.935282 0.61964774 0.34895548 4288961280
1.9629453 0.62857133 0.35100469 4288961280
1.970283 0.63099039 0.34895283 4289091840
1.9718212 0.63155341 0.34545055 4289091840
1.9840621 0.63554382 0.34339345 4289091840
1.9779154 0.63364702 0.33774051 4289091840
1.9757329 0.63301963 0.33239269 4289091840
1.957018 0.62709689 0.32393244 4288961280
1.970438 0.63146716 0.32043296 4288961280
1.9902568 0.63788867 0.31750512 4289091840
2.004529 0.64253467 0.31321836 4289091840
2.0007977 0.64141273 0.30572242 4289091840
1.9653026 0.63051021 0.24851008 4288961280
2.0030706 0.64269716 0.24399202 4289091840
2.0114911 0.64547342 0.23540446 4289091840
2.0023825 0.64262712 0.22450306 4289091840
1.9542342 0.62725466 0.2092533 4288961280
1.9889816 0.63847828 0.20272611 4289091840
2.0052257 0.64376664 0.19381934 4289091840
1.9731599 0.633551 0.18010493 4288961280
1.9483416 0.62565953 0.16716217 4288830720
1.9696569 0.63257653 0.15802006 4288961280
1.9905185 0.63934964 0.1484305 4289091840
1.980837 0.63631678 0.13633054 4288961280
1.9588418 0.62932885 0.1234137 4288961280
1.9604814 0.62993038 0.11197424 4288961280
1.8137684 0.58287799 0.092764318 4288439040
1.6908188 0.54344869 0.076284349 4287916800
1.8050367 0.58021164 0.07053908 4288308480
2.441556 0.78481811 0.080708943 4290658560
2.7324719 0.87840503 0.073628709 4291572480
2.7300677 0.87773728 0.056736767 4291572480
2.7233241 0.87567443 0.039747536 4291572480
2.7269685 0.87695074 0.022886839 4291572480
2.7145395 0.87305933 0.0059162085 4291572480
2.6919346 0.86589473 -0.010869156 4291441920
2.7054708 0.87035155 -0.027725672 4291572480
2.7228489 0.87604517 -0.04478398 4291572480
2.716959 0.87425512 -0.061489481 4291572480
2.7022686 0.86963326 -0.077806219 4291572480
2.7643723 0.88971949 -0.096522793 4291703040
2.8085561 0.90404385 -0.11516453 4291964160
2.8352375 0.91273862 -0.13339993 4291964160
2.8113 0.90514237 -0.14914083 4291964160
2.8317664 0.91183847 -0.16704391 4291964160
2.8548722 0.91938573 -0.18517914 4292094720
2.8560531 0.91987503 -0.20184022 4292094720
2.8479722 0.91738176 -0.21759103 4292094720
2.8815978 0.92831993 -0.23642434 4292225280
2.9003108 0.93445712 -0.25407422 4292225280
2.8972445 0.93357956 -0.26963162 4292225280
2.8480375 0.91783601 -0.28033179 4292094720
2.8744788 0.92646378 -0.29802412 4292225280
2.8811762 0.92873079 -0.31351978 4292225280
2.8733864 0.9263289 -0.32709196 4292225280
2.8815422 0.929066 -0.34211311 4292225280
2.8435056 0.91691256 -0.35114217 4292094720
2.8884096 0.9314965 -0.37002382 4292225280
2.9000983 0.93537343 -0.38450623 4292355840
2.9026403 0.93630147 -0.39741078 4292355840
2.9028935 0.93649125 -0.40956774 4292355840
2.8983467 0.93513244 -0.42056972 4292355840
2.8910933 0.93289989 -0.43065786 4292355840
2.8930092 0.93362486 -0.44159961 4292355840
2.8962986 0.93479282 -0.45226681 4292355840
2.908963 0.93898594 -0.46393284 4292355840
2.9031923 0.93723011 -0.4721581 4292355840
2.918179 0.94217342 -0.48323756 4292486400
2.8893743 0.93298107 -0.48648852 4292355840
2.8999681 0.93650615 -0.49574763 4292355840
2.8871624 0.93247622 -0.50043875 4292355840
2.8779845 0.92961657 -0.50512838 4292355840
2.8495631 0.92054105 -0.50578541 4292225280
2.8581238 0.92340803 -0.51236624 4292225280
2.8120165 0.90861613 -0.50851291 4292094720
2.8160703 0.91002566 -0.51305491 4292094720
2.8286514 0.91419029 -0.51856959 4292094720
2.7478755 0.88818872 -0.50633597 4291833600
2.7475314 0.88817412 -0.5082286 4291833600
2.747283 0.88819003 -0.50954491 4291833600
2.7471311 0.88823682 -0.51028341 4291833600
2.8189445 0.9115476 -0.52377206 4292094720
2.8096175 0.90862978 -0.52160609 4292094720
2.7966406 0.9045307 -0.51816034 4291964160
2.8506541 0.92209357 -0.52647084 4292225280
2.852375 0.92274767 -0.52449346 4292225280
2.8824027 0.93255728 -0.52706742 4292355840
2.8946552 0.93661863 -0.52573669 4292355840
2.8967018 0.93737876 -0.52192521 4292355840
2.906739 0.9407239 -0.518924 4292355840
2.8917253 0.93596345 -0.51086724 4292355840
2.8876622 0.93474543 -0.50418514 4292355840
2.8971579 0.93791497 -0.49926883 4292355840
2.8935108 0.93683082 -0.49150229 4292355840
2.8823392 0.93331021 -0.48193169 4292355840
2.8561063 0.92491251 -0.46939749 4292225280
2.8662066 0.92827672 -0.46232781 4292225280
2.8841114 0.93416846 -0.4558962 4292355840
2.8954961 0.93794954 -0.44781831 4292355840
2.8883982 0.935745 -0.43636376 4292355840
2.8703218 0.92998362 -0.42285118 4292225280
2.8371785 0.91934001 -0.40684202 4292094720
2.8421867 0.92105407 -0.39594117 4292094720
2.8715186 0.93064916 -0.38782993 4292225280
2.8733709 0.93134147 -0.37544692 4292225280
2.8610992 0.9274565 -0.36084923 4292225280
2.8534217 0.9250595 -0.34651777 4292094720
2.8720973 0.93120366 -0.33493853 4292225280
2.8838923 0.93511838 -0.32203826 4292225280
2.8805177 0.93411565 -0.30705011 4292225280
2.8256187 0.91640687 -0.28654674 4291964160
2.837734 0.92042446 -0.2727249 4292094720
2.8493762 0.92428917 -0.25843078 4292094720
2.8401973 0.9214018 -0.24195823 4292094720
2.8093646 0.91149008 -0.22360526 4291964160
2.823108 0.91603619 -0.20863871 4291964160
2.8238342 0.91636002 -0.19240421 4291964160
2.8028872 0.90965199 -0.17460783 4291964160
2.7309752 0.88640535 -0.15400749 4291703040
2.7049708 0.8780517 -0.13639739 4291572480
2.7056401 0.87835306 -0.1201294 4291572480
2.7078664 0.87915969 -0.10378331 4291572480
2.6868355 0.87241709 -0.08655519 4291441920
2.7094669 0.87984735 -0.070619561 4291572480
2.7302771 0.8866877 -0.054293986 4291572480
2.7174163 0.88259643 -0.037200172 4291572480
2.7078135 0.87956238 -0.020250151 4291572480
2.5806153 0.83833766 -0.0032765567 4291050240
1.9195955 0.62372589 0.0093532987 4288830720
1.6606828 0.53968543 0.018338265 4287786240
1.7632842 0.57306707 0.030448543 4288177920
1.8744434 0.60923535 0.043998569 4288569600
2.0036509 0.65127468 0.059411265 4289091840
1.9892354 0.6466527 0.071168453 4288961280
1.9916848 0.64751047 0.083382428 4289091840
1.9990195 0.64995629 0.095770337 4289091840
1.9886171 0.64663732 0.10718144 4288961280
1.9674339 0.63981336 0.11770391 4288961280
1.9845549 0.64544082 0.13037336 4288961280
1.9964013 0.64935446 0.14272112 4289091840
1.9810578 0.64442784 0.15294322 4288961280
1.9593024 0.63741529 0.16229081 4288961280
2.0101874 0.65402579 0.17765182 4289091840
2.0259204 0.65920639 0.19006994 4289222400
2.0069802 0.65310919 0.19900228 4289091840
1.8654697 0.60713661 0.19469593 4288569600
1.749018 0.56930804 0.19145997 4288177920
1.7803432 0.57955629 0.20378101 4288308480
1.8020976 0.58669215 0.21503866 4288439040
1.6783143 0.54646486 0.20818059 4287916800
1.6916633 0.55086339 0.21760397 4288047360
1.919917 0.62521654 0.25554422 4288830720
2.0040741 0.65267497 0.27536574 4289091840
1.9967896 0.65036803 0.2826272 4289091840
1.9914719 0.64870119 0.28979522 4289091840
1.9821048 0.64571553 0.29598662 4289091840
1.9744269 0.64327967 0.3020291 4289091840
1.9737512 0.6431241 0.30876786 4289091840
1.9707193 0.64220124 0.31477112 4289091840
1.9676075 0.64125228 0.32037997 4288961280
1.9561872 0.63759655 0.32422265 4288961280
1.9491303 0.63536197 0.32836202 4288961280
1.9182429 0.6253615 0.32800609 4288830720
1.8947355 0.61776441 0.32839975 4288830720
1.8487289 0.60283267 0.3243565 4288569600
1.7809422 0.58079839 0.31588304 4288308480
1.8029393 0.58802962 0.32288575 4288439040
1.8071768 0.58947229 0.32637256 4288439040
1.8292692 0.59673744 0.33273959 4288569600
1.8289335 0.59669042 0.33466282 4288569600
1.8192942 0.59360933 0.33448157 4288569600
1.8284477 0.59665757 0.33736309 4288569600
1.8236182 0.59514523 0.33727092 4288569600
1.8151081 0.59243214 0.33609766 4288439040
1.8104075 0.59096164 0.33523375 4288439040
1.8104522 0.59103942 0.33485544 4288439040
1.79277 0.58533233 0.33081067 4288439040
1.8460324 0.60277939 0.33945101 4288569600
1.8369048 0.59986514 0.33618641 4288569600
1.8778358 0.61329234 0.34165961 4288700160
1.9175822 0.62633592 0.34642175 4288830720
1.936756 0.63266516 0.34697956 4288961280
1.9567995 0.63928002 0.34722489 4288961280
1.9683802 0.64313257 0.34550592 4289091840
1.9641323 0.64181614 0.34059095 4288961280
1.9643573 0.64196074 0.33606458 4288961280
1.9702187 0.64394706 0.33209786 4289091840
1.9518286 0.63801008 0.3236905 4288961280
1.9556768 0.63933897 0.31863874 4288961280
1.9806591 0.64757532 0.31657729 4289091840
2.0023878 0.65475023 0.31348237 4289091840
1.9859827 0.64946151 0.30403757 4289091840
1.9557127 0.63972902 0.24775928 4288961280
1.9929312 0.65197343 0.24320948 4289091840
1.9943298 0.65250599 0.23382902 4289091840
1.990823 0.65143436 0.22362104 4289091840
1.9463099 0.63694853 0.20879094 4288961280
1.9582851 0.64094019 0.19996159 4288961280
1.9835504 0.64928138 0.19207449 4289091840
1.9553226 0.64011979 0.17880195 4288961280
1.9352797 0.63363487 0.16634338 4288830720
1.9569523 0.6408025 0.15728472 4288961280
1.964099 0.64321691 0.14672039 4288961280
1.9677032 0.64447206 0.13566777 4288961280
1.9474497 0.63791597 0.12291262 4288830720
1.9465396 0.63769281 0.11137128 4288830720
1.7097336 0.56021273 0.087567814 4288047360
1.6791558 0.55026299 0.075884946 4287916800
1.7751179 0.58176297 0.069477841 4288308480
2.4631808 0.80725408 0.081560768 4290658560
2.7179337 0.8908208 0.073347248 4291572480
2.7117317 0.88889331 0.056432091 4291572480
2.6954968 0.88367718 0.039382517 4291572480
2.7076845 0.88777596 0.022735141 4291572480
2.7009788 0.88568228 0.0058650747 4291572480
2.6661451 0.87436628 -0.010821613 4291441920
2.7129054 0.88980138 -0.027884712 4291572480
2.7862301 0.91395128 -0.04593223 4291833600
2.8310981 0.92877394 -0.064202085 4291964160
2.8223624 0.92601776 -0.081424706 4291964160
2.8590641 0.93816632 -0.10003252 4292094720
2.872596 0.94271606 -0.11803624 4292094720
2.8648732 0.94029266 -0.13508117 4292094720
2.8378937 0.93154931 -0.15086915 4292094720
2.8465405 0.93449628 -0.1682694 4292094720
2.8616126 0.93955272 -0.18600649 4292094720
2.8626401 0.93999982 -0.20272785 4292094720
2.856653 0.93814385 -0.21870615 4292094720
2.8825958 0.9467715 -0.23699524 4292225280
2.8920653 0.94999129 -0.25387543 4292225280
2.8944292 0.95087802 -0.26992202 4292225280
2.8454592 0.93490338 -0.28064975 4292094720
2.8823957 0.94714534 -0.29944944 4292225280
2.8985236 0.95255339 -0.31604037 4292355840
2.8870745 0.9489013 -0.32930842 4292225280
2.8847032 0.94823122 -0.34317514 4292225280
2.8382399 0.93306965 -0.3511948 4292094720
2.897593 0.95268536 -0.37193787 4292355840
2.9041517 0.95495021 -0.3858079 4292355840
2.9104517 0.95713025 -0.39926761 4292355840
2.9101698 0.95714641 -0.41140333 4292355840
2.8976812 0.95314813 -0.42130154 4292355840
2.8758578 0.9460786 -0.4292343 4292225280
2.8894141 0.95064408 -0.44191533 4292355840
2.8973942 0.95337605 -0.45332053 4292355840
2.8969529 0.95333767 -0.4629201 4292355840
2.9069328 0.9567278 -0.47368217 4292355840
2.8961229 0.95327723 -0.48051944 4292355840
2.8933263 0.95246261 -0.48809153 4292355840
2.8916833 0.95202726 -0.4952836 4292355840
2.8766601 0.94718701 -0.49957648 4292355840
2.8761299 0.94711649 -0.50576669 4292355840
2.859705 0.94181234 -0.50854731 4292225280
2.838778 0.93502426 -0.50986892 4292225280
2.8567698 0.94105083 -0.51756579 4292225280
2.7968092 0.92140466 -0.51051068 4292094720
2.8009481 0.92286736 -0.51446235 4292094720
2.8005016 0.9228195 -0.51697743 4292094720
2.8001511 0.92280281 -0.51890594 4292094720
2.8139286 0.92744082 -0.52284795 4292094720
2.80442 0.92440599 -0.5218643 4292094720
2.7996876 0.92294425 -0.5211547 4292094720
2.7866366 0.91873997 -0.51829183 4291964160
2.8404479 0.93657434 -0.52721751 4292225280
2.8514214 0.94028991 -0.52756381 4292225280
2.8591046 0.9429211 -0.52667344 4292225280
2.8850188 0.95156378 -0.52848774 4292355840
2.8910663 0.95365644 -0.52601898 4292355840
2.8809536 0.95041943 -0.52000958 4292355840
2.8945055 0.95498693 -0.51765072 4292355840
2.8959365 0.95555651 -0.51250142 4292355840
2.8861308 0.95241886 -0.50479019 4292355840
2.889801 0.95372647 -0.49885872 4292355840
2.8767848 0.94952792 -0.48949921 4292355840
2.8667538 0.94631326 -0.48014078 4292225280
2.8549793 0.94252217 -0.46999845 4292225280
2.8524468 0.94178051 -0.46087602 4292225280
2.8740709 0.94901252 -0.4550584 4292225280
2.89013 0.95440847 -0.4477163 4292355840
2.891505 0.95495683 -0.43753365 4292355840
2.8781681 0.95064718 -0.4246771 4292225280
2.8450925 0.93981802 -0.40861276 4292094720
2.8548045 0.94311768 -0.39830831 4292225280
2.8699634 0.94821674 -0.38820863 4292225280
2.8761384 0.95034891 -0.37636817 4292225280
2.837409 0.93764651 -0.35839194 4292094720
2.8396416 0.93847501 -0.34534228 4292094720
2.8647702 0.94686884 -0.33455339 4292225280
2.8772123 0.95107168 -0.32173172 4292225280
2.8610787 0.94583112 -0.30538642 4292225280
2.8262944 0.93442482 -0.28698081 4292094720
2.8399901 0.93904144 -0.2732757 4292094720
2.8466203 0.94132298 -0.25848359 4292094720
2.8473027 0.94163835 -0.24282983 4292094720
2.8131998 0.93045187 -0.22414072 4291964160
2.8352175 0.93782103 -0.20972912 4292094720
2.847688 0.94203401 -0.19418803 4292094720
2.8481202 0.94226617 -0.17754368 4292094720
2.84163 0.94020844 -0.16031303 4292094720
2.8160679 0.93184119 -0.14202908 4291964160
2.8225722 0.93408096 -0.12531476 4291964160
2.8014188 0.92716998 -0.1073337 4291964160
2.690042 0.89040297 -0.086612768 4291572480
2.7054915 0.89559942 -0.070437916 4291572480
2.6976681 0.89309436 -0.053540759 4291572480
2.69432 0.89207006 -0.036743537 4291572480
2.6928003 0.89165086 -0.019962214 4291572480
2.5994437 0.86082858 -0.0030911495 4291180800
1.9387997 0.64218086 0.0096294088 4288830720
1.6787634 0.55613923 0.018717593 4287916800
1.7467055 0.57869023 0.030358383 4288177920
1.8171362 0.60206962 0.042867716 4288439040
1.9942486 0.66078734 0.059407189 4289091840
1.9760331 0.65481579 0.070990324 4288961280
1.9699421 0.65285963 0.082785927 4288961280
1.985801 0.65817517 0.09547811 4288961280
1.978492 0.6558156 0.1069983 4288961280
1.9552252 0.64816767 0.11735262 4288961280
1.972316 0.65389276 0.1299729 4288961280
1.9737251 0.65442163 0.14152215 4288961280
1.9709513 0.65356421 0.15260752 4288961280
1.9423863 0.64415723 0.16134548 4288830720
2.0021324 0.6640256 0.1774313 4289091840
2.0010145 0.66371822 0.18823969 4289091840
1.9955156 0.66195822 0.19839136 4289091840
1.9175558 0.63616878 0.20066728 4288830720
1.7694149 0.58709913 0.19419593 4288308480
1.8830956 0.62486112 0.21610954 4288700160
1.895323 0.62897724 0.22674574 4288700160
1.7594714 0.58397001 0.21880111 4288308480
1.7538335 0.58215606 0.22616091 4288177920
1.8697344 0.62066931 0.24945176 4288700160
1.9801605 0.65737349 0.27271917 4289091840
1.9813031 0.65781683 0.28108776 4289091840
1.9780568 0.65680379 0.28850558 4289091840
1.9709105 0.65449613 0.29498532 4289091840
1.9634997 0.65210032 0.30103439 4288961280
1.9489084 0.64732045 0.30555937 4288961280
1.953485 0.64890414 0.31270614 4288961280
1.9554737 0.64962906 0.31909984 4288961280
1.9531885 0.64893496 0.3244271 4288961280
1.9393983 0.64441967 0.32742262 4288961280
1.9298253 0.64130455 0.33068973 4288961280
1.9127467 0.63569564 0.33222196 4288830720
1.9039441 0.63283551 0.33474797 4288830720
1.8913372 0.62871081 0.33617172 4288830720
1.9085844 0.63450617 0.34251893 4288830720
1.8796138 0.62494308 0.34015176 4288700160
1.8745325 0.62331837 0.3416627 4288700160
1.8835379 0.62637603 0.34534606 4288700160
1.8832562 0.62634718 0.34693018 4288700160
1.8783659 0.62478632 0.3472544 4288700160
1.8782146 0.6248011 0.34804451 4288700160
1.8828019 0.62639195 0.3493056 4288700160
1.8734376 0.62334335 0.34756744 4288700160
1.8935492 0.6300984 0.35088885 4288830720
1.8889903 0.62864852 0.34922123 4288830720
1.8918295 0.62965983 0.34851247 4288830720
1.9095703 0.63562965 0.35012466 4288830720
1.9178349 0.63844764 0.34956339 4288830720
1.9237123 0.64047211 0.34814078 4288961280
1.9428185 0.64690012 0.34867018 4288961280
1.9531412 0.65040606 0.34716821 4288961280
1.9560032 0.65142936 0.34391084 4288961280
1.9584359 0.65231013 0.3401666 4288961280
1.9497418 0.64948648 0.3341077 4288961280
1.9404863 0.64647543 0.32760832 4288961280
1.9332812 0.6441468 0.32111874 4288961280
1.9395602 0.6463092 0.31650081 4288961280
1.9663972 0.65532053 0.31477368 4289091840
1.9872313 0.66233414 0.31157061 4289091840
1.9640371 0.65467966 0.30111229 4288961280
1.9431248 0.64833552 0.2466505 4288961280
1.9796256 0.66058373 0.24206322 4289091840
1.9857301 0.66269511 0.23328257 4289091840
1.9690222 0.65719628 0.22160937 4288961280
1.9330797 0.64527851 0.20778382 4288830720
1.9544679 0.65248942 0.19997135 4288961280
1.9718158 0.65835369 0.19131999 4288961280
1.9430054 0.64881283 0.17803185 4288830720
1.9135438 0.63905251 0.16480389 4288830720
1.9398953 0.64792341 0.15622772 4288830720
1.9555378 0.65322089 0.14637828 4288961280
1.9458822 0.6500718 0.13443491 4288830720
1.9234953 0.64267021 0.12164733 4288830720
1.8806708 0.62844062 0.10781199 4288700160
1.7158705 0.57346225 0.088070653 4288047360
1.6711407 0.55858499 0.075683147 4287916800
1.8721951 0.62582666 0.073466912 4288569600
2.4991226 0.8353948 0.08294455 4290789120
2.6988807 0.90225095 0.072998576 4291572480
2.67714 0.89508885 0.05584174 4291441920
2.6976998 0.90206516 0.03952115 4291572480
2.7631385 0.92404699 0.02328868 4291833600
2.8089824 0.93948227 0.0061674556 4291964160
2.7807705 0.93015724 -0.01125004 4291833600
2.8027952 0.93763077 -0.028810505 4291964160
2.8139381 0.94146639 -0.046438526 4291964160
2.8172839 0.94269454 -0.063981116 4291964160
2.8077884 0.93962693 -0.081129573 4291964160
2.8307328 0.94741261 -0.099204056 4291964160
2.8489811 0.95362848 -0.11726192 4292094720
2.8541348 0.95546335 -0.13480136 4292094720
2.8276145 0.94669718 -0.15057968 4291964160
2.839644 0.95083308 -0.16815144 4292094720
2.8475034 0.9535737 -0.18541405 4292094720
2.8390701 0.95085984 -0.20141675 4292094720
2.8322294 0.94867837 -0.21722525 4292094720
2.862782 0.95901912 -0.23578948 4292225280
2.868459 0.96103036 -0.25225934 4292225280
2.8698814 0.96161675 -0.26812002 4292225280
2.8266802 0.94725358 -0.27930573 4292094720
2.8541143 0.95655328 -0.29705635 4292094720
2.8739939 0.96332347 -0.31394255 4292225280
2.8635192 0.95992243 -0.3272244 4292225280
2.863976 0.96018422 -0.34133914 4292225280
2.8300102 0.94890732 -0.350822 4292094720
2.8872206 0.96819347 -0.37129211 4292355840
2.8903918 0.9693656 -0.38469324 4292355840
2.896297 0.9714545 -0.39806584 4292355840
2.8918471 0.9700709 -0.40957758 4292355840
2.8835595 0.96739954 -0.42003283 4292355840
2.8609171 0.9599123 -0.42780545 4292225280
2.8706243 0.96327525 -0.43986827 4292225280
2.8692167 0.96290958 -0.44976193 4292225280
2.8734732 0.96444392 -0.46003783 4292355840
2.8740716 0.96475083 -0.4692193 4292355840
2.8642309 0.96155387 -0.47613442 4292225280
2.8745556 0.96512443 -0.4858475 4292355840
2.8635628 0.96153939 -0.49140516 4292225280
2.8485765 0.95661253 -0.4956474 4292225280
2.8611455 0.96093613 -0.50409347 4292225280
2.8269939 0.94957173 -0.50369924 4292094720
2.8154602 0.9458003 -0.50665438 4292094720
2.8287489 0.95036477 -0.51347947 4292225280
2.7651737 0.92911106 -0.50571507 4291964160
2.7777138 0.93342239 -0.51118338 4291964160
2.7819388 0.93494064 -0.51454628 4291964160
2.7862577 0.93649042 -0.51733285 4291964160
2.7897391 0.93775868 -0.5193646 4292094720
2.7671804 0.93027526 -0.51594597 4291964160
2.7671244 0.93035334 -0.51610565 4291964160
2.826329 0.95035142 -0.52668464 4292225280
2.807801 0.9442209 -0.52218693 4292094720
2.8234177 0.94956875 -0.52341497 4292094720
2.8310823 0.95224333 -0.52254468 4292225280
2.8569412 0.96103668 -0.52438378 4292225280
2.8583014 0.96159196 -0.52109474 4292225280
2.8575439 0.96143466 -0.51681268 4292225280
2.8579812 0.96167886 -0.51214522 4292225280
2.8631387 0.96351069 -0.50771648 4292225280
2.8709924 0.9662497 -0.50314999 4292355840
2.8569958 0.96163648 -0.49419418 4292225280
2.8627081 0.96365446 -0.48808739 4292225280
2.8433323 0.95722896 -0.47718582 4292225280
2.8315728 0.95336533 -0.467096 4292094720
2.8327839 0.95386684 -0.45863497 4292094720
2.8506095 0.95996147 -0.45227137 4292225280
2.8666279 0.96544856 -0.44499204 4292225280
2.8633003 0.96442211 -0.43416539 4292225280
2.8415308 0.95718473 -0.42014849 4292225280
2.8169556 0.94900078 -0.40541998 4292094720
2.8313339 0.95393521 -0.39586467 4292094720
2.8558528 0.96228623 -0.38711417 4292225280
2.8479037 0.95970058 -0.37346771 4292225280
2.8186481 0.94993562 -0.35678318 4292094720
2.8109279 0.94742495 -0.34258875 4291964160
2.8365221 0.95613974 -0.3319751 4292094720
2.8524134 0.96158606 -0.31965697 4292225280
2.846014 0.95952016 -0.30444649 4292094720
2.8028038 0.94504565 -0.28522977 4291964160
2.8117454 0.94814897 -0.27116835 4291964160
2.8183522 0.9504655 -0.25650084 4291964160
2.8190234 0.95078093 -0.24097387 4291964160
2.7802536 0.93779671 -0.22203676 4291833600
2.8192351 0.95103025 -0.20904092 4291964160
2.8227751 0.95231295 -0.19295608 4291964160
2.8101382 0.94813931 -0.17561366 4291964160
2.795809 0.94339383 -0.15813462 4291964160
2.795377 0.94333577 -0.14135462 4291964160
2.8112109 0.94876558 -0.12514743 4291964160
2.8124115 0.94925863 -0.10805459 4291964160
2.7776039 0.93760061 -0.089677043 4291833600
2.8014781 0.94574463 -0.073150136 4291964160
2.8046806 0.946913 -0.055842984 4291964160
2.7799592 0.93865597 -0.038060602 4291833600
2.6968167 0.91067559 -0.0201231 4291572480
2.5810549 0.87167752 -0.0031691054 4291180800
1.9770074 0.66780698 0.0097812852 4288961280
1.6705182 0.56437588 0.018601054 4287916800
1.7565233 0.59347224 0.030530458 4288177920
1.8315494 0.61886609 0.043232385 4288439040
1.973671 0.6669271 0.058834225 4288961280
1.9636153 0.66359204 0.07060989 4288961280
1.952805 0.66000152 0.082153328 4288961280
1.9639041 0.66381264 0.094535835 4288961280
1.966076 0.66460812 0.10646339 4288961280
1.9419119 0.65650427 0.11671123 4288830720
1.9589722 0.66233093 0.12927583 4288961280
1.9609275 0.66305345 0.14081009 4288961280
1.9574835 0.66195118 0.15179251 4288961280
1.9145408 0.64749634 0.159274 4288830720
1.9811411 0.67007315 0.17584541 4289091840
1.9828222 0.67070436 0.18682586 4289091840
1.9725055 0.66727883 0.19642065 4288961280
1.9161898 0.64829707 0.20085734 4288830720
1.7493074 0.59191746 0.19230781 4288177920
1.9717 0.6671952 0.22668035 4288961280
1.9607023 0.66353828 0.23498283 4288961280
1.9419973 0.65727335 0.24195468 4288961280
1.923938 0.65122586 0.24856357 4288830720
1.881523 0.63693619 0.25146946 4288700160
1.9600502 0.66357076 0.27042598 4288961280
1.9558967 0.66222882 0.2779761 4288961280
1.9615968 0.66422194 0.28661808 4288961280
1.9330153 0.65461129 0.28983283 4288961280
1.9018497 0.64412427 0.29210585 4288830720
1.8243922 0.6179626 0.28654444 4288569600
1.9424807 0.6580072 0.31151789 4288961280
1.9357425 0.65578985 0.31646463 4288961280
1.9298263 0.65385062 0.32114276 4288961280
1.9290322 0.65364617 0.32628348 4288961280
1.9370973 0.65644264 0.33256429 4288961280
1.9363936 0.65626943 0.33697149 4288961280
1.922263 0.65154737 0.33861685 4288961280
1.9235258 0.65204036 0.34255379 4288961280
1.9229889 0.65192384 0.345772 4288961280
1.9244598 0.65248799 0.34894893 4288961280
1.9240432 0.65241271 0.35137695 4288961280
1.9193927 0.65090251 0.35261428 4288961280
1.9191047 0.65087116 0.35423508 4288961280
1.9188825 0.65086234 0.35545218 4288961280
1.9140633 0.64929509 0.35539791 4288830720
1.9229342 0.6523701 0.3574698 4288961280
1.9229137 0.65243059 0.35746998 4288961280
1.9256774 0.65343565 0.35756782 4288961280
1.912734 0.64911318 0.35433245 4288830720
1.9241204 0.65304381 0.35518944 4288961280
1.9331641 0.65618062 0.35518187 4288961280
1.9250801 0.65350664 0.35160995 4288961280
1.9301221 0.65528679 0.35002753 4288961280
1.9292271 0.65505248 0.34695306 4288961280
1.9278452 0.65465307 0.3433893 4288961280
1.9283991 0.65491098 0.33977124 4288961280
1.9308878 0.65582603 0.33609217 4288961280
1.9278097 0.65485144 0.33105442 4288961280
1.9172859 0.65134847 0.32438657 4288830720
1.9153099 0.65074784 0.31882226 4288830720
1.9338067 0.65710074 0.31625149 4288961280
1.9508802 0.66297185 0.31297582 4288961280
1.9433581 0.66048878 0.30536228 4288961280
1.946141 0.66150659 0.29903394 4288961280
1.9137613 0.65112346 0.24340922 4288830720
1.9449452 0.66180223 0.2382981 4288961280
1.959605 0.66686285 0.23067583 4288961280
1.9384069 0.65972608 0.21860161 4288961280
1.9162196 0.6522513 0.20638822 4288830720
1.9468639 0.66275191 0.19959913 4288961280
1.9578364 0.66656053 0.19035041 4288961280
1.9297107 0.65706325 0.17717488 4288830720
1.9100735 0.65045327 0.16484435 4288830720
1.9313173 0.65775871 0.15585805 4288830720
1.9384283 0.66025424 0.14539669 4288830720
1.937288 0.65994084 0.13412049 4288830720
1.9110819 0.65109158 0.12111525 4288830720
1.8264753 0.62235045 0.10491508 4288439040
1.685037 0.5742451 0.086666293 4287916800
1.6403888 0.55910087 0.074444205 4287786240
1.8590094 0.63364714 0.073108844 4288569600
2.513921 0.85686898 0.083629549 4290919680
2.787143 0.95007282 0.07558196 4291833600
2.7915287 0.95167589 0.058396723 4291964160
2.7840629 0.94923979 0.040915918 4291833600
2.7847393 0.94957858 0.023553021 4291833600
2.7941322 0.95288932 0.0061759157 4291964160
2.7584438 0.94082946 -0.011154328 4291833600
2.7830174 0.94931656 -0.028634917 4291833600
2.7998171 0.9551543 -0.046266004 4291964160
2.7984254 0.95478851 -0.063648269 4291964160
2.7794895 0.94843787 -0.080442496 4291833600
2.807122 0.957973 -0.098541066 4291964160
2.8158801 0.9610703 -0.11610043 4291964160
2.8210301 0.96293694 -0.1334727 4291964160
2.786063 0.95111293 -0.14863415 4291833600
2.8113081 0.95983744 -0.16677274 4291964160
2.8144362 0.96101403 -0.18359436 4291964160
2.8154719 0.9614765 -0.20010613 4291964160
2.803932 0.95764518 -0.21545014 4291964160
2.8344326 0.96816838 -0.23388575 4292094720
2.8438799 0.97150391 -0.25056091 4292094720
2.8556769 0.9756425 -0.26728627 4292225280
2.8031433 0.95780748 -0.27749702 4291964160
2.8305309 0.96727115 -0.29515356 4292094720
2.8456731 0.97255301 -0.3114343 4292094720
2.8399343 0.97070074 -0.32514092 4292094720
2.8441601 0.97225314 -0.33961701 4292094720
2.7924123 0.9546752 -0.34682161 4291964160
2.8504643 0.97462416 -0.36726564 4292225280
2.8654647 0.97985989 -0.38210222 4292225280
2.863308 0.97923082 -0.3942858 4292225280
2.8720105 0.98231435 -0.40754506 4292225280
2.8590593 0.97799343 -0.41726279 4292225280
2.8327236 0.96909374 -0.42440498 4292094720
2.8377402 0.97091556 -0.43566963 4292225280
2.8494513 0.97502738 -0.44752416 4292225280
2.8452857 0.97370815 -0.45640719 4292225280
2.8412173 0.97242165 -0.46475703 4292225280
2.8444924 0.9736473 -0.47376975 4292225280
2.8501306 0.97568154 -0.48265633 4292225280
2.8307614 0.9691568 -0.4867259 4292225280
2.8242161 0.96701998 -0.49236852 4292094720
2.8071668 0.96128643 -0.49556097 4292094720
2.7989557 0.95857716 -0.49968275 4292094720
2.7827873 0.95314234 -0.50176173 4291964160
2.728569 0.93467617 -0.49629587 4291833600
2.7410026 0.9390325 -0.50228381 4291833600
2.7404718 0.93894893 -0.50533164 4291833600
2.7623982 0.94655764 -0.51194292 4291964160
2.7583237 0.94526005 -0.51316458 4291964160
2.7580726 0.94527173 -0.5144937 4291964160
2.7532604 0.9437201 -0.51437086 4291964160
2.7355032 0.93773174 -0.51123053 4291833600
2.7439284 0.94071507 -0.51237386 4291833600
2.7891383 0.95630705 -0.51975584 4292094720
2.7954042 0.95855194 -0.51926619 4292094720
2.7993224 0.95999205 -0.51772785 4292094720
2.8241925 0.96861577 -0.51942438 4292225280
2.8395264 0.97397083 -0.51871997 4292225280
2.829443 0.97061014 -0.51277238 4292225280
2.8336031 0.97213352 -0.50881237 4292225280
2.8303483 0.97111338 -0.5029313 4292225280
2.8335111 0.97229421 -0.49760446 4292225280
2.833533 0.97239733 -0.49114415 4292225280
2.8252194 0.96964014 -0.4826946 4292094720
2.8188317 0.96754295 -0.47405428 4292094720
2.8083425 0.96403748 -0.46422696 4292094720
2.8046632 0.96286809 -0.45503122 4292094720
2.8177655 0.96745825 -0.44799986 4292094720
2.8477752 0.97785282 -0.44299364 4292225280
2.839766 0.97519702 -0.43150631 4292225280
2.8264608 0.97072214 -0.41880435 4292094720
2.7981811 0.96110421 -0.40357509 4291964160
2.7993231 0.96158773 -0.39223045 4291964160
2.8182237 0.96816987 -0.38284075 4292094720
2.8149664 0.96714258 -0.3699511 4292094720
2.7989016 0.9617154 -0.355055 4291964160
2.7832594 0.9564321 -0.33996239 4291964160
2.8082645 0.96511245 -0.3293958 4291964160
2.8168719 0.96816009 -0.31638056 4292094720
2.8130097 0.96692312 -0.30159456 4292094720
2.7639792 0.9501633 -0.281921 4291833600
2.7882016 0.95857644 -0.2695137 4291964160
2.7994981 0.96254802 -0.25537375 4291964160
2.7907357 0.95962483 -0.23911667 4291964160
2.7602754 0.94924152 -0.22096488 4291833600
2.7833786 0.95727217 -0.20688447 4291964160
2.7816288 0.9567585 -0.19061635 4291833600
2.7865539 0.9585399 -0.17457804 4291964160
2.7713037 0.95338297 -0.15715349 4291833600
2.7803125 0.95656878 -0.14096494 4291833600
2.7743821 0.95461631 -0.12385247 4291833600
2.7935283 0.96128982 -0.1076389 4291964160
2.7540622 0.9477998 -0.089191116 4291833600
2.7778859 0.95608312 -0.07277739 4291833600
2.7941983 0.96178335 -0.055842351 4291964160
2.7752066 0.95533532 -0.038167391 4291833600
2.771873 0.95427495 -0.020802952 4291833600
2.6898351 0.92612493 -0.0033773172 4291572480
2.1089034 0.72623819 0.010420598 4289483520
1.6352093 0.5632323 0.018174961 4287786240
1.7028849 0.58658344 0.02958028 4288047360
1.7169263 0.59147155 0.040512715 4288047360
1.9499301 0.67176032 0.058167335 4288961280
1.945493 0.67029345 0.070024483 4288961280
1.9394313 0.66826689 0.08168187 4288830720
1.9505105 0.67214406 0.094006762 4288961280
1.9394617 0.66839945 0.10515758 4288830720
1.9200729 0.66178101 0.11555712 4288830720
1.9371051 0.66770989 0.12801614 4288830720
1.9459605 0.67082244 0.13994454 4288961280
1.8784341 0.6476143 0.14587222 4288700160
1.707148 0.58864295 0.14220044 4288047360
1.8994427 0.65497452 0.16885082 4288700160
1.9032855 0.65635955 0.17961191 4288830720
1.9023861 0.65611023 0.189742 4288830720
1.9071687 0.65781993 0.20024997 4288830720
1.8600764 0.64164394 0.20486121 4288569600
1.9750333 0.68134362 0.22745925 4289091840
1.9572548 0.67527616 0.23498119 4288961280
1.9434367 0.67057365 0.24256368 4288961280
1.9239326 0.66390914 0.24900745 4288830720
1.9012487 0.65614665 0.25456747 4288830720
1.9351736 0.66791219 0.26747465 4288961280
1.8950301 0.65412509 0.26980853 4288830720
1.877165 0.64802271 0.27477333 4288700160
1.7825501 0.61543423 0.26774454 4288439040
1.8087897 0.62454873 0.27831674 4288439040
1.7430607 0.60192215 0.27427146 4288308480
1.8734858 0.64700055 0.30101037 4288700160
1.8906813 0.6529991 0.30967829 4288830720
1.9059442 0.65833181 0.31777075 4288830720
1.9223343 0.66405493 0.32577375 4288961280
1.9247975 0.66497016 0.33108863 4288961280
1.9294146 0.66662967 0.3364073 4288961280
1.9241027 0.66486043 0.33960193 4288961280
1.9240297 0.6649006 0.34331501 4288961280
1.9234918 0.6647805 0.34654364 4288961280
1.9171813 0.6626662 0.34831634 4288961280
1.9214219 0.66419744 0.35159597 4288961280
1.9257239 0.66575032 0.35448545 4288961280
1.9157251 0.66236162 0.35432133 4288961280
1.9201568 0.66396004 0.35640666 4288961280
1.9200003 0.66397297 0.35722449 4288961280
1.9249636 0.66575611 0.35857725 4288961280
1.9156343 0.66259843 0.35684603 4288961280
1.9156804 0.66268212 0.35644343 4288961280
1.9169673 0.66319507 0.35585287 4288961280
1.9259359 0.66636497 0.35626525 4288961280
1.9261827 0.66651922 0.35463938 4288961280
1.9130473 0.66204464 0.35014644 4288830720
1.9165037 0.66330922 0.34829202 4288961280
1.9071273 0.66013443 0.34370622 4288830720
1.8942082 0.65573341 0.33811629 4288830720
1.883974 0.65226078 0.33265343 4288830720
1.8738725 0.64883357 0.32686779 4288700160
1.8163309 0.62898558 0.31257641 4288569600
1.8253943 0.63218975 0.30950516 4288569600
1.817705 0.6295951 0.30323043 4288569600
1.8636286 0.64556283 0.30544344 4288700160
1.9163024 0.66387165 0.30811322 4288830720
1.9245543 0.66680074 0.30308831 4288961280
1.9364295 0.67098558 0.29821804 4288961280
1.9175591 0.66476238 0.24438328 4288830720
1.8768716 0.65073514 0.23040731 4288700160
1.7979221 0.6234439 0.21203835 4288439040
1.7621694 0.61111987 0.19909161 4288308480
1.8533288 0.64278919 0.20000248 4288569600
1.9288132 0.66903096 0.19814141 4288830720
1.9313862 0.66999739 0.18814956 4288830720
1.916483 0.6649037 0.17630978 4288830720
1.8978219 0.65850574 0.16411178 4288700160
1.9143099 0.66429806 0.15479018 4288830720
1.9298828 0.66977441 0.14504233 4288830720
1.9202582 0.66651011 0.13320199 4288830720
1.9091843 0.66274238 0.12123476 4288830720
1.7561709 0.60971916 0.10105781 4288177920
1.7638707 0.61245972 0.090923324 4288308480
1.6371423 0.5685423 0.074441947 4287786240
1.8874276 0.6554873 0.074379347 4288700160
2.6066902 0.90526539 0.086902857 4291311360
2.7712431 0.96250093 0.075290874 4291833600
2.7586143 0.95822388 0.057809271 4291833600
2.7606058 0.95902324 0.040639114 4291833600
2.756556 0.95772445 0.023346337 4291833600
2.7527046 0.95649433 0.00607801 4291833600
2.7435358 0.95341665 -0.011129769 4291703040
2.7595596 0.95909113 -0.028466502 4291833600
2.7668819 0.96174335 -0.045832209 4291833600
2.778717 0.96596426 -0.063343138 4291833600
2.747129 0.95509416 -0.079685174 4291703040
2.778903 0.96624589 -0.097765557 4291833600
2.7970865 0.9726755 -0.11557459 4291964160
2.8022289 0.97457236 -0.13286725 4291964160
2.7663908 0.96222013 -0.14789934 4291833600
2.783102 0.96813911 -0.16545191 4291964160
2.7947152 0.97228634 -0.18269306 4291964160
2.7919838 0.97144479 -0.1988555 4291964160
2.7851832 0.96918732 -0.21445847 4291964160
2.8062117 0.9766112 -0.23204404 4291964160
2.8156495 0.98000354 -0.24859394 4292094720
2.8133206 0.97930199 -0.26387665 4292094720
2.775013 0.9660784 -0.27528602 4291964160
2.8023565 0.97570246 -0.29282463 4291964160
2.8221762 0.98270947 -0.30950376 4292094720
2.821152 0.98246104 -0.32365838 4292094720
2.8112986 0.97913837 -0.33639026 4292094720
2.7596672 0.96126688 -0.3434656 4291833600
2.8303573 0.98599011 -0.36542594 4292094720
2.8419716 0.99014288 -0.37974975 4292225280
2.8529387 0.99407083 -0.39366159 4292225280
2.8307385 0.98644495 -0.40251866 4292094720
2.8271859 0.98531401 -0.41345963 4292094720
2.7999802 0.97594082 -0.42036128 4292094720
2.8096728 0.97942358 -0.432244 4292094720
2.8213708 0.98360574 -0.44402021 4292094720
2.8041527 0.97770959 -0.45073208 4292094720
2.8225055 0.98421144 -0.46263468 4292094720
2.8159292 0.98202354 -0.46996763 4292094720
2.8267491 0.98590016 -0.47966859 4292225280
2.807425 0.97926593 -0.48369199 4292094720
2.800899 0.97709322 -0.48929191 4292094720
2.775507 0.96833968 -0.49096516 4291964160
2.7710443 0.96688432 -0.49569988 4291964160
2.7642221 0.96460515 -0.49941698 4291964160
2.7138369 0.94712669 -0.49460655 4291833600
2.7271779 0.95187962 -0.50075096 4291833600
2.7219989 0.95017046 -0.50293005 4291833600
2.7345834 0.95465988 -0.50780398 4291833600
2.7212203 0.95009345 -0.50727808 4291833600
2.7302706 0.95334935 -0.5103246 4291833600
2.7254689 0.95176989 -0.51019365 4291833600
2.7207639 0.95022345 -0.50948268 4291833600
2.7077873 0.94578815 -0.50663185 4291833600
2.7612739 0.96456075 -0.51558208 4291964160
2.7675252 0.96684039 -0.51510298 4291964160
2.7844527 0.97284895 -0.51598799 4292094720
2.8009007 0.9786908 -0.51615137 4292094720
2.8022459 0.9792574 -0.51291621 4292094720
2.8061333 0.98071188 -0.50954056 4292094720
2.8242419 0.98713541 -0.50811356 4292225280
2.8112152 0.98267967 -0.50049931 4292094720
2.810178 0.98241276 -0.49446139 4292094720
2.8008776 0.97925729 -0.48642296 4292094720
2.8018899 0.97970575 -0.47962844 4292094720
2.7908463 0.97593933 -0.47024789 4292094720
2.7803686 0.97236967 -0.46048084 4291964160
2.7766869 0.97117519 -0.45134944 4291964160
2.8037553 0.98073292 -0.44661218 4292094720
2.8196924 0.98639935 -0.43945202 4292094720
2.8163598 0.98532706 -0.42875108 4292094720
2.798398 0.97913724 -0.41542009 4292094720
2.7701628 0.96935213 -0.4002758 4291964160
2.7712913 0.96983755 -0.38901916 4291964160
2.7854609 0.97488582 -0.37908506 4291964160
2.8009303 0.98038942 -0.36877194 4292094720
2.7708349 0.96994865 -0.3521294 4291964160
2.7589624 0.96588331 -0.33759704 4291833600
2.7839077 0.97470349 -0.32711703 4291964160
2.7959597 0.97901195 -0.31458095 4291964160
2.7932026 0.97813666 -0.29998824 4291964160
2.7359235 0.95817256 -0.27953768 4291833600
2.7649028 0.96840686 -0.26771152 4291833600
2.7751112 0.97206986 -0.25356847 4291964160
2.7625947 0.96777499 -0.23709108 4291833600
2.7274797 0.9555645 -0.21868873 4291703040
2.7646475 0.96866977 -0.20580837 4291833600
2.7628958 0.96814388 -0.18961443 4291833600
2.7678058 0.96995145 -0.1736512 4291833600
2.7478688 0.96305394 -0.15603718 4291833600
2.7493093 0.96364552 -0.13957277 4291833600
2.7462153 0.96264809 -0.12273879 4291833600
2.7606018 0.96777654 -0.10648029 4291833600
2.7212086 0.95405674 -0.088200763 4291703040
2.7581873 0.96710414 -0.072296992 4291833600
2.761255 0.96826637 -0.055186968 4291833600
2.7607977 0.96819293 -0.03793228 4291833600
2.7436867 0.96228039 -0.020522304 4291703040
2.6848633 0.94174081 -0.0032638484 4291572480
2.1635501 0.75901449 0.010821034 4289744640
1.6685417 0.58548063 0.018667383 4287916800
1.708913 0.59969282 0.029821578 4288047360
1.7229245 0.60466141 0.040813662 4288177920
1.9353187 0.67922348 0.057928592 4288830720
1.9378265 0.68016428 0.069972008 4288830720
1.9308342 0.6777721 0.081566036 4288830720
1.9334081 0.67873627 0.093450494 4288830720
1.935577 0.67955852 0.10524198 4288830720
1.9089357 0.67026973 0.11519864 4288830720
1.9285151 0.6772024 0.12778671 4288830720
1.9377546 0.68050689 0.1397167 4288961280
1.7872983 0.62775046 0.1391295 4288308480
1.7262241 0.6063652 0.14415734 4288177920
1.6982038 0.59658188 0.1512925 4288047360
1.6974293 0.59636414 0.1605342 4288047360
1.697641 0.59649289 0.16968869 4288047360
1.8740277 0.6584965 0.19723575 4288700160
1.8637064 0.65493143 0.20574962 4288700160
1.9579389 0.68809319 0.22601835 4288961280
1.949973 0.68535793 0.23465231 4288961280
1.9266938 0.67724222 0.24102806 4288830720
1.9244335 0.67651057 0.24964514 4288830720
1.9029381 0.6690197 0.2553758 4288830720
1.9228288 0.67607224 0.26636916 4288830720
1.8954382 0.6665082 0.27047497 4288830720
1.8057579 0.63504755 0.26490149 4288439040
1.7742994 0.62404823 0.26709753 4288308480
1.709596 0.60135919 0.26362056 4288177920
1.72183 0.60571748 0.27152419 4288177920
1.834281 0.64531666 0.29535133 4288569600
1.8691703 0.65764749 0.3068192 4288700160
1.8890694 0.66470873 0.31563795 4288830720
1.9027189 0.66957337 0.32314271 4288830720
1.9019099 0.66935301 0.32785118 4288830720
1.9083747 0.67169183 0.33344722 4288830720
1.911863 0.67298406 0.3381578 4288830720
1.9066215 0.67120504 0.34092677 4288830720
1.9103285 0.67257488 0.3448956 4288830720
1.9133295 0.67369682 0.34834504 4288961280
1.9129145 0.67361683 0.35076877 4288961280
1.9032695 0.67028803 0.35107717 4288830720
1.9122746 0.6735245 0.35441402 4288961280
1.9120524 0.67351305 0.35563168 4288961280
1.9118967 0.67352527 0.35644427 4288961280
1.911808 0.67356139 0.35685083 4288961280
1.9024978 0.67035002 0.35511607 4288830720
1.9046438 0.67117345 0.35510361 4288830720
1.9084727 0.67259002 0.35498613 4288830720
1.9044158 0.67122906 0.35298535 4288830720
1.9088969 0.67287624 0.35215285 4288830720
1.8996704 0.66969389 0.34838328 4288830720
1.9033604 0.67106295 0.34658134 4288830720
1.8856333 0.66488433 0.34049356 4288830720
1.8852967 0.66483438 0.33717781 4288830720
1.8521409 0.65321553 0.32765955 4288700160
1.8407711 0.64927506 0.32170495 4288569600
1.8451234 0.65087736 0.31814021 4288700160
1.83605 0.64774603 0.31190225 4288569600
1.832108 0.64642388 0.30620918 4288569600
1.8519382 0.65348595 0.30409133 4288700160
1.9072505 0.67306536 0.30722332 4288830720
1.9134116 0.67531019 0.3018842 4288830720
