# .PCD v0.7 - Point Cloud Data file format
VERSION 0.7
FIELDS x y z rgba
SIZE 4 4 4 4
TYPE F F F U
COUNT 1 1 1 1
WIDTH 1076
HEIGHT 1
VIEWPOINT 0 0 0 1 0 0 0
POINTS 1076
DATA ascii
3.4569905 -0.2048941 0.60982627 4293792000
3.4649541 -0.20525685 0.60979766 4293792000
3.4604087 -0.20487849 0.60685313 4293792000
3.4694703 -0.20530562 0.60558033 4293792000
3.473527 -0.20543617 0.60271418 4293792000
3.4898758 -0.20629308 0.60125268 4293922560
3.4765477 -0.20539562 0.59397572 4293922560
3.4926012 -0.20623396 0.59101945 4293922560
3.4756322 -0.2051224 0.58179224 4293792000
3.4952857 -0.20617211 0.57801068 4293922560
3.4865515 -0.20554699 0.56884396 4293922560
3.4741991 -0.20470925 0.55847752 4293792000
3.4669266 -0.20417143 0.54833108 4293792000
3.4590859 -0.20360065 0.53750324 4293792000
3.4884114 -0.20521677 0.53176773 4293922560
3.4811785 -0.20468152 0.51978523 4293792000
3.4860861 -0.20486017 0.50902706 4293792000
3.4422405 -0.20158313 0.41626585 4293661440
3.4683619 -0.20300351 0.40407243 4293792000
3.4891818 -0.2041121 0.39059907 4293792000
3.4875736 -0.20390809 0.37409204 4293792000
3.4577782 -0.20205703 0.35429612 4293661440
3.4554539 -0.2018123 0.33707649 4293661440
3.472188 -0.20268017 0.32127056 4293661440
3.4604473 -0.20188576 0.30245164 4293661440
3.4362702 -0.20036691 0.2823993 4293530880
3.4512849 -0.20113362 0.26530427 4293661440
3.4632146 -0.2017197 0.24753743 4293661440
3.463465 -0.20162509 0.22859955 4293661440
3.4321127 -0.19969174 0.20749897 4293530880
3.4631605 -0.20138904 0.1899448 4293661440
3.4678688 -0.20155352 0.17053869 4293661440
3.4771683 -0.20198441 0.15109348 4293661440
3.4305427 -0.19916785 0.12927034 4293530880
3.4463608 -0.19997756 0.10983755 4293530880
3.4619176 -0.20077114 0.090094917 4293661440
3.4652317 -0.20085409 0.069826037 4293661440
3.4182279 -0.19802189 0.048725616 4293530880
3.4390256 -0.19911833 0.028693389 4293530880
3.4412372 -0.1991379 0.0083391992 4293530880
3.4009252 -0.19669792 -0.011901288 4293400320
3.417995 -0.19757743 -0.032191955 4293530880
3.423794 -0.19780473 -0.052476991 4293530880
3.4417992 -0.19873647 -0.073032796 4293530880
3.3997276 -0.19620001 -0.092094071 4293400320
3.4373319 -0.19826181 -0.11318681 4293530880
3.4521856 -0.19900976 -0.13371378 4293661440
3.4486241 -0.19869575 -0.15344837 4293661440
3.4107764 -0.1964076 -0.17125422 4293530880
3.4205158 -0.19686063 -0.19110231 4293530880
3.4430285 -0.19804777 -0.21163738 4293661440
3.4452715 -0.1980682 -0.23083438 4293661440
3.4210327 -0.19656688 -0.24788521 4293530880
3.4583597 -0.19860263 -0.26919442 4293661440
3.4731746 -0.19934392 -0.28873545 4293661440
3.4803739 -0.19964743 -0.30744204 4293792000
3.4635432 -0.19857278 -0.32363883 4293661440
3.4571462 -0.19809707 -0.34033531 4293661440
3.4687793 -0.19865432 -0.35845494 4293661440
3.4673588 -0.19846369 -0.3748779 4293661440
3.4690456 -0.19845089 -0.39122069 4293792000
3.4441917 -0.19692053 -0.40402892 4293661440
3.4722557 -0.19841565 -0.42260358 4293792000
3.4877012 -0.19918832 -0.43935755 4293792000
3.4924333 -0.19934851 -0.45435286 4293792000
3.4849181 -0.19880971 -0.46723169 4293792000
3.4725068 -0.19799221 -0.47884795 4293792000
3.4414639 -0.19611377 -0.48719031 4293661440
3.4452612 -0.19622156 -0.49980983 4293661440
3.4462357 -0.19616845 -0.51146621 4293661440
3.4509127 -0.19632591 -0.52310514 4293792000
3.4566343 -0.19654247 -0.53433454 4293792000
3.4497449 -0.19604203 -0.54299802 4293792000
3.4562666 -0.19630371 -0.55314469 4293792000
3.4413481 -0.19534792 -0.5592019 4293661440
3.4482911 -0.19563337 -0.56814367 4293792000
3.4369497 -0.19488162 -0.57340652 4293661440
3.435308 -0.19468024 -0.57959509 4293661440
3.4334931 -0.19446918 -0.58507413 4293661440
3.4193623 -0.19356106 -0.58774889 4293661440
3.4012039 -0.19242598 -0.58900142 4293661440
3.414361 -0.19306274 -0.59498012 4293661440
3.4012256 -0.19221281 -0.59568435 4293661440
3.3959248 -0.19180623 -0.59704876 4293530880
3.4005759 -0.19196175 -0.59946257 4293661440
3.4042106 -0.19205964 -0.60099834 4293661440
3.3992677 -0.19167364 -0.60031652 4293661440
3.4167812 -0.19255349 -0.60289454 4293661440
3.4253604 -0.19292901 -0.60318416 4293661440
3.4256794 -0.19283903 -0.60130984 4293661440
3.4364634 -0.19333778 -0.60056031 4293792000
3.4379437 -0.1933127 -0.59747273 4293792000
3.4446583 -0.19358172 -0.59458756 4293792000
3.4412401 -0.19328116 -0.58925611 4293792000
3.4431708 -0.19328108 -0.58415532 4293792000
3.4464295 -0.19335541 -0.57859111 4293792000
3.4483697 -0.19335558 -0.57212341 4293792000
3.4472528 -0.1931843 -0.56448323 4293792000
3.4370561 -0.19250457 -0.55472898 4293661440
3.4326541 -0.19214983 -0.54530394 4293661440
3.4179375 -0.19121833 -0.53366262 4293661440
3.4323535 -0.19191669 -0.52595407 4293661440
3.4455581 -0.19254643 -0.51737362 4293661440
3.4693182 -0.19376487 -0.50966775 4293792000
3.4561801 -0.19292217 -0.49592668 4293792000
3.4461327 -0.19225273 -0.48214498 4293661440
3.4247501 -0.19095191 -0.46634546 4293661440
3.4439127 -0.19191182 -0.45554379 4293661440
3.4632242 -0.19287881 -0.44409433 4293792000
3.45769 -0.19246164 -0.42890352 4293661440
3.424916 -0.19052944 -0.4100168 4293530880
3.4237087 -0.19035438 -0.3945969 4293530880
3.4504974 -0.19173507 -0.38184515 4293661440
3.4548702 -0.19186918 -0.36604372 4293661440
3.4508343 -0.19153629 -0.34894347 4293661440
3.4037573 -0.18881606 -0.32735652 4293530880
3.4257741 -0.18992944 -0.31217438 4293530880
3.4276183 -0.18992367 -0.29468918 4293530880
3.4233506 -0.18957932 -0.27636728 4293530880
3.3888357 -0.18756115 -0.25550684 4293400320
3.4179301 -0.18906373 -0.23918913 4293530880
3.4415119 -0.19025971 -0.22193733 4293530880
3.4344428 -0.18976067 -0.2023768 4293530880
3.4396968 -0.18994258 -0.18333201 4293530880
3.4174352 -0.18860559 -0.16271856 4293530880
3.4346254 -0.18944608 -0.14383511 4293530880
3.4461985 -0.18997583 -0.12439518 4293530880
3.4162605 -0.1882178 -0.1034297 4293530880
3.4386721 -0.18934421 -0.083980523 4293530880
3.4514909 -0.18994129 -0.063999921 4293661440
3.4504092 -0.18977305 -0.043623593 4293661440
3.4452226 -0.18937922 -0.023185447 4293530880
3.4602826 -0.190098 -0.0028001389 4293661440
3.4723966 -0.1906541 0.017751394 4293661440
3.4315324 -0.18830229 0.037842873 4293530880
3.4771819 -0.1906977 0.058875319 4293661440
3.5020409 -0.19195068 0.079907984 4293792000
3.4931536 -0.19135348 0.10017853 4293792000
3.4207149 -0.18727754 0.11804383 4293530880
3.4848673 -0.19067995 0.14044425 4293661440
3.4838247 -0.19051313 0.16043073 4293661440
3.4750702 -0.1899249 0.17983218 4293661440
3.2884896 -0.17962398 0.18873318 4293008640
3.4898062 -0.19051035 0.21976165 4293792000
3.4883695 -0.190322 0.23889822 4293792000
3.484231 -0.18998642 0.25755844 4293792000
3.2836354 -0.17894498 0.2603175 4293008640
3.5082076 -0.19107272 0.29660609 4293792000
3.5199759 -0.19160277 0.31582099 4293922560
3.5119095 -0.19105303 0.33292818 4293922560
3.4650447 -0.18839434 0.34571543 4293661440
3.217149 -0.17481489 0.33662412 4292878080
3.5082428 -0.19052194 0.3837319 4293922560
3.5071082 -0.19034982 0.39982456 4293922560
3.4918656 -0.18941249 0.4137885 4293792000
3.4211586 -0.18546927 0.42033938 4293530880
3.3863266 -0.18347424 0.43037015 4293530880
3.5104578 -0.19008918 0.46047857 4293922560
3.5079939 -0.18984523 0.47395813 4293922560
3.5032003 -0.18947543 0.48655826 4293922560
3.4826808 -0.18825588 0.49632922 4293792000
3.4646227 -0.18717059 0.50574893 4293792000
3.390049 -0.18303505 0.50603306 4293530880
3.4992392 -0.18882018 0.53326392 4293922560
3.501924 -0.18885472 0.54400104 4293922560
3.4944046 -0.1883391 0.55251443 4293922560
3.5019555 -0.18863575 0.56277245 4293922560
3.4804294 -0.18736658 0.56767535 4293792000
3.489074 -0.18772201 0.57680953 4293922560
3.4795628 -0.18710065 0.58227313 4293922560
3.4601023 -0.18594521 0.5853405 4293792000
3.4690218 -0.18631525 0.59250677 4293792000
3.4604814 -0.18574753 0.5960027 4293792000
3.4686296 -0.18607561 0.60167533 4293792000
3.4729533 -0.18619815 0.60599625 4293792000
3.4523399 -0.18498422 0.60524482 4293792000
3.4470649 -0.18459296 0.60645401 4293792000
3.4517453 -0.18473485 0.60870332 4293792000
3.4766767 -0.18595962 0.61381817 4293922560
3.4619315 -0.18506186 0.6112141 4293792000
3.4620593 -0.18495964 0.61052001 4293792000
3.4660912 -0.18506584 0.60979766 4293792000
3.4789701 -0.18564387 0.60990828 4293922560
3.4755263 -0.18535061 0.60643858 4293922560
3.4707291 -0.18498543 0.60203153 4293792000
3.495939 -0.18621895 0.60210019 4293922560
3.4826071 -0.18539907 0.59481639 4293922560
3.4986665 -0.18614377 0.59185225 4293922560
3.4915421 -0.18565473 0.58426446 4293922560
3.501354 -0.18606614 0.57882512 4293922560
3.4876897 -0.18523014 0.56884396 4293922560
3.4891365 -0.18519704 0.56069577 4293922560
3.4729893 -0.18423057 0.54911083 4293792000
3.4727845 -0.18411028 0.53945601 4293792000
3.4994202 -0.18541214 0.53327215 4293922560
3.4921889 -0.18491898 0.52125949 4293922560
3.4973998 -0.18508473 0.51051289 4293922560
3.4527736 -0.18202093 0.41740426 4293661440
3.4833727 -0.18352431 0.40568981 4293792000
3.5042059 -0.18451153 0.39215395 4293792000
3.4887023 -0.18358529 0.37409204 4293792000
3.4539297 -0.18164665 0.35378733 4293661440
3.4525089 -0.18146317 0.33668038 4293661440
3.4788752 -0.18273938 0.32178533 4293792000
3.4639032 -0.1818438 0.30265597 4293661440
3.4423556 -0.18060419 0.28280813 4293661440
3.4488242 -0.18083492 0.26502961 4293661440
3.4559608 -0.18110023 0.24693933 4293661440
3.466928 -0.18156573 0.22875442 4293661440
3.443186 -0.18021388 0.20810144 4293530880
3.4742465 -0.18173012 0.19049153 4293661440
3.4772043 -0.1817753 0.1709428 4293661440
3.4769878 -0.18165445 0.15103708 4293661440
3.4275751 -0.17896491 0.12911703 4293530880
3.4590425 -0.18049896 0.11020634 4293661440
3.4636245 -0.18062894 0.090110414 4293661440
3.457279 -0.18018912 0.069643453 4293661440
3.4283106 -0.17857133 0.048853677 4293530880
3.4401274 -0.17907847 0.028693389 4293530880
3.450531 -0.17951134 0.0083590439 4293661440
3.4070067 -0.1771397 -0.011918756 4293400320
3.4290743 -0.17817903 -0.032285977 4293530880
3.4404624 -0.17866239 -0.052715618 4293530880
3.4483008 -0.17896082 -0.073147386 4293530880
3.4058044 -0.17664805 -0.09222924 4293400320
3.4390242 -0.17826271 -0.11320641 4293530880
3.4506426 -0.17875627 -0.13361141 4293661440
3.4547117 -0.17885824 -0.15367027 4293661440
3.4127736 -0.17657951 -0.17129993 4293530880
3.4379082 -0.17777169 -0.19201288 4293530880
3.4580791 -0.17870578 -0.21249489 4293661440
3.4458702 -0.17796631 -0.23080111 4293661440
3.4320805 -0.17714602 -0.24860673 4293530880
3.4644365 -0.17870693 -0.26958179 4293661440
3.4892058 -0.17987472 -0.28997615 4293792000
3.4864521 -0.17962293 -0.3078813 4293792000
3.4646413 -0.1783901 -0.32363883 4293661440
3.4681807 -0.17846309 -0.34131342 4293661440
3.4738514 -0.17864548 -0.35886544 4293792000
3.4734209 -0.17851391 -0.37541449 4293792000
3.4701431 -0.17823614 -0.39122069 4293792000
3.4502399 -0.1771052 -0.40461054 4293661440
3.4832668 -0.17869079 -0.4238098 4293792000
3.484839 -0.17866167 -0.43885842 4293792000
3.4909115 -0.17886305 -0.45401159 4293792000
3.4899769 -0.17870522 -0.46776238 4293792000
3.4874523 -0.17846611 -0.48075736 4293792000
3.4385927 -0.17585747 -0.4866305 4293661440
3.4502995 -0.17634749 -0.5003832 4293661440
3.4512718 -0.17628849 -0.51205248 4293661440
3.451998 -0.17621686 -0.52310514 4293792000
3.4577208 -0.17640007 -0.53433454 4293792000
3.4547749 -0.17614098 -0.54361898 4293792000
3.4573517 -0.17616345 -0.55314469 4293792000
3.4513001 -0.1757464 -0.56064314 4293792000
3.4440229 -0.17526735 -0.56726259 4293792000
3.4419675 -0.17505433 -0.57406378 4293792000
3.4354987 -0.17461713 -0.57944578 4293661440
3.4257069 -0.17401154 -0.58356464 4293661440
3.4204321 -0.17363587 -0.58774889 4293661440
3.4071879 -0.17285623 -0.58985329 4293661440
3.4105082 -0.17291725 -0.59412313 4293661440
3.4022877 -0.17239331 -0.59568435 4293661440
3.3969848 -0.1720176 -0.59704876 4293530880
3.4016366 -0.17214602 -0.59946257 4293661440
3.4092059 -0.17242171 -0.60169274 4293661440
3.4052444 -0.1721141 -0.60118479 4293661440
3.4178452 -0.17264335 -0.60289454 4293661440
3.4180586 -0.17254648 -0.60171115 4293661440
3.4316635 -0.17312518 -0.60217297 4293661440
3.4428391 -0.17358054 -0.60148752 4293792000
3.4488518 -0.17377506 -0.59918237 4293792000
3.4511995 -0.17378467 -0.59553176 4293792000
3.4560902 -0.17392208 -0.59161538 4293792000
3.4539998 -0.1737081 -0.5858109 4293792000
3.4474976 -0.17327251 -0.57859111 4293792000
3.4543643 -0.17350884 -0.57294053 4293792000
3.453248 -0.173344 -0.56528997 4293792000
3.4519236 -0.17316881 -0.55695629 4293792000
3.4425931 -0.1725923 -0.54671377 4293661440
3.4328091 -0.17199367 -0.53581905 4293661440
3.4294643 -0.17171809 -0.52534914 4293661440
3.4578326 -0.17302962 -0.5190565 4293792000
3.4753292 -0.1737957 -0.51039338 4293792000
3.4671321 -0.17327657 -0.49734488 4293792000
3.4521401 -0.17241859 -0.48283672 4293661440
3.4396596 -0.17168693 -0.46823153 4293661440
3.4499233 -0.17209056 -0.45619845 4293661440
3.4603264 -0.17250052 -0.44358635 4293661440
3.4726293 -0.17300448 -0.43062431 4293792000
3.435885 -0.17106567 -0.41120365 4293661440
3.4346817 -0.1708976 -0.39574012 4293661440
3.4565196 -0.17187531 -0.38239428 4293661440
3.4698346 -0.17242813 -0.36751652 4293661440
3.4608352 -0.17187192 -0.34984756 4293661440
3.4097705 -0.16922857 -0.32783446 4293530880
3.4317958 -0.17021362 -0.31262743 4293530880
3.4409571 -0.17055963 -0.29574549 4293661440
3.4342659 -0.17011982 -0.27716377 4293530880
3.40095 -0.16836236 -0.2563419 4293400320
3.4326296 -0.16982254 -0.24014451 4293530880
3.4391696 -0.17003781 -0.22171864 4293530880
3.4464543 -0.17028943 -0.20302267 4293661440
3.4468164 -0.17019877 -0.18365552 4293661440
3.4284525 -0.16918401 -0.16319345 4293530880
3.4356709 -0.16943203 -0.14383511 4293530880
3.4513175 -0.17009495 -0.12454206 4293661440
3.4222908 -0.16855662 -0.10358078 4293530880
3.4487033 -0.1697489 -0.084199928 4293530880
3.4662187 -0.17050187 -0.064253502 4293661440
3.45645 -0.1699125 -0.043686707 4293661440
3.453609 -0.16966408 -0.023234839 4293661440
3.4676743 -0.17024586 -0.0028052703 4293661440
3.4784422 -0.17066498 0.017776916 4293661440
3.4415598 -0.16874701 0.037941974 4293530880
3.4814708 -0.17059429 0.05893011 4293661440
3.495755 -0.17118414 0.079740442 4293792000
3.4992011 -0.1712427 0.10032165 4293792000
3.4217479 -0.16734457 0.11804383 4293530880
3.4949012 -0.17081216 0.14080612 4293792000
3.5024254 -0.17106961 0.16123866 4293792000
3.4900825 -0.17035682 0.18055463 4293792000
3.294466 -0.16070472 0.18901925 4293139200
3.4908569 -0.17017478 0.21976165 4293792000
3.4993842 -0.17048027 0.23958045 4293792000
3.4852788 -0.16968334 0.25755844 4293792000
3.2846222 -0.1598108 0.2603175 4293008640
3.5241904 -0.17135583 0.29786792 4293922560
3.5210323 -0.17109139 0.31582099 4293922560
3.5179348 -0.1708301 0.33339936 4293922560
3.4660835 -0.16820307 0.34571543 4293661440
3.2280471 -0.15654992 0.33766326 4292878080
3.5318315 -0.17117126 0.38619637 4293922560
3.5133374 -0.17016432 0.40041488 4293922560
3.4978695 -0.169305 0.41437605 4293792000
3.4523892 -0.16699494 0.42404979 4293661440
3.3162942 -0.16030748 0.42134386 4293269760
3.513483 -0.16972882 0.46073785 4293922560
3.5185032 -0.16986054 0.47523624 4293922560
3.4996881 -0.16884202 0.48592561 4293922560
3.4837184 -0.16796185 0.49632922 4293792000
3.4794919 -0.16764852 0.50776827 4293792000
3.4009371 -0.1637565 0.50750732 4293530880
3.5101547 -0.16890484 0.53476834 4293922560
3.4985821 -0.16823782 0.54332042 4293922560
3.5092554 -0.16864057 0.55469775 4293922560
3.5029953 -0.16822943 0.56277245 4293922560
3.4952641 -0.16774808 0.56992584 4293922560
3.4950361 -0.16762708 0.5776239 4293922560
3.4943864 -0.16748591 0.58458054 4293922560
3.4660513 -0.16601866 0.58617336 4293792000
3.4838336 -0.1667607 0.59486055 4293922560
3.4703646 -0.1660067 0.59752816 4293792000
3.4844179 -0.16656923 0.60423541 4293922560
3.4489157 -0.1647635 0.60162419 4293792000
3.4572947 -0.16505492 0.60593456 4293792000
3.4431629 -0.16427183 0.60558885 4293792000
3.4478443 -0.16438662 0.60783619 4293792000
3.4526463 -0.16450685 0.60939592 4293792000
3.4727879 -0.16535719 0.61295033 4293792000
3.4729154 -0.16525391 0.61225426 4293792000
3.4808838 -0.16552347 0.61222011 4293922560
3.4674804 -0.16477694 0.60771537 4293792000
3.4765472 -0.16509832 0.60643858 4293922560
3.4904482 -0.16564856 0.60527426 4293922560
3.4950953 -0.16575906 0.60177833 4293922560
3.4836283 -0.16510554 0.59481639 4293922560
3.49927 -0.16573669 0.59178096 4293922560
3.5014317 -0.16572882 0.58574778 4293922560
3.5032873 -0.16570634 0.57897526 4293922560
3.4986911 -0.16537878 0.57047141 4293922560
3.5009282 -0.16537431 0.56242627 4293922560
3.4834356 -0.16443832 0.55060172 4293792000
3.4787335 -0.16410683 0.54022247 4293792000
3.5058739 -0.16527677 0.53409982 4293922560
3.5079408 -0.16526376 0.52345812 4293922560
3.5122569 -0.16535652 0.51253229 4293922560
3.4627008 -0.16231966 0.41848293 4293661440
3.4893441 -0.16345875 0.4062674 4293792000
3.510185 -0.16432454 0.39270929 4293922560
3.5009866 -0.16378368 0.37530056 4293792000
3.459898 -0.16175254 0.35429612 4293661440
3.4584787 -0.1615773 0.337165 4293661440
3.4898276 -0.16293202 0.32270512 4293792000
3.4838114 -0.16254145 0.30430749 4293792000
3.4473319 -0.16073091 0.28313521 4293661440
3.4597793 -0.16120234 0.26579478 4293661440
3.4752939 -0.16181581 0.24824917 4293661440
3.4755468 -0.16171816 0.22925703 4293661440
3.4386921 -0.15989503 0.20776999 4293530880
3.4752464 -0.16148534 0.19049153 4293661440
3.4799592 -0.16159478 0.17102905 4293661440
3.4842758 -0.16168553 0.15131018 4293661440
3.4425347 -0.15964018 0.12964332 4293530880
3.4613838 -0.16040529 0.11024929 4293661440
3.4556305 -0.16002989 0.089876667 4293661440
3.4632638 -0.16027434 0.069744013 4293661440
3.4379814 -0.15899606 0.048977457 4293530880
3.4411123 -0.15903254 0.028693389 4293530880
3.4565132 -0.15963545 0.0083711408 4293661440
3.4099753 -0.15737881 -0.011925732 4293400320
3.4224181 -0.15784532 -0.032214101 4293530880
3.4414449 -0.15861452 -0.052715618 4293530880
3.450197 -0.15890926 -0.073166728 4293530880
3.4138863 -0.15712939 -0.09242174 4293530880
3.4473431 -0.15856077 -0.11344792 4293530880
3.4629607 -0.15917008 -0.13405019 4293661440
3.4655967 -0.15918213 -0.15411058 4293661440
3.4297042 -0.15742554 -0.17210078 4293530880
3.4488595 -0.1581962 -0.19256979 4293661440
3.4608531 -0.15863739 -0.21260497 4293661440
3.4707701 -0.15898268 -0.23240288 4293661440
3.4370396 -0.15732943 -0.24889533 4293530880
3.4753783 -0.15897496 -0.27035657 4293661440
3.4978099 -0.15989092 -0.29060885 4293792000
3.4904282 -0.1594436 -0.30814514 4293792000
3.4755683 -0.15865539 -0.32456768 4293792000
3.4641907 -0.15802696 -0.34082437 4293661440
3.4847703 -0.15885605 -0.35989165 4293792000
3.4932728 -0.15913366 -0.37745348 4293792000
3.4760859 -0.1582413 -0.39178011 4293792000
3.4611351 -0.15745173 -0.40577373 4293661440
3.4882154 -0.15857384 -0.4242923 4293792000
3.4897854 -0.15853535 -0.43935755 4293792000
3.4968476 -0.15874609 -0.45465562 4293792000
3.5008602 -0.15881804 -0.46908912 4293922560
3.4844744 -0.157965 -0.48021182 4293792000
3.4484613 -0.15622382 -0.48789001 4293661440
3.4512684 -0.15624234 -0.5003832 4293661440
3.4621222 -0.15662472 -0.51351821 4293792000
3.4628434 -0.15654834 -0.52460146 4293792000
3.4644129 -0.15651023 -0.53521872 4293792000
3.4606769 -0.15623251 -0.54439521 4293792000
3.4583194 -0.15601721 -0.55314469 4293792000
3.4522655 -0.15563542 -0.56064314 4293792000
3.4499145 -0.15542082 -0.56807417 4293792000
3.45771 -0.15566318 -0.57652831 4293792000
3.4453237 -0.1549971 -0.58094072 4293792000
3.4355261 -0.15444818 -0.58507413 4293661440
3.4312315 -0.1541471 -0.58944029 4293661440
3.4120748 -0.15317908 -0.59053475 4293661440
3.3988149 -0.1524768 -0.59192127 4293530880
3.398314 -0.15234736 -0.59482312 4293530880
3.3979294 -0.15222315 -0.59704876 4293530880
3.4075012 -0.15254469 -0.60032928 4293661440
3.4073529 -0.1524308 -0.60119873 4293661440
3.4101245 -0.15244745 -0.60187936 4293661440
3.410217 -0.15234423 -0.6013822 4293661440
3.4239254 -0.15284884 -0.60257691 4293661440
3.4414701 -0.15352373 -0.60372657 4293792000
3.4437919 -0.1535189 -0.60148752 4293792000
3.4468403 -0.15354629 -0.59866732 4293792000
3.4521537 -0.1536743 -0.59553176 4293792000
3.4531059 -0.15360801 -0.59094131 4293792000
3.4549532 -0.15358143 -0.5858109 4293792000
3.4533749 -0.15340257 -0.57941765 4293792000
3.4553165 -0.15338005 -0.57294053 4293792000
3.4565167 -0.15332451 -0.56566924 4293792000
3.4578056 -0.15327284 -0.55775172 4293792000
3.43466 -0.15213877 -0.54530394 4293661440
3.4248691 -0.15159726 -0.53443277 4293661440
3.4491699 -0.15256433 -0.52822262 4293661440
3.463722 -0.15309899 -0.51979786 4293792000
3.4713404 -0.15332647 -0.50966775 4293792000
3.4680827 -0.1530734 -0.49734488 4293792000
3.4530861 -0.15230279 -0.48283672 4293661440
3.4316924 -0.15125117 -0.46701905 4293661440
3.440963 -0.15155146 -0.45488912 4293661440
3.4652364 -0.15251148 -0.44409433 4293792000
3.4769526 -0.15291768 -0.43104261 4293792000
3.4359174 -0.15100479 -0.41109529 4293661440
3.4475324 -0.15140674 -0.39711237 4293661440
3.473995 -0.15245955 -0.38422281 4293792000
3.4791291 -0.15257536 -0.36840054 4293792000
3.4752853 -0.15229741 -0.35121265 4293792000
3.4196489 -0.1497516 -0.32869473 4293530880
3.4434717 -0.15068646 -0.31360576 4293661440
3.4418924 -0.150509 -0.29574549 4293661440
3.4501359 -0.1507609 -0.27836895 4293661440
3.4167387 -0.14919399 -0.25746208 4293530880
3.443527 -0.15025532 -0.24084154 4293661440
3.4564033 -0.15070838 -0.22276928 4293661440
3.4523745 -0.15042405 -0.20331635 4293661440
3.4521337 -0.1503049 -0.18388905 4293661440
3.4357176 -0.149482 -0.16349502 4293530880
3.438951 -0.14951444 -0.14393352 4293530880
3.4571638 -0.15019746 -0.12471934 4293661440
3.4282076 -0.14883155 -0.10373186 4293530880
3.4596214 -0.15008645 -0.084443711 4293661440
3.4671533 -0.15030406 -0.064253502 4293661440
3.4702806 -0.15033041 -0.043849703 4293661440
3.4571857 -0.14965434 -0.02325264 4293661440
3.4762497 -0.15037017 -0.002811451 4293661440
3.4983597 -0.15121645 0.0178739 4293792000
3.4474797 -0.14890866 0.037997026 4293530880
3.4841626 -0.15038346 0.058959838 4293661440
3.5080349 -0.15130343 0.079999089 4293792000
3.5055604 -0.15108636 0.10047702 4293792000
3.4226646 -0.14740591 0.11804383 4293530880
3.4908457 -0.15023243 0.14060509 4293792000
3.5033627 -0.15066084 0.16123866 4293792000
3.5009933 -0.15044875 0.18107066 4293792000
3.3093107 -0.1421074 0.18982023 4293139200
3.4983668 -0.15011568 0.22017564 4293792000
3.5102856 -0.15051663 0.24026269 4293792000
3.4915831 -0.14960481 0.25795552 4293792000
3.2954574 -0.14109762 0.26110664 4293139200
3.5251291 -0.15082026 0.29786792 4293922560
3.5269451 -0.15078695 0.31626716 4293922560
3.5238435 -0.15054345 0.33387056 4293922560
3.4670045 -0.14800608 0.34571543 4293661440
3.3355885 -0.14229096 0.34881979 4293269760
3.5377347 -0.15080287 0.38673925 4293922560
3.5192325 -0.14990342 0.40098041 4293922560
3.5037572 -0.14913397 0.41496357 4293792000
3.458262 -0.14708866 0.42465866 4293661440
3.392199 -0.14417207 0.43087375 4293530880
3.5243187 -0.14967637 0.46203658 4293922560
3.5287805 -0.14975481 0.47649843 4293922560
3.5105088 -0.1488689 0.48729932 4293922560
3.4945292 -0.14808129 0.49773809 4293922560
3.4601717 -0.14651649 0.5048157 4293792000
3.405786 -0.1441064 0.50809699 4293530880
3.5105867 -0.14843027 0.5346933 4293922560
3.5143123 -0.14847718 0.54561967 4293922560
3.5032575 -0.14789988 0.55360413 4293922560
3.508251 -0.14800029 0.56346875 4293922560
3.5109739 -0.14800465 0.57233715 4293922560
3.5008821 -0.14746906 0.57843828 4293922560
3.4953029 -0.14712404 0.58458054 4293922560
3.4768114 -0.14623627 0.58783901 4293792000
3.4770188 -0.14613557 0.5935415 4293792000
3.4811194 -0.14619836 0.59922314 4293922560
3.4892669 -0.14643072 0.60491806 4293922560
3.4547386 -0.14487298 0.60248244 4293792000
3.4680393 -0.14532159 0.60765898 4293792000
3.4627585 -0.14499134 0.60887641 4293792000
3.4536633 -0.14450182 0.60870332 4293792000
3.4722412 -0.14516984 0.6126948 4293792000
3.4835317 -0.14553227 0.61468655 4293922560
3.4787393 -0.14522256 0.61312139 4293922560
3.4916298 -0.1456508 0.61395043 4293922560
3.4733026 -0.14477699 0.60857755 4293792000
3.4912305 -0.1454144 0.60884172 4293922560
3.4864316 -0.14510481 0.6044209 4293922560
3.4910784 -0.14518833 0.60093081 4293922560
3.5081689 -0.14578871 0.59885144 4293922560
3.5090427 -0.14571458 0.59328002 4293922560
3.5072651 -0.1455304 0.58657187 4293922560
3.5081363 -0.14545615 0.57962674 4293922560
3.5134013 -0.14556387 0.57272196 4293922560
3.5018322 -0.14497437 0.56242627 4293922560
3.4981515 -0.1447119 0.5527851 4293922560
3.4934535 -0.1444076 0.54236847 4293922560
3.5112209 -0.14503156 0.53477657 4293922560
3.5178242 -0.14519359 0.52479774 4293922560
3.5181043 -0.14509444 0.51325345 4293922560
3.4635878 -0.14214249 0.41848293 4293661440
3.4902372 -0.14312632 0.4062674 4293792000
3.5077035 -0.14373221 0.39233127 4293922560
3.5068488 -0.14358681 0.37583292 4293792000
3.4706438 -0.14199519 0.35530573 4293661440
3.469306 -0.14183129 0.33813423 4293661440
3.4956923 -0.14280002 0.323165 4293792000
3.4846992 -0.14224128 0.30430749 4293792000
3.4531889 -0.1408464 0.28354403 4293661440
3.4646447 -0.14120463 0.26610085 4293661440
3.4761777 -0.14156528 0.24824917 4293661440
3.4854031 -0.14183129 0.22984877 4293792000
3.4495389 -0.14026332 0.20837246 4293661440
3.4819117 -0.14147009 0.19080846 4293661440
3.4948132 -0.1418843 0.17171553 4293792000
3.4915581 -0.14164227 0.15158801 4293792000
3.443907 -0.13960084 0.12966217 4293530880
3.4698989 -0.14054525 0.11049255 4293661440
3.4738874 -0.14059749 0.090328671 4293661440
3.4782026 -0.14066269 0.070027158 4293661440
3.4388494 -0.13896297 0.048977457 4293530880
3.4559686 -0.13954601 0.028809998 4293661440
3.4631765 -0.13972808 0.0083851647 4293661440
3.4108343 -0.13750891 -0.011925732 4293400320
3.4300706 -0.1381765 -0.032278009 4293530880
3.4496543 -0.13885686 -0.052828081 4293530880
3.4530587 -0.13888523 -0.07320901 4293661440
3.4297264 -0.13783886 -0.092827246 4293530880
3.458195 -0.13887419 -0.11377648 4293661440
3.4688215 -0.13919176 -0.13424338 4293661440
3.4904225 -0.13994871 -0.15517566 4293792000
3.4305632 -0.1374407 -0.17210078 4293530880
3.4636898 -0.13865888 -0.19334945 4293661440
3.4667053 -0.13867052 -0.21291122 4293661440
3.4676495 -0.13859917 -0.23213592 4293661440
3.4555142 -0.13800539 -0.25017071 4293661440
3.4836209 -0.1390183 -0.27093017 4293792000
3.497092 -0.13944584 -0.29047677 4293792000
3.5003424 -0.13946532 -0.30894342 4293792000
3.48599 -0.13878377 -0.3254599 4293792000
3.4740024 -0.13819721 -0.34170467 4293661440
3.4856367 -0.13855036 -0.35989165 4293792000
3.4918005 -0.13868548 -0.37720072 4293792000
3.4908502 -0.1385379 -0.39334646 4293792000
3.4669559 -0.13748054 -0.40635535 4293661440
3.4940398 -0.1384446 -0.42489541 4293792000
3.510478 -0.13898547 -0.44185326 4293922560
3.4927588 -0.13817404 -0.45401159 4293792000
3.4967742 -0.13822286 -0.46842575 4293792000
3.4947984 -0.13803481 -0.48151562 4293792000
3.4592068 -0.13652019 -0.48928946 4293792000
3.4669535 -0.13671684 -0.50253332 4293792000
3.4652994 -0.13654257 -0.51386273 4293792000
3.4686365 -0.13656493 -0.52534968 4293792000
3.4613159 -0.13616779 -0.5346086 4293792000
3.4802835 -0.13680448 -0.54734486 4293792000
3.4640262 -0.13605642 -0.55392122 4293792000
3.4635289 -0.13592792 -0.56233418 4293792000
3.464565 -0.13585956 -0.57034659 4293792000
3.4585583 -0.1355152 -0.57652831 4293792000
3.4510951 -0.13511418 -0.58177125 4293792000
3.4462185 -0.13481483 -0.58675134 4293792000
3.4360108 -0.1343074 -0.59011686 4293661440
3.4178324 -0.1334893 -0.59138662 4293661440
3.4094901 -0.13305621 -0.59363532 4293661440
3.4227674 -0.13346666 -0.598957 4293661440
3.4086006 -0.13280699 -0.59877765 4293661440
3.4083321 -0.1326893 -0.60032928 4293661440
3.4131036 -0.13276766 -0.6020667 4293661440
3.4207957 -0.13295925 -0.60361576 4293661440
3.4110467 -0.13247301 -0.6013822 4293661440
3.424758 -0.13289775 -0.60257691 4293661440
3.4472275 -0.13366121 -0.6045897 4293792000
3.4495499 -0.13364273 -0.60234696 4293792000
3.4575219 -0.1338428 -0.6003769 4293792000
3.4667766 -0.13409199 -0.59790945 4293792000
3.4628069 -0.13382949 -0.59245795 4293792000
3.4626827 -0.13371573 -0.58697945 4293792000
3.4643621 -0.1336716 -0.58112055 4293792000
3.467346 -0.13367763 -0.57479626 4293792000
3.4622822 -0.13337348 -0.56647599 4293792000
3.4586399 -0.13312435 -0.55775172 4293792000
3.4493051 -0.13265653 -0.54749703 4293792000
3.4296434 -0.13179246 -0.5350489 4293661440
3.450902 -0.1325008 -0.52836072 4293661440
3.464555 -0.13291602 -0.51979786 4293792000
3.4909599 -0.13381919 -0.51242512 4293792000
3.4738615 -0.13305447 -0.49805397 4293792000
3.4539149 -0.13218181 -0.48283672 4293661440
3.436476 -0.13140629 -0.46755791 4293661440
3.4606102 -0.13222028 -0.45737687 4293661440
3.4660661 -0.13231969 -0.44409433 4293792000
3.472826 -0.13246849 -0.43042806 4293792000
3.4417 -0.13117294 -0.41168872 4293661440
3.4394214 -0.13097788 -0.39608347 4293661440
3.4698582 -0.13202779 -0.38367367 4293661440
3.4782112 -0.13223618 -0.36821553 4293792000
3.488739 -0.13252668 -0.35248825 4293792000
3.4344668 -0.130357 -0.33004043 4293530880
3.4492669 -0.13081022 -0.31405881 4293661440
3.4616275 -0.13117008 -0.29737055 4293661440
3.4559362 -0.13084568 -0.27877069 4293661440
3.4225323 -0.1294733 -0.25783741 4293530880
3.4533155 -0.13052918 -0.24146888 4293661440
3.4622087 -0.13075641 -0.22309056 4293661440
3.472146 -0.13102247 -0.20443229 4293661440
3.4629297 -0.13056573 -0.18442048 4293661440
3.4488628 -0.12992686 -0.16408177 4293661440
3.4515419 -0.1299192 -0.14442636 4293661440
3.4634743 -0.13025939 -0.1249175 4293661440
3.4343119 -0.12905456 -0.10389204 4293530880
3.4570372 -0.12979977 -0.084360741 4293661440
3.4629745 -0.12991375 -0.064160943 4293661440
3.4750946 -0.13025911 -0.043900192 4293661440
3.4753897 -0.13016084 -0.023369581 4293661440
3.4904606 -0.13061547 -0.0028222809 4293661440
3.49826 -0.13079727 0.017869193 4293792000
3.4622781 -0.12934302 0.038151175 4293661440
3.4905715 -0.13029018 0.059054445 4293661440
3.5206425 -0.13130186 0.080267794 4293792000
3.5149434 -0.13097873 0.10072239 4293792000
3.442441 -0.12816875 0.11869812 4293530880
3.5116317 -0.13063438 0.14140925 4293792000
3.5041809 -0.13024697 0.16123866 4293792000
3.5018103 -0.13004869 0.18107066 4293792000
3.305094 -0.12263915 0.18953416 4293139200
3.513145 -0.13024859 0.2210542 4293792000
3.5200758 -0.1303948 0.2408767 4293792000
3.496382 -0.12940712 0.25824997 4293792000
3.3002081 -0.12204257 0.26142231 4293139200
3.5364997 -0.13066944 0.29875934 4293922560
3.533149 -0.13043448 0.31674996 4293922560
3.5296352 -0.13019373 0.33434176 4293922560
3.467808 -0.12780409 0.34571543 4293661440
3.2385974 -0.11925478 0.33859852 4292878080
3.5296125 -0.12985978 0.3857621 4293922560
3.5294774 -0.12974378 0.40205476 4293922560
3.5095286 -0.12890007 0.4155511 4293922560
3.4679873 -0.1272652 0.42575458 4293792000
3.3929815 -0.12440597 0.43087375 4293530880
3.5330613 -0.12943095 0.463076 4293922560
3.5345449 -0.1293741 0.47716692 4293922560
3.5257738 -0.12894215 0.4893057 4293922560
3.5042369 -0.12804428 0.49900606 4293922560
3.4812093 -0.12709334 0.50776827 4293792000
3.4164522 -0.12462169 0.50957125 4293661440
3.5262115 -0.12851444 0.53694993 4293922560
3.5240054 -0.1283232 0.54699928 4293922560
3.5089953 -0.12766623 0.55438387 4293922560
3.5139873 -0.12773731 0.56426096 4293922560
3.5206537 -0.12786889 0.57378387 4293922560
3.510556 -0.12739171 0.57990414 4293922560
3.5059576 -0.12711455 0.58622867 4293922560
3.4913998 -0.12647691 0.59017092 4293922560
3.4778111 -0.12587525 0.5935415 4293792000
3.4907761 -0.1262347 0.6007486 4293922560
3.4649808 -0.12519288 0.60057104 4293792000
3.4742298 -0.12541777 0.60574389 4293792000
3.468827 -0.12511361 0.60765898 4293792000
3.4733875 -0.12516883 0.61060673 4293792000
3.4731467 -0.1250509 0.61199844 4293792000
3.4779489 -0.1251144 0.61356288 4293922560
3.468111 -0.1246514 0.61182696 4293792000
3.4844475 -0.12512895 0.61398852 4293922560
3.492419 -0.12530537 0.61395043 4293922560
3.4878685 -0.12503238 0.61099178 4293922560
3.4969409 -0.12524761 0.60970002 4293922560
3.5059271 -0.12545918 0.60766369 4293922560
3.5115631 -0.1255504 0.60432076 4293922560
3.5128994 -0.12548767 0.5995239 4293922560
3.5285549 -0.12593593 0.59644479 4294053120
3.5174763 -0.12542988 0.58814746 4293922560
3.5187845 -0.12536584 0.58125556 4293922560
3.5191216 -0.12526715 0.57352573 4293922560
3.5114982 -0.12488534 0.56385225 4293922560
3.490051 -0.12401279 0.55138147 4293922560
3.4991732 -0.12422687 0.54313493 4293922560
3.5208983 -0.12488739 0.53613055 4293922560
3.5235527 -0.1248707 0.52553487 4293922560
3.5274923 -0.12489937 0.51450819 4293922560
3.4648547 -0.12197801 0.41854304 4293661440
3.4919181 -0.12282094 0.4063729 4293792000
3.5134473 -0.12346766 0.39288661 4293922560
3.5076258 -0.12315275 0.37583292 4293792000
3.476383 -0.12194647 0.35581452 4293792000
3.4889724 -0.12227834 0.3399758 4293792000
3.5004456 -0.12257034 0.32353291 4293792000
3.495425 -0.12228459 0.30517673 4293792000
3.458931 -0.12089909 0.28395286 4293661440
3.4703908 -0.12119047 0.26648343 4293661440
3.4819279 -0.12148384 0.24860504 4293661440
3.4961426 -0.12186982 0.23050627 4293792000
3.4647639 -0.12066703 0.20924611 4293661440
3.4939544 -0.12157375 0.19142634 4293792000
3.5021653 -0.1217493 0.172039 4293792000
3.4959078 -0.12142181 0.15174356 4293792000
3.4541481 -0.11986274 0.13001925 4293661440
3.4756534 -0.12049967 0.11065155 4293661440
3.4746478 -0.12035551 0.090328671 4293661440
3.4739671 -0.12022267 0.069926597 4293661440
3.4359045 -0.11879737 0.048924826 4293530880
3.4583187 -0.11946357 0.028823297 4293661440
3.4752264 -0.11993832 0.0084125055 4293661440
3.4176199 -0.11784269 -0.011946853 4293530880
3.4411123 -0.11854449 -0.032374863 4293530880
3.4577551 -0.11900908 -0.052940618 4293661440
3.4638011 -0.11910822 -0.073420808 4293661440
3.4394627 -0.11816312 -0.093070552 4293530880
3.4652939 -0.11894156 -0.1139853 4293661440
3.4835548 -0.11945878 -0.13478434 4293661440
3.501163 -0.11995248 -0.15561944 4293792000
3.448278 -0.11803214 -0.17295204 4293530880
3.4720719 -0.11873738 -0.19377546 4293661440
3.4822655 -0.11897646 -0.21382067 4293661440
3.4818587 -0.11885305 -0.23303682 4293661440
3.4662275 -0.11821046 -0.25089219 4293661440
3.4925833 -0.11899943 -0.27156866 4293792000
3.5167692 -0.11971287 -0.29204831 4293792000
3.5060732 -0.11923851 -0.30938268 4293792000
3.4867394 -0.11847132 -0.3254599 4293792000
3.4797215 -0.11812343 -0.34219372 4293792000
3.4963262 -0.11857712 -0.3609179 4293792000
3.4948897 -0.11841848 -0.37745348 4293792000
3.4866323 -0.11802903 -0.39278704 4293792000
3.4577715 -0.11694328 -0.40519214 4293661440
3.494787 -0.11808525 -0.42489541 4293792000
3.5062699 -0.11836297 -0.44122931 4293922560
3.5034156 -0.11815642 -0.45529962 4293922560
3.5024731 -0.11801448 -0.46908912 4293922560
3.4955432 -0.11767104 -0.48151562 4293792000
3.4563913 -0.11624435 -0.48878714 4293661440
3.4700212 -0.11659361 -0.50287092 4293792000
3.4709792 -0.11651663 -0.51459563 4293792000
3.4707129 -0.11639853 -0.52555251 4293792000
3.4709401 -0.11629699 -0.53598136 4293792000
3.4681005 -0.11609277 -0.54531318 4293792000
3.4746292 -0.11620203 -0.55549908 4293792000
3.4691947 -0.11591118 -0.56313485 4293792000
3.4652977 -0.11567198 -0.57034659 4293792000
3.4681618 -0.11565851 -0.57800704 4293792000
3.4567516 -0.11516928 -0.58260179 4293792000
3.4375784 -0.11442237 -0.58515686 4293661440
3.4367349 -0.11428621 -0.59011686 4293661440
3.4284005 -0.11390122 -0.5930903 4293661440
3.4102075 -0.11318955 -0.59363532 4293661440
3.4185643 -0.11335941 -0.59809577 4293661440
3.4181759 -0.11323903 -0.60033369 4293661440
3.4179063 -0.1131226 -0.60188931 4293661440
3.4138193 -0.11287996 -0.6020667 4293661440
3.4264336 -0.1131893 -0.60448396 4293661440
3.4216037 -0.11292213 -0.60311717 4293661440
3.4303958 -0.11310442 -0.60344273 4293661440
3.4440248 -0.11344546 -0.6039018 4293792000
3.4591312 -0.11383428 -0.603894 4293792000
3.4680905 -0.11402004 -0.60208648 4293792000
3.4724238 -0.1140533 -0.59875864 4293792000
3.4733796 -0.11397546 -0.59414315 4293792000
3.4673445 -0.11366838 -0.5876475 4293792000
3.4749391 -0.11380807 -0.58277369 4293792000
3.468066 -0.11347388 -0.57479626 4293792000
3.4718778 -0.11348943 -0.56792814 4293792000
3.4642904 -0.11313245 -0.5585472 4293792000
3.4562395 -0.11276084 -0.54848415 4293792000
3.4422002 -0.11219455 -0.53689677 4293661440
3.4466755 -0.11223202 -0.52760452 4293661440
3.4741666 -0.11301793 -0.52113223 4293792000
3.4867358 -0.11331718 -0.5116995 4293792000
3.4745777 -0.11281276 -0.49805397 4293792000
3.464525 -0.11237741 -0.48422021 4293792000
3.4371831 -0.11138245 -0.46755791 4293661440
3.4613218 -0.11205581 -0.45737687 4293661440
3.4667783 -0.11212343 -0.44409433 4293792000
3.4834578 -0.11255334 -0.43165717 4293792000
3.4513376 -0.11140696 -0.41275689 4293661440
3.4589918 -0.11154525 -0.39825559 4293661440
3.4805028 -0.11212948 -0.38477191 4293792000
3.4938316 -0.11244901 -0.36979353 4293792000
3.4886596 -0.11217283 -0.3524082 4293792000
3.4340498 -0.11030895 -0.32993299 4293530880
3.455791 -0.11089864 -0.31458867 4293661440
3.4683604 -0.11119293 -0.29788822 4293661440
3.4696777 -0.11112604 -0.27982217 4293661440
3.4321985 -0.10981773 -0.25851303 4293530880
3.4590027 -0.11056659 -0.2418174 4293661440
3.4728861 -0.11090115 -0.22373313 4293661440
3.4789608 -0.11098573 -0.20479199 4293661440
3.4736123 -0.11070587 -0.1849519 4293661440
3.4545531 -0.1099898 -0.1643192 4293661440
3.4625273 -0.1101348 -0.14485674 4293661440
3.4689498 -0.11023 -0.12508969 4293661440
3.4364147 -0.10908809 -0.10393467 4293530880
3.4550874 -0.10957219 -0.084296152 4293661440
3.4749663 -0.11009334 -0.064370148 4293661440
3.4717968 -0.10988375 -0.043849703 4293661440
3.4586949 -0.1093603 -0.02325264 4293661440
3.4761698 -0.10980353 -0.0028101609 4293661440
3.5039601 -0.11057116 0.017894715 4293792000
3.4724746 -0.1094684 0.038255852 4293661440
3.5146596 -0.11068775 0.059450056 4293792000
3.5263441 -0.11094482 0.080381677 4293792000
3.5296342 -0.11093734 0.10112312 4293922560
3.4481239 -0.10826702 0.1188703 4293530880
3.5163281 -0.11029797 0.14157009 4293792000
3.5185578 -0.11025727 0.16186787 4293792000
3.5104067 -0.10989146 0.18147898 4293792000
3.3257101 -0.10400504 0.19067842 4293139200
3.513844 -0.10977806 0.2210542 4293792000
3.5207758 -0.1098839 0.2408767 4293792000
3.4970765 -0.10903428 0.25824997 4293792000
3.3158092 -0.10327832 0.26260599 4293139200
3.5322213 -0.10990789 0.29833871 4293922560
3.5438044 -0.11015687 0.31764227 4293922560
3.5323114 -0.10968854 0.33452904 4293922560
3.4824183 -0.1080297 0.34710333 4293792000
3.2442076 -0.10053805 0.33911809 4293008640
3.5342836 -0.10941637 0.38619637 4293922560
3.5296783 -0.10916279 0.40199837 4293922560
3.5151832 -0.10860396 0.41613865 4293922560
3.4686699 -0.10705783 0.42575458 4293792000
3.4035645 -0.10494138 0.43213269 4293530880
3.54177 -0.10909126 0.46412626 4294053120
3.5441537 -0.10905323 0.47837022 4294053120
3.5353758 -0.10867196 0.49054205 4293922560
3.5148191 -0.10792956 0.50041491 4293922560
3.486836 -0.10696064 0.50848949 4293792000
3.4270062 -0.10501757 0.51104552 4293661440
3.5362864 -0.10825516 0.53837889 4294053120
3.5296319 -0.10794046 0.54776567 4294053120
3.5333748 -0.10794381 0.55812675 4294053120
3.5245411 -0.10756311 0.56584537 4294053120
3.5262716 -0.10750504 0.57458764 4294053120
3.5161695 -0.10708649 0.58071852 4293922560
3.5155115 -0.10695591 0.58771199 4293922560
3.5019331 -0.10643268 0.59183657 4293922560
3.4883387 -0.10590982 0.59522271 4293922560
3.5111539 -0.10649211 0.60413849 4293922560
3.4804244 -0.10545065 0.60313112 4293922560
3.4837639 -0.10544229 0.60728878 4293922560
3.4832811 -0.10531814 0.61007315 4293922560
3.4829178 -0.10519764 0.61216402 4293922560
3.4875979 -0.10522933 0.61442643 4293922560
3.4736969 -0.10470068 0.6126948 4293792000
3.4687784 -0.10444335 0.61182696 4293792000
3.4939768 -0.10509221 0.61554933 4293922560
3.4893038 -0.10484193 0.61328495 4293922560
3.4885378 -0.10470922 0.61099178 4293922560
3.5113974 -0.10528494 0.61210316 4293922560
3.5213718 -0.10547328 0.61022377 4294053120
3.5161753 -0.10520707 0.60499871 4293922560
3.5234241 -0.10531317 0.60120517 4294053120
3.5252864 -0.10525798 0.59577852 4294053120
3.5225251 -0.10506478 0.58887929 4294053120
3.5194552 -0.10486255 0.58125556 4293922560
3.5285482 -0.10502253 0.57495254 4294053120
3.5171008 -0.10457122 0.56464446 4293922560
3.5089211 -0.10421768 0.55425733 4293922560
3.5158992 -0.10431438 0.54562747 4293922560
3.5265071 -0.10451823 0.53688276 4293922560
3.5366666 -0.10470813 0.5273909 4294053120
3.5331056 -0.10449161 0.5152294 4294053120
3.4793997 -0.10219705 0.42022094 4293792000
3.5064747 -0.10288205 0.40799025 4293792000
3.5230477 -0.10325753 0.39388618 4293922560
3.5146003 -0.10289944 0.37650961 4293922560
3.4869783 -0.10198109 0.35683212 4293792000
3.4866376 -0.1018615 0.3396847 4293792000
3.5160303 -0.10260965 0.32491258 4293922560
3.4974279 -0.10195679 0.30529457 4293792000
3.4695389 -0.10103469 0.28477055 4293661440
3.4760213 -0.10111416 0.266866 4293661440
3.498127 -0.10164721 0.24971512 4293792000
3.5049245 -0.10173453 0.23104228 4293792000
3.4691803 -0.10058793 0.20947389 4293661440
3.4933045 -0.10117757 0.19135518 4293792000
3.511205 -0.10158562 0.17245105 4293792000
3.5092375 -0.10141835 0.15229392 4293792000
3.4588614 -0.099853709 0.13017255 4293661440
3.4762964 -0.10024774 0.11065155 4293661440
3.4818816 -0.10029933 0.090499997 4293661440
3.4760311 -0.1000215 0.069955222 4293661440
3.4438581 -0.09898746 0.049029037 4293530880
3.4653037 -0.099494919 0.028876193 4293661440
3.4721916 -0.099583507 0.0084036114 4293661440
3.4332423 -0.098358482 -0.011999257 4293530880
3.4517398 -0.098779887 -0.032468885 4293530880
3.4673851 -0.09911859 -0.053078316 4293661440
3.469557 -0.099071592 -0.073529325 4293661440
3.4500849 -0.098407105 -0.093340889 4293530880
3.4785604 -0.09910994 -0.11440075 4293661440
3.4941802 -0.099445112 -0.13517074 4293792000
3.5018024 -0.099551938 -0.15561944 4293792000
3.4529872 -0.098055616 -0.17315665 4293661440
3.4860818 -0.098885812 -0.19452189 4293661440
3.4789088 -0.098572955 -0.21357566 4293661440
3.4865594 -0.098680116 -0.233309 4293792000
3.4655602 -0.097976811 -0.25079831 4293661440
3.4932172 -0.098648891 -0.27156866 4293792000
3.5124261 -0.099080913 -0.29163474 4293792000
3.5116007 -0.098947227 -0.3098143 4293792000
3.4973233 -0.09843497 -0.32638875 4293792000
3.4803507 -0.097847834 -0.34219372 4293792000
3.4870145 -0.097925544 -0.35989165 4293792000
3.4905512 -0.097915128 -0.37691692 4293792000
3.4971941 -0.097991511 -0.39390588 4293792000
3.477258 -0.097323574 -0.40740225 4293792000
3.5053389 -0.097999312 -0.42610165 4293922560
3.5019412 -0.09779422 -0.4406054 4293792000
3.5080097 -0.097853392 -0.45581484 4293922560
3.5089598 -0.097769573 -0.46987361 4293922560
3.5100334 -0.097689129 -0.48342505 4293922560
3.4655116 -0.096341066 -0.48998919 4293792000
3.4706416 -0.096374564 -0.50287092 4293792000
3.4715993 -0.096292011 -0.51459563 4293792000
3.4838295 -0.096521713 -0.52744454 4293792000
3.4715588 -0.096072599 -0.53598136 4293792000
3.4736555 -0.096021414 -0.54608941 4293792000
3.4752474 -0.095956147 -0.55549908 4293792000
3.473758 -0.095805816 -0.56377542 4293792000
3.4757767 -0.095752209 -0.57196975 4293792000
3.4737072 -0.095585987 -0.57882857 4293792000
3.4622924 -0.09516304 -0.58343232 4293792000
3.443114 -0.094527654 -0.58599544 4293792000
3.4297397 -0.094052643 -0.58881164 4293661440
3.437871 -0.094167545 -0.59462363 4293661440
3.4245968 -0.093696274 -0.596035 4293661440
3.4290135 -0.093709312 -0.59981823 4293661440
3.4286234 -0.093590856 -0.60206258 4293661440
3.4185073 -0.093207248 -0.60188931 4293661440
3.4183569 -0.093095668 -0.60276103 4293661440
3.4408171 -0.093599178 -0.606915 4293792000
3.4320481 -0.093252741 -0.60485214 4293661440
3.4497027 -0.093623973 -0.60673273 4293792000
3.4495504 -0.093511395 -0.60476488 4293792000
3.4597356 -0.093678728 -0.603894 4293792000
3.4686959 -0.093812287 -0.60208648 4293792000
3.4828804 -0.094086416 -0.60045701 4293922560
3.4739847 -0.093736894 -0.59414315 4293792000
3.4709082 -0.093544759 -0.58814907 4293792000
3.4644015 -0.093260482 -0.58090544 4293792000
3.487406 -0.093770117 -0.5779013 4293922560
3.4675474 -0.093127139 -0.56712139 4293792000
3.4688385 -0.093052752 -0.55918354 4293792000
3.4568379 -0.092622153 -0.54848415 4293792000
3.4477341 -0.092269838 -0.53766692 4293661440
3.4522116 -0.09228114 -0.52836072 4293661440
3.4797089 -0.092906773 -0.52187353 4293792000
3.4922822 -0.093132682 -0.51242512 4293792000
3.4906096 -0.092978343 -0.5002659 4293792000
3.4614589 -0.092093043 -0.4837085 4293792000
3.447679 -0.091618039 -0.46890512 4293661440
3.461916 -0.091887526 -0.45737687 4293661440
3.4723306 -0.092054792 -0.4447293 4293792000
3.4840546 -0.092256077 -0.43165717 4293792000
3.4568911 -0.091428116 -0.41335034 4293661440
3.4546175 -0.091259383 -0.39768398 4293661440
3.4894466 -0.092069753 -0.38569483 4293792000
3.4844863 -0.09182933 -0.36874151 4293792000
3.4900465 -0.091866143 -0.35248825 4293792000
3.4445851 -0.090561196 -0.33088887 4293661440
3.4713118 -0.091154739 -0.31594783 4293661440
3.4828935 -0.091349371 -0.29908562 4293792000
3.4738429 -0.091002785 -0.28011057 4293661440
3.4407091 -0.090026625 -0.25911015 4293530880
3.4721978 -0.090741374 -0.24269877 4293661440
3.4811044 -0.090864703 -0.22422466 4293661440
3.4795485 -0.090714701 -0.20479199 4293661440
3.4831827 -0.090699948 -0.18543018 4293661440
3.4741075 -0.09035442 -0.16522148 4293661440
3.4767923 -0.090314947 -0.14542903 4293661440
3.4835193 -0.090380177 -0.12559395 4293661440
3.4518931 -0.089451119 -0.10438529 4293530880
3.4720123 -0.08986333 -0.08469487 4293661440
3.495949 -0.090372965 -0.064747982 4293792000
3.4738593 -0.089692719 -0.043868408 4293661440
3.4756181 -0.089628868 -0.023362508 4293661440
3.4923422 -0.089950353 -0.0028227631 4293661440
3.5054665 -0.090178192 0.017899422 4293792000
3.4820499 -0.089466333 0.038354952 4293661440
3.5184846 -0.090291865 0.059504848 4293792000
3.5341294 -0.090582244 0.080545746 4293922560
3.5302205 -0.09037108 0.10112312 4293922560
3.4003623 -0.086939909 0.11720432 4293400320
3.5258482 -0.090037465 0.14192985 4293792000
3.5208499 -0.089799151 0.16194651 4293792000
3.5220566 -0.089719199 0.18205112 4293792000
3.3352418 -0.084855527 0.19119333 4293269760
3.5357256 -0.089845106 0.22239406 4293922560
3.5322404 -0.089645498 0.24162123 4293922560
3.517592 -0.089163154 0.2597222 4293792000
3.3303065 -0.084311195 0.26371077 4293269760
3.5451045 -0.089637645 0.29937768 4293922560
3.5542564 -0.089757323 0.31852686 4293922560
3.5378668 -0.089232206 0.33500022 4293922560
3.4626255 -0.087225623 0.34507403 4293661440
3.2586582 -0.081985123 0.34057289 4293008640
3.5411232 -0.088980384 0.38688055 4293922560
3.5350029 -0.088715479 0.4025391 4293922560
3.5107925 -0.087997518 0.4155511 4293922560
3.4841185 -0.08721941 0.42758116 4293792000
3.4140356 -0.085357673 0.43339163 4293530880
3.5293734 -0.0881304 0.46242663 4293922560
3.5447288 -0.088402405 0.47837022 4294053120
3.5309978 -0.08794897 0.4898552 4293922560
3.505491 -0.087203458 0.49900606 4293922560
3.5022385 -0.087012455 0.51065302 4293922560
3.431515 -0.08514747 0.51163518 4293661440
3.5457518 -0.087870613 0.53973287 4294053120
3.5489707 -0.087838814 0.55067807 4294053120
3.5408685 -0.087526977 0.55922043 4294053120
3.5251079 -0.087026574 0.56584537 4294053120
3.536705 -0.087201707 0.57619518 4294053120
3.5305426 -0.086938784 0.58299881 4294053120
3.5160751 -0.08647199 0.58771199 4293922560
3.5113654 -0.08624579 0.59333563 4293922560
3.5026929 -0.085922673 0.5975765 4293922560
3.5117147 -0.08603359 0.60413849 4293922560
3.5011437 -0.085664548 0.60662478 4293922560
3.4990921 -0.085504353 0.60986358 4293922560
3.4936829 -0.085262358 0.61179757 4293922560
