# .PCD v0.7 - Point Cloud Data file format
VERSION 0.7
FIELDS x y z rgba
SIZE 4 4 4 4
TYPE F F F U
COUNT 1 1 1 1
WIDTH 1104
HEIGHT 1
VIEWPOINT 0 0 0 1 0 0 0
POINTS 1104
DATA ascii
2.2348323 -2.3657854 -0.49525782 4293008640
2.2245901 -2.3548048 -0.50267637 4293008640
2.2312791 -2.3617272 -0.51331991 4293008640
2.1674449 -2.2940872 -0.50696665 4292747520
2.1890626 -2.3167958 -0.51980799 4292878080
2.1465125 -2.2716672 -0.51678175 4292616960
2.1594212 -2.2851686 -0.52638179 4292747520
2.1811917 -2.3080354 -0.53762674 4292747520
2.1840456 -2.3109057 -0.54366183 4292878080
2.1930606 -2.3202872 -0.550623 4292878080
2.1267273 -2.2500391 -0.53796017 4292486400
2.1392741 -2.2631557 -0.54447979 4292616960
2.1457963 -2.2699044 -0.54886305 4292616960
2.1354666 -2.2588468 -0.54830343 4292616960
2.138751 -2.2621746 -0.55058521 4292616960
2.1353414 -2.25843 -0.550506 4292616960
2.135392 -2.2583413 -0.55067366 4292616960
2.1226556 -2.2447453 -0.54691112 4292486400
2.1955452 -2.3215954 -0.56449205 4292878080
2.1761925 -2.3010094 -0.55772305 4292747520
2.1670682 -2.2912283 -0.55294669 4292747520
2.1512403 -2.2743692 -0.54585236 4292616960
2.1935396 -2.3188953 -0.55279231 4292878080
2.1846299 -2.3093419 -0.54615593 4292878080
2.2146804 -2.3409274 -0.5485552 4293008640
2.2284985 -2.3553703 -0.54620153 4293008640
2.2379129 -2.3651624 -0.54207629 4293008640
2.2292638 -2.3558841 -0.53295887 4293008640
2.2427337 -2.3699563 -0.52848595 4293139200
2.2277324 -2.3539739 -0.51671934 4293008640
2.2253418 -2.3513043 -0.50734401 4293008640
2.2393091 -2.3658991 -0.50106025 4293008640
2.2502735 -2.3773234 -0.49342614 4293139200
2.2541342 -2.3812499 -0.48360866 4293139200
2.255306 -2.3823385 -0.47264248 4293139200
2.2438972 -2.3701525 -0.45856407 4293008640
2.2269003 -2.3520725 -0.4429805 4293008640
2.2367918 -2.3623624 -0.43227151 4293008640
2.2438309 -2.369642 -0.4204303 4293008640
2.2614594 -2.3880913 -0.40994984 4293139200
2.2249892 -2.3494742 -0.38935065 4292878080
2.2330503 -2.3578315 -0.37626943 4293008640
2.2463856 -2.3717504 -0.36351675 4293008640
2.2568378 -2.382627 -0.34973684 4293008640
2.2530873 -2.3785245 -0.33333164 4293008640
2.2317562 -2.3558843 -0.31414637 4292878080
2.2252359 -2.3488636 -0.29689756 4292878080
2.2418942 -2.3662829 -0.282332 4293008640
2.2376521 -2.3616645 -0.26474339 4293008640
2.2360168 -2.3597949 -0.24722058 4292878080
2.2526541 -2.3771882 -0.23132646 4293008640
2.2557745 -2.380331 -0.2136447 4293008640
2.2517674 -2.3759611 -0.19506893 4293008640
2.1992581 -2.320471 -0.17256099 4292747520
2.2584774 -2.3827403 -0.15853795 4293008640
2.2435126 -2.366823 -0.13879983 4293008640
2.2140393 -2.335619 -0.11839432 4292747520
2.2419622 -2.3648982 -0.10092708 4292878080
2.2641208 -2.3881004 -0.08267308 4293008640
2.2558398 -2.3792288 -0.06311395 4293008640
2.2192671 -2.3405523 -0.043091107 4292878080
2.2624264 -2.385875 -0.024493817 4293008640
2.2659996 -2.3894925 -0.0050556492 4293008640
2.2359679 -2.357712 0.01422265 4292878080
2.1987212 -2.3183365 0.032856315 4292747520
2.2824411 -2.406368 0.053686783 4293139200
2.2892463 -2.4133868 0.073402226 4293139200
2.2190864 -2.339355 0.090010352 4292878080
2.2343376 -2.3552709 0.10953433 4292878080
2.2812443 -2.404516 0.13101757 4293139200
2.2805438 -2.4036307 0.14999858 4293139200
2.2338583 -2.3543315 0.16538732 4292878080
2.1820664 -2.2996628 0.17940417 4292616960
2.2858915 -2.4088163 0.20646353 4293139200
2.2841394 -2.4068236 0.22456428 4293139200
2.2276485 -2.3472159 0.23656547 4292878080
2.2423656 -2.3625607 0.25554731 4293008640
2.3128092 -2.4365518 0.28125694 4293269760
2.3074183 -2.4307287 0.29791683 4293269760
2.2958834 -2.4184406 0.3133249 4293269760
2.2221591 -2.3407166 0.31927112 4292878080
2.220407 -2.3387284 0.33466727 4292878080
2.2964363 -2.4185743 0.36193204 4293269760
2.2855048 -2.406925 0.37552276 4293269760
2.2647727 -2.3849666 0.38687059 4293139200
2.2299192 -2.3481565 0.39501235 4292878080
2.1795671 -2.2950487 0.39943138 4292747520
2.32372 -2.446523 0.43960688 4293400320
2.2963974 -2.4176364 0.44752181 4293269760
2.2791362 -2.3993337 0.45663774 4293269760
2.2314353 -2.3490236 0.45878541 4293008640
2.2631588 -2.3822355 0.47665229 4293139200
2.1959841 -2.3114569 0.47297302 4292747520
2.3269124 -2.4489691 0.51170295 4293400320
2.3066342 -2.4274981 0.51708549 4293400320
2.2603271 -2.3786666 0.51576108 4293139200
2.2758317 -2.3948166 0.52781928 4293269760
2.3009028 -2.4210203 0.54162848 4293400320
2.3164923 -2.4372547 0.55271161 4293400320
2.2564125 -2.3739593 0.54496616 4293139200
2.2653327 -2.3831856 0.55310071 4293139200
2.2743151 -2.3924761 0.56064814 4293269760
2.2874403 -2.4061182 0.56860858 4293269760
2.2836492 -2.4019842 0.57171696 4293269760
2.2867267 -2.4050672 0.575872 4293269760
2.2925973 -2.4110839 0.58006549 4293269760
2.289037 -2.4071925 0.58119452 4293269760
2.2923479 -2.4105194 0.58338368 4293269760
2.2889481 -2.4067967 0.58317947 4293269760
2.2863078 -2.403872 0.58248174 4293269760
2.2864645 -2.4038854 0.58181143 4293269760
2.2731164 -2.3897157 0.57702804 4293269760
2.2639198 -2.3799076 0.57263678 4293139200
2.2575159 -2.3730328 0.5682953 4293139200
2.314635 -2.432858 0.57920229 4293400320
2.2961547 -2.4133012 0.57045668 4293400320
2.273658 -2.3895302 0.56012481 4293269760
2.3197083 -2.4377224 0.56596524 4293400320
2.2939413 -2.4105196 0.55357826 4293269760
2.3344989 -2.4529388 0.55650383 4293530880
2.3224623 -2.4401495 0.5461607 4293400320
2.3295465 -2.4474297 0.53969449 4293530880
2.2975888 -2.4137356 0.52365047 4293269760
2.3088608 -2.4254112 0.51693052 4293400320
2.2997248 -2.4156702 0.50503695 4293269760
2.3304584 -2.4477642 0.50121993 4293400320
2.3360574 -2.4534829 0.49125335 4293530880
2.3041859 -2.4189444 0.40086398 4293269760
2.3081908 -2.4229891 0.38675919 4293269760
2.3207424 -2.4359956 0.37354463 4293400320
2.3010767 -2.4152198 0.35477257 4293269760
2.3022907 -2.4163377 0.33895078 4293269760
2.3079243 -2.4220891 0.32335398 4293269760
2.3117275 -2.425921 0.30707338 4293269760
2.3033319 -2.4169643 0.28886461 4293269760
2.2937686 -2.4067855 0.27032411 4293139200
2.2992527 -2.4123788 0.25329095 4293269760
2.3021953 -2.415308 0.23563318 4293269760
2.2863748 -2.3985732 0.2158948 4293139200
2.301024 -2.41377 0.1988097 4293269760
2.3028476 -2.4155259 0.18026374 4293269760
2.3027973 -2.415318 0.16135885 4293269760
2.2595379 -2.369839 0.13959943 4293008640
2.2873042 -2.3987761 0.12221669 4293139200
2.3002794 -2.4122143 0.10356589 4293139200
2.2947202 -2.4062357 0.083900936 4293139200
2.2092197 -2.3165236 0.061975755 4292747520
2.2699599 -2.3799927 0.044329133 4293008640
2.2816174 -2.3920486 0.025045173 4293139200
2.2623994 -2.371769 0.0054507833 4293008640
2.2562454 -2.3651717 -0.013898944 4293008640
2.2661145 -2.3753536 -0.033361319 4293008640
2.2817059 -2.3915257 -0.053089499 4293139200
2.2225506 -2.3294377 -0.070673391 4292747520
2.2663887 -2.3751824 -0.091294892 4293008640
2.2906125 -2.400388 -0.1116114 4293139200
2.28143 -2.3906214 -0.13031866 4293139200
2.2473509 -2.3547971 -0.14711137 4292878080
2.2549887 -2.3626397 -0.16624273 4293008640
2.2754641 -2.3839169 -0.18636793 4293008640
2.2599223 -2.3674991 -0.20339599 4293008640
2.1891961 -2.2933364 -0.21456566 4292616960
2.2741511 -2.3820837 -0.24080938 4293139200
2.2958448 -2.4046288 -0.26095375 4293139200
2.2889435 -2.397254 -0.27768978 4293139200
2.2414107 -2.3473728 -0.28879815 4292878080
2.2509782 -2.3572309 -0.30663902 4293008640
2.2851253 -2.3927987 -0.32779914 4293139200
2.2875183 -2.3951485 -0.34431908 4293139200
2.28194 -2.3891606 -0.3592405 4293139200
2.2397549 -2.3448889 -0.36769354 4293008640
2.1686227 -2.2703514 -0.37024891 4292616960
2.3030417 -2.4107678 -0.40778491 4293269760
2.2950611 -2.4022689 -0.42051539 4293269760
2.2948227 -2.4018662 -0.43413949 4293269760
2.2804801 -2.3867178 -0.44452977 4293139200
2.1978564 -2.3001878 -0.44060054 4292747520
2.2689526 -2.3743625 -0.46683961 4293139200
2.2731876 -2.3786383 -0.47922048 4293139200
2.2851622 -2.3910029 -0.49276406 4293269760
2.265913 -2.3707318 -0.49899706 4293139200
2.2657595 -2.3704205 -0.50876784 4293139200
2.2638562 -2.3682806 -0.51755571 4293139200
2.2265651 -2.3291626 -0.51752639 4293008640
2.1904993 -2.2913294 -0.51691663 4292747520
2.2061527 -2.3075392 -0.52781415 4292878080
2.2218537 -2.323797 -0.53821182 4292878080
2.2376077 -2.3401077 -0.54808933 4293008640
2.2431939 -2.3457954 -0.55490255 4293008640
2.1763606 -2.2758348 -0.54306334 4292747520
2.1855018 -2.285239 -0.54938662 4292747520
2.1953928 -2.2954252 -0.55529141 4292878080
2.1978617 -2.2978587 -0.55869478 4292878080
2.2044921 -2.3046381 -0.56251264 4292878080
2.2043872 -2.3043835 -0.56396598 4292878080
2.1975491 -2.2970982 -0.56303978 4292878080
2.1948752 -2.294162 -0.56251913 4292878080
2.1847863 -2.2834845 -0.55944782 4292747520
2.2485909 -2.3499517 -0.57457715 4293139200
2.2386611 -2.3394382 -0.57020676 4293008640
2.2226729 -2.3226025 -0.56365812 4293008640
2.2006204 -2.299439 -0.55496752 4292878080
2.1909022 -2.2891521 -0.54878372 4292747520
2.2308211 -2.3306701 -0.5543077 4293008640
2.2637932 -2.3649337 -0.55731112 4293139200
2.2723532 -2.3737185 -0.55357367 4293139200
2.2757795 -2.3771458 -0.54791629 4293139200
2.2862034 -2.3878736 -0.54326558 4293269760
2.2828386 -2.3842144 -0.53469783 4293269760
2.2682948 -2.3688929 -0.52296722 4293139200
2.2761555 -2.3769457 -0.51581424 4293139200
2.2676525 -2.3679283 -0.50437528 4293139200
2.281765 -2.3825016 -0.49735343 4293139200
2.3046346 -2.4062064 -0.4915002 4293269760
2.2996657 -2.4008751 -0.47908178 4293269760
2.2853162 -2.3857615 -0.46426979 4293139200
2.2796926 -2.3797493 -0.4508073 4293139200
2.2809393 -2.3809021 -0.43821666 4293139200
2.2977929 -2.3983276 -0.42802078 4293269760
2.2990651 -2.3995056 -0.41434437 4293269760
2.2751024 -2.3743751 -0.39581084 4293139200
2.2771494 -2.3763626 -0.38148826 4293139200
2.2872307 -2.3867247 -0.3680059 4293139200
2.304101 -2.4041622 -0.35502532 4293269760
2.2904682 -2.3898046 -0.3369464 4293139200
2.278559 -2.3772452 -0.31893086 4293139200
2.2720146 -2.3702784 -0.30144814 4293008640
2.2860315 -2.3847394 -0.28630078 4293139200
2.2784328 -2.3766744 -0.26809672 4293139200
2.2829065 -2.3811896 -0.25104165 4293139200
2.2899892 -2.3884227 -0.23391199 4293139200
2.2996979 -2.3983905 -0.21666586 4293139200
2.2749643 -2.3724763 -0.19607595 4293008640
2.2591109 -2.3558156 -0.17636614 4293008640
2.3021071 -2.4004579 -0.16081955 4293139200
2.2905183 -2.3882396 -0.14105038 4293139200
2.2608726 -2.3572164 -0.1203693 4293008640
2.2993586 -2.3971531 -0.10309227 4293139200
2.3112755 -2.409416 -0.084101126 4293139200
2.3029492 -2.4005976 -0.064262614 4293139200
2.2696192 -2.3657448 -0.044022352 4293008640
2.3158174 -2.4137013 -0.025148533 4293269760
2.3131807 -2.4108078 -0.0053632511 4293269760
2.2857361 -2.3820882 0.01421798 4293008640
2.2454896 -2.3400447 0.033119496 4292878080
2.3324931 -2.4304669 0.054287586 4293269760
2.333796 -2.431674 0.074129298 4293269760
2.2756679 -2.3710239 0.091505565 4293008640
2.2910066 -2.386842 0.11138777 4293139200
2.3451169 -2.4430075 0.13361949 4293400320
2.3243284 -2.4212244 0.15169872 4293269760
2.2808089 -2.3757911 0.16759177 4293008640
2.2418346 -2.3350923 0.18295957 4292878080
2.340059 -2.4371448 0.20982091 4293400320
2.3382833 -2.4351473 0.2282405 4293400320
2.2779756 -2.3722591 0.24019705 4293008640
2.2858603 -2.3803151 0.25867748 4293139200
2.3732998 -2.4711213 0.28661036 4293530880
2.3644049 -2.4617176 0.30317301 4293530880
2.2874348 -2.3815131 0.3100298 4293139200
2.2723765 -2.365706 0.32426992 4293008640
2.2705965 -2.363709 0.33992341 4293008640
2.3532772 -2.4495392 0.36840355 4293400320
2.342258 -2.4379303 0.38228101 4293400320
2.3151813 -2.4096274 0.39285648 4293269760
2.2800953 -2.3730011 0.40123266 4293139200
2.2390447 -2.330178 0.40763417 4292878080
2.3709979 -2.4672041 0.44561353 4293530880
2.3469267 -2.4420302 0.45438632 4293400320
2.3329751 -2.4273777 0.46438882 4293400320
2.2877076 -2.3801787 0.4673121 4293139200
2.3161745 -2.4096162 0.48467344 4293269760
2.2554278 -2.3463378 0.48265627 4293008640
2.3775406 -2.4730856 0.51948947 4293661440
2.3468423 -2.4410338 0.52274203 4293530880
2.3070898 -2.3995783 0.52308393 4293269760
2.3356864 -2.4291399 0.53826857 4293400320
2.354733 -2.4487758 0.55079877 4293530880
2.3635602 -2.4577935 0.56039101 4293530880
2.3058372 -2.3976796 0.55340785 4293269760
2.3120649 -2.4039989 0.56097895 4293400320
2.3245118 -2.4167762 0.56944871 4293400320
2.3240349 -2.4161301 0.57411343 4293400320
2.3400369 -2.4325969 0.58220387 4293530880
2.3465424 -2.4392002 0.58728594 4293530880
2.3462915 -2.4387867 0.58999634 4293530880
2.339288 -2.4313622 0.59030861 4293530880
2.3426154 -2.4346642 0.59253001 4293530880
2.3391924 -2.4309576 0.5923478 4293530880
2.3358514 -2.4273365 0.59148872 4293530880
2.329859 -2.4209635 0.58926427 4293400320
2.3198469 -2.4104187 0.58533794 4293400320
2.3174314 -2.4077599 0.58264887 4293400320
2.3041568 -2.3938308 0.5765627 4293269760
2.3616297 -2.4533241 0.58743632 4293530880
2.3594561 -2.4509134 0.58270043 4293530880
2.3299918 -2.4201849 0.57060581 4293400320
2.3046882 -2.3937771 0.55898321 4293269760
2.3442605 -2.4346826 0.56240129 4293530880
2.387816 -2.4797153 0.56588811 4293661440
2.366128 -2.4570591 0.55319303 4293530880
2.3766921 -2.4678617 0.54742998 4293661440
2.3514078 -2.4414785 0.53283072 4293530880
2.3593352 -2.4495456 0.52520549 4293530880
2.3570213 -2.4469903 0.51467174 4293530880
2.3749168 -2.4653931 0.50788873 4293661440
2.3901811 -2.4810648 0.49980646 4293661440
2.3540564 -2.4426494 0.40706876 4293400320
2.3525865 -2.4409697 0.39181852 4293400320
2.3748915 -2.4639313 0.37995365 4293530880
2.3623562 -2.4507821 0.36202317 4293530880
2.3425522 -2.4301019 0.34279463 4293400320
2.3586004 -2.4465761 0.3284584 4293400320
2.3686681 -2.4568512 0.3127372 4293530880
2.3363926 -2.4232526 0.29123765 4293269760
2.3374879 -2.4242315 0.27381018 4293269760
2.3499427 -2.4369791 0.25730947 4293400320
2.3563821 -2.4434931 0.23972043 4293400320
2.3404806 -2.4268646 0.21966632 4293269760
2.3078244 -2.3928835 0.19818088 4293139200
2.3466775 -2.432971 0.18257906 4293400320
2.35288 -2.4392383 0.16386665 4293400320
2.3100615 -2.3947389 0.1418529 4293139200
2.337311 -2.4228024 0.12412723 4293269760
2.3318219 -2.4169629 0.10433991 4293269760
2.3357575 -2.4208822 0.084874779 4293269760
2.2691898 -2.3518074 0.063267507 4293008640
2.3136318 -2.397665 0.044897538 4293139200
2.3385625 -2.4233186 0.025505913 4293269760
2.3129764 -2.396678 0.0055276505 4293139200
2.3033106 -2.3865192 -0.014116072 4293139200
2.3132386 -2.396641 -0.033863172 4293139200
2.320087 -2.4035742 -0.053673636 4293269760
2.2694044 -2.3509703 -0.071741991 4293008640
2.313504 -2.3964529 -0.092645884 4293139200
2.3350909 -2.4186351 -0.11310927 4293269760
2.3320959 -2.415381 -0.1324247 4293269760
2.2480233 -2.3282447 -0.14629854 4292878080
2.3082521 -2.3904033 -0.16915795 4293139200
2.3225951 -2.4050868 -0.18909834 4293269760
2.3104167 -2.3923347 -0.20670289 4293139200
2.2323134 -2.3113968 -0.21748985 4292747520
2.3192661 -2.4011803 -0.24412452 4293269760
2.3361208 -2.418457 -0.26395163 4293269760
2.3395574 -2.4218554 -0.28213614 4293400320
2.2917199 -2.3722334 -0.29351643 4293139200
2.3013289 -2.3820169 -0.31162444 4293139200
2.3234088 -2.4046929 -0.33130312 4293269760
2.3258042 -2.4070153 -0.34799293 4293269760
2.3255136 -2.4065607 -0.36391234 4293269760
2.2934206 -2.3732309 -0.37424794 4293139200
2.2315044 -2.3090787 -0.37869599 4292878080
2.3344693 -2.4153552 -0.41088128 4293400320
2.3395381 -2.4204397 -0.42609832 4293400320
2.332988 -2.4135156 -0.43871877 4293400320
2.2906108 -2.3695691 -0.44384342 4293139200
2.2607908 -2.3386035 -0.4504903 4293008640
2.3254082 -2.4052215 -0.47558048 4293400320
2.3208964 -2.4004066 -0.486341 4293269760
2.3267365 -2.4062872 -0.49871871 4293400320
2.3168957 -2.395968 -0.50715739 4293269760
2.2977376 -2.376025 -0.51285428 4293269760
2.2704563 -2.3476942 -0.51596206 4293139200
2.2929535 -2.3707817 -0.52974153 4293269760
2.249784 -2.3260455 -0.52770442 4293008640
2.2586529 -2.3350573 -0.53711748 4293008640
2.2744367 -2.3512087 -0.54762709 4293139200
2.2902746 -2.3674142 -0.55760574 4293269760
2.229116 -2.3041155 -0.54812402 4292878080
2.2450922 -2.3204648 -0.55682194 4293008640
2.2515361 -2.3269708 -0.56255919 4293008640
2.2546244 -2.3300123 -0.56682199 4293008640
2.2639554 -2.3394976 -0.57200778 4293139200
2.2671947 -2.3426938 -0.57500583 4293139200
2.2670865 -2.3424344 -0.57648915 4293139200
2.2574649 -2.3323567 -0.57488215 4293008640
2.2472377 -2.3216555 -0.57244647 4293008640
2.2439423 -2.3181088 -0.57110536 4293008640
2.2345574 -2.308279 -0.5675571 4292878080
2.3015795 -2.3772895 -0.58266616 4293269760
2.2827599 -2.3577232 -0.57537234 4293139200
2.2633252 -2.3375249 -0.56730217 4293139200
2.2473865 -2.3209357 -0.55950117 4293008640
2.2964759 -2.3714299 -0.56713724 4293269760
2.2745056 -2.3486195 -0.55655283 4293139200
2.3084509 -2.3834853 -0.55894226 4293269760
2.3137076 -2.3887584 -0.55365092 4293269760
2.3295927 -2.4049921 -0.5501945 4293400320
2.3174798 -2.3923509 -0.53949624 4293269760
2.3253493 -2.400317 -0.53283274 4293400320
2.3298373 -2.4047956 -0.52473855 4293400320
2.3309352 -2.4057782 -0.5152598 4293400320
2.3320756 -2.4068046 -0.50519276 4293400320
2.3516569 -2.4268422 -0.49844098 4293400320
2.340667 -2.4153628 -0.48461959 4293400320
2.3322549 -2.4065418 -0.47087944 4293400320
2.3177519 -2.391444 -0.45550182 4293269760
2.3244345 -2.3981838 -0.44380674 4293269760
2.3414056 -2.4155262 -0.43343797 4293400320
2.3270023 -2.4005337 -0.41677764 4293269760
2.3228645 -2.3961213 -0.40159932 4293269760
2.3241432 -2.3972909 -0.3869265 4293269760
2.3377635 -2.4111772 -0.373777 4293400320
2.3582175 -2.432102 -0.36107665 4293400320
2.3410578 -2.4142735 -0.34221485 4293400320
2.3221617 -2.3946588 -0.32297748 4293269760
2.3225279 -2.3948886 -0.30619016 4293269760
2.3359525 -2.4085691 -0.29068407 4293269760
2.3290179 -2.4012785 -0.27228913 4293269760
2.3335338 -2.405782 -0.25495166 4293269760
2.333725 -2.4058309 -0.23683205 4293269760
2.3469791 -2.4193318 -0.21967307 4293269760
2.3353209 -2.4071786 -0.19994386 4293269760
2.3096471 -2.3805954 -0.17910588 4293139200
2.3459542 -2.4178312 -0.16277477 4293269760
2.3475292 -2.4193041 -0.14356343 4293269760
2.3177142 -2.3884621 -0.12252484 4293139200
2.3432086 -2.4145596 -0.10429925 4293269760
2.358685 -2.430342 -0.085179597 4293400320
2.3430176 -2.4140668 -0.064858496 4293269760
2.323055 -2.3933728 -0.044654638 4293139200
2.3667471 -2.4381919 -0.025411392 4293400320
2.3668826 -2.4381819 -0.0053173439 4293400320
2.3399689 -2.4103372 0.014604936 4293269760
2.3022649 -2.3713934 0.033889398 4293139200
2.3870027 -2.4584348 0.055363074 4293530880
2.3910961 -2.4624956 0.075634882 4293530880
2.3228564 -2.3921411 0.092978202 4293139200
2.3452475 -2.4150283 0.1134791 4293269760
2.3954966 -2.4665687 0.13581093 4293530880
2.3780553 -2.4484777 0.15441339 4293400320
2.3377433 -2.4068656 0.17088212 4293269760
2.2957368 -2.3635159 0.18636866 4293008640
2.3973234 -2.4678419 0.21380503 4293530880
2.3857834 -2.4558234 0.2316158 4293530880
2.3320525 -2.4004226 0.24455713 4293269760
2.2724917 -2.3390341 0.25573963 4293008640
2.4140222 -2.4844041 0.28991202 4293661440
2.4120066 -2.4821789 0.3075535 4293661440
2.3546889 -2.4231029 0.31736115 4293400320
2.3221676 -2.389523 0.32951179 4293269760
2.314117 -2.3811007 0.34448183 4293139200
2.4007471 -2.4699948 0.37370431 4293661440
2.3896446 -2.4584317 0.38779646 4293530880
2.3755472 -2.4437921 0.40080112 4293530880
2.3333039 -2.4002306 0.40824679 4293269760
2.2857583 -2.3512259 0.41375086 4293139200
2.4254055 -2.4945693 0.45321706 4293792000
2.4004779 -2.4688034 0.46207446 4293661440
2.3767498 -2.4442728 0.47036722 4293530880
2.3381011 -2.404417 0.47483945 4293400320
2.3598189 -2.426578 0.49093929 4293530880
2.3021426 -2.367183 0.48978737 4293139200
2.4353216 -2.5038278 0.52901375 4293792000
2.4009731 -2.468394 0.53167671 4293661440
2.3671672 -2.4335225 0.5335663 4293530880
2.3897185 -2.4565296 0.5474934 4293661440
2.4054222 -2.4725025 0.55935258 4293661440
2.421175 -2.4885237 0.57067585 4293792000
2.3562088 -2.421665 0.56216621 4293530880
2.3624642 -2.4279361 0.56982529 4293530880
2.3715374 -2.4370992 0.57753527 4293530880
2.381367 -2.4470377 0.58479434 4293661440
2.3871429 -2.4528136 0.59040236 4293661440
2.3703063 -2.4353786 0.58970934 4293530880
2.3968637 -2.4624836 0.59912813 4293661440
2.3966894 -2.4621503 0.60119063 4293661440
2.3828504 -2.447794 0.59910983 4293661440
2.3828433 -2.447633 0.59979451 4293661440
2.3863573 -2.4510849 0.60066009 4293661440
2.380331 -2.4447477 0.59841925 4293661440
2.3668246 -2.4307365 0.59360379 4293530880
2.3643992 -2.4280949 0.59088033 4293530880
2.3579273 -2.4213028 0.58646131 4293530880
2.4123147 -2.4769394 0.59642065 4293792000
2.3963757 -2.4604342 0.5882377 4293661440
2.3805046 -2.4440005 0.57944328 4293661440
2.3585014 -2.4212799 0.56856221 4293530880
2.4045229 -2.4683225 0.57334989 4293661440
2.432512 -2.4968677 0.5729664 4293792000
2.42311 -2.4870687 0.56305528 4293792000
2.4344444 -2.4985321 0.55730039 4293792000
2.3952312 -2.4581697 0.53943121 4293661440
2.40943 -2.4725702 0.53305918 4293661440
2.4078093 -2.4707515 0.52252126 4293661440
2.4189227 -2.481986 0.514103 4293792000
2.434293 -2.4975827 0.5058769 4293792000
2.4049711 -2.466567 0.41339293 4293661440
2.402818 -2.4642031 0.39779758 4293661440
2.4252758 -2.4870527 0.38569984 4293661440
2.4133782 -2.4747055 0.36763564 4293661440
2.4004235 -2.461277 0.349168 4293530880
2.4061599 -2.4669948 0.33308107 4293661440
2.4004109 -2.4609485 0.31503326 4293530880
2.4050579 -2.4655497 0.29800913 4293661440
2.3947155 -2.4548001 0.27883878 4293530880
2.3940272 -2.4539378 0.2605685 4293530880
2.404002 -2.4639935 0.24310157 4293530880
2.3845315 -2.4439001 0.22246008 4293530880
2.4056606 -2.4653752 0.20535375 4293530880
2.3942745 -2.4535601 0.1851646 4293530880
2.4075038 -2.4669449 0.16666487 4293530880
2.3574574 -2.4155581 0.14389223 4293269760
2.3848786 -2.4434695 0.12588938 4293400320
2.3828559 -2.4412422 0.10597899 4293400320
2.3861229 -2.4444287 0.086178333 4293400320
2.3100767 -2.3664496 0.064011842 4293139200
2.3715608 -2.4292128 0.045738399 4293400320
2.3833647 -2.4411345 0.025826599 4293400320
2.3639169 -2.4210792 0.0056039141 4293400320
2.3569891 -2.4138358 -0.014370492 4293269760
2.3641794 -2.421036 -0.034415569 4293400320
2.3605819 -2.4172001 -0.054301385 4293400320
2.3228712 -2.3784709 -0.073007151 4293139200
2.371423 -2.4279776 -0.09441188 4293400320
2.3854461 -2.4421635 -0.11487533 4293400320
2.3859189 -2.4424896 -0.13468847 4293400320
2.3451231 -2.400614 -0.15170838 4293269760
2.3528345 -2.408345 -0.17141563 4293269760
2.3770275 -2.4329271 -0.19239235 4293400320
2.364763 -2.4202311 -0.21031988 4293400320
2.2792006 -2.3326001 -0.22075142 4293008640
2.3756211 -2.4310203 -0.24858181 4293400320
2.3905761 -2.4461517 -0.26851147 4293530880
2.3835633 -2.4388263 -0.28575051 4293530880
2.3389087 -2.3930283 -0.29779348 4293269760
2.3415971 -2.3956223 -0.31520876 4293269760
2.3770201 -2.43167 -0.33694464 4293400320
2.3759325 -2.4304028 -0.35339272 4293400320
2.3790989 -2.4334824 -0.37009558 4293530880
2.3502688 -2.4038687 -0.38125327 4293400320
2.2782345 -2.330117 -0.38433865 4293008640
2.3880482 -2.442158 -0.41782239 4293530880
2.3841052 -2.437974 -0.43164653 4293530880
2.389986 -2.4438252 -0.4467721 4293530880
2.3410933 -2.393728 -0.45093614 4293269760
2.313848 -2.3657475 -0.45832673 4293269760
2.3725991 -2.4255998 -0.482355 4293530880
2.3645825 -2.4172583 -0.49255797 4293400320
2.3669829 -2.4195557 -0.50433797 4293530880
2.3702142 -2.4227011 -0.51574594 4293530880
2.3516154 -2.4035568 -0.52175939 4293400320
2.3172426 -2.3683095 -0.52346492 4293269760
2.3398612 -2.3912508 -0.53736508 4293400320
2.2895138 -2.3397017 -0.53383213 4293139200
2.3156879 -2.3662715 -0.54739875 4293269760
2.3281012 -2.378792 -0.55720782 4293269760
2.344022 -2.3948915 -0.56728941 4293400320
2.2728286 -2.3220799 -0.55554289 4293008640
2.2854445 -2.3348081 -0.56345296 4293139200
2.2981279 -2.3476036 -0.57077473 4293139200
2.3046768 -2.3541377 -0.57594508 4293269760
2.3140588 -2.3635621 -0.5811733 4293269760
2.3104203 -2.3597009 -0.58246869 4293269760
2.3103092 -2.3594391 -0.583969 4293269760
2.306833 -2.3557444 -0.58393788 4293269760
2.3041277 -2.3528366 -0.58341891 4293269760
2.2939205 -2.3422775 -0.58032554 4293139200
2.2810352 -2.3289878 -0.5758881 4293139200
2.3484621 -2.3976102 -0.59096849 4293400320
2.3357413 -2.3844872 -0.58518893 4293400320
2.3099897 -2.3580773 -0.57551944 4293269760
2.2974124 -2.3451047 -0.56851387 4293139200
2.3405936 -2.3889873 -0.57455504 4293400320
2.324713 -2.3726468 -0.56540978 4293269760
2.361635 -2.410141 -0.56836927 4293530880
2.3703902 -2.4189165 -0.5637871 4293530880
2.3767114 -2.4252095 -0.55793202 4293530880
2.3714521 -2.4196975 -0.54871899 4293530880
2.375927 -2.4241083 -0.54112458 4293530880
2.3769982 -2.4250495 -0.53211534 4293530880
2.3781176 -2.4260397 -0.52249914 4293530880
2.3855138 -2.4334264 -0.51362574 4293530880
2.409389 -2.4576046 -0.50756538 4293661440
2.3844893 -2.432081 -0.49068516 4293530880
2.3857534 -2.4332185 -0.47873744 4293530880
2.3718781 -2.4189317 -0.46328542 4293530880
2.37515 -2.4221153 -0.45070994 4293530880
2.388768 -2.435838 -0.43949112 4293530880
2.3882 -2.4351091 -0.42510134 4293530880
2.3736289 -2.4201174 -0.40784404 4293400320
2.3749344 -2.4212978 -0.39293683 4293400320
2.385174 -2.431577 -0.37899357 4293530880
2.4022837 -2.4488511 -0.36553875 4293530880
2.3885214 -2.4346862 -0.34697545 4293530880
2.3730159 -2.4187477 -0.32798308 4293400320
2.3803797 -2.4260969 -0.3118408 4293400320
2.3869236 -2.43261 -0.2951504 4293530880
2.3764715 -2.4218197 -0.2760739 4293400320
2.3775344 -2.4227531 -0.25810224 4293400320
2.3847289 -2.4299278 -0.2404519 4293400320
2.3910823 -2.4362457 -0.22235313 4293530880
2.3891592 -2.4341385 -0.20321457 4293400320
2.3605452 -2.4048674 -0.18184204 4293269760
2.4005802 -2.4454629 -0.16544755 4293530880
2.3951721 -2.4398098 -0.14547962 4293530880
2.3616843 -2.4055841 -0.1239813 4293269760
2.3908396 -2.435102 -0.10565693 4293400320
2.4092164 -2.45365 -0.086354241 4293530880
2.3836479 -2.4274871 -0.065460525 4293400320
2.3677738 -2.4111893 -0.045111507 4293400320
2.411027 -2.4550409 -0.025597623 4293530880
2.4111636 -2.4550295 -0.0052481899 4293530880
2.3840885 -2.4273403 0.014927907 4293400320
2.3461578 -2.3886135 0.034465171 4293269760
2.4313982 -2.4751568 0.056197628 4293661440
2.4355121 -2.4791887 0.076722808 4293661440
2.3675613 -2.4099391 0.094342269 4293400320
2.3858752 -2.4284132 0.11489705 4293400320
2.4406214 -2.4839277 0.13768911 4293661440
2.4258704 -2.4687781 0.15672401 4293661440
2.3790054 -2.4209826 0.17300288 4293400320
2.3360395 -2.3771565 0.18864881 4293139200
2.4487214 -2.4915519 0.21723403 4293792000
2.439898 -2.4824307 0.23560396 4293661440
2.382334 -2.4237716 0.24848321 4293400320
2.3196065 -2.3598719 0.25962365 4293139200
2.4654608 -2.5079515 0.29447025 4293792000
2.4599233 -2.5021703 0.31193754 4293792000
2.3952651 -2.4363155 0.32104385 4293530880
2.3695173 -2.4100041 0.33436301 4293400320
2.3586113 -2.3987753 0.34914663 4293400320
2.4555056 -2.4970663 0.38008875 4293792000
2.4408314 -2.4820054 0.39387801 4293792000
2.416877 -2.4575191 0.4054752 4293661440
2.374368 -2.4141889 0.41308254 4293400320
2.3362699 -2.375344 0.42049736 4293269760
2.4795127 -2.5206785 0.46069479 4293922560
2.4481583 -2.4886806 0.46856758 4293792000
2.4312227 -2.4713285 0.47840047 4293792000
2.3784301 -2.417568 0.48026463 4293530880
2.4009588 -2.4402936 0.49663267 4293661440
2.3429265 -2.3812215 0.49559903 4293269760
2.4796612 -2.5198934 0.53554332 4294053120
2.4520307 -2.4916871 0.53985041 4293922560
2.464247 -2.5039334 0.55224079 4293922560
2.4205832 -2.4594564 0.55135226 4293661440
2.4495366 -2.4886911 0.56630635 4293922560
2.4619105 -2.5010948 0.57690495 4293922560
2.468111 -2.5072317 0.58544058 4293922560
2.4771457 -2.5162439 0.59400612 4294053120
2.4126472 -2.4506376 0.58411491 4293661440
2.4218378 -2.45981 0.59125334 4293792000
2.428335 -2.4662483 0.59707075 4293792000
2.4279933 -2.4657474 0.6005165 4293792000
2.4374149 -2.4751513 0.60568255 4293792000
2.4372373 -2.4748161 0.60776168 4293792000
2.4274638 -2.464747 0.60672706 4293792000
2.4302223 -2.4673901 0.60810667 4293792000
2.4206195 -2.4574957 0.6056782 4293792000
2.417325 -2.454 0.60411698 4293792000
2.4113481 -2.4477844 0.60117948 4293661440
2.4721084 -2.509244 0.61412591 4294053120
2.4663057 -2.503202 0.60976505 4293922560
2.4598918 -2.4965408 0.60455358 4293922560
2.4404049 -2.4766264 0.5954634 4293792000
2.4244473 -2.4602921 0.586604 4293792000
2.4512823 -2.4873397 0.58738428 4293922560
2.4890692 -2.5254853 0.58994222 4294053120
2.480258 -2.5163944 0.58069223 4294053120
2.4954031 -2.531585 0.57635379 4294053120
2.475292 -2.5110424 0.56322175 4293922560
2.4860768 -2.5218122 0.55649745 4294053120
2.4508457 -2.4859509 0.53892523 4293792000
2.4485333 -2.4834497 0.52812028 4293792000
2.4878454 -2.523123 0.52552259 4294053120
2.482152 -2.5171938 0.51266283 4293922560
2.4740672 -2.5079124 0.42275527 4293922560
2.4691381 -2.5027606 0.4063614 4293922560
2.4829404 -2.5165761 0.39253744 4293922560
2.4745955 -2.5079656 0.37473601 4293922560
2.4731021 -2.5062928 0.35761994 4293922560
2.4575887 -2.4904265 0.33819476 4293792000
2.4643118 -2.4970727 0.32151693 4293792000
2.4565148 -2.4890199 0.30259487 4293792000
2.4611669 -2.4935689 0.28489548 4293792000
2.4454505 -2.4775019 0.26460475 4293661440
2.467921 -2.5000842 0.24810664 4293792000
2.4608057 -2.4927227 0.22823955 4293792000
2.4536872 -2.485359 0.20823288 4293792000
2.4582794 -2.489846 0.18901315 4293792000
2.4680016 -2.4995227 0.16986674 4293792000
2.4490368 -2.4801748 0.14863038 4293661440
2.4300091 -2.4607654 0.12753762 4293661440
2.446754 -2.4775462 0.10820777 4293661440
2.437598 -2.4681249 0.087546229 4293661440
2.414314 -2.4444149 0.066548295 4293530880
2.4284742 -2.4585793 0.046593193 4293530880
2.43132 -2.4612989 0.026224084 4293661440
2.4296665 -2.4594684 0.0057655019 4293661440
2.422698 -2.4522636 -0.014642324 4293530880
2.4315097 -2.4610152 -0.035142809 4293661440
2.4314032 -2.4607494 -0.055553585 4293661440
2.4213474 -2.4504242 -0.075596377 4293530880
2.4192975 -2.448194 -0.09570577 4293530880
2.4369128 -2.4658434 -0.11661479 4293661440
2.4310563 -2.4597647 -0.13638063 4293661440
2.4061704 -2.434453 -0.15468678 4293530880
2.4194269 -2.4476945 -0.17517143 4293530880
2.4284079 -2.4566135 -0.19533904 4293661440
2.4180562 -2.4459949 -0.21373682 4293530880
2.3830996 -2.4105139 -0.22937985 4293400320
2.4234471 -2.4511273 -0.25203559 4293530880
2.4279585 -2.4555278 -0.27104944 4293661440
2.4419248 -2.4694803 -0.29095963 4293661440
2.4336896 -2.4610021 -0.30795833 4293661440
2.3856616 -2.4123278 -0.31918976 4293400320
2.4378862 -2.4649253 -0.34347019 4293661440
2.4395692 -2.4664671 -0.36065209 4293661440
2.4240427 -2.4506276 -0.37480426 4293661440
2.3908305 -2.4169295 -0.38548878 4293530880
2.3968742 -2.4228778 -0.40187877 4293530880
2.4453731 -2.4716959 -0.42526433 4293792000
2.4539511 -2.4801991 -0.44160226 4293792000
2.4438796 -2.469872 -0.45408952 4293792000
2.4292226 -2.4549167 -0.46507478 4293661440
2.3548083 -2.379637 -0.46363348 4293400320
2.4201663 -2.4454613 -0.48906508 4293661440
2.4120858 -2.4371488 -0.49943206 4293661440
2.424927 -2.4499545 -0.51357526 4293661440
2.4301376 -2.4550576 -0.52560467 4293661440
2.4167118 -2.4413519 -0.53297716 4293661440
2.4182043 -2.4427028 -0.54297203 4293661440
2.3836684 -2.4076986 -0.5441466 4293530880
2.3434322 -2.3669469 -0.54312778 4293269760
2.3489108 -2.3723245 -0.55193514 4293400320
2.3752778 -2.3987751 -0.56509888 4293530880
2.3843417 -2.4077671 -0.57360172 4293530880
2.4004104 -2.4238241 -0.58318436 4293661440
2.33234 -2.3550091 -0.57158184 4293269760
2.3381546 -2.3607249 -0.57725507 4293269760
2.3482051 -2.3707125 -0.58332664 4293400320
2.3541708 -2.3765793 -0.58772898 4293400320
2.3477335 -2.3699381 -0.58835721 4293400320
2.3510866 -2.3731701 -0.59074461 4293400320
2.3475883 -2.3694935 -0.59072566 4293400320
2.3407056 -2.3624053 -0.58916593 4293269760
2.334599 -2.3561001 -0.58711475 4293269760
2.3988719 -2.420747 -0.60201335 4293661440
2.3894677 -2.4111154 -0.59772879 4293530880
2.3766749 -2.3980694 -0.5919233 4293530880
2.3604887 -2.3816047 -0.58462167 4293400320
2.3443737 -2.3652141 -0.57670724 4293400320
2.3878186 -2.4088502 -0.58268839 4293530880
2.4186411 -2.4397609 -0.58476484 4293661440
2.4239171 -2.4449251 -0.5799163 4293661440
2.4336958 -2.4546261 -0.57543176 4293792000
2.4241908 -2.4448965 -0.56573379 4293661440
2.4347103 -2.4553428 -0.56004244 4293792000
2.4234271 -2.4438233 -0.54870707 4293661440
2.4245186 -2.4447711 -0.53957528 4293661440
2.4284444 -2.4485738 -0.53043538 4293661440
2.448941 -2.4690671 -0.52419668 4293792000
2.4536617 -2.4736683 -0.51387978 4293792000
2.4549329 -2.4747956 -0.50223058 4293792000
2.4368927 -2.4564753 -0.48615563 4293661440
2.4347153 -2.4541306 -0.47279316 4293661440
2.4421332 -2.4614482 -0.46072873 4293792000
2.4494228 -2.4686358 -0.44804046 4293792000
2.4483237 -2.4673769 -0.4332847 4293792000
2.4302824 -2.4490619 -0.41517147 4293661440
2.4351184 -2.4537795 -0.40057635 4293661440
2.4453526 -2.4639301 -0.38632613 4293661440
2.4666452 -2.4852107 -0.37318343 4293792000
2.4488575 -2.4671545 -0.35371128 4293661440
2.4332829 -2.451328 -0.33440095 4293661440
2.4406223 -2.4585636 -0.31792235 4293661440
2.4512928 -2.4691501 -0.30139956 4293661440
2.4368238 -2.4544394 -0.28149667 4293661440
2.4449422 -2.4624572 -0.26393667 4293661440
2.4485946 -2.4659808 -0.24552181 4293661440
2.4590783 -2.4763768 -0.22741598 4293792000
2.4486923 -2.4657767 -0.20714329 4293661440
2.3977692 -2.4144001 -0.18372071 4293400320
2.4616444 -2.4785025 -0.16875412 4293792000
2.459183 -2.4758749 -0.14858657 4293661440
2.4130259 -2.4293005 -0.12603295 4293530880
2.4514148 -2.4677591 -0.10779985 4293661440
2.464031 -2.4802952 -0.087907262 4293792000
2.4692032 -2.4853442 -0.067512803 4293792000
2.3987279 -2.4143291 -0.045547187 4293400320
2.4787073 -2.4945958 -0.026272515 4293792000
2.4918985 -2.5077052 -0.0055023315 4293922560
2.4732358 -2.4887898 0.015286229 4293792000
2.4392991 -2.4545224 0.035515323 4293661440
2.5087233 -2.5241566 0.057527032 4293922560
2.5088639 -2.5241437 0.078449778 4293922560
2.4688003 -2.4837222 0.097686566 4293792000
2.4070601 -2.4215205 0.11510949 4293400320
2.5109181 -2.5257442 0.14069967 4293922560
2.4947231 -2.5093153 0.1601024 4293922560
2.4668567 -2.4811606 0.17821957 4293792000
2.3470614 -2.3606424 0.18829933 4293139200
2.5252349 -2.5395091 0.22258173 4294053120
2.5158083 -2.5298831 0.24138352 4294053120
2.4736295 -2.4873557 0.2563718 4293792000
2.4079573 -2.4212344 0.26781479 4293530880
2.5454972 -2.5592384 0.30212083 4294183680
2.5288284 -2.5423393 0.31866893 4294053120
2.4801886 -2.4933324 0.33035716 4293792000
2.4694686 -2.4824135 0.34630769 4293792000
2.3788958 -2.3913066 0.34996393 4293400320
2.5367129 -2.5496311 0.390237 4294183680
2.5158513 -2.5285273 0.40348622 4294053120
2.4409993 -2.4532182 0.40700382 4293661440
2.4017358 -2.4136479 0.41528141 4293530880
2.3529024 -2.3644755 0.42089924 4293269760
2.538501 -2.5506406 0.46877915 4294183680
2.5265687 -2.5385056 0.48063475 4294183680
2.511822 -2.5235472 0.49126139 4294053120
2.4780185 -2.4894643 0.49734572 4293922560
2.4186611 -2.4297397 0.49726582 4293661440
2.4238758 -2.4348223 0.50962931 4293661440
2.5413144 -2.5525169 0.54555213 4294183680
2.5410788 -2.5521224 0.5560931 4294183680
2.5425491 -2.5534391 0.56636894 4294183680
2.5113723 -2.5220015 0.56860572 4294053120
2.5237443 -2.5342567 0.57997268 4294183680
2.4764714 -2.4866769 0.5768488 4293922560
2.4959393 -2.5060501 0.58851004 4294053120
2.4987564 -2.5087194 0.59561992 4294053120
2.5016453 -2.5114605 0.60206437 4294053120
2.5073936 -2.5170689 0.60851038 4294053120
2.5034778 -2.5129848 0.61190212 4294053120
2.5066025 -2.5159609 0.61629468 4294053120
2.5195496 -2.5287857 0.62239838 4294183680
2.5131042 -2.5221646 0.6229887 4294183680
2.5095289 -2.5184219 0.62355053 4294053120
2.5095196 -2.5182545 0.62426317 4294053120
2.5095985 -2.5181756 0.62426347 4294053120
2.5062878 -2.5146987 0.62268716 4294053120
2.4933248 -2.5015471 0.61798877 4294053120
2.4901862 -2.4982438 0.61500996 4294053120
2.4843483 -2.4922354 0.61065149 4293922560
2.4681509 -2.4758458 0.60306001 4293922560
2.5144758 -2.5221112 0.60998344 4294183680
2.5019205 -2.509371 0.60185051 4294053120
2.5478449 -2.5552266 0.60700327 4294314240
2.5471826 -2.5544012 0.6002413 4294314240
2.5576544 -2.5647306 0.59537548 4294314240
2.5645688 -2.5714943 0.58893645 4294314240
2.552706 -2.5594482 0.57751882 4294314240
2.5344639 -2.5410137 0.56409514 4294183680
2.5399103 -2.5463071 0.55533797 4294183680
2.5535777 -2.5598333 0.54765928 4294314240
2.5605769 -2.5666795 0.53783131 4294314240
2.5548778 -2.5608089 0.52471292 4294314240
2.5374768 -2.542275 0.43105534 4294183680
2.5483468 -2.5529916 0.41694847 4294183680
2.5532298 -2.5577152 0.40129367 4294183680
2.5447667 -2.5490818 0.38311481 4294183680
2.5295746 -2.5337157 0.36365315 4294053120
2.5368621 -2.5408452 0.34707311 4294053120
2.5422754 -2.5460985 0.32976159 4294183680
2.525984 -2.5296354 0.30934569 4294053120
2.5211711 -2.524658 0.29014823 4294053120
2.5184278 -2.5217514 0.27092496 4294053120
2.5370498 -2.5402169 0.25358349 4294053120
2.5268648 -2.5298662 0.23301604 4294053120
2.5156622 -2.5184989 0.21226513 4293922560
2.5286939 -2.5313699 0.19331485 4294053120
2.5372066 -2.5397201 0.17363508 4294053120
2.5117345 -2.5140848 0.15157092 4293922560
2.5017929 -2.5039823 0.13056789 4293922560
2.5187016 -2.5207272 0.11077082 4293922560
2.5191991 -2.5210624 0.08998441 4293922560
2.4931517 -2.4948595 0.068357319 4293792000
2.4952717 -2.4968181 0.047631636 4293792000
2.5100005 -2.51138 0.026955929 4293922560
2.5062702 -2.5074899 0.0059552887 4293922560
2.4826357 -2.4837062 -0.0148767 4293792000
2.4998636 -2.5007639 -0.035875425 4293922560
2.5103624 -2.5110946 -0.056973703 4293922560
2.4832158 -2.4838059 -0.077029333 4293792000
2.4891005 -2.4895258 -0.097842306 4293792000
2.5095172 -2.5097649 -0.11933554 4293922560
2.5077276 -2.5078154 -0.1398052 4293922560
2.4750276 -2.4749858 -0.15813026 4293792000
2.4903586 -2.4901414 -0.17919795 4293792000
2.5002007 -2.4998124 -0.19988175 4293922560
2.4917712 -2.4912319 -0.21890678 4293792000
2.4651692 -2.4645026 -0.23583017 4293661440
2.5006807 -2.4998093 -0.25848594 4293922560
2.5102503 -2.5092051 -0.27853379 4293922560
2.514976 -2.5137627 -0.29785016 4293922560
2.4962788 -2.4949319 -0.31397316 4293922560
2.4166148 -2.4152319 -0.32139415 4293530880
2.5089226 -2.5072351 -0.35134926 4293922560
2.5007339 -2.4988992 -0.36747381 4293922560
2.5034366 -2.5014369 -0.38475081 4293922560
2.4797137 -2.4775968 -0.3974123 4293792000
2.431365 -2.4291801 -0.40523013 4293661440
2.5128024 -2.5103035 -0.43437415 4294053120
2.521404 -2.5187275 -0.45102656 4294053120
2.520885 -2.5180485 -0.4655942 4294053120
2.4985666 -2.4956169 -0.47549275 4293922560
2.4518955 -2.4488888 -0.47985387 4293792000
2.4934354 -2.4901786 -0.50086379 4293922560
2.5020821 -2.4986463 -0.51496935 4294053120
2.4911661 -2.487597 -0.5244627 4293922560
2.5005836 -2.4968331 -0.53762168 4294053120
2.4893906 -2.4855092 -0.54573864 4293922560
2.4803126 -2.4762964 -0.55361027 4293922560
2.4650655 -2.4609325 -0.55937958 4293792000
2.4373703 -2.433156 -0.56153381 4293661440
2.446347 -2.4419532 -0.57140654 4293792000
2.4025135 -2.3980892 -0.56820804 4293530880
2.415117 -2.4105043 -0.57758015 4293661440
2.4277847 -2.422982 -0.58636177 4293661440
2.4342391 -2.4292638 -0.59300876 4293661440
2.4407682 -2.4356194 -0.59901017 4293792000
2.4501657 -2.4448333 -0.60504371 4293792000
2.4498765 -2.4443908 -0.60799909 4293792000
2.4531589 -2.4475083 -0.61113369 4293792000
2.459316 -2.453491 -0.61427796 4293792000
2.4495173 -2.4435711 -0.61272806 4293792000
2.4460824 -2.4399948 -0.61204875 4293792000
2.4462218 -2.4399805 -0.61154795 4293792000
2.4297049 -2.4233699 -0.60618597 4293661440
2.4202466 -2.413794 -0.60189122 4293661440
2.4038908 -2.3973479 -0.59520853 4293530880
2.4509127 -2.4440422 -0.60344952 4293792000
2.4347196 -2.4277585 -0.59541476 4293661440
2.4719307 -2.464673 -0.59967905 4293922560
2.4806659 -2.4732196 -0.59625995 4293922560
2.4930384 -2.4853883 -0.59297252 4293922560
2.4970641 -2.4892428 -0.58697546 4294053120
2.5105846 -2.502552 -0.58247614 4294053120
2.5018055 -2.4936545 -0.57212949 4294053120
2.495878 -2.4875972 -0.56182647 4293922560
2.4942107 -2.4857829 -0.55186391 4293922560
2.4953828 -2.4867957 -0.54189861 4293922560
2.5064008 -2.4976106 -0.5333963 4294053120
2.5251215 -2.5160918 -0.52578926 4294053120
2.5201151 -2.5109527 -0.51259267 4294053120
2.5074928 -2.4982338 -0.49735779 4294053120
2.4888239 -2.4794981 -0.48052678 4293922560
2.5031741 -2.4936268 -0.46953681 4293922560
2.5150249 -2.5052667 -0.45740587 4294053120
2.5234475 -2.5134935 -0.44402394 4294053120
2.5038078 -2.4937961 -0.42528987 4293922560
2.505183 -2.4950109 -0.40975598 4293922560
2.520556 -2.5101523 -0.39594445 4294053120
2.5286808 -2.5180809 -0.38040635 4294053120
2.5360065 -2.5252137 -0.3642258 4294053120
2.4974487 -2.4867032 -0.34129059 4293922560
2.5088611 -2.4979024 -0.32498085 4293922560
2.5168636 -2.5057082 -0.30773708 4293922560
2.5141487 -2.5028546 -0.28881419 4293922560
2.4887643 -2.4774561 -0.26719266 4293792000
2.5240488 -2.5123923 -0.25169781 4293922560
2.5240114 -2.5122013 -0.23215221 4293922560
2.5289209 -2.5169289 -0.21277303 4294053120
2.4696691 -2.4578631 -0.18821889 4293661440
2.5174971 -2.5052629 -0.17167924 4293922560
2.5246029 -2.5121737 -0.15175226 4293922560
2.5162456 -2.5037122 -0.13075076 4293922560
2.5219257 -2.5092049 -0.11035907 4293922560
2.5319271 -2.5189922 -0.089911349 4293922560
2.5362914 -2.5231757 -0.06905362 4294053120
2.4763949 -2.4634943 -0.046854049 4293661440
2.5374794 -2.5240476 -0.026854984 4294053120
2.5479825 -2.5343301 -0.0057123397 4294053120
2.5319254 -2.5182199 0.015439086 4293922560
2.4571328 -2.4437528 0.035441197 4293661440
2.5613561 -2.547152 0.058267884 4294183680
2.5685167 -2.5541101 0.079723611 4294183680
2.5526493 -2.5381908 0.10029781 4294053120
2.4069757 -2.3933313 0.1143066 4293400320
2.576241 -2.5613132 0.14339474 4294183680
2.5767419 -2.5616541 0.16428144 4294183680
2.5541811 -2.5390906 0.18333435 4294053120
2.4217856 -2.4074528 0.19304866 4293530880
2.5835056 -2.5678999 0.22626591 4294183680
2.5872524 -2.5714629 0.24666946 4294314240
2.5573621 -2.5416267 0.26338759 4294183680
2.4050767 -2.3902731 0.26581299 4293400320
2.59675 -2.5804191 0.30628523 4294314240
2.6035151 -2.5869768 0.32605049 4294314240
2.5960398 -2.579397 0.3436628 4294314240
2.5338559 -2.517514 0.35315382 4294053120
2.4373527 -2.4215746 0.3563675 4293530880
2.5960119 -2.5788939 0.3969202 4294314240
2.5873795 -2.5701678 0.4124321 4294314240
2.5568509 -2.5397141 0.42373767 4294183680
2.467483 -2.4508772 0.42406616 4293792000
2.4181395 -2.4017651 0.42995611 4293530880
2.5963697 -2.5784545 0.47657442 4294444800
2.5983648 -2.5802748 0.49131986 4294444800
2.5784519 -2.5603602 0.50126576 4294314240
2.5323694 -2.5144882 0.50520855 4294053120
2.4878676 -2.4701896 0.50843668 4293922560
2.5036218 -2.4856629 0.52325612 4293922560
2.6060948 -2.5871434 0.55612618 4294444800
2.5910738 -2.5720859 0.56366158 4294444800
2.5807862 -2.5617242 0.5714727 4294314240
2.5813434 -2.5621176 0.58098561 4294314240
2.5654006 -2.54615 0.58605736 4294314240
2.5848968 -2.5653222 0.59855187 4294444800
2.5404391 -2.521085 0.59547079 4294183680
2.5495658 -2.5299761 0.60415447 4294183680
2.5489609 -2.5292187 0.60984731 4294183680
2.5554345 -2.5354776 0.61653167 4294314240
2.5584872 -2.5383451 0.62168616 4294314240
2.5581241 -2.5378265 0.6252858 4294314240
2.5578465 -2.5373929 0.62817138 4294314240
2.5039959 -2.4838669 0.61711264 4294053120
2.5073953 -2.4870796 0.61939561 4294053120
2.5673394 -2.5463219 0.63493985 4294314240
2.5576236 -2.5365353 0.63252372 4294314240
2.5577927 -2.5365431 0.63180864 4294314240
2.5440562 -2.5227747 0.62692332 4294183680
2.5416024 -2.520185 0.62409228 4294183680
2.5786979 -2.5567722 0.63020027 4294314240
2.5659211 -2.5439553 0.62335366 4294314240
2.5745604 -2.5523512 0.62098342 4294314240
2.5842493 -2.5617857 0.61810458 4294444800
2.5876262 -2.5649681 0.61296552 4294444800
2.5944283 -2.5715415 0.6078968 4294444800
2.5992131 -2.5761163 0.60161537 4294444800
2.5938966 -2.5706887 0.59229791 4294444800
2.5914469 -2.5681002 0.58297205 4294444800
2.5950189 -2.5714734 0.57432044 4294444800
2.593395 -2.5697024 0.56384748 4294444800
2.5974195 -2.5735226 0.55394167 4294444800
2.6053112 -2.5811701 0.54417157 4294444800
2.5932622 -2.5690799 0.52963108 4294314240
2.575779 -2.5507841 0.43504101 4294314240
2.5966184 -2.5712376 0.4223994 4294314240
2.5997496 -2.5741704 0.40625113 4294314240
2.592345 -2.5666807 0.38802889 4294314240
2.5848539 -2.5591063 0.36945933 4294314240
2.5851347 -2.5592198 0.35163844 4294314240
2.5925903 -2.5664291 0.33434892 4294314240
2.5806003 -2.5544069 0.31421188 4294183680
2.5687537 -2.5425279 0.29391783 4294183680
2.5829613 -2.5564129 0.276265 4294183680
2.5829549 -2.5562425 0.25667936 4294183680
2.5830336 -2.5561554 0.23681924 4294183680
2.5630736 -2.5362582 0.2150134 4294183680
2.5841403 -2.5569203 0.19640972 4294183680
2.5938098 -2.566314 0.17647965 4294314240
2.5854321 -2.5578678 0.15511553 4294183680
2.556268 -2.5288785 0.13263427 4294053120
2.5642595 -2.5366135 0.11211391 4294053120
2.5668893 -2.5390487 0.091148391 4294053120
2.5419738 -2.5142643 0.069282822 4294053120
2.5480697 -2.5201259 0.048347685 4294053120
2.5593596 -2.5311179 0.027314318 4294053120
2.5591362 -2.5307341 0.0060325437 4294053120
2.530828 -2.502605 -0.015093002 4293922560
2.5418224 -2.5133045 -0.036284853 4294053120
2.5508947 -2.5221038 -0.057578832 4294053120
2.5440061 -2.5151372 -0.078474417 4294053120
2.5401521 -2.5111687 -0.099291131 4294053120
2.5585754 -2.5292015 -0.12098633 4294053120
2.5666409 -2.5370035 -0.1422821 4294053120
2.5407777 -2.5113008 -0.16141073 4294053120
2.5359783 -2.5064001 -0.18145074 4293922560
2.552722 -2.5227704 -0.20292509 4294053120
2.5584068 -2.5282207 -0.22348231 4294053120
2.5307999 -2.5008039 -0.24073032 4293922560
2.5498664 -2.5194643 -0.26207417 4294053120
2.5698698 -2.5390472 -0.28352612 4294183680
2.5638847 -2.5329766 -0.30191675 4294183680
2.5667949 -2.535686 -0.32099894 4294183680
2.5019712 -2.4715488 -0.33083844 4293792000
2.5570407 -2.5257347 -0.356049 4294053120
2.5707452 -2.5390954 -0.37560207 4294183680
2.5660529 -2.5343027 -0.39212137 4294183680
2.538151 -2.5066109 -0.40445417 4294053120
2.4925978 -2.4615085 -0.41305974 4293792000
2.5679245 -2.5356617 -0.44136673 4294183680
2.57162 -2.539145 -0.45738187 4294183680
2.5767694 -2.5440617 -0.4731943 4294314240
2.5610607 -2.5284052 -0.48459464 4294183680
2.5456772 -2.5130713 -0.49534023 4294053120
2.549099 -2.5162854 -0.50911295 4294183680
2.5499742 -2.5169878 -0.52182293 4294183680
2.5558715 -2.5226426 -0.53499758 4294183680
2.5562305 -2.522836 -0.5464347 4294183680
2.5484037 -2.5149584 -0.55546981 4294183680
2.539732 -2.5062492 -0.56361794 4294183680
2.5391197 -2.505486 -0.57286793 4294183680
2.5356059 -2.5018632 -0.58079135 4294053120
2.5148718 -2.481267 -0.58403027 4294053120
2.4766114 -2.4433987 -0.58235526 4293792000
2.4927819 -2.4591811 -0.59271353 4293922560
2.4991875 -2.4653382 -0.60012501 4293922560
2.4518297 -2.4185135 -0.59386998 4293661440
2.4478681 -2.4144568 -0.5973115 4293661440
2.4573202 -2.4236178 -0.60333252 4293792000
2.4710619 -2.4370041 -0.60973358 4293792000
2.4673464 -2.4331901 -0.61113775 4293792000
2.4637172 -2.4294617 -0.61184496 4293792000
2.460175 -2.4258194 -0.61185646 4293792000
2.4602275 -2.4257185 -0.61204535 4293792000
2.4435294 -2.4091196 -0.60736436 4293661440
2.4402461 -2.4057348 -0.60530871 4293661440
2.4908679 -2.4554377 -0.61585581 4293922560
2.484252 -2.4487689 -0.61152565 4293922560
2.5186985 -2.4825354 -0.61653334 4294053120
2.5203071 -2.483964 -0.61275017 4294053120
2.5431321 -2.5062821 -0.61335731 4294183680
