# .PCD v0.7 - Point Cloud Data file format
VERSION 0.7
FIELDS x y z rgba
SIZE 4 4 4 4
TYPE F F F U
COUNT 1 1 1 1
WIDTH 1066
HEIGHT 1
VIEWPOINT 0 0 0 1 0 0 0
POINTS 1066
DATA ascii
3.4426899 -0.15624198 0.12966049 4293530880
3.457546 -0.15680736 0.11014053 4293661440
3.4747605 -0.15747869 0.090389878 4293661440
3.4734077 -0.15730803 0.069966063 4293661440
3.4381363 -0.15560238 0.048999328 4293530880
3.4452631 -0.15581648 0.02874977 4293530880
3.4574649 -0.15625948 0.0083973426 4293661440
3.4051342 -0.15378721 -0.011883274 4293400320
3.4325619 -0.15491787 -0.032281872 4293530880
3.443948 -0.15532334 -0.052724209 4293530880
3.4473529 -0.15536837 -0.073074721 4293530880
3.4179113 -0.15393387 -0.092497423 4293530880
3.4614773 -0.15578701 -0.11387753 4293661440
3.4681084 -0.15597628 -0.13421209 4293661440
3.466254 -0.15578376 -0.15410075 4293661440
3.4328561 -0.1541747 -0.17221862 4293530880
3.4440286 -0.15456805 -0.192258 4293530880
3.4659958 -0.15544483 -0.21287705 4293661440
3.4707091 -0.15554696 -0.23235345 4293661440
3.441268 -0.15411918 -0.24915521 4293530880
3.48789 -0.15609737 -0.27128166 4293792000
3.4830353 -0.15577047 -0.28933194 4293792000
3.492574 -0.15608712 -0.30828395 4293792000
3.4757266 -0.15522477 -0.32453108 4293661440
3.4732964 -0.15500692 -0.34166798 4293661440
3.4799604 -0.15519477 -0.35934174 4293792000
3.4884658 -0.15546428 -0.37688008 4293792000
3.4807134 -0.15500921 -0.39224714 4293792000
3.4662542 -0.15425618 -0.40631911 4293661440
3.4844077 -0.15495437 -0.42377374 4293792000
3.4899447 -0.15509075 -0.43932182 4293792000
3.5019608 -0.15551449 -0.4552643 4293792000
3.496973 -0.15518293 -0.46851221 4293792000
3.4802387 -0.15433076 -0.47957242 4293792000
3.4522772 -0.15298215 -0.48837492 4293661440
3.4613125 -0.15327358 -0.50178468 4293792000
3.472162 -0.15364473 -0.51495296 4293792000
3.4679396 -0.15334871 -0.52531976 4293792000
3.4606209 -0.15291616 -0.53457999 4293792000
3.4666693 -0.15307431 -0.54528582 4293792000
3.4593852 -0.15264378 -0.5532642 4293792000
3.4579039 -0.15246956 -0.56150901 4293792000
3.4500699 -0.15201554 -0.5680514 4293792000
3.4483998 -0.15183342 -0.574929 4293792000
3.4454782 -0.15159632 -0.58092141 4293792000
3.4273016 -0.15068869 -0.58363003 4293661440
3.4090168 -0.14977746 -0.58558261 4293661440
3.4269931 -0.15045939 -0.59307694 4293661440
3.4088082 -0.1495537 -0.59362411 4293661440
3.4083054 -0.14942436 -0.59653658 4293661440
3.4128392 -0.1495157 -0.59963536 4293661440
3.4125705 -0.14939652 -0.60119158 4293661440
3.4075022 -0.14906739 -0.60119683 4293661440
3.4151926 -0.14929633 -0.60274816 4293661440
3.4103651 -0.14897794 -0.60138535 4293661440
3.4240737 -0.149469 -0.60258275 4293661440
3.4327769 -0.14974087 -0.60218418 4293661440
3.4488606 -0.15033391 -0.60235846 4293792000
3.4568312 -0.15057254 -0.60039127 4293792000
3.4523005 -0.15026653 -0.59554905 4293792000
3.4621153 -0.15058476 -0.59247833 4293792000
3.4570658 -0.15025632 -0.58616775 4293792000
3.4587436 -0.15022038 -0.58032048 4293792000
3.457783 -0.15006982 -0.57335502 4293792000
3.4543436 -0.14981182 -0.5653227 4293792000
3.4530177 -0.14964563 -0.55699217 4293792000
3.4387493 -0.14891903 -0.54596949 4293661440
3.4338946 -0.14860073 -0.53586125 4293661440
3.4403377 -0.14877126 -0.52689385 4293661440
3.4688041 -0.14989306 -0.52058834 4293792000
3.4764249 -0.15011294 -0.51044595 4293792000
3.4731691 -0.14986303 -0.49810979 4293792000
3.4532266 -0.14889386 -0.48289552 4293661440
3.4357915 -0.14803396 -0.46761969 4293661440
3.4549689 -0.1487515 -0.45678756 4293661440
3.4703314 -0.1493037 -0.4447982 4293792000
3.4721355 -0.14927202 -0.43050024 4293792000
3.4360559 -0.14761278 -0.41116992 4293661440
3.443701 -0.14783283 -0.39673302 4293661440
3.4691696 -0.14881696 -0.3837553 4293661440
3.479269 -0.14914069 -0.36848551 4293792000
3.4704549 -0.14865364 -0.35079813 4293661440
3.4247589 -0.1465885 -0.32926223 4293530880
3.4346554 -0.14690401 -0.31288296 4293530880
3.4559669 -0.14770675 -0.297039 4293661440
3.4493659 -0.14731605 -0.27839425 4293661440
3.4118955 -0.14560838 -0.25718695 4293530880
3.4486496 -0.1470684 -0.24129397 4293661440
3.4452267 -0.14681399 -0.22214621 4293530880
3.4575016 -0.14722826 -0.20371909 4293661440
3.4618578 -0.14730479 -0.18451105 4293661440
3.435858 -0.14609034 -0.16360791 4293530880
3.4490743 -0.14654374 -0.1444667 4293530880
3.4573061 -0.14678469 -0.12483701 4293661440
3.432344 -0.14561686 -0.10397139 4293530880
3.4447827 -0.14603615 -0.084198862 4293530880
3.4655027 -0.14680548 -0.0643434 4293661440
3.4574511 -0.14635558 -0.043810111 4293661440
3.4573309 -0.14624168 -0.02337832 4293661440
3.4813917 -0.14714986 -0.0029432497 4293661440
3.4935124 -0.14755222 0.017719112 4293792000
3.4526217 -0.1457165 0.037923429 4293530880
3.4809117 -0.14680092 0.058771849 4293661440
3.5131798 -0.1480512 0.079980709 4293792000
3.5097063 -0.14779437 0.10045894 4293792000
3.458231 -0.1455179 0.11913439 4293661440
3.5009806 -0.14720656 0.14087453 4293792000
3.5035157 -0.14720289 0.16110599 4293792000
3.5040531 -0.1471152 0.18108851 4293792000
3.2954917 -0.13825518 0.18889506 4293139200
3.5035074 -0.14687176 0.22035797 4293792000
3.5004733 -0.14663441 0.23944989 4293792000
3.5013099 -0.14655927 0.25853294 4293792000
3.2995884 -0.13801169 0.26130116 4293139200
3.5218987 -0.14719941 0.29745364 4293922560
3.5221276 -0.14709814 0.31569451 4293922560
3.5190289 -0.14685796 0.33327466 4293922560
3.4799325 -0.14511687 0.34686741 4293792000
3.3307705 -0.13879183 0.34818587 4293269760
3.5239897 -0.14673229 0.38510051 4293922560
3.5188942 -0.14640938 0.40080756 4293922560
3.5097692 -0.14591926 0.4155435 4293922560
3.4633775 -0.14388153 0.4251585 4293661440
3.3973088 -0.14102988 0.43139914 4293530880
3.5274539 -0.14632148 0.46232173 4293922560
3.5338912 -0.1464773 0.47706512 4293922560
3.5201738 -0.14579794 0.48852095 4293922560
3.4946871 -0.14463235 0.49764454 4293792000
3.4855101 -0.14414287 0.50839996 4293792000
3.4019861 -0.1405817 0.50742382 4293530880
3.5201266 -0.14535287 0.53604007 4293922560
3.5144691 -0.14500868 0.54554188 4293922560
3.5202036 -0.14513451 0.55618387 4293922560
3.5090036 -0.14456232 0.56349605 4293922560
3.5061979 -0.14433639 0.5714696 4293922560
3.5049789 -0.1441759 0.57903093 4293922560
3.4856005 -0.14326909 0.58287889 4293922560
3.4769623 -0.14280462 0.58779079 4293792000
3.4898207 -0.14322291 0.59565806 4293922560
3.4812684 -0.14276238 0.59918547 4293922560
3.4854774 -0.14282529 0.60420322 4293922560
3.4888146 -0.14285226 0.60837281 4293922560
3.4583426 -0.14149573 0.60591388 4293792000
3.4678233 -0.14177449 0.60972667 4293792000
3.4538059 -0.14109275 0.60869437 4293792000
3.4925258 -0.14256459 0.61624581 4293922560
3.4836733 -0.14209361 0.61468959 4293922560
3.469039 -0.14138754 0.61139625 4293792000
3.4917691 -0.14220408 0.61396581 4293922560
3.4822979 -0.14170876 0.61015123 4293922560
3.4864457 -0.14176784 0.60801148 4293922560
3.4964123 -0.1420631 0.60616213 4293922560
3.5068688 -0.1423776 0.60366666 4293922560
3.512243 -0.14248526 0.59957153 4293922560
3.5003088 -0.14189097 0.59183484 4293922560
3.5073969 -0.14206794 0.58663237 4293922560
3.5082672 -0.14199279 0.57969379 4293922560
3.5184622 -0.1422947 0.57359946 4293922560
3.49259 -0.14113846 0.56100094 4293922560
3.4844618 -0.14070036 0.55068761 4293792000
3.4846935 -0.14060006 0.54108119 4293792000
3.5152984 -0.14172429 0.53547788 4293922560
3.5228913 -0.14191955 0.52564096 4293922560
3.5132856 -0.14142203 0.51264435 4293922560
3.4637191 -0.13890311 0.41848293 4293661440
3.4854069 -0.13966316 0.40568981 4293792000
3.5078363 -0.14045155 0.39233127 4293792000
3.4894512 -0.13960563 0.37395427 4293792000
3.4658048 -0.13855052 0.35479695 4293661440
3.4644647 -0.13838793 0.33764961 4293661440
3.4858747 -0.13913347 0.32224521 4293792000
3.4798536 -0.13878365 0.30387288 4293661440
3.4443564 -0.13725957 0.28280813 4293661440
3.4683511 -0.13810664 0.26637548 4293661440
3.4763086 -0.13831411 0.24824917 4293661440
3.4878829 -0.13866487 0.23000364 4293792000
3.4491713 -0.13701732 0.20834242 4293661440
3.4802496 -0.13814239 0.19071022 4293661440
3.4965379 -0.13867891 0.17179382 4293792000
3.4916022 -0.13837329 0.15158424 4293792000
3.4485281 -0.13655773 0.12983128 4293530880
3.4750226 -0.13749754 0.11065155 4293661440
3.4806068 -0.13760898 0.090499997 4293661440
3.4792535 -0.137446 0.070045702 4293661440
3.4389777 -0.13574672 0.048977457 4293530880
3.4560976 -0.13631375 0.028809998 4293661440
3.4633057 -0.13648908 0.0083851647 4293661440
3.4109616 -0.13431886 -0.011925732 4293400320
3.4423916 -0.13544822 -0.032392744 4293530880
3.452136 -0.13572302 -0.052864119 4293530880
3.4631772 -0.13604814 -0.073420808 4293661440
3.4237366 -0.13439102 -0.092661694 4293530880
3.4583235 -0.13563983 -0.11377648 4293661440
3.4739425 -0.13614313 -0.13443659 4293661440
3.4860611 -0.13650838 -0.15497603 4293661440
3.4386775 -0.13454472 -0.17250147 4293530880
3.4638178 -0.1354194 -0.19334945 4293661440
3.4758098 -0.13577886 -0.21346249 4293661440
3.4817357 -0.1359008 -0.23307028 4293661440
3.4593279 -0.13491732 -0.25043756 4293661440
3.4919596 -0.13608012 -0.27156866 4293792000
3.4922419 -0.13598125 -0.2900632 4293792000
3.5103385 -0.13657545 -0.3098143 4293792000
3.4715869 -0.13495852 -0.32410327 4293661440
3.4775145 -0.13507955 -0.34203756 4293792000
3.4957044 -0.13567613 -0.3609179 4293792000
3.4992361 -0.1357031 -0.37799007 4293792000
3.4865112 -0.13509992 -0.39284316 4293792000
3.4432788 -0.13331635 -0.40356541 4293661440
3.4941676 -0.13517673 -0.42489541 4293792000
3.5006919 -0.13531899 -0.4406054 4293792000
3.5067594 -0.1354432 -0.45581484 4293922560
3.5077105 -0.13536957 -0.46987361 4293922560
3.494926 -0.13476622 -0.48151562 4293792000
3.4642801 -0.13347551 -0.48998919 4293792000
3.4571905 -0.13309358 -0.50109988 4293661440
3.4654255 -0.13330159 -0.51386273 4293792000
3.4687629 -0.13332081 -0.52534968 4293792000
3.47033 -0.13327186 -0.53598136 4293792000
3.4576197 -0.13267496 -0.54376078 4293792000
3.4602048 -0.13266529 -0.55329013 4293792000
3.4685862 -0.13287751 -0.56313485 4293792000
3.4577761 -0.13235459 -0.56920832 4293792000
3.4580867 -0.1322577 -0.57642883 4293792000
3.4423664 -0.13154815 -0.58027881 4293661440
3.4369776 -0.13123409 -0.58515686 4293661440
3.4137616 -0.13024023 -0.5862745 4293661440
3.4278023 -0.13066806 -0.5930903 4293661440
3.4184735 -0.13020489 -0.59517795 4293661440
3.4140315 -0.12992829 -0.5974068 4293661440
3.4225025 -0.130143 -0.60119814 4293661440
3.4173121 -0.12983812 -0.60188931 4293661440
3.4171627 -0.12972493 -0.60276103 4293661440
3.4258389 -0.12994653 -0.60448396 4293661440
3.4210103 -0.12965575 -0.60311717 4293661440
3.4298017 -0.12988102 -0.60344273 4293661440
3.4434288 -0.13028872 -0.6039018 4293792000
3.4536109 -0.13056533 -0.60303456 4293792000
3.4477997 -0.13023718 -0.59866732 4293792000
3.4607351 -0.13061692 -0.59684616 4293792000
3.4584994 -0.13042374 -0.5916999 4293792000
3.4628062 -0.1304772 -0.58697945 4293792000
3.4644856 -0.13043149 -0.58112055 4293792000
3.4674695 -0.13043474 -0.57479626 4293792000
3.4624054 -0.13013531 -0.56647599 4293792000
3.4587629 -0.12988959 -0.55775172 4293792000
3.4444928 -0.12924533 -0.54671377 4293661440
3.4416103 -0.1290289 -0.53689677 4293661440
3.4411464 -0.12890325 -0.52684838 4293661440
3.4646778 -0.12967573 -0.51979786 4293792000
3.4722979 -0.12985168 -0.50966775 4293792000
3.4789305 -0.12999028 -0.49876305 4293792000
3.457207 -0.12906982 -0.48327988 4293661440
3.4326365 -0.12804453 -0.46701905 4293661440
3.4557788 -0.12879907 -0.4567222 4293661440
3.4711444 -0.12926255 -0.4447293 4293792000
3.4679897 -0.12903596 -0.42981347 4293792000
3.4543128 -0.12841842 -0.41318291 4293661440
3.4484773 -0.12809297 -0.39711237 4293661440
3.4610407 -0.12845077 -0.38268524 4293661440
3.488271 -0.12935163 -0.36926752 4293792000
3.483098 -0.12905024 -0.35190594 4293792000
3.4296136 -0.12696072 -0.32956252 4293530880
3.4593399 -0.12795234 -0.31496492 4293661440
3.4643867 -0.12803002 -0.29759714 4293661440
3.4601278 -0.12776378 -0.27909905 4293661440
3.422652 -0.12627232 -0.25783741 4293530880
3.460212 -0.12754917 -0.24194264 4293661440
3.4623296 -0.12751831 -0.22309056 4293661440
3.462291 -0.12740797 -0.20384495 4293661440
3.4580607 -0.12714352 -0.18415476 4293661440
3.448983 -0.12670125 -0.16408177 4293530880
3.4606481 -0.12702091 -0.14480236 4293661440
3.4635947 -0.12702011 -0.1249175 4293661440
3.4294367 -0.12565956 -0.10374097 4293530880
3.4621522 -0.12674938 -0.084482633 4293661440
3.4630945 -0.12667494 -0.064160943 4293661440
3.4682326 -0.12675379 -0.043811992 4293661440
3.4615195 -0.12639955 -0.023275509 4293661440
3.4905813 -0.12735094 -0.0028222809 4293661440
3.4933841 -0.12734331 0.017843671 4293661440
3.4623976 -0.12610485 0.038151175 4293661440
3.4930406 -0.12711102 0.059094179 4293661440
3.5157683 -0.1278275 0.080153905 4293792000
3.5104973 -0.12752542 0.10059153 4293792000
3.4640028 -0.12572744 0.11943748 4293661440
3.5067596 -0.12716901 0.14120822 4293792000
3.5192754 -0.12751217 0.16192764 4293792000
3.4969404 -0.12659292 0.18081264 4293792000
3.3101959 -0.11972844 0.18982023 4293139200
3.5132651 -0.12696286 0.2210542 4293792000
3.5251813 -0.12728259 0.24121781 4293922560
3.4971049 -0.12615883 0.25829455 4293792000
3.3053021 -0.11913553 0.26181686 4293139200
3.5316415 -0.12718256 0.29833871 4293922560
3.5418191 -0.12743767 0.31751642 4293922560
3.524781 -0.12671374 0.33387056 4293922560
3.476876 -0.12488222 0.34660766 4293792000
3.34045 -0.119877 0.34923545 4293269760
3.5297325 -0.12655865 0.3857621 4293922560
3.5335689 -0.12658505 0.40250719 4293922560
3.5055776 -0.12547204 0.41506919 4293792000
3.4730644 -0.12419906 0.42636344 4293792000
3.3930964 -0.12123262 0.43087375 4293530880
3.5372305 -0.12627114 0.46360677 4293922560
3.5437949 -0.12639402 0.47839952 4294053120
3.5298524 -0.12578571 0.4898552 4293922560
3.5043552 -0.12476688 0.49900606 4293922560
3.4912157 -0.12418926 0.50921065 4293792000
3.4116249 -0.12125074 0.50883412 4293530880
3.5258346 -0.1251989 0.53687453 4293922560
3.5290618 -0.12520249 0.54776567 4293922560
3.5259073 -0.12497966 0.55703706 4293922560
3.5186498 -0.12461173 0.56499064 4293922560
3.5207717 -0.12457613 0.57378387 4293922560
3.5106735 -0.1241084 0.57990414 4293922560
3.5060749 -0.12383555 0.58622867 4293922560
3.4865894 -0.12303764 0.58933806 4293922560
3.5004339 -0.12341609 0.59738243 4293922560
3.4820282 -0.12265763 0.59922314 4293922560
3.495101 -0.12300818 0.60577142 4293922560
3.4944994 -0.1228771 0.60925764 4293922560
3.4738646 -0.12204225 0.60852116 4293792000
3.4784245 -0.12209303 0.61147189 4293792000
3.4732621 -0.12180258 0.61199844 4293792000
3.4731433 -0.12168917 0.6126948 4293792000
3.4844363 -0.12197524 0.61468655 4293922560
3.4845629 -0.12187007 0.61398852 4293922560
3.484812 -0.12176917 0.61259282 4293922560
3.4879839 -0.12177029 0.61099178 4293922560
3.4970565 -0.12197703 0.60970002 4293922560
3.4971805 -0.12187135 0.60612762 4293922560
3.5116789 -0.12226614 0.60432076 4293922560
3.5179412 -0.12237352 0.60036457 4293922560
3.5099478 -0.12198507 0.59328002 4293922560
3.5180264 -0.12215517 0.58822 4293922560
3.5238304 -0.12224587 0.58206993 4294053120
3.5192373 -0.12197583 0.57352573 4293922560
3.5116136 -0.12160115 0.56385225 4293922560
3.4990501 -0.12105604 0.5527851 4293922560
3.504226 -0.12112489 0.54390132 4293922560
3.5210135 -0.12159441 0.53613055 4293922560
3.5222733 -0.12152713 0.52532691 4293922560
3.5226629 -0.12142976 0.51378697 4293922560
3.4649673 -0.11873745 0.41854304 4293661440
3.4960887 -0.11969396 0.40684503 4293792000
3.5225005 -0.12048741 0.39388618 4293922560
3.5100801 -0.11995217 0.37608373 4293792000
3.4715245 -0.1185254 0.35530573 4293661440
3.4890852 -0.11901522 0.3399758 4293792000
3.496578 -0.11916083 0.323165 4293792000
3.4855814 -0.11867645 0.30430749 4293792000
3.4545617 -0.11751164 0.28358504 4293661440
3.4740794 -0.11806629 0.26675805 4293661440
3.4910119 -0.11853193 0.24924561 4293792000
3.4936178 -0.11851054 0.23033239 4293792000
3.4496922 -0.11691199 0.20832922 4293661440
3.4977577 -0.11843094 0.19162855 4293792000
3.4972866 -0.118305 0.17179382 4293792000
3.5014224 -0.11833478 0.15197806 4293792000
3.4583316 -0.1167697 0.13017255 4293661440
3.4791641 -0.11736368 0.11075978 4293661440
3.4747589 -0.11710579 0.090328671 4293661440
3.4749992 -0.1170046 0.069945142 4293661440
3.4460075 -0.11592005 0.049067117 4293530880
3.4584289 -0.11622912 0.028823297 4293661440
3.4717498 -0.11656761 0.0084038218 4293661440
3.4227259 -0.11481393 -0.011964321 4293530880
3.4552131 -0.11579503 -0.032506496 4293661440
3.4718554 -0.11624358 -0.053154815 4293661440
3.472904 -0.11616946 -0.073611416 4293661440
3.4355752 -0.11481275 -0.092962414 4293530880
3.4654036 -0.11570059 -0.1139853 4293661440
3.4854596 -0.11626058 -0.13485378 4293661440
3.4967818 -0.11652827 -0.1554198 4293792000
3.4433959 -0.11464091 -0.17270173 4293530880
3.4721813 -0.11549006 -0.19377546 4293661440
3.484725 -0.11579769 -0.21396494 4293661440
3.4819684 -0.11559658 -0.23303682 4293661440
3.4650395 -0.11492559 -0.25079831 4293661440
3.4926929 -0.11573293 -0.27156866 4293792000
3.5069194 -0.11609403 -0.29122117 4293792000
3.5060968 -0.11595654 -0.30937505 4293792000
3.4872413 -0.11522326 -0.32549652 4293792000
3.4748573 -0.11470479 -0.34170467 4293661440
3.4864938 -0.11497925 -0.35989165 4293792000
3.4900305 -0.11498613 -0.37691692 4293792000
3.4822733 -0.11462104 -0.39228374 4293792000
3.471777 -0.11416636 -0.40682063 4293792000
3.5048175 -0.11514264 -0.42610165 4293792000
3.4964626 -0.1147582 -0.43998146 4293792000
3.5035245 -0.11487979 -0.45529962 4293792000
3.4985332 -0.1146061 -0.4685469 4293792000
3.5006025 -0.11456379 -0.48219755 4293922560
3.4600508 -0.11312784 -0.48928946 4293792000
3.4579072 -0.11294901 -0.50109988 4293661440
3.4750414 -0.11339939 -0.5151819 4293792000
3.4668672 -0.11302362 -0.52495396 4293792000
3.4710474 -0.11305074 -0.53598136 4293792000
3.4770937 -0.11313831 -0.54671037 4293792000
3.4796712 -0.11311274 -0.556288 4293792000
3.4781809 -0.11295491 -0.56457615 4293792000
3.4634194 -0.11236661 -0.5700199 4293792000
3.4587986 -0.11210792 -0.57642883 4293792000
3.4529302 -0.11180912 -0.58193988 4293792000
3.4376838 -0.11120731 -0.58515686 4293661440
3.4292388 -0.11082627 -0.58881164 4293661440
3.4285054 -0.11069476 -0.5930903 4293661440
3.419174 -0.11028595 -0.59517795 4293661440
3.4186687 -0.11016214 -0.59809577 4293661440
3.4182804 -0.11004212 -0.60033369 4293661440
3.4180105 -0.10992594 -0.60188931 4293661440
3.4178605 -0.10981363 -0.60276103 4293661440
3.4178312 -0.1097052 -0.60294801 4293661440
3.4266293 -0.10987984 -0.60398465 4293661440
3.4344378 -0.11002222 -0.60413539 4293661440
3.4441292 -0.11022438 -0.6039018 4293792000
3.4592361 -0.11059906 -0.603894 4293792000
3.4632716 -0.11061918 -0.60123169 4293792000
3.4663622 -0.11060888 -0.59769535 4293792000
3.4779196 -0.1108683 -0.59490174 4293792000
3.477304 -0.11073932 -0.58931756 4293792000
3.4750443 -0.11055807 -0.58277369 4293792000
3.4681706 -0.11023033 -0.57479626 4293792000
3.4719825 -0.11024229 -0.56792814 4293792000
3.459461 -0.10973591 -0.55775172 4293792000
3.4599948 -0.10964404 -0.54906356 4293792000
3.4472415 -0.1091315 -0.53766692 4293661440
3.451719 -0.1091647 -0.52836072 4293661440
3.4653747 -0.10948759 -0.51979786 4293792000
3.5056298 -0.11064921 -0.51445687 4293922560
3.4796288 -0.1097191 -0.49876305 4293792000
3.469578 -0.10929307 -0.48491195 4293792000
3.4422379 -0.1083236 -0.46823153 4293661440
3.4614251 -0.10881855 -0.45737687 4293661440
3.4718387 -0.10903675 -0.4447293 4293792000
3.4835618 -0.10929538 -0.43165717 4293792000
3.4550025 -0.10829069 -0.41318291 4293661440
3.4491649 -0.10799926 -0.39711237 4293661440
3.4806061 -0.10887428 -0.38477191 4293792000
3.4889655 -0.10902605 -0.36926752 4293792000
3.4837906 -0.10875479 -0.35190594 4293792000
3.4391263 -0.10725233 -0.33041093 4293530880
3.4608703 -0.10782161 -0.31504172 4293661440
3.4684629 -0.10794909 -0.29788822 4293661440
3.4683747 -0.10783727 -0.27970883 4293661440
3.4363644 -0.10673396 -0.25881916 4293530880
3.4591048 -0.1073315 -0.2418174 4293661440
3.4729884 -0.10765308 -0.22373313 4293661440
3.4729526 -0.10754276 -0.20443229 4293661440
3.4777069 -0.10758062 -0.18516447 4293661440
3.4496624 -0.10660461 -0.16408177 4293530880
3.4713159 -0.1071646 -0.14522015 4293661440
3.4780412 -0.10726285 -0.12541385 4293661440
3.4324322 -0.10574833 -0.10381118 4293530880
3.4691775 -0.10677132 -0.084637448 4293661440
3.4750676 -0.10684332 -0.064370148 4293661440
3.4718981 -0.1066367 -0.043849703 4293661440
3.4587955 -0.1061255 -0.02325264 4293661440
3.4862664 -0.10685875 -0.0028182408 4293661440
3.497941 -0.1071066 0.017863456 4293792000
3.4725754 -0.10622071 0.038255852 4293661440
3.5047679 -0.10709522 0.059281018 4293792000
3.5336442 -0.10786647 0.080545746 4293922560
3.5157487 -0.10720965 0.10072239 4293792000
3.443229 -0.10488996 0.11869812 4293530880
3.5130305 -0.10690583 0.14143324 4293792000
3.5186594 -0.10696648 0.16186787 4293792000
3.505517 -0.10645673 0.18122095 4293792000
3.3108373 -0.10044052 0.18982023 4293139200
3.5189331 -0.10664284 0.22136797 4293792000
3.5208769 -0.10659104 0.2408767 4293792000
3.506752 -0.10605316 0.25895703 4293792000
3.3208864 -0.10032768 0.26300055 4293139200
3.5373025 -0.10675462 0.29875934 4293922560
3.5439057 -0.10684247 0.31764227 4293922560
3.5304348 -0.10632534 0.33434176 4293922560
3.4775445 -0.10462309 0.34660766 4293792000
3.3460624 -0.1005622 0.34975502 4293269760
3.5304098 -0.10599154 0.3857621 4293922560
3.529779 -0.10586161 0.40199837 4293922560
3.5211387 -0.10549176 0.41683182 4293922560
3.4687686 -0.1038137 0.42575458 4293792000
3.3897789 -0.1013431 0.43037015 4293530880
3.5418704 -0.10577876 0.46412626 4294053120
3.5444713 -0.10574499 0.47839952 4294053120
3.5404263 -0.10551298 0.49122891 4294053120
3.5332327 -0.1051875 0.50302231 4293922560
3.4918802 -0.1038466 0.50921065 4293792000
3.427103 -0.1018124 0.51104552 4293661440
3.5314453 -0.10480116 0.53762668 4294053120
3.5297313 -0.10463931 0.54776567 4293922560
3.5354614 -0.10469802 0.55844063 4294053120
3.5291855 -0.10440119 0.56657505 4294053120
3.5313034 -0.10435281 0.57539141 4294053120
3.5211992 -0.1039435 0.5815329 4293922560
3.5106807 -0.10352261 0.58688796 4293922560
3.4921751 -0.10286712 0.59017092 4293922560
3.4973042 -0.10290824 0.59673589 4293922560
3.4964755 -0.10277391 0.60159606 4293922560
3.5056074 -0.1029321 0.60747814 4293922560
3.4799221 -0.10206851 0.60660213 4293792000
3.4833782 -0.10206035 0.61007315 4293922560
3.4790769 -0.10182493 0.61147189 4293792000
3.4876947 -0.1019675 0.61442643 4293922560
3.4737933 -0.10145184 0.6126948 4293792000
3.5087132 -0.10236135 0.61885351 4293922560
3.4891515 -0.10168096 0.6146822 4293922560
3.5069695 -0.10208995 0.61637282 4293922560
3.4886341 -0.1014465 0.61099178 4293922560
3.5026317 -0.10174341 0.61055827 4293922560
3.5254087 -0.10229418 0.61090648 4294053120
3.5162721 -0.10191851 0.60499871 4293922560
3.5235212 -0.10201783 0.60120517 4294053120
3.5204551 -0.10181838 0.59494573 4293922560
3.5374105 -0.10219754 0.59135151 4294053120
3.5285048 -0.10182931 0.58273417 4294053120
3.524821 -0.10161216 0.5743295 4293922560
3.5171971 -0.10128179 0.56464446 4293922560
3.509017 -0.10093591 0.55425733 4293922560
3.5061173 -0.10074227 0.54409456 4293922560
3.5355744 -0.10147749 0.53824854 4294053120
3.536763 -0.10140041 0.5273909 4294053120
3.5282562 -0.10104558 0.51450819 4293922560
3.4705622 -0.098688915 0.41914228 4293792000
3.501605 -0.099461555 0.40741262 4293792000
3.5281098 -0.10010348 0.39444149 4293922560
3.5146952 -0.099612363 0.37650961 4293922560
3.4870722 -0.098719843 0.35683212 4293792000
3.4897194 -0.098685063 0.3399758 4293792000
3.5011942 -0.098899484 0.32353291 4293792000
3.4935384 -0.098573379 0.30494687 4293792000
3.4646506 -0.097649358 0.28436172 4293661440
3.4761143 -0.09786316 0.266866 4293661440
3.4932351 -0.098235339 0.24935925 4293792000
3.5013289 -0.098352857 0.23079909 4293792000
3.4602928 -0.097091354 0.20893168 4293661440
3.5105684 -0.098391645 0.19229573 4293792000
3.5145345 -0.098392308 0.17260998 4293792000
3.5106304 -0.098172635 0.15235031 4293792000
3.4589531 -0.096618764 0.13017255 4293661440
3.4713931 -0.096857101 0.11049255 4293661440
3.4793265 -0.096969068 0.090431184 4293661440
3.4761231 -0.096770495 0.069955222 4293661440
3.4479473 -0.095877714 0.049085956 4293530880
3.4703932 -0.096392766 0.028917838 4293661440
3.4872773 -0.096752092 0.0084399004 4293661440
3.4373312 -0.095258303 -0.012013231 4293530880
3.4595263 -0.095764622 -0.032541271 4293661440
3.4774714 -0.09615203 -0.053231318 4293661440
3.4696481 -0.095826641 -0.073529325 4293661440
3.4401829 -0.094904691 -0.093070552 4293530880
3.4926388 -0.096241996 -0.11486074 4293661440
3.4892774 -0.09603966 -0.13497755 4293661440
3.501894 -0.096276827 -0.15561944 4293792000
3.4666445 -0.095198736 -0.17383699 4293661440
3.4861729 -0.095625401 -0.19452189 4293661440
3.4789994 -0.095319256 -0.21357566 4293661440
3.4925568 -0.095580906 -0.23370422 4293792000
3.4606652 -0.094599321 -0.25043756 4293661440
3.4982913 -0.095517866 -0.27195606 4293792000
3.5035512 -0.095551342 -0.29089034 4293792000
3.5027299 -0.095418818 -0.30902365 4293792000
3.4924374 -0.095028631 -0.32592431 4293792000
3.4804409 -0.094592787 -0.34219372 4293792000
3.5059972 -0.095177144 -0.3618415 4293792000
3.4956105 -0.094785281 -0.37745348 4293792000
3.4923174 -0.094586194 -0.39334646 4293792000
3.4723833 -0.093937121 -0.40682063 4293792000
3.5103905 -0.094854958 -0.42670476 4293922560
3.5069902 -0.094652824 -0.44122931 4293922560
3.5104346 -0.09463542 -0.45611823 4293922560
3.5130129 -0.094594486 -0.4704043 4293922560
3.5012105 -0.094166607 -0.48219755 4293922560
3.4695594 -0.093206257 -0.49054897 4293792000
3.4733465 -0.093198799 -0.50325 4293792000
3.4756432 -0.09315116 -0.5151819 4293792000
3.4839182 -0.09326341 -0.52744454 4293792000
3.4864664 -0.093222015 -0.53826922 4293792000
3.4737439 -0.092772625 -0.54608941 4293792000
3.4703999 -0.092574216 -0.55471015 4293792000
3.4787798 -0.092688389 -0.56457615 4293792000
3.4758646 -0.092501439 -0.57196975 4293792000
3.459393 -0.091954336 -0.57642883 4293792000
3.4623799 -0.091924876 -0.58343232 4293792000
3.4432008 -0.091307431 -0.58599544 4293661440
3.4298263 -0.090844937 -0.58881164 4293661440
3.4340174 -0.090847991 -0.59394217 4293661440
3.4296072 -0.090623491 -0.59689206 4293661440
3.4340234 -0.090632223 -0.60067946 4293661440
3.4336326 -0.090513967 -0.60292703 4293661440
3.4284382 -0.09026926 -0.60362267 4293661440
3.4184422 -0.089898601 -0.60276103 4293661440
3.4184122 -0.089790344 -0.60294801 4293661440
3.4272113 -0.089913726 -0.60398465 4293661440
3.4399431 -0.090139605 -0.60500115 4293661440
3.4496362 -0.090285152 -0.60476488 4293792000
3.4647458 -0.090571679 -0.60475343 4293792000
3.4638574 -0.090439565 -0.60123169 4293792000
3.4642494 -0.09034089 -0.59723014 4293792000
3.4696381 -0.090372346 -0.5933851 4293792000
3.468034 -0.090221532 -0.5876475 4293792000
3.479573 -0.090412334 -0.58343494 4293792000
3.4835472 -0.09040609 -0.57724762 4293792000
3.4824317 -0.090267658 -0.56954163 4293792000
3.4600415 -0.089578517 -0.55775172 4293792000
3.4605749 -0.089483529 -0.54906356 4293792000
3.4428802 -0.088917747 -0.53689677 4293661440
3.4522965 -0.089052409 -0.52836072 4293661440
3.4682825 -0.089355737 -0.52014709 4293792000
3.4973133 -0.089993738 -0.51315075 4293922560
3.4857473 -0.089586534 -0.49955678 4293792000
3.4652057 -0.088949665 -0.48422021 4293792000
3.4477632 -0.088393547 -0.46890512 4293661440
3.4620004 -0.08864972 -0.45737687 4293661440
3.4773729 -0.088934042 -0.4453643 4293792000
3.4890997 -0.08912427 -0.43227175 4293792000
3.4516044 -0.088057995 -0.41270816 4293661440
3.4646325 -0.08828146 -0.3988272 4293661440
3.4712451 -0.088340834 -0.38367367 4293661440
3.4994826 -0.088949449 -0.37031952 4293792000
3.503263 -0.088935405 -0.35381454 4293792000
3.4446681 -0.087339602 -0.33088887 4293661440
3.4614398 -0.087656036 -0.31504172 4293661440
3.4740131 -0.087865226 -0.29831588 4293661440
3.4825943 -0.087972783 -0.28080946 4293661440
3.445776 -0.08693441 -0.25948548 4293530880
3.472281 -0.087493956 -0.24269877 4293661440
3.4811878 -0.087608948 -0.22422466 4293661440
3.4785099 -0.087432213 -0.20472597 4293661440
3.4782746 -0.087316953 -0.18516447 4293661440
3.4691978 -0.086980037 -0.16498405 4293661440
3.4718812 -0.086938173 -0.14522015 4293661440
3.4838214 -0.087127648 -0.12560184 4293661440
3.4569714 -0.086347483 -0.10453636 4293661440
3.4820888 -0.086865395 -0.084938653 4293661440
3.4910345 -0.086978815 -0.064655423 4293661440
3.4785454 -0.086558297 -0.043926541 4293661440
3.478055 -0.086436763 -0.023378335 4293661440
3.4897761 -0.086618356 -0.0028206222 4293661440
3.4996293 -0.086752906 0.017869193 4293792000
3.4781334 -0.086110704 0.038310908 4293661440
3.5135698 -0.086877577 0.059420329 4293792000
3.5328579 -0.087243445 0.080514871 4293792000
3.535728 -0.087203175 0.1012785 4293922560
3.4537728 -0.085073307 0.11904248 4293530880
3.5159419 -0.08649414 0.14152776 4293792000
3.5209324 -0.086506225 0.16194651 4293792000
3.5121553 -0.086180173 0.18153508 4293792000
3.3163564 -0.081271477 0.19010629 4293139200
3.5294719 -0.086383194 0.22199553 4293922560
3.5363989 -0.086441562 0.24190004 4293922560
3.5172803 -0.085863672 0.25969315 4293792000
3.3254011 -0.08107499 0.26331621 4293139200
3.5478261 -0.086386308 0.29960054 4293922560
3.5584083 -0.086532116 0.31889156 4294053120
3.5499043 -0.08621373 0.33613229 4293922560
3.4880428 -0.084601708 0.347599 4293792000
3.2547562 -0.078841083 0.34015721 4293008640
3.5461738 -0.085788719 0.3874234 4293922560
3.5353022 -0.085414581 0.4025639 4293922560
3.5158372 -0.084833778 0.41613865 4293922560
3.4841986 -0.083960846 0.42758116 4293792000
3.4091551 -0.082045317 0.43276215 4293530880
3.5433316 -0.085163049 0.46424484 4294053120
3.5450273 -0.085092366 0.47839952 4294053120
3.5409808 -0.084883936 0.49122891 4294053120
3.5337856 -0.084600367 0.50302231 4293922560
3.5023184 -0.083736941 0.51065302 4293922560
3.4177501 -0.081607565 0.50957125 4293530880
3.5458326 -0.084554404 0.53973287 4294053120
3.5534379 -0.084624059 0.55135876 4294053120
3.5409489 -0.084215336 0.55922043 4294053120
3.5346692 -0.083954878 0.56736726 4294053120
3.5269179 -0.083659902 0.57458764 4294053120
3.5266769 -0.08354333 0.58234727 4294053120
3.5309451 -0.083533451 0.59018421 4294053120
3.5075016 -0.082868584 0.59266937 4293922560
3.4978445 -0.082530469 0.59673589 4293922560
3.5019412 -0.08251705 0.60244352 4293922560
3.515013 -0.08271458 0.60901421 4293922560
3.4893217 -0.082000338 0.60814703 4293922560
3.4986849 -0.082110398 0.61265975 4293922560
3.4884727 -0.081761077 0.61302918 4293922560
3.4931526 -0.081760958 0.61529356 4293922560
3.4881091 -0.081533268 0.61512554 4293922560
3.5092499 -0.081917122 0.61885351 4293922560
3.4995306 -0.081580244 0.61641645 4293922560
3.5075047 -0.081655882 0.61637282 4293922560
3.5039372 -0.081462696 0.61357838 4293922560
3.5169535 -0.081654757 0.61296147 4293922560
3.5170794 -0.081547126 0.60937041 4293922560
3.5275447 -0.081678897 0.60684603 4294053120
3.5289831 -0.081601277 0.60204583 4294053120
3.5312684 -0.081543125 0.59668273 4294053120
3.537946 -0.081586115 0.59135151 4294053120
3.5339701 -0.081383348 0.58354855 4294053120
3.5341115 -0.081275515 0.57575631 4294053120
3.5275986 -0.081014857 0.56622893 4294053120
3.5194206 -0.080716416 0.55581689 4293922560
3.5115845 -0.08042632 0.54486102 4293922560
3.5320749 -0.080784589 0.53763503 4294053120
3.5337446 -0.080711707 0.52686173 4294053120
3.5350187 -0.080629691 0.5154171 4293922560
3.4847519 -0.078961238 0.42079392 4293792000
3.5170166 -0.079581782 0.40914464 4293922560
3.5359323 -0.079898655 0.39525613 4293922560
3.5251524 -0.079544269 0.37757167 4293922560
3.4870887 -0.07857576 0.35677776 4293792000
3.4971933 -0.078693531 0.34064931 4293792000
3.5216177 -0.079132438 0.32536677 4293922560
3.4980338 -0.078492545 0.30528781 4293792000
3.4796066 -0.077969693 0.28553963 4293661440
3.4865036 -0.078014642 0.26761553 4293792000
3.5100498 -0.078431197 0.25051278 4293792000
3.5087245 -0.07829129 0.23124148 4293792000
3.4844654 -0.077640466 0.21034807 4293661440
3.5060873 -0.078012049 0.19200855 4293792000
3.5118082 -0.078028955 0.17243601 4293792000
3.5161333 -0.078014545 0.15255071 4293792000
3.4698675 -0.07687895 0.13054709 4293661440
3.4855909 -0.077117763 0.11090983 4293661440
3.4911778 -0.077131636 0.090706296 4293661440
3.4953966 -0.077114984 0.070311911 4293792000
3.4534421 -0.076080844 0.049135145 4293530880
3.4808893 -0.076576106 0.028977843 4293661440
3.4968624 -0.076817594 0.0084373504 4293792000
3.4428225 -0.075522251 -0.012055949 4293530880
3.4700184 -0.076009758 -0.032661818 4293661440
3.477968 -0.076074578 -0.053258941 4293661440
3.4980061 -0.076402932 -0.074148513 4293792000
3.4545403 -0.07534498 -0.093475059 4293530880
3.4817934 -0.075829946 -0.11451834 4293661440
3.4950612 -0.07600905 -0.13521363 4293792000
3.5154521 -0.076342009 -0.15623236 4293792000
3.4671347 -0.075183772 -0.17386982 4293661440
3.4816737 -0.075389616 -0.19427712 4293661440
3.4934602 -0.075535022 -0.21446761 4293792000
3.4880602 -0.075308636 -0.23340547 4293792000
3.4711227 -0.074833848 -0.25119436 4293661440
3.5037653 -0.075427465 -0.27237949 4293792000
3.5130086 -0.075516038 -0.29167125 4293792000
3.5121822 -0.07538788 -0.30985105 4293792000
3.4923215 -0.074851811 -0.32590482 4293792000
3.4809253 -0.074498147 -0.34223047 4293792000
3.4925616 -0.074637413 -0.36044168 4293792000
3.5010655 -0.07470911 -0.37802702 4293792000
3.4977686 -0.074528821 -0.39394265 4293792000
3.4728634 -0.073888995 -0.40685689 4293792000
3.5148451 -0.074671738 -0.42722362 4293922560
3.5124335 -0.074510105 -0.4418892 4293922560
3.5135398 -0.074423142 -0.45649427 4293922560
3.5134957 -0.074311778 -0.47043911 4293922560
3.5066433 -0.074056633 -0.48291352 4293922560
3.4749846 -0.073278815 -0.4912816 4293792000
3.4777799 -0.073228456 -0.50385541 4293792000
3.4761183 -0.07308422 -0.51521295 4293792000
3.4794514 -0.073044933 -0.52672637 4293792000
3.4869421 -0.073092595 -0.53829807 4293792000
3.4831061 -0.072902717 -0.54751408 4293792000
3.4896302 -0.072929583 -0.55773413 4293792000
3.4891217 -0.072809301 -0.56620216 4293922560
3.4694188 -0.072289102 -0.57085437 4293792000
3.4697247 -0.072186425 -0.57809311 4293792000
3.4727235 -0.072139673 -0.58511537 4293792000
3.4485958 -0.071530074 -0.58685148 4293792000
3.4352179 -0.071144618 -0.5896728 4293661440
3.4384232 -0.071102932 -0.5946371 4293661440
3.4399211 -0.071025796 -0.59861737 4293661440
3.4295635 -0.070704155 -0.59982729 4293661440
3.4390204 -0.070791028 -0.60379827 4293661440
3.4338248 -0.070576154 -0.6044938 4293661440
3.4336731 -0.070465125 -0.60536683 4293661440
3.4287198 -0.070255712 -0.60468382 4293661440
3.4325969 -0.070227273 -0.60484898 4293661440
3.4502542 -0.070480078 -0.60672688 4293792000
3.4589646 -0.070549302 -0.60630983 4293792000
3.4750619 -0.070768408 -0.60646075 4293792000
3.4781153 -0.070721276 -0.60361063 4293792000
3.4674151 -0.070394725 -0.59767795 4293792000
3.4789751 -0.070520073 -0.5948813 4293792000
3.4734297 -0.0702985 -0.58845907 4293792000
3.4760971 -0.070243239 -0.5827471 4293792000
3.4692209 -0.069995254 -0.57476658 4293792000
3.473033 -0.069963016 -0.56789523 4293792000
3.4743257 -0.06987986 -0.5599429 4293792000
3.4649897 -0.069583185 -0.54965091 4293792000
3.448282 -0.069139294 -0.5376246 4293661440
3.45276 -0.069120564 -0.52831507 4293661440
3.4687479 -0.069331601 -0.52009791 4293792000
3.5027285 -0.069900699 -0.51382345 4293922560
3.4862144 -0.069461584 -0.49950075 4293792000
3.4745812 -0.069120593 -0.48540622 4293792000
3.4581316 -0.068684675 -0.47019017 4293661440
3.4592881 -0.068598926 -0.45689204 4293661440
3.4728787 -0.068759285 -0.44466037 4293792000
3.4895651 -0.068979986 -0.43219921 4293792000
3.4623992 -0.06833417 -0.41386861 4293661440
3.4601271 -0.068180583 -0.39817733 4293661440
3.476675 -0.068397388 -0.38414103 4293792000
3.4999468 -0.068745226 -0.3702341 4293792000
3.4987533 -0.068611816 -0.35322383 4293792000
3.4500997 -0.067549281 -0.33127666 4293661440
3.4618967 -0.067671448 -0.31494835 4293661440
3.4794514 -0.067905247 -0.29864681 4293661440
3.483052 -0.06786605 -0.28070989 4293661440
3.4462283 -0.067040242 -0.2593843 4293530880
3.480365 -0.067594938 -0.24312717 4293661440
3.485038 -0.06757617 -0.22433588 4293661440
3.5000131 -0.067756541 -0.20585433 4293792000
3.5012088 -0.067669652 -0.18624841 4293792000
3.4822755 -0.067194276 -0.16547015 4293661440
3.4863153 -0.06716267 -0.14568844 4293661440
3.4892664 -0.06710986 -0.12566325 4293661440
3.4624128 -0.066484563 -0.10456781 4293661440
3.4851785 -0.066812173 -0.084880956 4293661440
3.5004776 -0.066995449 -0.064697698 4293792000
3.492985 -0.066742279 -0.043977711 4293661440
3.4842927 -0.066466689 -0.023290701 4293661440
3.5025713 -0.066705294 -0.002702147 4293792000
3.4964952 -0.06647969 0.017980233 4293792000
3.4740655 -0.065944053 0.038390655 4293661440
3.5123665 -0.066560693 0.059524085 4293792000
3.5256586 -0.066701777 0.080473408 4293792000
3.5424256 -0.066907667 0.10159144 4293922560
3.4796524 -0.065612674 0.12005122 4293661440
3.5324142 -0.066496544 0.14230695 4293922560
3.5349398 -0.066432998 0.16270448 4293922560
3.5225723 -0.066089869 0.18218417 4293792000
3.3307378 -0.062386028 0.19103269 4293139200
3.533895 -0.066080183 0.22237903 4293922560
3.5408199 -0.066098392 0.24230492 4293922560
3.527679 -0.065742224 0.2605598 4293922560
3.325804 -0.061875537 0.26343819 4293139200
3.5545816 -0.066020168 0.30026385 4293922560
3.5588369 -0.065987356 0.31901926 4294053120
3.5483277 -0.065680981 0.33606824 4293922560
3.5023897 -0.064720586 0.34910905 4293792000
3.2591231 -0.060122844 0.34068465 4293008640
3.5479989 -0.065340392 0.387696 4293922560
3.5454395 -0.065181836 0.40378708 4293922560
3.53512 -0.064881019 0.41848525 4293922560
3.4895737 -0.063935429 0.42829975 4293792000
3.4234447 -0.062616244 0.43462947 4293530880
3.5536642 -0.064886332 0.46564919 4294053120
3.5551369 -0.064801492 0.47980949 4294053120
3.54635 -0.064529881 0.49201432 4294053120
3.5247912 -0.064026825 0.50177717 4293922560
3.5165818 -0.063767187 0.51276261 4293922560
3.4280407 -0.062053919 0.51112956 4293661440
3.5413067 -0.063992955 0.53906333 4294053120
3.5449629 -0.063947618 0.55005759 4294053120
3.5463023 -0.063860334 0.56007409 4294053120
3.54002 -0.063635953 0.5682286 4294053120
3.5322659 -0.063385561 0.57545555 4294053120
3.5310366 -0.063252538 0.583058 4294053120
3.5353041 -0.063217878 0.59089768 4294053120
3.502984 -0.062529847 0.59188509 4293922560
3.5031831 -0.062423315 0.59761971 4293922560
3.5072794 -0.062386088 0.60332882 4293922560
3.5114856 -0.062350553 0.60836387 4293922560
3.4946573 -0.061941925 0.60903186 4293922560
3.4941726 -0.061823525 0.61181837 4293922560
3.4938078 -0.061707277 0.6139093 4293922560
3.5034118 -0.061766803 0.61703688 4293922560
3.5032911 -0.061654583 0.61773288 4293922560
3.5136037 -0.061725657 0.61954492 4293922560
3.5097919 -0.061548393 0.61814147 4293922560
3.5177681 -0.061577719 0.61808759 4293922560
3.504353 -0.061232768 0.6135565 4293922560
3.5173712 -0.061349701 0.61293316 4293922560
3.5224233 -0.061327126 0.61018902 4294053120
3.5427454 -0.061569609 0.60934699 4294053120
3.5294037 -0.061226834 0.60199797 4294053120
3.5454919 -0.061394505 0.59895998 4294053120
3.5383682 -0.061159957 0.59129047 4294053120
3.5392478 -0.061063938 0.58428258 4294053120
3.5356431 -0.060890637 0.57586288 4294053120
3.5329566 -0.060733344 0.56694055 4294053120
3.5203943 -0.060406763 0.55581737 4293922560
3.5245917 -0.060368028 0.54672045 4293922560
3.5418897 -0.060552996 0.53896415 4294053120
3.5449598 -0.060494084 0.52836388 4294053120
3.5358481 -0.06022748 0.51536351 4294053120
3.4990563 -0.058518261 0.42247185 4293792000
3.5263653 -0.058864161 0.41018605 4293922560
3.5479193 -0.059112463 0.39655343 4293922560
3.5255618 -0.05862917 0.37757701 4293922560
3.4974394 -0.058051597 0.35780257 4293792000
3.5005865 -0.057993829 0.34094968 4293792000
3.5220242 -0.058238305 0.32537821 4293922560
3.5133779 -0.05798493 0.30660522 4293792000
3.4849892 -0.057406887 0.28596416 4293792000
3.499541 -0.057536624 0.26860347 4293792000
3.5164886 -0.057704758 0.25096405 4293792000
3.5091255 -0.05747366 0.23126428 4293792000
3.4713907 -0.056746542 0.20955981 4293661440
3.503289 -0.057157889 0.19186103 4293792000
3.5201445 -0.057322279 0.17285582 4293792000
3.5198498 -0.057206869 0.15272722 4293792000
3.4740388 -0.056353152 0.13072382 4293661440
3.4959795 -0.056599196 0.11126506 4293792000
3.5033641 -0.056608666 0.091052391 4293792000
3.5097871 -0.056602158 0.070635654 4293792000
3.4769135 -0.055962749 0.049507711 4293661440
3.4952796 -0.056148522 0.029141119 4293661440
3.4972565 -0.056070384 0.0084864153 4293792000
3.4472878 -0.055160921 -0.012019669 4293530880
3.4736114 -0.055472977 -0.032638866 4293661440
3.4860015 -0.055561304 -0.053320594 4293661440
3.5014014 -0.055696726 -0.074154519 4293792000
3.4629276 -0.054975905 -0.093632579 4293661440
3.4995759 -0.055447746 -0.11502893 4293792000
3.5104399 -0.055509567 -0.13573004 4293792000
3.5208404 -0.05556339 -0.15638913 4293792000
3.4675231 -0.054613009 -0.17380415 4293661440
3.4870553 -0.05481106 -0.19448817 4293661440
3.4938509 -0.054808091 -0.21439876 4293792000
3.4984269 -0.054769941 -0.23400289 4293792000
3.4665244 -0.054161556 -0.25076309 4293661440
3.5091412 -0.054717138 -0.27269474 4293792000
3.514992 -0.054697912 -0.29173031 4293792000
3.5175543 -0.054627251 -0.31021672 4293792000
3.4927111 -0.054131687 -0.32583132 4293792000
3.4962394 -0.054076511 -0.343624 4293792000
3.511848 -0.054207571 -0.36231753 4293792000
3.5113962 -0.054090258 -0.37902617 4293792000
3.4986558 -0.053784061 -0.39392522 4293792000
3.4692917 -0.05322364 -0.40632087 4293661440
3.5201981 -0.053893995 -0.42775396 4293922560
3.5094464 -0.053619109 -0.44139269 4293922560
3.5162642 -0.053612784 -0.45672679 4293922560
3.5237947 -0.05361687 -0.47169611 4293922560
3.504791 -0.053217586 -0.48253715 4293922560
3.4753675 -0.052661609 -0.49121577 4293792000
3.4880579 -0.052744295 -0.50522465 4293792000
3.4814456 -0.052534908 -0.51588368 4293792000
3.4847758 -0.052475661 -0.52741456 4293792000
3.4876208 -0.052408911 -0.53828639 4293792000
3.4933636 -0.052385438 -0.54901147 4293922560
3.4900098 -0.052225478 -0.55768186 4293792000
3.4895003 -0.052108202 -0.56615287 4293922560
3.469794 -0.051704902 -0.57080859 4293792000
3.4799621 -0.051747069 -0.57969368 4293792000
3.4681671 -0.051462699 -0.58424598 4293792000
3.4538941 -0.051142376 -0.58765513 4293792000
3.454309 -0.051039975 -0.59285545 4293792000
3.4261324 -0.050515987 -0.59242177 4293661440
3.4402859 -0.050616566 -0.59859478 4293661440
3.4486399 -0.05063111 -0.60308182 4293792000
3.4393821 -0.050387122 -0.60378468 4293661440
3.4391084 -0.050275043 -0.60535169 4293661440
3.4389551 -0.050164741 -0.60623085 4293661440
3.4339995 -0.049984548 -0.60555321 4293661440
3.4516621 -0.05013318 -0.60815185 4293792000
3.4555335 -0.050080828 -0.60760444 4293792000
3.4691682 -0.050169427 -0.60805339 4293792000
3.4655664 -0.050008442 -0.60476494 4293792000
3.4833946 -0.050156247 -0.60449439 4293922560
3.4776194 -0.049963817 -0.59941113 4293792000
3.4753828 -0.049822479 -0.59424806 4293792000
3.4787071 -0.049760826 -0.58934104 4293792000
3.4853191 -0.049745891 -0.58428812 4293792000
3.4843619 -0.049622744 -0.57727742 4293792000
3.4783103 -0.04942726 -0.56876785 4293792000
3.4796033 -0.049336299 -0.56081063 4293792000
3.4752047 -0.049164731 -0.55129606 4293792000
3.4525702 -0.048736028 -0.53832543 4293661440
3.466933 -0.048829831 -0.53052384 4293792000
3.4829273 -0.048945662 -0.52227211 4293792000
3.4996989 -0.049071386 -0.51343536 4293922560
3.4865491 -0.04877745 -0.49961278 4293792000
3.4798651 -0.048574597 -0.48621628 4293792000
3.4584613 -0.048167154 -0.47031441 4293661440
3.4744864 -0.048281163 -0.45898715 4293792000
3.4970112 -0.048484284 -0.44784659 4293792000
3.4904871 -0.048284154 -0.43241757 4293792000
3.46769 -0.047859836 -0.41461241 4293661440
3.4654195 -0.047719613 -0.39890555 4293661440
3.4919095 -0.047974661 -0.38595226 4293792000
3.5002751 -0.047979612 -0.37040493 4293792000
3.5008686 -0.04787774 -0.35358125 4293792000
3.4454458 -0.047011521 -0.3309789 4293661440
3.4671991 -0.047199391 -0.31558827 4293661440
3.4797766 -0.047261268 -0.29884019 4293661440
3.4896576 -0.047285818 -0.28141549 4293792000
3.4465499 -0.046593402 -0.25958666 4293530880
3.4846799 -0.04699938 -0.24361569 4293661440
3.4893553 -0.046952795 -0.22480795 4293792000
3.5012519 -0.047002863 -0.2061287 4293792000
3.4986284 -0.046857711 -0.18631898 4293792000
3.4852481 -0.046568993 -0.16582474 4293661440
3.494838 -0.046587318 -0.14626458 4293792000
3.4990861 -0.046534002 -0.12624304 4293792000
3.4668238 -0.045996014 -0.10493069 4293661440
3.4995022 -0.046319615 -0.085467055 4293792000
3.5058074 -0.046292916 -0.065039076 4293792000
3.5033147 -0.046149921 -0.044355389 4293792000
3.4978256 -0.045967706 -0.023633054 4293792000
3.5145488 -0.046077047 -0.0029688857 4293792000
3.5296068 -0.046163559 0.017887767 4293792000
3.4806807 -0.045414288 0.038200874 4293661440
3.526407 -0.045900099 0.05949216 4293792000
3.5480888 -0.046070825 0.080710612 4293922560
3.5440657 -0.045907225 0.1013611 4293922560
3.4785202 -0.044948898 0.11973739 4293661440
3.5343525 -0.045559302 0.14210363 4293922560
3.5402782 -0.045524448 0.16266643 4293922560
3.527909 -0.045254543 0.18217589 4293792000
3.3510294 -0.042880312 0.19192535 4293269760
3.5442209 -0.045241058 0.22274123 4293922560
3.5511436 -0.045217846 0.24272282 4293922560
3.5419872 -0.044989958 0.26132876 4293922560
3.3360999 -0.042269975 0.26398295 4293269760
3.5625544 -0.045027323 0.30064893 4294053120
3.5727229 -0.045043584 0.31997594 4294053120
3.5536561 -0.044691537 0.33628798 4293922560
3.5126863 -0.044065922 0.34985572 4293792000
3.2833142 -0.041085333 0.34295422 4293008640
3.5523264 -0.044339966 0.38789126 4294053120
3.5497644 -0.044196449 0.40400553 4293922560
3.5215826 -0.043734923 0.41661441 4293922560
3.473572 -0.043029532 0.42607516 4293792000
3.3486931 -0.041377351 0.42489228 4293269760
3.5599597 -0.043875959 0.46621656 4294053120
3.5649595 -0.043825567 0.4808827 4294053120
3.5560026 -0.043603726 0.4931075 4294053120
3.5300856 -0.043175016 0.50229293 4293922560
3.4966698 -0.042656451 0.50963008 4293792000
3.4521098 -0.042004392 0.51449901 4293661440
3.5520303 -0.043108594 0.54047763 4294053120
3.5498097 -0.042970102 0.55059958 4294053120
3.5535436 -0.042903647 0.56101578 4294053120
3.5397596 -0.042626005 0.56799442 4294053120
3.54247 -0.042547338 0.57693452 4294053120
3.5461679 -0.042480331 0.58538246 4294053120
3.5316901 -0.042195931 0.59013003 4294053120
3.522043 -0.041970003 0.59495246 4293922560
3.5260255 -0.041906673 0.60137391 4294053120
3.5213974 -0.041741025 0.60562587 4293922560
3.5354512 -0.041796528 0.61239499 4294053120
3.490047 -0.041150093 0.60812044 4293922560
3.5082746 -0.041254777 0.61419076 4293922560
3.499042 -0.041036271 0.61474448 4293922560
3.4987957 -0.04092345 0.61615157 4293922560
3.4986725 -0.040812079 0.61685866 4293922560
3.5286782 -0.041051224 0.62215543 4294053120
3.5140309 -0.040770411 0.61885369 4293922560
3.5279145 -0.040820643 0.61984909 4294053120
3.5085869 -0.040486768 0.61428994 4293922560
3.5314546 -0.040639687 0.61539298 4294053120
3.5315804 -0.040530175 0.61179465 4294053120
3.5322933 -0.040427372 0.60758245 4294053120
3.5484169 -0.040500414 0.60528827 4294053120
3.550283 -0.040410161 0.59983075 4294053120
3.5431454 -0.040217597 0.5921641 4294053120
3.5493913 -0.040176969 0.58604676 4294053120
3.5407755 -0.039968193 0.57680237 4294053120
3.5376732 -0.039822023 0.56781501 4294053120
3.5233688 -0.039550301 0.55641818 4293922560
3.5293763 -0.039506841 0.54760796 4293922560
3.5470989 -0.039593775 0.53991699 4294053120
3.5590706 -0.039615583 0.53064167 4294053120
3.5598576 -0.039512493 0.51905161 4294053120
3.5005441 -0.038519233 0.42261797 4293792000
3.5307038 -0.038740169 0.41065651 4293922560
