# .PCD v0.7 - Point Cloud Data file format
VERSION 0.7
FIELDS x y z rgba
SIZE 4 4 4 4
TYPE F F F U
COUNT 1 1 1 1
WIDTH 1128
HEIGHT 1
VIEWPOINT 0 0 0 1 0 0 0
POINTS 1128
DATA ascii
2.3786848 1.8186586 -0.37860289 4292094720
2.3687413 1.8111964 -0.38931048 4292094720
2.3531866 1.7994463 -0.39852619 4292094720
2.2272472 1.7033617 -0.38784558 4291572480
2.3637395 1.8077708 -0.42262411 4292094720
2.3664365 1.809962 -0.43356118 4292094720
2.3660855 1.809824 -0.44345617 4292094720
2.3566651 1.8027543 -0.4511019 4292094720
2.3449483 1.7939278 -0.45770991 4292094720
2.3387244 1.7892979 -0.46480337 4291964160
2.2836993 1.7473645 -0.46143007 4291833600
2.2976515 1.7581525 -0.47136626 4291833600
2.2523215 1.7236214 -0.46847478 4291703040
2.273443 1.7398887 -0.47883093 4291703040
2.2953966 1.756794 -0.48891607 4291833600
2.2255125 1.7034787 -0.47872132 4291572480
2.2436898 1.7174946 -0.48685351 4291703040
2.2548862 1.7261733 -0.49295285 4291703040
2.2614577 1.7313151 -0.49749157 4291703040
2.2688854 1.7371119 -0.50165665 4291703040
2.1895065 1.6765114 -0.48593163 4291441920
2.2722394 1.739908 -0.50570041 4291833600
2.2642612 1.733919 -0.50468254 4291703040
2.2571468 1.7285892 -0.50326502 4291703040
2.2532411 1.725713 -0.50197715 4291703040
2.2345572 1.7115283 -0.49681067 4291572480
2.21595 1.6973997 -0.49110252 4291572480
2.2813923 1.7475865 -0.50345021 4291833600
2.2551188 1.7275903 -0.49488536 4291703040
2.2367368 1.7136303 -0.48753938 4291572480
2.2854857 1.7510484 -0.49424234 4291833600
2.3367951 1.7904305 -0.50074011 4292094720
2.350394 1.8009504 -0.49842164 4292094720
2.3538435 1.8037012 -0.49332821 4292094720
2.3553042 1.804929 -0.48723349 4292094720
2.3628101 1.8107846 -0.48180389 4292094720
2.351939 1.8025696 -0.4720732 4292094720
2.3458176 1.7979898 -0.46281129 4292094720
2.3330548 1.7883232 -0.45177132 4291964160
2.3337655 1.7889727 -0.44287515 4291964160
2.3508093 1.8021303 -0.43651035 4292094720
2.3791747 1.8239601 -0.43156615 4292225280
2.3614483 1.8104883 -0.41770056 4292094720
2.3538494 1.804772 -0.4052749 4292094720
2.3283212 1.7853203 -0.38945377 4291964160
2.3357167 1.7910873 -0.37880942 4291964160
2.3498421 1.8020102 -0.36872336 4292094720
2.3396537 1.7943059 -0.35437447 4291964160
2.3214834 1.7804846 -0.33857295 4291964160
2.307646 1.7699815 -0.32321107 4291833600
2.3134773 1.7745481 -0.31030369 4291833600
2.304085 1.7674489 -0.29502299 4291833600
2.2734604 1.7440767 -0.27693078 4291703040
2.2531424 1.7286006 -0.26011583 4291572480
2.2729943 1.7439107 -0.24768208 4291703040
2.2762847 1.7465277 -0.23301023 4291703040
2.2586975 1.7331414 -0.21602802 4291572480
2.2635081 1.736923 -0.20105444 4291572480
2.2757888 1.7464314 -0.1864139 4291703040
2.287626 1.7556005 -0.17136702 4291703040
2.2876406 1.755706 -0.15515751 4291703040
2.2673497 1.7402422 -0.13753314 4291572480
2.2823584 1.7518437 -0.12196609 4291703040
2.2909338 1.758513 -0.10574873 4291703040
2.2650595 1.7387648 -0.087928377 4291572480
2.2839239 1.7533244 -0.071837097 4291703040
2.2940619 1.761193 -0.055174176 4291703040
2.3066423 1.7709355 -0.0383453 4291833600
2.2747266 1.7465497 -0.020845041 4291703040
1.9560083 1.5021658 -0.003071602 4290266880
1.5014534 1.1535552 0.0092870397 4288308480
1.4625266 1.123754 0.020001771 4288177920
1.4933506 1.1474615 0.03149626 4288308480
1.681301 1.2917228 0.047687575 4289091840
1.6869162 1.2960998 0.060301431 4289091840
1.6881326 1.2971023 0.072748005 4289222400
1.6554437 1.2720877 0.083465032 4288961280
1.6682832 1.2820085 0.096186072 4289091840
1.6771739 1.2889001 0.10873626 4289091840
1.6614959 1.276937 0.11955754 4289091840
1.6419162 1.261978 0.12972358 4288961280
1.4917749 1.1468046 0.12841865 4288308480
1.5122559 1.1625876 0.14052004 4288439040
1.4216841 1.0931245 0.14183299 4288047360
1.5647515 1.2030138 0.16628778 4288700160
1.6874666 1.2972902 0.19017339 4289222400
1.6989752 1.3061972 0.20233199 4289222400
1.6805308 1.2921073 0.21069598 4289222400
1.6645491 1.2799072 0.21891846 4289091840
1.6859081 1.2963796 0.23178877 4289222400
1.6875902 1.2977434 0.24185862 4289222400
1.6737733 1.2872051 0.24938878 4289091840
1.6566943 1.2741604 0.25598553 4289091840
1.4941045 1.1493534 0.23904987 4288439040
1.6360488 1.2584468 0.26997048 4288961280
1.6422554 1.2632864 0.27913755 4288961280
1.644616 1.2651722 0.28738186 4289091840
1.6331729 1.2564542 0.29286575 4288961280
1.6154239 1.2428908 0.2967644 4288961280
1.613722 1.2416558 0.30316427 4288961280
1.6531851 1.272051 0.31703901 4289091840
1.6654674 1.2815641 0.32557669 4289091840
1.6556095 1.2740648 0.32945392 4289091840
1.6617298 1.2788445 0.33609328 4289091840
1.6528567 1.272102 0.33932599 4289091840
1.6584284 1.2764615 0.34509885 4289091840
1.6547601 1.2737195 0.34856784 4289091840
1.6466334 1.2675507 0.35067064 4289091840
1.6505016 1.2706026 0.35489115 4289091840
1.6529952 1.2725986 0.35841662 4289091840
1.6444706 1.266124 0.35914162 4289091840
1.6457013 1.26715 0.36155125 4289091840
1.6493393 1.2700276 0.36406839 4289091840
1.6420994 1.2645411 0.36377198 4289091840
1.6380409 1.2615012 0.36374149 4289091840
1.6449713 1.2669127 0.36570811 4289091840
1.6433797 1.265771 0.36536565 4289091840
1.6473013 1.2688702 0.36581126 4289091840
1.6477107 1.2692686 0.36505181 4289091840
1.6449224 1.2672077 0.36316264 4289091840
1.6487489 1.2702361 0.36229676 4289091840
1.6486609 1.2702537 0.3601484 4289091840
1.645806 1.2681426 0.35698277 4289091840
1.6518486 1.2728784 0.35531038 4289091840
1.6568184 1.2767898 0.35297292 4289091840
1.6593385 1.2788171 0.34968966 4289091840
1.6468138 1.2692657 0.34287649 4289091840
1.633876 1.2593956 0.33564728 4288961280
1.6374871 1.2622632 0.33142936 4289091840
1.6211765 1.2497957 0.32286656 4288961280
1.6280116 1.255146 0.31853583 4288961280
1.6454822 1.2686861 0.31581476 4289091840
1.6352161 1.2608719 0.30742198 4288961280
1.6332452 1.2594446 0.30027255 4288961280
1.6519692 1.2744616 0.25145867 4289091840
1.6566488 1.2781612 0.24292028 4289091840
1.6587553 1.2798791 0.23369695 4289091840
1.5784514 1.2180949 0.21317303 4288700160
1.5410571 1.189369 0.19884515 4288569600
1.5917231 1.2285054 0.19544505 4288830720
1.64557 1.2700996 0.19155963 4288961280
1.6232964 1.2530267 0.1785038 4288961280
1.6303976 1.2585953 0.16853847 4288961280
1.6505228 1.2742056 0.15953465 4289091840
1.6497432 1.2737011 0.14823155 4288961280
1.6486344 1.272943 0.13674879 4288961280
1.6548146 1.2778054 0.12567523 4289091840
1.6620852 1.2835097 0.11445022 4289091840
1.5248004 1.1777328 0.094253682 4288439040
1.4245933 1.1005366 0.077899858 4288047360
1.4934486 1.1537308 0.070687503 4288308480
1.8138435 1.4009668 0.072117962 4289744640
2.265594 1.7495744 0.072871312 4291572480
2.2523992 1.7395289 0.055761106 4291572480
2.2750368 1.7571291 0.039373372 4291703040
2.2830238 1.7634271 0.022471374 4291703040
2.2736328 1.7563158 0.0053963424 4291703040
2.2566137 1.7433168 -0.011501923 4291572480
2.2669246 1.7514088 -0.028502574 4291572480
2.2828434 1.7638305 -0.045746092 4291703040
2.2644899 1.7497987 -0.062210932 4291572480
2.2631221 1.7488773 -0.078945316 4291572480
2.2804081 1.7623569 -0.096380129 4291703040
2.2848592 1.7659287 -0.11332104 4291703040
2.2667973 1.7521173 -0.12890939 4291703040
2.2568345 1.744558 -0.14462459 4291572480
2.278996 1.7618059 -0.16235542 4291703040
2.2953327 1.7745577 -0.17976694 4291833600
2.2151616 1.7127695 -0.18891114 4291441920
2.3202703 1.7940907 -0.21395843 4291833600
2.3503647 1.817475 -0.23273182 4291964160
2.3592629 1.824487 -0.24940313 4292094720
2.334054 1.8051475 -0.26206794 4291964160
2.1793551 1.6857502 -0.25865489 4291311360
2.365442 1.8296738 -0.29583451 4292094720
2.371906 1.8348061 -0.31131923 4292094720
2.3634531 1.82841 -0.32448241 4292094720
2.3162093 1.7920306 -0.33160689 4291964160
2.1508021 1.6643084 -0.32014269 4291180800
2.3806422 1.8421042 -0.36776775 4292225280
2.3730862 1.8363984 -0.37939447 4292225280
2.3777266 1.8401206 -0.39253798 4292225280
2.3710494 1.8350921 -0.40335622 4292225280
2.3301773 1.8036209 -0.40765092 4291964160
2.3550785 1.8230077 -0.42295167 4292094720
2.3655889 1.8312675 -0.43534228 4292225280
2.3710892 1.8356528 -0.44638336 4292225280
2.3660648 1.8318976 -0.45493162 4292225280
2.367667 1.833267 -0.46422464 4292225280
2.3669789 1.8328642 -0.47253957 4292225280
2.3530111 1.8221868 -0.47760424 4292094720
2.3021996 1.7830017 -0.47441491 4291964160
2.3161287 1.7939031 -0.48394153 4291964160
2.2671671 1.7561406 -0.47964206 4291833600
2.2851222 1.7701559 -0.48889959 4291833600
2.2883229 1.7727541 -0.49447444 4291833600
2.3102946 1.7898797 -0.50359082 4291964160
2.2331047 1.7302545 -0.49036339 4291703040
2.251332 1.7444798 -0.49747533 4291703040
2.2439291 1.7388655 -0.49834523 4291703040
2.2545154 1.7471763 -0.50264072 4291703040
2.2581708 1.7501215 -0.50481147 4291703040
2.2502279 1.7440861 -0.50379246 4291703040
2.2470372 1.7417289 -0.50324881 4291703040
2.3080459 1.7890847 -0.51652277 4291964160
2.3003466 1.7832371 -0.51376879 4291964160
2.2896135 1.7750382 -0.50974649 4291833600
2.2633848 1.7548362 -0.50170314 4291833600
2.2566969 1.7497663 -0.49745128 4291703040
2.301255 1.784391 -0.50388926 4291964160
2.3316331 1.8080348 -0.50650865 4292094720
2.3472435 1.82024 -0.50523859 4292094720
2.369097 1.8372827 -0.5046494 4292225280
2.3704937 1.8384769 -0.49905342 4292225280
2.3701112 1.8382916 -0.49250183 4292225280
2.3728499 1.8405246 -0.48602477 4292225280
2.3598967 1.8305963 -0.47579727 4292225280
2.3499053 1.8229618 -0.46569726 4292094720
2.338187 1.8139875 -0.4547967 4292094720
2.3401945 1.8156497 -0.44608864 4292094720
2.3555136 1.8276299 -0.4393461 4292094720
2.380055 1.8467596 -0.43366012 4292225280
2.3702388 1.8392564 -0.42113879 4292225280
2.3486555 1.8226292 -0.40618855 4292094720
2.3269782 1.8059266 -0.39097151 4291964160
2.3392396 1.8155358 -0.381082 4292094720
2.3505738 1.8244268 -0.37049019 4292094720
2.3498316 1.8239536 -0.35751623 4292094720
2.3287456 1.8077036 -0.34115741 4291964160
2.3259733 1.8056542 -0.3272486 4291964160
2.353322 1.8269649 -0.31708768 4292094720
2.3544495 1.82794 -0.30285537 4292094720
2.3143699 1.7969525 -0.28320396 4291964160
2.2973914 1.7838806 -0.26644221 4291833600
2.296865 1.7835693 -0.25141928 4291833600
2.2791009 1.7698852 -0.23434314 4291703040
2.240346 1.7399138 -0.21521647 4291572480
2.2494092 1.7470396 -0.20068365 4291572480
2.260747 1.7559304 -0.1859967 4291703040
2.2702608 1.7634068 -0.17081119 4291703040
2.261595 1.7567766 -0.15405425 4291703040
2.2421794 1.7418033 -0.13659182 4291572480
2.2571168 1.7534883 -0.12113314 4291572480
2.2656498 1.7602042 -0.10502514 4291703040
2.2359402 1.7372385 -0.087158144 4291572480
2.2586653 1.7549696 -0.071334712 4291572480
2.2766535 1.7690257 -0.054980278 4291703040
2.280488 1.7720958 -0.038052276 4291703040
2.2495043 1.7481363 -0.020678233 4291572480
2.0119944 1.563836 -0.0032220297 4290528000
1.4978663 1.1647502 0.0093134781 4288439040
1.4369984 1.1175516 0.019776801 4288177920
1.5213888 1.1831381 0.032198086 4288439040
1.6599649 1.2908083 0.047323059 4289091840
1.6682826 1.2973359 0.059929613 4289091840
1.6680771 1.297245 0.072235093 4289091840
1.644058 1.2786596 0.083281897 4288961280
1.6607853 1.2917196 0.096198089 4289091840
1.6617482 1.2925363 0.10824428 4289091840
1.6529155 1.2857443 0.11949049 4289091840
1.6325649 1.2700046 0.12958151 4288961280
1.6456751 1.2802575 0.14209203 4288961280
1.6478108 1.2819856 0.15361957 4289091840
1.610301 1.252912 0.16109411 4288830720
1.655072 1.2877661 0.17655857 4289091840
1.6597663 1.2914838 0.18793435 4289091840
1.6705346 1.2999218 0.19988242 4289091840
1.6592294 1.2912077 0.208995 4289091840
1.6017044 1.2465731 0.21169011 4288830720
1.6563489 1.2891113 0.22879462 4289091840
1.6607462 1.2926004 0.23912436 4289091840
1.6518644 1.2857687 0.24726777 4289091840
1.6374859 1.274664 0.25418875 4288961280
1.599486 1.245196 0.25690722 4288830720
1.6555258 1.2888323 0.27439329 4289091840
1.6543692 1.2880063 0.28245193 4289091840
1.6547804 1.2883997 0.29045206 4289091840
1.6451502 1.2809858 0.29633132 4289091840
1.6387608 1.2760916 0.30237985 4289091840
1.6320063 1.2709132 0.30795982 4288961280
1.6352103 1.2734793 0.31503642 4289091840
1.63104 1.2703109 0.32033813 4289091840
1.6278917 1.2679374 0.32544374 4288961280
1.6313362 1.2706921 0.33148253 4289091840
1.6248283 1.2657061 0.33512172 4288961280
1.6266367 1.2671893 0.34006095 4288961280
1.622969 1.2644128 0.34346431 4288961280
1.6012596 1.2476001 0.34261709 4288961280
1.6046855 1.2503424 0.34666812 4288961280
1.5942749 1.2423192 0.34733453 4288830720
1.5970219 1.2445343 0.35042739 4288961280
1.6044855 1.2504205 0.35415238 4288961280
1.5805336 1.2318588 0.35056067 4288830720
1.5803303 1.2317789 0.3517642 4288830720
1.5840681 1.234767 0.35342854 4288830720
1.6037718 1.2501838 0.35822362 4288961280
1.5928506 1.2417632 0.35580963 4288830720
1.5959764 1.2442777 0.35609391 4288961280
1.606811 1.2527946 0.35766262 4288961280
1.5991652 1.2469244 0.35472661 4288961280
1.6061239 1.2524257 0.35459125 4288961280
1.6051989 1.2517891 0.35230601 4288961280
1.6139513 1.2586894 0.35170576 4288961280
1.6139849 1.2588007 0.34879383 4288961280
1.6319702 1.2728945 0.34929043 4289091840
1.6270512 1.2691503 0.3444857 4289091840
1.6239388 1.2668132 0.33967909 4288961280
1.6212324 1.2647927 0.33457762 4288961280
1.6104667 1.2564934 0.32747689 4288961280
1.6110663 1.2570486 0.32232207 4288961280
1.634185 1.2751509 0.32118419 4289091840
1.6513661 1.2886294 0.31837261 4289091840
1.6487532 1.2866848 0.31135303 4289091840
1.6362884 1.2770623 0.30219188 4289091840
1.6346928 1.2764173 0.24998204 4288961280
1.6477352 1.2866817 0.24272235 4289091840
1.6552057 1.2926027 0.23426068 4289091840
1.628787 1.272095 0.22089913 4288961280
1.6137398 1.2604536 0.2090652 4288961280
1.6337509 1.2761567 0.20145921 4288961280
1.64034 1.2813922 0.19182567 4288961280
1.6145258 1.2613503 0.17835815 4288961280
1.615178 1.2619542 0.1677445 4288961280
1.6320643 1.275225 0.15849206 4288961280
1.6436658 1.2843741 0.14836554 4289091840
1.6294442 1.2733736 0.13579692 4288961280
1.6400559 1.281752 0.1251405 4288961280
1.6427293 1.2839363 0.11365725 4288961280
1.528936 1.1952139 0.094934493 4288569600
1.4559604 1.1383405 0.079933122 4288177920
1.4370743 1.1236839 0.068405271 4288177920
1.7997177 1.4068925 0.071900636 4289744640
2.2364509 1.7479924 0.072293065 4291572480
2.2342238 1.7463875 0.055585317 4291572480
2.2489011 1.757983 0.039127544 4291572480
2.2569485 1.7644025 0.022345223 4291572480
2.246742 1.7565665 0.0053869942 4291572480
2.2314448 1.7447531 -0.011396496 4291572480
2.2456496 1.755983 -0.028337795 4291572480
2.2425864 1.7537248 -0.045102753 4291572480
2.2510257 1.7604526 -0.062102776 4291572480
2.2418666 1.7534316 -0.078533724 4291572480
2.2724667 1.777476 -0.096465878 4291703040
2.2975366 1.7972028 -0.11446841 4291833600
2.3214009 1.8159901 -0.13264768 4291964160
2.3186643 1.8139899 -0.14930049 4291964160
2.341419 1.8319137 -0.16759816 4291964160
2.3536427 1.841608 -0.18520504 4292094720
2.3259516 1.8201008 -0.19933601 4291964160
2.3638709 1.849884 -0.21899109 4292094720
2.37694 1.8602422 -0.23644155 4292225280
2.3883247 1.8692846 -0.25363269 4292225280
2.3729823 1.857428 -0.26766673 4292225280
2.2309506 1.7464944 -0.266011 4291572480
2.3818176 1.8646166 -0.29923713 4292225280
2.373456 1.8582159 -0.31292933 4292225280
2.3747957 1.8594021 -0.32751882 4292225280
2.3597817 1.8477952 -0.33939984 4292094720
2.2320826 1.7480301 -0.33380052 4291572480
2.400106 1.879617 -0.37246203 4292355840
2.395977 1.8765243 -0.3847996 4292355840
2.3950143 1.8759081 -0.39718994 4292355840
2.3950503 1.8760731 -0.40929618 4292355840
2.3682368 1.8552246 -0.41620681 4292225280
2.3939195 1.8754594 -0.43189573 4292355840
2.392668 1.8746146 -0.44233406 4292355840
2.3952808 1.876794 -0.45299253 4292355840
2.3943148 1.8761714 -0.46246353 4292355840
2.3884015 1.8716749 -0.47042179 4292355840
2.3938925 1.8761059 -0.48009184 4292355840
2.3921585 1.8748796 -0.48777172 4292355840
2.370791 1.8582785 -0.49080342 4292225280
2.3509812 1.8428942 -0.49346918 4292225280
2.3125653 1.8129355 -0.49149024 4291964160
2.3343008 1.8300831 -0.50171322 4292094720
2.2701962 1.7799969 -0.49276888 4291833600
2.2959485 1.8002898 -0.50272244 4291964160
2.2953923 1.7999754 -0.50636315 4291964160
2.298789 1.802757 -0.51029253 4291964160
2.3053634 1.8080277 -0.51434654 4291964160
2.3127904 1.8139665 -0.51800525 4292094720
2.3086708 1.8108577 -0.51847041 4291964160
2.3085091 1.810849 -0.51921874 4291964160
2.3014548 1.8054382 -0.51780576 4291964160
2.2859585 1.7934095 -0.51388586 4291964160
2.279068 1.7881235 -0.51131141 4291833600
2.267607 1.7792536 -0.50712293 4291833600
2.3125737 1.8146147 -0.51496023 4292094720
2.3496311 1.8437791 -0.52034187 4292225280
2.3589361 1.851189 -0.51889569 4292225280
2.3683932 1.8587183 -0.51684868 4292225280
2.387183 1.8735653 -0.51618874 4292355840
2.3912535 1.8768716 -0.51169163 4292355840
2.3948402 1.8797982 -0.50647944 4292355840
2.3957436 1.88062 -0.50010061 4292355840
2.38888 1.8753499 -0.49153635 4292355840
2.3850198 1.8724338 -0.48305804 4292355840
2.3720138 1.8623432 -0.47222358 4292225280
2.3623393 1.854864 -0.46159282 4292225280
2.3594816 1.8527306 -0.45181638 4292225280
2.3727508 1.863248 -0.44457838 4292225280
2.3876233 1.8750237 -0.4370161 4292355840
2.380976 1.8699161 -0.4249711 4292225280
2.3660202 1.858288 -0.41105765 4292225280
2.3465643 1.8431269 -0.39606217 4292094720
2.3496518 1.8456537 -0.38451996 4292094720
2.3708782 1.8624153 -0.37539721 4292225280
2.3660746 1.8587495 -0.36162943 4292225280
2.3585725 1.8529648 -0.34711236 4292094720
2.3561764 1.8511868 -0.33302 4292094720
2.3695874 1.8618155 -0.3207362 4292225280
2.3778327 1.8683901 -0.30726394 4292225280
2.3519001 1.8481344 -0.28912538 4292094720
2.3334472 1.8337482 -0.27187407 4291964160
2.3402474 1.8391864 -0.2573579 4292094720
2.3354867 1.8355479 -0.24126782 4291964160
2.3140242 1.8187945 -0.22335413 4291964160
2.3077743 1.8139844 -0.20686474 4291833600
2.3083014 1.8144956 -0.19080237 4291833600
2.2827146 1.7944984 -0.17253248 4291833600
2.2594838 1.7763493 -0.15460257 4291703040
2.2202106 1.7455981 -0.1358453 4291572480
2.2280054 1.7518131 -0.12008544 4291572480
2.2437401 1.7642653 -0.10445865 4291572480
2.2084985 1.7366751 -0.086451285 4291441920
2.2334657 1.7563803 -0.070832431 4291572480
2.2474391 1.7674506 -0.054490812 4291572480
2.2512541 1.770541 -0.037704103 4291572480
2.2266312 1.7512881 -0.020534571 4291572480
2.0089164 1.5803133 -0.0032228136 4290528000
1.5217826 1.1976167 0.0094772726 4288569600
1.453492 1.1440154 0.020074859 4288177920
1.4271421 1.1233684 0.030463899 4288047360
1.6469761 1.2961959 0.047185775 4289091840
1.6567658 1.3039584 0.059804611 4289091840
1.6487038 1.2976906 0.07174857 4289091840
1.6255816 1.2795846 0.082747638 4288961280
1.6414502 1.2921262 0.095539063 4289091840
1.6431967 1.2935678 0.10755061 4289091840
1.6375469 1.2891949 0.11894231 4288961280
1.6328146 1.2855432 0.13019578 4288961280
1.6431849 1.2937653 0.1425311 4289091840
1.6417866 1.2927352 0.15376766 4289091840
1.6212388 1.2766476 0.16291732 4288961280
1.6455537 1.2958367 0.17636025 4289091840
1.6596714 1.3070091 0.18878508 4289091840
1.6456083 1.2960202 0.19783483 4289091840
1.5792089 1.2438682 0.19993287 4288830720
1.4607902 1.1507958 0.19414458 4288308480
1.5468221 1.2185299 0.21479118 4288700160
1.542886 1.2155011 0.22333042 4288700160
1.5342607 1.2087834 0.23087573 4288569600
1.6039798 1.2636994 0.25017416 4288961280
1.6097424 1.268304 0.25972387 4288961280
1.6449481 1.2960752 0.27390337 4289091840
1.6505632 1.3005668 0.28309798 4289091840
1.6413736 1.2934097 0.28943697 4289091840
1.6386127 1.2913111 0.2965146 4289091840
1.625941 1.2814131 0.30140647 4289091840
1.621739 1.2781802 0.30743846 4288961280
1.6136583 1.2718947 0.31233886 4288961280
1.6135502 1.2718842 0.31837964 4288961280
1.5998158 1.261148 0.32133636 4288961280
1.5805213 1.2460341 0.3227019 4288830720
1.5779037 1.2440479 0.32700273 4288830720
1.5614418 1.2311621 0.32802221 4288830720
1.5381277 1.2128803 0.32712567 4288700160
1.4828557 1.1694329 0.31891322 4288439040
1.4893962 1.1746551 0.32340822 4288439040
1.4928808 1.1774715 0.32688746 4288439040
1.5002819 1.1833735 0.3308543 4288569600
1.4999876 1.1832156 0.33276105 4288569600
1.4997432 1.1830976 0.33428887 4288569600
1.5026453 1.1854585 0.33612362 4288569600
1.5063723 1.18847 0.33775207 4288569600
1.4993185 1.1829894 0.3365849 4288569600
1.4992813 1.1830366 0.3365851 4288569600
1.491559 1.1770291 0.3344799 4288439040
1.4838883 1.171062 0.33200005 4288439040
1.4731723 1.1626949 0.32846722 4288439040
1.524958 1.2035819 0.33833718 4288569600
1.5587584 1.2303003 0.34375134 4288830720
1.5679176 1.2376019 0.34330931 4288830720
1.5772012 1.2450029 0.34246206 4288830720
1.6022956 1.2648685 0.34455535 4288961280
1.605005 1.2670907 0.3414087 4288961280
1.6094373 1.2706722 0.33821103 4288961280
1.6132883 1.2737962 0.3344768 4288961280
1.6043586 1.2668438 0.32774016 4288961280
1.6088343 1.2704616 0.32335526 4288961280
1.6320875 1.2888881 0.32224664 4289091840
1.6381547 1.2937641 0.31729361 4289091840
1.6463692 1.3003347 0.31233308 4289091840
1.6410103 1.2962004 0.30444816 4289091840
1.6179935 1.2786441 0.2485881 4288961280
1.6471872 1.3017775 0.24375734 4289091840
1.650448 1.3044472 0.23466735 4289091840
1.619092 1.2797946 0.2206068 4288961280
1.6011405 1.2657195 0.20840372 4288830720
1.6258414 1.2853134 0.20141648 4288961280
1.6348931 1.2925556 0.19207543 4289091840
1.5989569 1.2642796 0.17747173 4288830720
1.599975 1.2651786 0.16695051 4288830720
1.6206937 1.2816347 0.15812735 4288961280
1.6291087 1.288377 0.1477477 4288961280
1.6071179 1.2711067 0.13458218 4288961280
1.6178778 1.2797018 0.12404563 4288961280
1.6253124 1.2856717 0.11299299 4288961280
1.4417146 1.140735 0.090048015 4288177920
1.3698937 1.084082 0.075674348 4287916800
1.4760453 1.1680329 0.070530102 4288308480
1.7687464 1.3993969 0.071026072 4289614080
2.2149379 1.7520841 0.071952701 4291441920
2.2083218 1.74699 0.055223215 4291441920
2.2386203 1.7710692 0.039144013 4291572480
2.2277043 1.7625772 0.022189515 4291572480
2.2254863 1.760959 0.0053862343 4291572480
2.2084851 1.7476546 -0.011303999 4291441920
2.2286527 1.7637323 -0.028230503 4291572480
2.2574916 1.7866682 -0.045615289 4291703040
2.3011158 1.8212978 -0.063808657 4291833600
2.3285072 1.8430969 -0.082004972 4291964160
2.3543205 1.8636513 -0.10045552 4292094720
2.3611491 1.869194 -0.11821841 4292094720
2.3554411 1.8648223 -0.13522793 4292094720
2.3456533 1.8572222 -0.15174358 4292094720
2.3594239 1.8682568 -0.16966707 4292094720
2.3698134 1.8766181 -0.18733686 4292225280
2.3444321 1.8566796 -0.20184745 4292094720
2.3609085 1.8698566 -0.21971038 4292094720
2.3814461 1.8862491 -0.23797217 4292225280
2.391643 1.8944606 -0.25514516 4292355840
2.3745258 1.8810562 -0.26906353 4292225280
2.2946622 1.817988 -0.2749027 4291833600
2.3768349 1.8831656 -0.29997098 4292225280
2.3805933 1.8862811 -0.31530848 4292225280
2.3748338 1.8818618 -0.32902035 4292225280
2.3559868 1.8670801 -0.34040013 4292225280
2.2218599 1.7610219 -0.33378416 4291572480
2.4046772 1.9059089 -0.37488049 4292355840
2.4005575 1.9027865 -0.38730133 4292355840
2.3871531 1.8923099 -0.39769232 4292355840
2.397995 1.901034 -0.41167623 4292355840
2.3573875 1.8690085 -0.41618943 4292225280
2.3735459 1.8819424 -0.4301677 4292225280
2.3792849 1.8866235 -0.44186553 4292355840
2.3796184 1.8870224 -0.45208168 4292355840
2.3831244 1.8899341 -0.46240339 4292355840
2.3826365 1.8896812 -0.47143236 4292355840
2.3779035 1.8860636 -0.47906038 4292355840
2.3734448 1.8826623 -0.48616219 4292355840
2.3620253 1.8737433 -0.49122426 4292225280
2.352165 1.8660582 -0.4959811 4292225280
2.3424459 1.8584831 -0.50014067 4292225280
2.3011923 1.8259102 -0.49684504 4291964160
2.3190269 1.8401721 -0.50570565 4292094720
2.2560778 1.7903923 -0.49623373 4291833600
2.2701983 1.8017077 -0.50308704 4291833600
2.273582 1.8045108 -0.50699669 4291964160
2.280128 1.809821 -0.51103473 4291964160
2.2836645 1.8127446 -0.51381081 4291964160
2.2834225 1.8126715 -0.51513779 4291964160
2.2724614 1.8040966 -0.51343471 4291964160
2.2685256 1.8010914 -0.51271927 4291833600
2.2646708 1.7981497 -0.51142371 4291833600
2.2500963 1.7867033 -0.50711077 4291833600
2.3048017 1.8302137 -0.5178287 4292094720
2.3385186 1.8570776 -0.52314252 4292225280
2.3477004 1.8644785 -0.52229899 4292225280
2.3472197 1.864213 -0.51868099 4292225280
2.3648627 1.8783276 -0.51844448 4292355840
2.3843377 1.8938967 -0.51793784 4292355840
2.382163 1.8922864 -0.51208043 4292355840
2.3843572 1.8941422 -0.5065704 4292355840
2.3732133 1.8854115 -0.4976579 4292355840
2.3755007 1.8873395 -0.49101865 4292355840
2.3655648 1.8795649 -0.48130494 4292225280
2.3641825 1.8785782 -0.47281983 4292225280
2.3516619 1.8687488 -0.46160889 4292225280
2.3488166 1.8665987 -0.45183179 4292225280
2.3696022 1.8832096 -0.44602391 4292225280
2.3875098 1.8975366 -0.43900046 4292355840
2.3777957 1.8899317 -0.42634884 4292355840
2.3560252 1.8727515 -0.41119301 4292225280
2.346483 1.8652797 -0.39786547 4292225280
2.3543911 1.871665 -0.38706616 4292225280
2.3638721 1.8792998 -0.37600023 4292225280
2.3506081 1.8688692 -0.36090323 4292225280
2.3441901 1.8638749 -0.34656838 4292094720
2.3455215 1.8650353 -0.33302701 4292094720
2.3685689 1.8834465 -0.32206726 4292225280
2.361913 1.8782618 -0.30659491 4292225280
2.3445981 1.8646075 -0.28954339 4292094720
2.3271685 1.8508601 -0.27238023 4292094720
2.3396995 1.860917 -0.25847545 4292094720
2.3364573 1.8584406 -0.24247356 4292094720
2.3224535 1.847412 -0.22519943 4291964160
2.3311372 1.8544118 -0.20993148 4292094720
2.3461244 1.8664217 -0.19484274 4292094720
2.3401804 1.8617965 -0.17772664 4292094720
2.3354959 1.8581719 -0.16059083 4292094720
2.3152921 1.8422108 -0.14238335 4291964160
2.3068216 1.8355746 -0.12496156 4291964160
2.2624283 1.8003808 -0.10582165 4291703040
2.194489 1.746464 -0.086280353 4291441920
2.2157595 1.7634666 -0.070573084 4291572480
2.2206714 1.7674645 -0.054060664 4291572480
2.2348428 1.7788252 -0.037580647 4291572480
2.2070074 1.7567848 -0.020423396 4291441920
2.021987 1.6097475 -0.0032648745 4290658560
1.4959948 1.1915383 0.0093944632 4288439040
1.4710773 1.1717842 0.020390302 4288308480
1.4244854 1.1347897 0.030553007 4288177920
1.6159545 1.2871383 0.046551067 4288961280
1.6415187 1.3075401 0.059549518 4289091840
1.6372041 1.3041767 0.071594477 4289091840
1.6071508 1.280338 0.082213305 4288961280
1.6229488 1.2929735 0.094924696 4288961280
1.6278164 1.2969143 0.10705855 4288961280
1.6112564 1.2838075 0.1176097 4288961280
1.6135813 1.2857255 0.12928425 4288961280
1.6291157 1.2981548 0.14198481 4288961280
1.6293734 1.2984291 0.15332934 4288961280
1.6155579 1.2875044 0.16310713 4288961280
1.6307656 1.2996763 0.17560548 4289091840
1.6487182 1.3140346 0.1884234 4289091840
1.6316296 1.3005043 0.19708252 4289091840
1.5680414 1.2499611 0.19945475 4288830720
1.4805208 1.1803621 0.19764833 4288439040
1.5033727 1.1986181 0.20978758 4288439040
1.4948087 1.1918663 0.21744354 4288439040
1.4683728 1.1708854 0.22208126 4288308480
1.5612053 1.2448622 0.24469142 4288700160
1.5914587 1.2690203 0.2579897 4288830720
1.6257319 1.2963824 0.27198508 4289091840
1.6390806 1.3070854 0.28244755 4289091840
1.6190854 1.291236 0.28686133 4288961280
1.6202172 1.2922111 0.29457074 4289091840
1.6115757 1.2854027 0.30014864 4288961280
1.6103953 1.2845366 0.30671918 4288961280
1.5974416 1.2742929 0.31065649 4288961280
1.5921643 1.2701635 0.31564704 4288961280
1.589292 1.2679502 0.32071748 4288961280
1.5797935 1.2604579 0.32404906 4288830720
1.5550677 1.2408329 0.32379815 4288830720
1.5553766 1.2411535 0.32827151 4288830720
1.5390421 1.2282125 0.3288354 4288700160
1.5493474 1.2364992 0.33464932 4288700160
1.5007989 1.1978852 0.32737565 4288569600
1.5073457 1.2031764 0.33156067 4288569600
1.5147074 1.2091184 0.33556017 4288569600
1.5144098 1.2089566 0.33749411 4288569600
1.4481407 1.1562077 0.32436612 4288308480
1.4479535 1.1561315 0.32547915 4288308480
1.4439651 1.1530253 0.32536057 4288308480
1.5214344 1.2148638 0.34309712 4288700160
1.5098437 1.2057004 0.34051049 4288569600
1.5029269 1.2002633 0.33857298 4288569600
1.4952918 1.1942532 0.33608374 4288569600
1.5365261 1.2272153 0.34407699 4288700160
1.556321 1.2430837 0.346847 4288830720
1.5556593 1.2426386 0.34466395 4288830720
1.5618842 1.2476871 0.34358391 4288830720
1.5771585 1.2599554 0.34404159 4288830720
1.5946687 1.2740096 0.34451783 4288961280
1.5921038 1.2720503 0.34025529 4288961280
1.5971078 1.2761298 0.33719596 4288961280
1.5963932 1.2756478 0.33253524 4288961280
1.594323 1.2740842 0.32721677 4288961280
1.5910546 1.2715647 0.32129252 4288961280
1.6062092 1.2837485 0.31864715 4288961280
1.6253769 1.2991375 0.31629902 4289091840
1.6318066 1.3043616 0.31102896 4289091840
1.615809 1.2916843 0.30120102 4288961280
1.6080699 1.2861072 0.24822591 4288961280
1.6344626 1.3072811 0.2430165 4289091840
1.6311704 1.3047479 0.23303127 4289091840
1.6020852 1.2816112 0.2193283 4288961280
1.5935383 1.2748785 0.20838964 4288830720
1.6110694 1.2889794 0.20053525 4288961280
1.6195539 1.2958547 0.19117954 4288961280
1.5837799 1.2673669 0.17662612 4288830720
1.5892609 1.2718419 0.16661923 4288830720
1.6022933 1.2823526 0.15708467 4288961280
1.5989761 1.2797983 0.14572996 4288961280
1.6067002 1.2860687 0.13517518 4288961280
1.5984969 1.2796088 0.12315642 4288830720
1.6142231 1.2922776 0.11276014 4288961280
1.4467465 1.1584843 0.090776481 4288177920
1.3752594 1.1014168 0.076316841 4287916800
1.4731172 1.1797465 0.070723087 4288308480
1.8119645 1.4507946 0.073055215 4289744640
2.1999393 1.7611716 0.07181821 4291441920
2.1832702 1.7479749 0.054879922 4291441920
2.2025914 1.7635622 0.038731709 4291441920
2.2337081 1.7885871 0.022355272 4291572480
2.2800703 1.8258114 0.005505377 4291833600
2.2934673 1.836669 -0.011857893 4291833600
2.3124583 1.8520037 -0.029490046 4291964160
2.3175988 1.8562585 -0.047088213 4291964160
2.3228741 1.8606217 -0.064720057 4291964160
2.3129494 1.8528217 -0.081814915 4291964160
2.3324983 1.8686084 -0.099961519 4292094720
2.3431973 1.8773143 -0.11784251 4292094720
2.3336177 1.8697894 -0.13457263 4292094720
2.3129623 1.853397 -0.15029131 4291964160
2.3336904 1.870132 -0.168569 4292094720
2.3440366 1.8785572 -0.18613307 4292094720
2.3288901 1.866572 -0.20142151 4292094720
2.3351827 1.8717519 -0.21829957 4292094720
2.351506 1.8849647 -0.23604305 4292225280
2.3618979 1.893429 -0.25311404 4292225280
2.3593321 1.8915162 -0.26856565 4292225280
2.2653823 1.8164053 -0.27262816 4291833600
2.3578222 1.8905895 -0.29893363 4292225280
2.3618004 1.8939172 -0.31425282 4292225280
2.3599501 1.8925753 -0.32846028 4292225280
2.3450687 1.8807918 -0.34038264 4292225280
2.2045872 1.7683651 -0.33271021 4291572480
2.3749425 1.9050077 -0.37193951 4292355840
2.3739483 1.9043502 -0.38476431 4292355840
2.3729928 1.903723 -0.39715469 4292355840
2.3691607 1.9007895 -0.40859169 4292355840
2.335638 1.8740561 -0.41424611 4292225280
2.3586786 1.8926609 -0.42944449 4292225280
2.356739 1.8912413 -0.43969274 4292225280
2.3600981 1.8940693 -0.45043933 4292225280
2.3574185 1.892055 -0.4595204 4292225280
2.360023 1.8942769 -0.46910924 4292355840
2.3560867 1.8912532 -0.47685295 4292225280
2.3478017 1.8847408 -0.48312452 4292225280
2.3402898 1.878847 -0.48894843 4292225280
2.322783 1.8649347 -0.49204007 4292094720
2.3100376 1.8548391 -0.49549007 4292094720
2.2759032 1.8275833 -0.49364975 4291964160
2.2936587 1.8419516 -0.50247961 4292094720
2.2302361 1.7911917 -0.49281085 4291703040
2.2450628 1.803208 -0.49981099 4291833600
2.2515061 1.8084983 -0.50439125 4291833600
2.2511098 1.8083001 -0.50685596 4291833600
2.258472 1.8143271 -0.51048678 4291833600
2.2582321 1.8142531 -0.51180524 4291833600
2.2503936 1.8080797 -0.51079655 4291833600
2.2395651 1.7995045 -0.50850707 4291833600
2.2357275 1.7965393 -0.50721496 4291833600
2.2908633 1.8409151 -0.51872092 4292094720
2.2795086 1.8319157 -0.51450968 4291964160
2.3061547 1.8534242 -0.51827961 4292094720
2.3222032 1.8664255 -0.5190112 4292225280
2.3255627 1.8692389 -0.51626951 4292225280
2.3461833 1.8859125 -0.51672745 4292225280
2.3478992 1.887406 -0.51237035 4292225280
2.3488026 1.8882459 -0.50723487 4292225280
2.3548241 1.8931963 -0.50260252 4292355840
2.3505535 1.8898796 -0.49518234 4292225280
2.3459949 1.8863302 -0.48715478 4292225280
2.3391771 1.880965 -0.478131 4292225280
2.3347137 1.8774898 -0.46907744 4292225280
2.3260953 1.8706754 -0.45869571 4292094720
2.3271103 1.8715994 -0.44972223 4292094720
2.3431668 1.8846089 -0.4430804 4292225280
2.3578975 1.8965538 -0.43555096 4292225280
2.3513064 1.8913654 -0.42354077 4292225280
2.3342626 1.8777754 -0.40927303 4292225280
2.3100786 1.858445 -0.39348856 4292094720
2.3272154 1.8723226 -0.38435754 4292094720
2.3371813 1.8804374 -0.37346354 4292225280
2.3327153 1.8769518 -0.35980701 4292094720
2.3147104 1.862582 -0.34377903 4292094720
2.3160257 1.8637418 -0.33034557 4292094720
2.331207 1.8760486 -0.3184329 4292094720
2.3400753 1.8832806 -0.30515453 4292094720
2.3111999 1.860166 -0.28671977 4291964160
2.2938406 1.846308 -0.26970106 4291964160
2.3101847 1.8595501 -0.2563771 4291964160
2.310056 1.8595462 -0.2408257 4291964160
2.2858391 1.84017 -0.22264928 4291833600
2.2977519 1.8498489 -0.20785853 4291964160
2.3056629 1.8563098 -0.19233872 4291964160
2.3222928 1.8697841 -0.17716998 4292094720
2.3137374 1.8630009 -0.15981293 4291964160
2.3002379 1.8522398 -0.14209835 4291964160
2.3016071 1.8534387 -0.12524897 4291964160
2.3083475 1.8589586 -0.10850158 4291964160
2.2797625 1.8360579 -0.090113662 4291833600
2.2934234 1.8471456 -0.073443539 4291964160
2.2921937 1.8462526 -0.056113515 4291833600
2.269856 1.8283744 -0.038368728 4291833600
2.1912711 1.7652311 -0.020351546 4291441920
2.0156782 1.6240129 -0.0032577291 4290658560
1.4742253 1.1883354 0.0093310708 4288308480
1.3917651 1.1220299 0.019486902 4288047360
1.4061658 1.1336794 0.03032778 4288047360
1.5890479 1.2809455 0.046025701 4288830720
1.6208388 1.3066032 0.059102401 4288961280
1.6264634 1.3111995 0.071473658 4288961280
1.604913 1.293919 0.082488507 4288961280
1.6076063 1.2961553 0.094489269 4288961280
1.6202323 1.3063893 0.10707068 4288961280
1.5967499 1.2875506 0.11711742 4288961280
1.5951791 1.2863537 0.12843421 4288961280
1.6132324 1.3009596 0.14128156 4288961280
1.607968 1.2967893 0.15205353 4288961280
1.5991966 1.2897943 0.16223493 4288961280
1.6117147 1.2999455 0.17439392 4288961280
1.6295888 1.3144118 0.18713656 4289091840
1.6201476 1.3068777 0.19662938 4288961280
1.5890509 1.2818993 0.20304586 4288830720
1.4413646 1.1629974 0.1933815 4288308480
1.5942091 1.2861944 0.22337185 4288961280
1.5964668 1.2880838 0.23316771 4288961280
1.5945755 1.286631 0.24210529 4288961280
1.5771575 1.2726676 0.2483276 4288830720
1.5763235 1.2720665 0.25675622 4288830720
1.6093785 1.2987745 0.27053505 4288961280
1.6099402 1.2993001 0.27876824 4288961280
1.605128 1.2954953 0.28574216 4288961280
1.6055832 1.2959359 0.29330018 4288961280
1.5994931 1.2911013 0.29931292 4288961280
1.586049 1.2803386 0.30353433 4288961280
1.5854694 1.2799455 0.30979186 4288961280
1.5901202 1.2837694 0.31672326 4288961280
1.5902202 1.2839252 0.32240835 4288961280
1.5830154 1.278192 0.32622787 4288961280
1.5780342 1.2742516 0.33008584 4288961280
1.5764748 1.2730702 0.33425224 4288961280
1.5717573 1.2693427 0.33734921 4288830720
1.5735471 1.2708628 0.34143266 4288830720
1.5708535 1.268768 0.34415114 4288830720
1.5699793 1.2681407 0.3468568 4288830720
1.5657839 1.264835 0.34842056 4288830720
1.5693105 1.2677584 0.35128143 4288830720
1.5606965 1.2608887 0.35102791 4288830720
1.5604943 1.2608051 0.35223293 4288830720
1.5603459 1.2607653 0.35303706 4288830720
1.5686069 1.2675112 0.35531908 4288830720
1.5647341 1.2644677 0.35445699 4288830720
1.5759455 1.2735965 0.35656992 4288961280
1.5691156 1.2681679 0.3542113 4288830720
1.5638055 1.2639652 0.35178602 4288830720
1.5773548 1.2749845 0.35315189 4288961280
1.5747175 1.2729404 0.35049438 4288961280
1.5822396 1.2790974 0.34966418 4288961280
1.5758355 1.2740135 0.34536895 4288961280
1.5796665 1.2771926 0.34290189 4288961280
1.5762546 1.2745247 0.33847398 4288961280
1.5798547 1.2775187 0.33514583 4288961280
1.5772341 1.2754905 0.33011618 4288961280
1.5704858 1.2701293 0.32387421 4288830720
1.5749121 1.2737923 0.31955093 4288830720
1.5944011 1.2896221 0.31780824 4288961280
1.6051615 1.2984041 0.31386238 4288961280
1.5881906 1.2847871 0.30420113 4288961280
1.5860485 1.2831479 0.29708615 4288961280
1.5696238 1.2704718 0.24348526 4288830720
1.606252 1.3001704 0.2399848 4288961280
1.614135 1.3066382 0.23170632 4288961280
1.5795656 1.2787892 0.21729444 4288830720
1.5730027 1.2735782 0.20670106 4288830720
1.6016629 1.296845 0.20031612 4288961280
1.5998411 1.2954687 0.18976873 4288961280
1.5693963 1.2709469 0.17586623 4288830720
1.5634227 1.2662114 0.16471767 4288830720
1.5870413 1.2854081 0.15634327 4288830720
1.5876143 1.2859684 0.14539194 4288830720
1.5847139 1.2837195 0.13398328 4288830720
1.5842294 1.2834246 0.12265199 4288830720
1.5865754 1.2854198 0.11138779 4288830720
1.4360894 1.1637654 0.090548038 4288177920
1.3649352 1.1062816 0.076116338 4287916800
1.4366978 1.1644348 0.069350362 4288177920
1.795711 1.4550523 0.072762556 4289744640
2.2525849 1.8249133 0.073843047 4291703040
2.2835803 1.850139 0.057589263 4291833600
2.2793009 1.8468165 0.040209539 4291833600
2.2902493 1.8558202 0.022988474 4291964160
2.2852132 1.8518851 0.0055477316 4291833600
2.2601883 1.8317662 -0.01170523 4291833600
2.2899716 1.8560208 -0.029314009 4291964160
2.2958655 1.8609352 -0.046840154 4291964160
2.2972319 1.8621838 -0.064277865 4291964160
2.2804608 1.8487437 -0.081011161 4291833600
2.3138051 1.8758909 -0.099603698 4291964160
2.3166907 1.8783711 -0.1170286 4292094720
2.3110404 1.873937 -0.13387181 4291964160
2.295073 1.8611442 -0.14980835 4291964160
2.304137 1.8686286 -0.16718671 4291964160
2.3074615 1.8714638 -0.1840554 4291964160
2.2962708 1.8625377 -0.19950241 4291964160
2.3095157 1.8734113 -0.21688886 4291964160
2.328866 1.8892341 -0.23484564 4292094720
2.3283758 1.8889787 -0.25066364 4292094720
2.3266058 1.8876855 -0.26605532 4292094720
2.2331059 1.8120359 -0.26997754 4291703040
2.3282151 1.8892719 -0.29654035 4292094720
2.3360465 1.8957614 -0.31226301 4292225280
2.3156793 1.8793886 -0.32377765 4292094720
2.3155484 1.879421 -0.33765176 4292094720
2.1757345 1.7661848 -0.32987389 4291441920
2.3483849 1.9063259 -0.36948586 4292225280
2.3412387 1.9006696 -0.3812198 4292225280
2.3503096 1.9081649 -0.39518732 4292225280
2.335726 1.8964738 -0.40469262 4292225280
2.3062181 1.8726741 -0.4109273 4292094720
2.3330038 1.8945383 -0.42674568 4292225280
2.3272381 1.8899958 -0.43620691 4292225280
2.3336623 1.8953426 -0.44746688 4292225280
2.3279314 1.8908266 -0.4558835 4292225280
2.3236263 1.8874661 -0.46401972 4292225280
2.322787 1.8869172 -0.47229946 4292225280
2.3183827 1.8834741 -0.47929221 4292225280
2.3109131 1.8775418 -0.48505959 4292094720
2.2934947 1.8635325 -0.48809919 4292094720
2.2769864 1.8502595 -0.49067423 4291964160
2.2391918 1.8197031 -0.48794556 4291833600
2.2606971 1.837286 -0.49756488 4291964160
2.2052274 1.7923722 -0.48955837 4291703040
2.2161632 1.8013718 -0.49567741 4291703040
2.2225795 1.8067017 -0.50023282 4291833600
2.2183652 1.8033987 -0.50181031 4291703040
2.2256951 1.8094698 -0.50542241 4291833600
2.2216363 1.8062913 -0.50585538 4291833600
2.2176573 1.8031763 -0.50571191 4291703040
2.2145221 1.8007456 -0.50516897 4291703040
2.2068806 1.7946532 -0.50300634 4291703040
2.1962605 1.7861392 -0.49958152 4291703040
2.2435741 1.8246919 -0.50875777 4291833600
2.2838509 1.8575312 -0.5156666 4292094720
2.2967637 1.8681391 -0.51572347 4292094720
2.3098283 1.8788708 -0.51517761 4292225280
2.3099287 1.8790678 -0.51111299 4292225280
2.3215632 1.8886377 -0.50898927 4292225280
2.3193965 1.8869911 -0.50322187 4292225280
2.3253839 1.8919711 -0.49863479 4292225280
2.3211267 1.8886237 -0.4912644 4292225280
2.3242416 1.891268 -0.48489359 4292225280
2.3098557 1.8796844 -0.4743396 4292094720
2.3084047 1.878615 -0.465956 4292094720
2.2967525 1.8692505 -0.45502067 4292094720
2.2977538 1.870173 -0.44611844 4292094720
2.3175638 1.8863887 -0.44028327 4292094720
2.3360572 1.9015349 -0.43353146 4292225280
2.3294914 1.8963035 -0.42156988 4292225280
2.2971492 1.8701075 -0.4046354 4292094720
2.2838314 1.8593811 -0.39082921 4291964160
2.295491 1.8689685 -0.38087919 4292094720
2.3146391 1.8846475 -0.37158477 4292094720
2.2994053 1.8723598 -0.35631368 4292094720
2.2814734 1.8578751 -0.34041241 4291964160
2.2827709 1.8590324 -0.32710931 4291964160
2.3055823 1.8776927 -0.31639433 4292094720
2.3095388 1.8810136 -0.30256572 4292094720
2.275233 1.8532014 -0.28355789 4291964160
2.2722311 1.8508584 -0.26839885 4291833600
2.2846298 1.861047 -0.2547124 4291964160
2.2883599 1.8641821 -0.23966704 4291964160
2.2634788 1.8440317 -0.22148845 4291833600
2.2683678 1.8481086 -0.20614019 4291833600
2.2870693 1.8634281 -0.19166705 4291964160
2.2896156 1.865599 -0.17546988 4291964160
2.2842581 1.861336 -0.15849189 4291964160
2.2638452 1.8448162 -0.14047517 4291833600
2.2760484 1.8548474 -0.12441553 4291833600
2.286628 1.8635578 -0.10796348 4291964160
2.2504241 1.8341781 -0.089343108 4291703040
2.2640176 1.8453419 -0.072812989 4291833600
2.2803042 1.8586998 -0.056068465 4291833600
2.2850316 1.862646 -0.038811933 4291964160
2.2551546 1.8384122 -0.021090537 4291833600
2.0406899 1.6638467 -0.0033307835 4290789120
1.5543988 1.2678747 0.0097837122 4288700160
1.4309621 1.1674026 0.020077897 4288177920
1.4592927 1.1905396 0.031550806 4288308480
1.5612305 1.2736374 0.045471184 4288830720
1.6012977 1.3063432 0.058693126 4288961280
1.6071732 1.3111979 0.070986994 4288961280
1.5818532 1.290638 0.081719927 4288830720
1.5969292 1.3029886 0.094322361 4288961280
1.5940111 1.3006793 0.10587259 4288961280
1.5853509 1.293691 0.11684927 4288830720
1.5768248 1.2868115 0.1275841 4288830720
1.5910964 1.2985095 0.14003423 4288961280
1.5881084 1.2961432 0.15091541 4288961280
1.5341237 1.2522144 0.15645967 4288700160
1.5827028 1.2918752 0.17210694 4288830720
1.6041448 1.3094215 0.18512352 4288961280
1.5995173 1.3057199 0.19507529 4288961280
1.5917847 1.2994868 0.20435706 4288961280
1.5706409 1.2823203 0.21152702 4288830720
1.6035076 1.309185 0.22572826 4288961280
1.6044022 1.3099859 0.23542783 4288961280
1.5942813 1.3018056 0.24320994 4288961280
1.5869144 1.2958705 0.25103566 4288961280
1.5504305 1.2661917 0.25377461 4288830720
1.5660584 1.2790066 0.26456419 4288830720
1.5717311 1.2837046 0.27349856 4288830720
1.5560181 1.2709616 0.27838522 4288830720
1.5540136 1.2693988 0.2853018 4288830720
1.4927536 1.2195029 0.28082058 4288569600
1.4447211 1.1803917 0.27800876 4288308480
1.5594167 1.2740248 0.30618614 4288830720
1.5751072 1.2868993 0.31524426 4288961280
1.5685519 1.2816262 0.31955692 4288830720
1.5774179 1.2889355 0.32662562 4288961280
1.5752608 1.2872516 0.33107379 4288961280
1.5708475 1.283727 0.33464846 4288961280
1.5718261 1.2846026 0.33896515 4288961280
1.558368 1.2736968 0.33976731 4288830720
1.5689906 1.282444 0.34537753 4288961280
1.5684135 1.2820514 0.34815818 4288961280
1.5680535 1.2818365 0.35057849 4288961280
1.5674083 1.2813894 0.35252425 4288961280
1.5671517 1.2812598 0.35414317 4288961280
1.5669482 1.2811742 0.3553589 4288961280
1.5637466 1.2786412 0.35548106 4288830720
1.5667037 1.2811372 0.35657611 4288961280
1.5593698 1.2752308 0.35492763 4288830720
1.563199 1.2784401 0.35538533 4288830720
1.55962 1.2756003 0.35375464 4288830720
1.5624716 1.2780126 0.35315749 4288830720
1.5656052 1.2806561 0.35220441 4288961280
1.5795746 1.2921516 0.35323817 4288961280
1.568405 1.2831135 0.34827477 4288961280
1.567299 1.2822959 0.34514323 4288961280
1.5685949 1.2834413 0.34213349 4288961280
1.5636281 1.2794703 0.33737755 4288830720
1.5484354 1.2671436 0.33008951 4288830720
1.5250684 1.2481359 0.32079417 4288700160
1.526482 1.2493774 0.31636271 4288700160
1.5339332 1.2555537 0.31277776 4288700160
1.5481913 1.2672951 0.31013331 4288830720
1.5555015 1.2733593 0.3056716 4288830720
1.5553317 1.2733104 0.29937276 4288830720
1.5505148 1.2694628 0.29186407 4288830720
1.5537429 1.2726941 0.24219199 4288830720
1.5623902 1.2798604 0.23460457 4288830720
1.5735314 1.2890681 0.22700985 4288830720
1.5240703 1.2487005 0.21073683 4288700160
1.5314864 1.2548603 0.20226254 4288700160
1.5678222 1.2846831 0.19706455 4288830720
1.5828885 1.2971067 0.18867597 4288961280
1.5542539 1.2737716 0.17502058 4288830720
1.5521618 1.2721548 0.16432652 4288700160
1.5687217 1.2858034 0.15530042 4288830720
1.5692875 1.2863634 0.14442392 4288830720
1.5702578 1.2872545 0.13341409 4288830720
1.5690002 1.2863222 0.12207324 4288830720
1.5755228 1.2917595 0.11115495 4288830720
1.4146001 1.1601031 0.089649513 4288177920
1.3174955 1.0806814 0.073891796 4287786240
1.3772504 1.1296949 0.066881724 4288047360
1.8202362 1.492555 0.074084558 4289875200
2.2532845 1.8473319 0.074224725 4291833600
2.2464633 1.8418857 0.056962587 4291833600
2.2499371 1.8448716 0.039913442 4291833600
2.2577381 1.8514028 0.022805436 4291833600
2.268398 1.8602771 0.0055554053 4291833600
2.2425158 1.8392137 -0.011646102 4291703040
2.2605557 1.8541353 -0.029042864 4291833600
2.2702899 1.8622532 -0.04650978 4291833600
2.2677848 1.8603424 -0.063724019 4291833600
2.258827 1.8531426 -0.080598988 4291833600
2.2734635 1.8652802 -0.098293103 4291833600
2.2840698 1.8741157 -0.11589632 4291964160
2.2854044 1.8753521 -0.13298886 4291964160
2.2656548 1.8593036 -0.14856131 4291833600
2.2777693 1.8693769 -0.16603202 4291964160
2.2779956 1.8697039 -0.18253978 4291964160
2.2630072 1.8575546 -0.19751559 4291833600
2.2761977 1.8685116 -0.21474506 4291964160
2.2954652 1.8844537 -0.23254727 4291964160
2.2988391 1.8873621 -0.24863286 4292094720
2.2970853 1.8860649 -0.26390123 4292094720
2.2071159 1.8124039 -0.26807958 4291703040
2.3025508 1.8908296 -0.29464209 4292094720
2.3065071 1.8942158 -0.30975434 4292094720
2.2977734 1.88719 -0.32278374 4292094720
2.2861245 1.8777707 -0.33492103 4291964160
2.1615689 1.7756982 -0.32926995 4291441920
2.3226602 1.9080293 -0.36715406 4292225280
2.3186226 1.9048548 -0.37931281 4292225280
2.3245904 1.9098912 -0.39270014 4292225280
2.3100829 1.8981211 -0.40213206 4292094720
2.2837846 1.8766694 -0.40884659 4292094720
2.2959104 1.8867586 -0.42193043 4292094720
2.3016562 1.8916106 -0.43344373 4292094720
2.3011773 1.8913516 -0.44331267 4292094720
2.3016551 1.8918775 -0.45286173 4292094720
2.3045261 1.8943682 -0.46237922 4292094720
2.2987876 1.8897879 -0.469625 4292094720
2.2973742 1.8887584 -0.47719234 4292094720
2.2778182 1.8728266 -0.48036447 4292094720
2.2719254 1.8681148 -0.48579317 4291964160
2.2547367 1.8541225 -0.48817503 4291964160
2.2178862 1.8239747 -0.48558688 4291833600
2.1702201 1.7849361 -0.4798671 4291572480
2.1764743 1.7901947 -0.48545453 4291572480
2.1797504 1.7930061 -0.48982877 4291572480
2.1937511 1.8046299 -0.4960745 4291703040
2.1971681 1.807557 -0.49936584 4291703040
2.204464 1.8136715 -0.50296885 4291703040
2.2004249 1.8104697 -0.50339562 4291703040
2.200268 1.8104577 -0.50412238 4291703040
2.1887805 1.801131 -0.50165623 4291703040
2.1819353 1.7956187 -0.49967116 4291703040
2.1637583 1.7807884 -0.49450979 4291572480
2.2214944 1.8283696 -0.50613409 4291833600
2.2034714 1.8136649 -0.49983698 4291703040
2.2675793 1.8664918 -0.51157528 4291964160
2.2632902 1.8630797 -0.50717199 4291964160
2.2730618 1.8712296 -0.50532657 4292094720
2.2960544 1.8902531 -0.50577646 4292094720
2.2832317 1.8798209 -0.49771088 4292094720
2.2960384 1.8904675 -0.4946672 4292094720
2.291795 1.8870896 -0.48734662 4292094720
2.2903807 1.8860378 -0.48008242 4292094720
2.291239 1.8868549 -0.47274396 4292094720
2.2829254 1.8801253 -0.46298987 4292094720
2.2675059 1.8675478 -0.45134577 4291964160
2.271548 1.8709815 -0.44311249 4291964160
2.2813258 1.8791344 -0.43543828 4292094720
2.2989547 1.8937484 -0.42865247 4292094720
2.292407 1.8884673 -0.4168089 4292094720
2.2755048 1.874663 -0.40271562 4291964160
2.254591 1.8575549 -0.38764158 4291964160
2.2753768 1.8747671 -0.37932426 4291964160
2.274507 1.8741549 -0.36685234 4291964160
2.2738941 1.8737535 -0.35401908 4291964160
