# .PCD v0.7 - Point Cloud Data file format
VERSION 0.7
FIELDS x y z rgba
SIZE 4 4 4 4
TYPE F F F U
COUNT 1 1 1 1
WIDTH 1101
HEIGHT 1
VIEWPOINT 0 0 0 1 0 0 0
POINTS 1101
DATA ascii
1.208738 -1.5045511 -0.3239232 4288569600
1.2016852 -1.495689 -0.32563052 4288569600
1.1992284 -1.492542 -0.32817814 4288569600
1.1880339 -1.4785315 -0.32792309 4288439040
1.1792723 -1.4675465 -0.32791448 4288439040
1.1852741 -1.474916 -0.33161995 4288439040
1.1694187 -1.4551135 -0.32881707 4288308480
1.1693285 -1.4549093 -0.33003938 4288308480
1.1661931 -1.4509199 -0.33001631 4288308480
1.1819066 -1.4703565 -0.33494335 4288439040
1.1850275 -1.4741405 -0.33592087 4288439040
1.1930342 -1.4839951 -0.33788949 4288439040
1.195449 -1.4868995 -0.33787873 4288569600
1.2008643 -1.493531 -0.33831596 4288569600
1.2072359 -1.5013493 -0.33861619 4288569600
1.2170606 -1.5134561 -0.33946764 4288569600
1.2173054 -1.5136601 -0.33723897 4288569600
1.2251321 -1.5232813 -0.33670062 4288700160
1.2185011 -1.514943 -0.33180109 4288569600
1.22242 -1.5197084 -0.32939452 4288700160
1.2201084 -1.516735 -0.3249262 4288569600
1.2201476 -1.5166807 -0.32071638 4288569600
1.2200799 -1.5164932 -0.31610993 4288569600
1.2150429 -1.5101349 -0.30987489 4288569600
1.2017797 -1.4935634 -0.30126664 4288569600
1.2000682 -1.4913354 -0.29527414 4288439040
1.2054118 -1.4978654 -0.29066205 4288569600
1.2199148 -1.5157645 -0.28782597 4288569600
1.2363071 -1.5360056 -0.28494504 4288700160
1.2245542 -1.5213103 -0.27523673 4288569600
1.209648 -1.5027033 -0.26466629 4288569600
1.2058504 -1.4978843 -0.25634077 4288569600
1.2131276 -1.5068084 -0.25005847 4288569600
1.2248164 -1.5212048 -0.2442815 4288569600
1.2190602 -1.5139542 -0.234717 4288569600
1.2108902 -1.5037096 -0.22452588 4288569600
1.2022133 -1.4928374 -0.21411467 4288439040
1.2211081 -1.5161682 -0.20829856 4288569600
1.2251161 -1.5210302 -0.19954285 4288569600
1.2126051 -1.5054029 -0.18794701 4288569600
1.1976876 -1.4867929 -0.17599222 4288439040
1.2128446 -1.505481 -0.16826105 4288569600
1.214878 -1.5078927 -0.15838635 4288569600
1.2054211 -1.4960567 -0.1469065 4288439040
1.1999558 -1.4891713 -0.13588312 4288439040
1.2139375 -1.5063958 -0.12684225 4288569600
1.2169653 -1.5100386 -0.11637256 4288569600
1.2107729 -1.5022516 -0.10492621 4288439040
1.2065879 -1.4969541 -0.093636744 4288439040
1.2048254 -1.4946592 -0.082491256 4288439040
1.2056133 -1.4955254 -0.071443573 4288439040
1.1646321 -1.4446312 -0.058215123 4288177920
1.1648786 -1.4448299 -0.047369532 4288177920
1.2056775 -1.4952736 -0.037746388 4288439040
1.2122585 -1.5033163 -0.026567139 4288439040
1.1992222 -1.4870554 -0.014990919 4288439040
1.2182528 -1.5105193 -0.0037512572 4288569600
1.2183007 -1.5104669 0.0077300165 4288569600
1.230095 -1.5249631 0.019383231 4288569600
1.2181509 -1.5100579 0.030641129 4288569600
1.2368606 -1.533116 0.042690326 4288569600
1.3666061 -1.6936642 0.059882496 4289352960
1.4035274 -1.7392546 0.074507192 4289483520
1.4591154 -1.8079497 0.090887889 4289875200
1.4779787 -1.8311695 0.10556968 4289875200
1.4625851 -1.8119786 0.11772596 4289875200
1.4174063 -1.7559221 0.12681518 4289614080
1.4671253 -1.8173321 0.1442658 4289875200
1.4822854 -1.8359618 0.15873833 4290005760
1.4843715 -1.8384091 0.17178713 4290005760
1.4187244 -1.757039 0.17628215 4289614080
1.488911 -1.843758 0.19744891 4290005760
1.5039114 -1.8621835 0.21180132 4290136320
1.508986 -1.8683267 0.22468516 4290136320
1.4944456 -1.8502034 0.23432773 4290005760
1.4009902 -1.7344644 0.23052067 4289483520
1.4972531 -1.8534093 0.25761235 4290005760
1.5041164 -1.861765 0.26983431 4290136320
1.4993632 -1.8557533 0.27968702 4290005760
1.4639919 -1.8118786 0.28324243 4289875200
1.3915071 -1.7221171 0.27857766 4289483520
1.5074867 -1.8654016 0.31152174 4290136320
1.5080228 -1.8659327 0.32104763 4290136320
1.5020846 -1.8584598 0.32879779 4290136320
1.4844615 -1.8365433 0.33348036 4290005760
1.4748946 -1.824589 0.33943266 4290005760
1.4410496 -1.7826278 0.33918637 4289744640
1.3956724 -1.7264198 0.33543733 4289483520
1.3895229 -1.7187004 0.34045866 4289483520
1.3858904 -1.7140931 0.3456561 4289483520
1.3383688 -1.6552529 0.33931336 4289222400
1.3435109 -1.6614938 0.34572875 4289222400
1.3524076 -1.6723732 0.35275608 4289352960
1.354507 -1.674854 0.35763916 4289352960
1.2937461 -1.599679 0.34536567 4288961280
1.3052402 -1.6137704 0.35179573 4289091840
1.3049841 -1.6133467 0.35468069 4289091840
1.3047692 -1.6129743 0.35715911 4289091840
1.3014963 -1.6088258 0.35837626 4289091840
1.3013673 -1.6085612 0.36003044 4289091840
1.3043824 -1.6121794 0.36213171 4289091840
1.3012426 -1.6081977 0.3621015 4289091840
1.3136467 -1.6234095 0.36596444 4289091840
1.3074979 -1.6157137 0.36424044 4289091840
1.298914 -1.605013 0.36141297 4289091840
1.3046355 -1.6119742 0.36213228 4289091840
1.2961395 -1.6013846 0.35849017 4288961280
1.3629634 -1.683767 0.3751424 4289352960
1.3483597 -1.6656368 0.36891451 4289352960
1.3424808 -1.6582776 0.36467183 4289222400
1.3397448 -1.6547985 0.36087126 4289222400
1.3846709 -1.7101365 0.36935359 4289483520
1.3882381 -1.7144336 0.36626273 4289483520
1.3943316 -1.7218478 0.3633793 4289483520
1.4491856 -1.7894223 0.37254587 4289875200
1.4497826 -1.790051 0.3671577 4289875200
1.4804713 -1.8278027 0.36882284 4290005760
1.50306 -1.8555585 0.36781999 4290136320
1.5065242 -1.8597214 0.36160323 4290136320
1.5060272 -1.8589984 0.35400599 4290136320
1.4943707 -1.8445122 0.34344551 4290005760
1.4898769 -1.8382826 0.28306457 4290005760
1.4975113 -1.8475897 0.27399132 4290005760
1.4971329 -1.8470184 0.26309496 4290005760
1.4741354 -1.818565 0.24810848 4289875200
1.4724021 -1.8163259 0.23659991 4289875200
1.4856282 -1.8325257 0.22713606 4290005760
1.4832332 -1.8294712 0.21495099 4290005760
1.4567115 -1.7966833 0.19927141 4289744640
1.4573901 -1.7974193 0.18729323 4289744640
1.4762592 -1.8205714 0.17727549 4289875200
1.4739901 -1.8176744 0.16438909 4289875200
1.4488264 -1.7865688 0.14901088 4289744640
1.4233017 -1.7550218 0.13387337 4289614080
1.2536378 -1.5458986 0.10679825 4288700160
1.2399967 -1.5290086 0.094486184 4288569600
1.2256323 -1.5112296 0.082267657 4288569600
1.2328957 -1.5200939 0.071468361 4288569600
1.2270613 -1.5128241 0.059821092 4288569600
1.22425 -1.5092788 0.048333827 4288569600
1.2137896 -1.4963132 0.036615614 4288439040
1.2185795 -1.5021304 0.025365632 4288439040
1.188807 -1.4653846 0.013607766 4288308480
1.1248609 -1.3865616 0.0023269653 4288047360
1.2044185 -1.4844476 -0.0088341162 4288439040
1.2106764 -1.4920716 -0.020242931 4288439040
1.213962 -1.4960352 -0.031670928 4288439040
1.2165769 -1.499173 -0.043104082 4288439040
1.2192038 -1.5023248 -0.054541707 4288439040
1.2236297 -1.5076908 -0.066068202 4288569600
1.2264245 -1.5110483 -0.077503428 4288569600
1.2291996 -1.5143814 -0.08890631 4288569600
1.2234352 -1.5072033 -0.099569492 4288569600
1.2262497 -1.5105842 -0.11079822 4288569600
1.229129 -1.5140444 -0.12196488 4288569600
1.2277956 -1.51232 -0.13259616 4288569600
1.2278341 -1.5122837 -0.14322142 4288569600
1.2456079 -1.5340695 -0.15591261 4288700160
1.2484339 -1.5374613 -0.16673863 4288700160
1.2393229 -1.5261662 -0.17573774 4288569600
1.2072204 -1.4865869 -0.18095087 4288439040
1.2403673 -1.5272801 -0.1957479 4288700160
1.2370204 -1.523077 -0.20480847 4288569600
1.2419934 -1.529108 -0.21503249 4288700160
1.2296455 -1.5138339 -0.22196771 4288569600
1.1926714 -1.4682735 -0.22385716 4288439040
1.2468078 -1.5347682 -0.24270423 4288700160
1.2516075 -1.5405829 -0.25208995 4288700160
1.2488914 -1.5371542 -0.25969541 4288700160
1.2443925 -1.5315335 -0.26659325 4288700160
1.2345457 -1.5193375 -0.27195841 4288700160
1.2310854 -1.5149947 -0.27834353 4288569600
1.2305185 -1.514209 -0.28504455 4288569600
1.2336683 -1.5179923 -0.29229641 4288700160
1.2367271 -1.5216627 -0.29922637 4288700160
1.2401435 -1.5257719 -0.30593327 4288700160
1.2361752 -1.5208033 -0.31046835 4288700160
1.2351152 -1.5194094 -0.31535575 4288700160
1.2320907 -1.5156009 -0.31936374 4288700160
1.2256471 -1.5075907 -0.32208389 4288569600
1.2205993 -1.5012963 -0.32475981 4288569600
1.2134942 -1.4924741 -0.32647607 4288569600
1.2110183 -1.4893403 -0.32903174 4288569600
1.1991198 -1.4746299 -0.32861334 4288439040
1.1940254 -1.4682797 -0.32963908 4288439040
1.2000692 -1.4756125 -0.33335495 4288439040
1.180989 -1.4520826 -0.32969308 4288439040
1.1864928 -1.4587512 -0.33248553 4288439040
1.1808473 -1.4517248 -0.33177051 4288439040
1.1777307 -1.4478047 -0.3313739 4288308480
1.1967082 -1.4710171 -0.33680394 4288439040
1.2078811 -1.4846423 -0.3396455 4288569600
1.2103134 -1.4875327 -0.33963135 4288569600
1.2188776 -1.4979509 -0.3409324 4288569600
1.2215642 -1.5011514 -0.34018308 4288569600
1.2258613 -1.506328 -0.33947667 4288569600
1.2236183 -1.503475 -0.3365638 4288569600
1.2308776 -1.5122858 -0.33586103 4288700160
1.2391404 -1.5223266 -0.33500642 4288700160
1.2374853 -1.5201932 -0.33106887 4288700160
1.237651 -1.5202941 -0.3272402 4288700160
1.2352 -1.5171835 -0.3223511 4288700160
1.2351339 -1.5169991 -0.31772208 4288700160
1.2263196 -1.5060805 -0.31051537 4288569600
1.2274667 -1.5073847 -0.30550474 4288569600
1.2118623 -1.4881371 -0.2960453 4288569600
1.2155932 -1.4926109 -0.29102311 4288569600
1.2349794 -1.5162873 -0.28929847 4288700160
1.2452388 -1.5287653 -0.28495422 4288700160
1.2427864 -1.5256506 -0.27733934 4288700160
1.2215164 -1.4994581 -0.26535496 4288569600
1.217066 -1.4938951 -0.25687835 4288569600
1.2270548 -1.5060378 -0.25112414 4288569600
1.2336619 -1.514032 -0.24429058 4288569600
1.2310009 -1.5106617 -0.23532559 4288569600
1.2196338 -1.4966184 -0.22453487 4288569600
1.2203168 -1.4973484 -0.21578933 4288569600
1.2330668 -1.5128697 -0.20883974 4288569600
1.2396203 -1.5207934 -0.20046704 4288569600
1.2213587 -1.498302 -0.18795599 4288569600
1.2126284 -1.4874946 -0.17691949 4288439040
1.2215984 -1.4983789 -0.16827004 4288569600
1.2267966 -1.5046396 -0.15880322 4288569600
1.2204247 -1.4967228 -0.14767841 4288439040
1.2117685 -1.4860085 -0.13624668 4288439040
1.2258515 -1.5031527 -0.12717867 4288569600
1.2320579 -1.5106454 -0.11698122 4288569600
1.2246144 -1.5014173 -0.1053749 4288569600
1.2121335 -1.4860207 -0.093402073 4288439040
1.2198349 -1.4953434 -0.082930274 4288439040
1.2206295 -1.4962066 -0.071825005 4288439040
1.179354 -1.4455534 -0.058538228 4288308480
1.1827646 -1.4496232 -0.047762319 4288308480
1.21718 -1.4916528 -0.037842982 4288439040
1.2232698 -1.4989984 -0.026625842 4288439040
1.2198882 -1.4947482 -0.015150893 4288439040
1.2333621 -1.5111312 -0.0037806821 4288569600
1.23341 -1.5110784 0.0077597159 4288569600
1.230104 -1.5069208 0.01923725 4288569600
1.2332574 -1.510669 0.03078883 4288569600
1.2502007 -1.5312916 0.042831916 4288700160
1.3853091 -1.6965011 0.060255866 4289352960
1.4193317 -1.7380042 0.074795656 4289483520
1.4828426 -1.8155788 0.091691665 4289875200
1.4917861 -1.8263867 0.10578226 4289875200
1.4968281 -1.8324203 0.11960442 4290005760
1.4307748 -1.7514912 0.12708461 4289614080
1.4865357 -1.8195637 0.14511628 4289875200
1.5081171 -1.8458248 0.1603352 4290005760
1.5038986 -1.8405315 0.1727895 4290005760
1.4834563 -1.8154001 0.18298182 4289875200
1.505939 -1.8427589 0.19826685 4290005760
1.5210439 -1.8610932 0.21267025 4290136320
1.5286732 -1.8702857 0.22597617 4290136320
1.5020514 -1.8376065 0.23382716 4290005760
1.4173723 -1.7339646 0.23153719 4289614080
1.5206192 -1.8600378 0.25974825 4290136320
1.526896 -1.8675762 0.2719489 4290136320
1.5195864 -1.8585098 0.2814202 4290136320
1.4968249 -1.8305622 0.28750744 4290005760
1.4528562 -1.7767051 0.28875262 4289744640
1.5214716 -1.8604178 0.31215388 4290136320
1.5220094 -1.8609437 0.3216989 4290136320
1.5216739 -1.8604033 0.3306928 4290136320
1.5014105 -1.8355193 0.33486605 4290005760
1.4886366 -1.819788 0.34013686 4290005760
1.4664532 -1.7925662 0.34268463 4289875200
1.4119734 -1.7259035 0.33691925 4289614080
1.4026456 -1.714393 0.34120876 4289483520
1.3989849 -1.7098053 0.34641957 4289483520
1.3479918 -1.647421 0.33930349 4289222400
1.35317 -1.6536318 0.34571886 4289222400
1.3558769 -1.6568248 0.35112953 4289222400
1.3033799 -1.5926224 0.34170103 4288961280
1.3061709 -1.5959228 0.34618288 4288961280
1.3058743 -1.5954543 0.3494494 4288961280
1.3143634 -1.6057101 0.35467106 4289091840
1.3110234 -1.6015273 0.35630223 4289091840
1.3170944 -1.6088315 0.36007106 4289091840
1.3138411 -1.6047561 0.36087698 4289091840
1.316877 -1.6083562 0.3629812 4289091840
1.3137139 -1.6043925 0.36295298 4289091840
1.3199625 -1.6119132 0.36509272 4289091840
1.316891 -1.6080625 0.36423081 4289091840
1.3107427 -1.6004593 0.36209226 4289091840
1.3083861 -1.597483 0.36057633 4289091840
1.3054492 -1.5937998 0.35848063 4288961280
1.3056793 -1.5939804 0.35683376 4288961280
1.3611672 -1.6615574 0.36975187 4289352960
1.3552463 -1.6542332 0.36550334 4289222400
1.3468643 -1.6439091 0.36019376 4289222400
1.4008665 -1.7096602 0.37099689 4289483520
1.4069631 -1.7169898 0.36854288 4289614080
1.4074706 -1.7175041 0.36417735 4289614080
1.4199102 -1.7325667 0.36242419 4289614080
1.4720888 -1.7960755 0.37013429 4289875200
1.506135 -1.8374724 0.3725256 4290136320
1.5232501 -1.8582261 0.37008995 4290136320
1.5267429 -1.8623735 0.36383051 4290136320
1.5224816 -1.8570695 0.35531077 4290136320
1.5170215 -1.8503058 0.34615186 4290136320
1.503702 -1.8334115 0.28364676 4290005760
1.5233681 -1.8572656 0.27672291 4290136320
1.5141656 -1.8459498 0.26418117 4290005760
1.4941612 -1.8214774 0.24967454 4290005760
1.4949453 -1.8223298 0.23849672 4290005760
1.5082717 -1.8384589 0.22894022 4290005760
1.5058651 -1.8354249 0.21666047 4290005760
1.478847 -1.8024182 0.20084213 4289875200
1.4766845 -1.7996844 0.1884048 4289875200
1.495692 -1.8227304 0.17831257 4290005760
1.4994911 -1.8272554 0.16602241 4290005760
1.4793719 -1.8026575 0.15104723 4289875200
1.4429982 -1.7582723 0.13473997 4289614080
1.2801977 -1.5599734 0.10826348 4288830720
1.2493824 -1.5223732 0.094506741 4288569600
1.2318728 -1.5009749 0.082081243 4288569600
1.2385527 -1.5090238 0.071267799 4288569600
1.2421927 -1.5133719 0.060107313 4288569600
1.2393621 -1.5098441 0.04856113 4288569600
1.2193066 -1.4853528 0.036500756 4288439040
1.2329384 -1.5018616 0.025459673 4288569600
1.2004924 -1.4622953 0.013621856 4288308480
1.1297398 -1.3761197 0.0023003034 4287916800
1.2155799 -1.480494 -0.0088759167 4288439040
1.2225169 -1.4888537 -0.020319724 4288439040
1.2258252 -1.4927975 -0.031777851 4288439040
1.2309976 -1.4990087 -0.043330703 4288569600
1.2279291 -1.495194 -0.054567106 4288439040
1.2387327 -1.5082543 -0.066435203 4288569600
1.2455442 -1.5164572 -0.078180127 4288569600
1.244339 -1.5149082 -0.089389592 4288569600
1.2353599 -1.5039041 -0.099853389 4288569600
1.2438999 -1.5142077 -0.11162312 4288569600
1.2442609 -1.5145633 -0.12261806 4288569600
1.2429155 -1.5128437 -0.13330452 4288569600
1.2427263 -1.5125301 -0.14395806 4288569600
1.2513509 -1.522933 -0.15554847 4288700160
1.2605276 -1.5340059 -0.16718812 4288700160
1.2545133 -1.5266083 -0.17665832 4288700160
1.2183836 -1.4825995 -0.18135637 4288439040
1.2460761 -1.5161809 -0.1952825 4288569600
1.2521842 -1.5235205 -0.2058769 4288700160
1.2571892 -1.5295182 -0.21614793 4288700160
1.2415932 -1.5104756 -0.22256283 4288569600
1.2075078 -1.4689634 -0.22506124 4288439040
1.2613966 -1.534371 -0.24383058 4288700160
1.263706 -1.5370896 -0.2527495 4288700160
1.2620075 -1.5349374 -0.26058921 4288700160
1.2595838 -1.531904 -0.267961 4288700160
1.2465161 -1.5159376 -0.27267456 4288700160
1.2430291 -1.5116129 -0.27907693 4288700160
1.2456005 -1.5146483 -0.28651729 4288700160
1.248185 -1.5176994 -0.29366353 4288700160
1.2518469 -1.522058 -0.30076095 4288700160
1.2546566 -1.5253807 -0.30734241 4288700160
1.2481462 -1.5173823 -0.31127521 4288700160
1.2470769 -1.5159929 -0.31617451 4288700160
1.2496752 -1.5190573 -0.32164568 4288700160
1.2438095 -1.5118423 -0.32455879 4288700160
1.2443647 -1.5124248 -0.32875329 4288700160
1.2284298 -1.4929837 -0.32816905 4288569600
1.2165352 -1.4784502 -0.32820559 4288569600
1.2170815 -1.4790224 -0.33118612 4288569600
1.2088169 -1.4688972 -0.3313711 4288439040
1.2111448 -1.4716318 -0.33406049 4288439040
1.1919279 -1.448213 -0.3304005 4288439040
1.1949657 -1.4518092 -0.33249789 4288439040
1.1949147 -1.4516551 -0.33335254 4288439040
1.1980367 -1.4553517 -0.33470491 4288439040
1.210888 -1.4708544 -0.33838612 4288439040
1.2221406 -1.4844145 -0.34122497 4288569600
1.2134954 -1.4738287 -0.33811691 4288569600
1.2307106 -1.4946204 -0.34180564 4288569600
1.2302845 -1.4940058 -0.34018555 4288569600
1.2433836 -1.509799 -0.34188798 4288700160
1.2379928 -1.5031599 -0.33810246 4288700160
1.2427975 -1.5088885 -0.3367072 4288700160
1.2479843 -1.5150791 -0.33500218 4288700160
1.2463169 -1.5129557 -0.33106288 4288700160
1.2527584 -1.5206659 -0.32887879 4288700160
1.2528031 -1.5206175 -0.32461742 4288700160
1.2495996 -1.5166297 -0.31915346 4288700160
1.2413528 -1.5065272 -0.31208092 4288700160
1.2341874 -1.4977367 -0.30498663 4288569600
1.2236531 -1.4848627 -0.29679099 4288569600
1.2299284 -1.4923676 -0.29234996 4288569600
1.2437894 -1.5090662 -0.28927788 4288700160
1.2660886 -1.5359898 -0.28764912 4288700160
1.251651 -1.5183843 -0.2773149 4288700160
1.2390565 -1.5030144 -0.26723209 4288569600
1.2289008 -1.4906019 -0.25751144 4288569600
1.2337598 -1.4963846 -0.25067896 4288569600
1.2449856 -1.5098808 -0.24475543 4288569600
1.2454662 -1.5103559 -0.23637128 4288569600
1.2308593 -1.4925523 -0.22496217 4288569600
1.2378745 -1.500944 -0.21730721 4288569600
1.2538847 -1.5202301 -0.21082279 4288700160
1.2516236 -1.5173823 -0.20093474 4288700160
1.2364013 -1.4988368 -0.18888228 4288569600
1.2244413 -1.4842445 -0.17733561 4288439040
1.2398195 -1.5027597 -0.16952619 4288569600
1.2418853 -1.5051523 -0.15957214 4288569600
1.2354702 -1.4972757 -0.1483933 4288569600
1.2324713 -1.4935364 -0.13754499 4288569600
1.2441169 -1.5075259 -0.12810966 4288569600
1.2497346 -1.5142164 -0.11776783 4288569600
1.2396967 -1.5019555 -0.10586485 4288569600
1.2303092 -1.4904836 -0.094078265 4288439040
1.2342491 -1.4951428 -0.083261415 4288569600
1.2350501 -1.4960027 -0.072103158 4288569600
1.2032332 -1.457392 -0.059246287 4288308480
1.2010374 -1.454628 -0.048101041 4288308480
1.2379465 -1.4991779 -0.038157977 4288569600
1.23771 -1.4987816 -0.026689582 4288569600
1.2260215 -1.4845318 -0.015057949 4288439040
1.2421387 -1.5039186 -0.0037180749 4288569600
1.2479206 -1.5108017 0.0078580463 4288569600
1.2503747 -1.5136588 0.019478133 4288569600
1.2452163 -1.5073092 0.030931465 4288569600
1.268729 -1.5356323 0.043223586 4288700160
1.3865557 -1.6779951 0.059958108 4289352960
1.4326082 -1.7335547 0.075036451 4289614080
1.4991162 -1.8138369 0.092120759 4289875200
1.5049372 -1.8207415 0.10603963 4290005760
1.5042839 -1.8198187 0.11943094 4290005760
1.4345791 -1.73543 0.12659928 4289614080
1.482401 -1.7931043 0.1437716 4289875200
1.521762 -1.8405446 0.16072181 4290005760
1.5209416 -1.8394194 0.17359069 4290005760
1.4511677 -1.754971 0.17782077 4289614080
1.5223544 -1.8408599 0.19908868 4290005760
1.5381982 -1.85987 0.21362585 4290136320
1.5395293 -1.8613441 0.22605063 4290136320
1.5222365 -1.8403195 0.23536813 4290005760
1.4363173 -1.7364001 0.23304179 4289614080
1.5371214 -1.8580352 0.26078451 4290136320
1.5377357 -1.8586445 0.27201742 4290136320
1.5360743 -1.8565058 0.28253338 4290136320
1.5163134 -1.8325105 0.28925902 4290005760
1.4783564 -1.7865463 0.29180509 4289875200
1.5474504 -1.8698483 0.31530246 4290266880
1.5511453 -1.8741781 0.32559958 4290266880
1.5324811 -1.851514 0.33075064 4290136320
1.5222679 -1.8390555 0.33717516 4290136320
1.4654962 -1.7703977 0.33255127 4289744640
1.4863242 -1.7954152 0.34492418 4289875200
1.4251451 -1.7214515 0.33770725 4289614080
1.4094435 -1.7023835 0.34048718 4289483520
1.3580406 -1.6402348 0.3339676 4289222400
1.3544037 -1.6357347 0.33854911 4289222400
1.3659186 -1.649518 0.34654561 4289222400
1.3774596 -1.6633313 0.35422736 4289352960
1.3126253 -1.5849997 0.34172314 4288961280
1.3122888 -1.5844877 0.34537521 4288961280
1.3208001 -1.5946494 0.35096765 4289091840
1.32054 -1.5942302 0.35384253 4289091840
1.3234667 -1.5976551 0.35715911 4289091840
1.3232908 -1.5973381 0.35922512 4289091840
1.3231589 -1.5970749 0.36087984 4289091840
1.326216 -1.6006577 0.36298057 4289091840
1.3198862 -1.5929217 0.36208779 4289091840
1.3230346 -1.5966157 0.36336094 4289091840
1.3230852 -1.5965745 0.36335742 4289091840
1.3200375 -1.5927986 0.3620773 4289091840
1.3145192 -1.5860454 0.35969868 4288961280
1.3203676 -1.5929954 0.35999927 4289091840
1.3117919 -1.5825589 0.3559556 4288961280
1.367672 -1.6498119 0.3688736 4289352960
1.3648554 -1.6463152 0.3654685 4289222400
1.3589323 -1.6390755 0.36082277 4289222400
1.359345 -1.6394722 0.35744578 4289222400
1.4112678 -1.7019387 0.36702219 4289483520
1.4174488 -1.7092831 0.36412472 4289614080
1.4331286 -1.7280717 0.36316448 4289614080
1.482524 -1.7874782 0.37007067 4289875200
1.50555 -1.8151108 0.36969528 4290005760
1.5309 -1.8455402 0.36925739 4290136320
1.5464067 -1.8641096 0.36583993 4290266880
1.5459106 -1.8634021 0.35815084 4290266880
1.5340956 -1.8490627 0.34749436 4290136320
1.5232539 -1.8352969 0.28529659 4290005760
1.540274 -1.8556827 0.27781028 4290136320
1.5369756 -1.8516068 0.26625818 4290136320
1.5168353 -1.8272583 0.25166509 4290005760
1.5144516 -1.8242863 0.23989569 4290005760
1.5189708 -1.8296233 0.22893246 4290005760
1.5076364 -1.8158796 0.21538302 4290005760
1.4281998 -1.7201779 0.19260854 4289483520
1.4836587 -1.7868222 0.18795699 4289875200
1.5126728 -1.821637 0.17906062 4290005760
1.510125 -1.8184706 0.16601846 4290005760
1.4962411 -1.8016648 0.15168923 4289875200
1.4532309 -1.7498178 0.1347377 4289614080
1.2992082 -1.5644199 0.10909356 4288830720
1.2622659 -1.5198921 0.094807327 4288700160
1.2495502 -1.5045123 0.082670741 4288569600
1.2537239 -1.5094503 0.07163211 4288569600
1.2567518 -1.5130099 0.060383826 4288569600
1.2537092 -1.5092678 0.048778404 4288569600
1.2438676 -1.4973491 0.036973424 4288569600
1.2462126 -1.5000874 0.02555522 4288569600
1.2319906 -1.4829029 0.013880718 4288439040
1.211329 -1.4579767 0.0024403178 4288308480
1.2309489 -1.4814887 -0.0089206323 4288439040
1.2369374 -1.4886082 -0.02040961 4288439040
1.2394018 -1.49149 -0.031897798 4288569600
1.2425615 -1.4952073 -0.043423176 4288569600
1.2462208 -1.4995248 -0.054983616 4288569600
1.2539034 -1.508678 -0.066767991 4288569600
1.2592909 -1.5150715 -0.078478433 4288569600
1.2563516 -1.5114554 -0.089608513 4288569600
1.2473078 -1.5005028 -0.10010038 4288569600
1.252714 -1.506918 -0.11161313 4288569600
1.2556307 -1.5103402 -0.12285767 4288569600
1.2549129 -1.5093942 -0.13363376 4288569600
1.2572726 -1.5121464 -0.14460763 4288569600
1.2697819 -1.5270933 -0.15671793 4288700160
1.2751946 -1.5335119 -0.16793212 4288700160
1.2723209 -1.529974 -0.17789388 4288700160
1.2333837 -1.4831108 -0.18228616 4288569600
1.2676351 -1.524174 -0.19725169 4288700160
1.2699621 -1.5268836 -0.2073191 4288700160
1.2660935 -1.5221508 -0.2161361 4288700160
1.2561084 -1.5100716 -0.22356927 4288700160
1.219237 -1.4657024 -0.22563785 4288439040
1.273505 -1.5307926 -0.24442838 4288700160
1.2783678 -1.5365449 -0.25387242 4288830720
1.2772886 -1.5351608 -0.26187858 4288700160
1.2710391 -1.5275683 -0.26848602 4288700160
1.2616806 -1.5162433 -0.27404067 4288700160
1.2581655 -1.5119349 -0.28047907 4288700160
1.2601182 -1.514191 -0.28780931 4288700160
1.2658831 -1.5210229 -0.29572418 4288700160
1.2670355 -1.5223167 -0.30226165 4288700160
1.2635372 -1.5180275 -0.30733511 4288700160
1.2633023 -1.5176554 -0.3128334 4288700160
1.2615906 -1.5155103 -0.31759983 4288700160
1.2616776 -1.5155238 -0.32244763 4288700160
1.2551372 -1.5075836 -0.32520899 4288700160
1.2563266 -1.5089194 -0.32957792 4288700160
1.2402774 -1.4895701 -0.32900369 4288569600
1.2402871 -1.4894905 -0.33225927 4288569600
1.2313699 -1.4787004 -0.33271956 4288569600
1.2198912 -1.4648381 -0.33205876 4288439040
1.2260188 -1.4720978 -0.33578923 4288569600
1.2154936 -1.4593804 -0.33456737 4288439040
1.2097229 -1.4523671 -0.33424392 4288439040
1.2096704 -1.4522125 -0.33510435 4288439040
1.209661 -1.452109 -0.33558652 4288439040
1.2257553 -1.4713171 -0.3401438 4288569600
1.2226806 -1.4675355 -0.33899114 4288569600
1.2283808 -1.4742758 -0.33987272 4288569600
1.2450869 -1.4942108 -0.34338397 4288569600
1.2452887 -1.4943556 -0.34193197 4288569600
1.2584809 -1.5100729 -0.34362689 4288700160
1.2587329 -1.5102757 -0.34137127 4288700160
1.263574 -1.5159789 -0.33995277 4288700160
1.2656428 -1.5183579 -0.33737972 4288700160
1.2608074 -1.5124612 -0.33258569 4288700160
1.2632824 -1.515326 -0.3293409 4288700160
1.2648133 -1.5170585 -0.32545799 4288700160
1.2615876 -1.5130907 -0.31998447 4288700160
1.2589778 -1.5098609 -0.31432226 4288700160
1.2523981 -1.5018748 -0.30734822 4288700160
1.2379935 -1.4845147 -0.29819742 4288569600
1.248117 -1.49654 -0.29462862 4288569600
1.261446 -1.512403 -0.29136536 4288700160
1.2781976 -1.5323632 -0.28840545 4288830720
1.2661978 -1.5178844 -0.2786136 4288700160
1.247802 -1.4957473 -0.26727599 4288569600
1.2375741 -1.4833943 -0.25755683 4288569600
1.2513663 -1.4998055 -0.25252154 4288569600
1.2601315 -1.5101948 -0.24604651 4288700160
1.2574364 -1.5068612 -0.23702233 4288700160
1.2459114 -1.4929566 -0.22617036 4288569600
1.2466077 -1.4936839 -0.21736187 4288569600
1.2659174 -1.5166917 -0.21141209 4288700160
1.2668307 -1.5176762 -0.20201035 4288700160
1.2508657 -1.4984598 -0.18981338 4288569600
1.2388239 -1.4839408 -0.17822295 4288569600
1.2485634 -1.495489 -0.16958925 4288569600
1.2563952 -1.5047526 -0.16037112 4288569600
1.2467399 -1.4930912 -0.14876442 4288569600
1.2379634 -1.4824827 -0.13725746 4288439040
1.2554488 -1.5032934 -0.12844089 4288569600
1.2559848 -1.5038254 -0.11759883 4288569600
1.2516388 -1.4985174 -0.1062084 4288569600
1.2447485 -1.490167 -0.094589151 4288569600
1.246154 -1.4917393 -0.08355023 4288569600
1.252786 -1.4995615 -0.072702914 4288569600
1.2117146 -1.4503384 -0.059320252 4288308480
1.2521579 -1.4985913 -0.049879842 4288569600
1.2586133 -1.5062002 -0.038603712 4288569600
1.2488055 -1.4943641 -0.026819641 4288569600
1.2397147 -1.4833871 -0.01519943 4288439040
1.2561797 -1.5029602 -0.0038154512 4288569600
1.2587937 -1.5059748 0.0077891205 4288569600
1.2623932 -1.5101666 0.019444864 4288569600
1.2661811 -1.5145831 0.031146847 4288569600
1.2808255 -1.5319728 0.043245502 4288700160
1.3873414 -1.6591405 0.059482619 4289222400
1.4491137 -1.7328279 0.075273022 4289614080
1.5123047 -1.8081995 0.092180707 4289875200
1.5309254 -1.8303133 0.10701203 4290005760
1.5151937 -1.8113872 0.11935578 4290005760
1.4107137 -1.6864538 0.12353767 4289352960
1.4032023 -1.6773597 0.13506791 4289352960
1.5263245 -1.8242863 0.15997846 4290005760
1.5319663 -1.8308918 0.17352715 4290005760
1.4767474 -1.7648195 0.17959099 4289744640
1.5426698 -1.8434081 0.20023426 4290136320
1.561179 -1.865375 0.2152001 4290266880
1.5625138 -1.8668348 0.22772108 4290266880
1.5400797 -1.8399189 0.23636588 4290136320
1.4553704 -1.7386676 0.23439169 4289614080
1.5511323 -1.8528489 0.26122898 4290136320
1.5574924 -1.8603082 0.27349302 4290266880
1.5500734 -1.8513219 0.28302604 4290136320
1.5365473 -1.8350492 0.29098141 4290136320
1.4944944 -1.7847381 0.29284546 4289875200
1.5640707 -1.8676324 0.31637698 4290266880
1.5652413 -1.8688983 0.32618079 4290266880
1.5528077 -1.8539339 0.332715 4290136320
1.5329759 -1.8301463 0.33710039 4290136320
1.4910642 -1.7800236 0.33591399 4289875200
1.4454905 -1.7255403 0.33305886 4289614080
1.4408858 -1.7199295 0.3389878 4289614080
1.4250706 -1.7009499 0.34179673 4289483520
1.3675904 -1.6322854 0.33391348 4289222400
1.3671 -1.6315898 0.33928403 4289222400
1.3786938 -1.645304 0.34729454 4289352960
1.3814358 -1.6484624 0.35272646 4289352960
1.3186828 -1.5735354 0.34086427 4288961280
1.3183438 -1.5730263 0.34451064 4288961280
1.3300829 -1.586916 0.35093266 4289091840
1.3272859 -1.5834771 0.35313767 4289091840
1.3295993 -1.5861303 0.35628331 4289091840
1.335755 -1.5933633 0.36005205 4289091840
1.329288 -1.5855523 0.36000195 4289091840
1.3266666 -1.5823257 0.3605569 4289091840
1.3266239 -1.5821729 0.36138421 4289091840
1.3266274 -1.5820755 0.36179814 4289091840
1.3323764 -1.5888243 0.36334983 4289091840
1.3293062 -1.5850657 0.36207336 4289091840
1.3205813 -1.5745716 0.35883939 4288961280
1.3271028 -1.5822412 0.35931787 4289091840
1.3146641 -1.5673258 0.35425851 4288961280
1.3829739 -1.6485913 0.37041003 4289352960
1.3744334 -1.6383175 0.36548382 4289222400
1.3684677 -1.6311119 0.36084196 4289222400
1.3631743 -1.6247083 0.35598084 4289222400
1.4237057 -1.6966897 0.36770466 4289483520
1.4394498 -1.7153337 0.36722842 4289614080
1.4495291 -1.7272311 0.36479661 4289614080
1.5018129 -1.7893755 0.37231413 4290005760
1.5250031 -1.8168768 0.37190887 4290005760
1.556891 -1.8547293 0.37295941 4290266880
1.5617558 -1.8604105 0.36695504 4290266880
1.5592929 -1.8573694 0.35879755 4290266880
1.5480323 -1.8438579 0.34827518 4290136320
1.5428669 -1.8370259 0.28694639 4290136320
1.5568144 -1.853515 0.27882794 4290136320
1.5541351 -1.8502225 0.26734552 4290136320
1.5364162 -1.8290402 0.25312757 4290005760
1.5346602 -1.8268484 0.24139272 4290005760
1.5417776 -1.8352119 0.2307397 4290136320
1.4836497 -1.765973 0.21048158 4289744640
1.3438108 -1.5995619 0.17998496 4289091840
1.4676015 -1.7466911 0.18462682 4289744640
1.526083 -1.8161395 0.17938067 4290005760
1.5299385 -1.8206236 0.16701438 4290005760
1.5131379 -1.8005465 0.15232368 4289875200
1.456978 -1.7336738 0.13413733 4289614080
1.3186436 -1.5691098 0.10994388 4288830720
1.2801038 -1.5232054 0.095467441 4288700160
1.2673013 -1.5079025 0.083251201 4288569600
1.2732104 -1.5148443 0.07222838 4288700160
1.2713846 -1.5125912 0.060652059 4288700160
1.2657019 -1.5057541 0.048893139 4288569600
1.25901 -1.4977186 0.03715327 4288569600
1.2601714 -1.4990172 0.025652006 4288569600
1.257918 -1.4962574 0.014062395 4288569600
1.2165862 -1.44706 0.0024258415 4288308480
1.2485766 -1.4849944 -0.0089957109 4288569600
1.2520308 -1.4890178 -0.020524863 4288569600
1.2545117 -1.4918842 -0.032072045 4288569600
1.2609115 -1.4994063 -0.043768354 4288569600
1.2607327 -1.4991119 -0.055246964 4288569600
1.2684674 -1.5082186 -0.067083791 4288569600
1.2745347 -1.5153433 -0.078886218 4288700160
1.2712051 -1.5113053 -0.090047568 4288700160
1.2650367 -1.5038961 -0.10082754 4288569600
1.2679058 -1.5072211 -0.11219136 4288569600
1.2732182 -1.5134473 -0.12372268 4288700160
1.2662592 -1.5050998 -0.1339146 4288569600
1.2692765 -1.5085996 -0.14498352 4288700160
1.2812293 -1.5227093 -0.1570418 4288700160
1.2890209 -1.5318762 -0.16858335 4288700160
1.2844247 -1.5263339 -0.17834835 4288700160
1.2484205 -1.4835037 -0.18323615 4288569600
1.276497 -1.5167521 -0.19726068 4288700160
1.2788398 -1.519448 -0.2073281 4288700160
1.2839104 -1.5253814 -0.21766484 4288700160
1.2712901 -1.5103155 -0.22470939 4288700160
1.2367171 -1.4691955 -0.22729231 4288439040
1.2888008 -1.5309263 -0.245656 4288830720
1.293694 -1.5366459 -0.25514168 4288830720
1.289409 -1.5314729 -0.26253784 4288830720
1.283114 -1.5239149 -0.26916456 4288700160
1.2730498 -1.5118852 -0.27460009 4288700160
1.2726984 -1.5113806 -0.28175861 4288700160
1.2689223 -1.5068123 -0.28781825 4288700160
1.2747269 -1.5136105 -0.29573315 4288700160
1.2784355 -1.5179207 -0.30287409 4288700160
1.2787324 -1.5181835 -0.30888164 4288700160
1.2810395 -1.5208297 -0.31503299 4288700160
1.2735844 -1.5118968 -0.31840384 4288700160
1.2762151 -1.5149262 -0.3239089 4288700160
1.2734424 -1.5115467 -0.32767102 4288700160
1.2708219 -1.5083477 -0.33107659 4288700160
1.2578368 -1.4928585 -0.33135515 4288700160
1.2546667 -1.4890084 -0.33378857 4288569600
1.2463208 -1.4790218 -0.33443198 4288569600
1.2379364 -1.4689902 -0.33464137 4288569600
1.2377537 -1.4686825 -0.33666107 4288569600
1.2239791 -1.4522623 -0.33457598 4288439040
1.2302322 -1.4595832 -0.33756071 4288569600
1.2238289 -1.4519016 -0.33668399 4288439040
1.2085803 -1.433737 -0.33297282 4288439040
1.24066 -1.4716638 -0.34190118 4288569600
1.2457205 -1.4775666 -0.34299153 4288569600
1.2394933 -1.4700924 -0.34057897 4288569600
1.2601265 -1.4944454 -0.34513125 4288700160
1.2596949 -1.493837 -0.3434988 4288700160
1.2672611 -1.5027034 -0.3436358 4288700160
1.2675143 -1.5029048 -0.34138018 4288700160
1.2755672 -1.5123448 -0.34081045 4288700160
1.2808301 -1.5184786 -0.33907107 4288830720
1.2791431 -1.5163795 -0.33509269 4288700160
1.2793159 -1.5164828 -0.33121875 4288700160
1.276817 -1.5134215 -0.32627982 4288700160
1.2735696 -1.5094739 -0.320795 4288700160
1.274128 -1.5100329 -0.31590998 4288700160
1.2631967 -1.4969873 -0.30786031 4288700160
1.256191 -1.4885907 -0.30049315 4288569600
1.2568184 -1.4892315 -0.29463744 4288569600
1.2702396 -1.5050167 -0.29137427 4288700160
1.2960492 -1.5354633 -0.29041722 4288830720
1.2814138 -1.5180342 -0.28001836 4288700160
1.2628928 -1.4960084 -0.26864436 4288700160
1.2557955 -1.4875045 -0.2595481 4288569600
1.2754495 -1.5106583 -0.25560796 4288700160
1.2778789 -1.5134267 -0.24779351 4288700160
1.2751695 -1.5101141 -0.23871014 4288700160
1.2630577 -1.4956777 -0.22770491 4288569600
1.2617079 -1.4939748 -0.21848132 4288569600
1.2747358 -1.5092798 -0.21142101 4288700160
1.2846464 -1.520895 -0.20344299 4288700160
1.262791 -1.4949363 -0.19030634 4288569600
1.2538811 -1.4842916 -0.17915022 4288569600
1.2726965 -1.5064362 -0.17168055 4288700160
1.2683619 -1.501202 -0.16078793 4288569600
1.2571237 -1.4878052 -0.14897503 4288569600
1.2562449 -1.4866589 -0.13833041 4288569600
1.2706332 -1.5035621 -0.12910475 4288569600
1.2705301 -1.5033314 -0.1181475 4288569600
1.2726042 -1.5056741 -0.10725059 4288569600
1.2566379 -1.4866924 -0.094841592 4288569600
1.2612801 -1.492071 -0.083989255 4288569600
1.2647319 -1.4960419 -0.07289806 4288569600
1.2208922 -1.4441254 -0.059365112 4288308480
1.2294434 -1.4541248 -0.04864163 4288439040
1.2642559 -1.4951526 -0.038517311 4288569600
1.2671833 -1.4985023 -0.027036486 4288569600
1.258756 -1.4884368 -0.015336615 4288569600
1.2739631 -1.5062926 -0.0038530703 4288569600
1.2783775 -1.5113971 0.0078448988 4288700160
1.2802187 -1.5134616 0.019572666 4288700160
1.278807 -1.5116838 0.031230513 4288700160
1.3078722 -1.5458989 0.043841023 4288830720
1.3869784 -1.6392019 0.059048694 4289222400
1.462417 -1.7281607 0.075428769 4289614080
1.5350868 -1.8138374 0.092910342 4290005760
1.5512507 -1.8327893 0.10767156 4290136320
1.5289516 -1.806331 0.11959691 4290005760
1.4082559 -1.6637236 0.12246437 4289352960
1.3577962 -1.6040417 0.12979944 4289091840
1.5433794 -1.8229676 0.16063751 4290005760
1.5513184 -1.8322057 0.17449382 4290136320
1.5272115 -1.8036247 0.18442549 4290005760
1.5688487 -1.8526282 0.20221251 4290136320
1.5810392 -1.8668795 0.21642098 4290266880
1.5765848 -1.8614901 0.22817507 4290266880
1.5662191 -1.8491279 0.23870449 4290136320
1.4783417 -1.7453275 0.23643494 4289744640
1.5709039 -1.8543909 0.26272076 4290266880
1.5747325 -1.8587755 0.27460074 4290266880
1.57047 -1.8536165 0.28475916 4290266880
1.5398506 -1.8173745 0.28958806 4290005760
1.5048693 -1.7759939 0.29283497 4289875200
1.5704293 -1.8531778 0.31546393 4290266880
1.5710324 -1.8537595 0.32512167 4290266880
1.5574925 -1.8376665 0.33140987 4290136320
1.5394703 -1.8162918 0.33618605 4290136320
1.5078138 -1.7788475 0.33733356 4289875200
1.4676805 -1.7314161 0.33582634 4289744640
1.4540823 -1.7152692 0.33972374 4289614080
1.3865547 -1.6355623 0.33027682 4289222400
1.3828318 -1.6310635 0.33529636 4289222400
1.3791405 -1.6266029 0.33990327 4289222400
1.3882582 -1.6372373 0.34728488 4289352960
1.3282089 -1.566371 0.33681706 4288961280
1.3374056 -1.5771019 0.34330878 4289091840
1.337061 -1.5765911 0.34698141 4289091840
1.3367556 -1.5761269 0.35025573 4289091840
1.3390427 -1.5787171 0.35380143 4289091840
1.3451978 -1.5858638 0.35796839 4289091840
1.3418287 -1.581792 0.35919055 4289091840
1.3359543 -1.5747706 0.3593078 4289091840
1.3416035 -1.5813218 0.36209381 4289091840
1.3415598 -1.5811687 0.36292467 4289091840
1.3415626 -1.5810708 0.36334038 4289091840
1.3448005 -1.5847826 0.36420244 4289091840
1.3385203 -1.577288 0.36206403 4289091840
1.3418518 -1.5811108 0.3620944 4289091840
1.3331113 -1.5707219 0.35845253 4288961280
1.3390861 -1.5776572 0.35833946 4289091840
1.3957477 -1.6442554 0.37124753 4289352960
1.3871481 -1.634032 0.36631551 4289352960
1.3843336 -1.630619 0.36250132 4289222400
1.3815594 -1.6272545 0.35828599 4289222400
1.3852117 -1.6314535 0.35531181 4289222400
1.404242 -1.6537485 0.35579044 4289352960
1.4685196 -1.7292819 0.36701974 4289744640
1.4844714 -1.7479472 0.365484 4289744640
1.5282255 -1.7993206 0.37012351 4290005760
1.5476854 -1.8221074 0.36820084 4290136320
1.5753845 -1.8545847 0.36759979 4290266880
1.5752074 -1.8542672 0.3599543 4290266880
1.5705426 -1.8486717 0.35089484 4290266880
1.5664114 -1.8431267 0.2893078 4290136320
1.5804617 -1.8595415 0.28110272 4290266880
1.5681103 -1.8449153 0.26788375 4290136320
1.5534918 -1.8276255 0.25416914 4290136320
1.5543051 -1.8284788 0.24278921 4290136320
1.5492209 -1.8224001 0.23025051 4290136320
1.4629503 -1.7208948 0.20611733 4289614080
1.3293211 -1.5637383 0.17681864 4288961280
1.4932576 -1.7563229 0.1865491 4289744640
1.5495647 -1.8223985 0.18087542 4290005760
1.5469869 -1.8192686 0.16770296 4290005760
1.5211178 -1.7887697 0.15206504 4289875200
1.4360012 -1.6886574 0.13129517 4289483520
1.3328867 -1.5674095 0.1103574 4288961280
1.2898723 -1.5167863 0.095525898 4288700160
1.2734772 -1.4974418 0.083073981 4288569600
1.2894683 -1.5161456 0.072637543 4288700160
1.2840202 -1.5096629 0.060824338 4288700160
1.2807713 -1.5057642 0.049125236 4288700160
1.263894 -1.4858584 0.037033197 4288569600
1.2700948 -1.4930604 0.025667399 4288569600
1.2489382 -1.4681318 0.013860531 4288439040
1.2479951 -1.4669443 0.0024588418 4288439040
1.2568473 -1.4772596 -0.0090017803 4288569600
1.2639294 -1.4854953 -0.020586867 4288569600
1.26902 -1.4913917 -0.032229751 4288569600
1.2722218 -1.4950696 -0.043866877 4288569600
1.271549 -1.4941983 -0.055347443 4288569600
1.2804763 -1.5045973 -0.067263179 4288700160
1.2833446 -1.5078824 -0.078895114 4288700160
1.2861922 -1.5111425 -0.090493165 4288700160
1.2770184 -1.5002916 -0.10109293 4288569600
1.2831434 -1.5073982 -0.1127696 4288700160
1.2860959 -1.5107807 -0.12412539 4288700160
1.2782451 -1.5014837 -0.13426338 4288700160
1.28798 -1.512825 -0.14611943 4288700160
1.2965482 -1.5227962 -0.15783797 4288700160
1.3026782 -1.5299047 -0.16920948 4288830720
1.2932988 -1.5188143 -0.17835732 4288700160
1.2628578 -1.4830137 -0.18409203 4288569600
1.2943525 -1.519881 -0.19865635 4288700160
1.294126 -1.5195301 -0.20837569 4288700160
1.2927791 -1.5178646 -0.21767379 4288700160
1.2832942 -1.5066528 -0.22528389 4288700160
1.2452593 -1.4619545 -0.22730094 4288439040
1.3002777 -1.5264018 -0.24615245 4288830720
1.3116393 -1.5396398 -0.25691506 4288830720
1.3041033 -1.5307137 -0.2637172 4288830720
1.3016195 -1.5277131 -0.27118215 4288830720
1.2882673 -1.5119678 -0.27598521 4288700160
1.28791 -1.5114611 -0.28317928 4288700160
1.2873149 -1.5106754 -0.28999576 4288700160
1.2899456 -1.5136714 -0.29722014 4288700160
1.2968841 -1.5217167 -0.30514607 4288830720
1.2939723 -1.5182135 -0.31042817 4288830720
1.2866769 -1.5095718 -0.31425953 4288700160
1.2945497 -1.5187099 -0.32143402 4288830720
1.2906212 -1.5140146 -0.32532808 4288830720
1.2854327 -1.5078425 -0.32849765 4288700160
1.2763911 -1.4971554 -0.33025777 4288700160
1.2729166 -1.4929928 -0.33303732 4288700160
1.2633243 -1.4816616 -0.33379734 4288569600
1.251722 -1.4679762 -0.33358878 4288569600
1.2496754 -1.4654878 -0.33550799 4288569600
1.2462932 -1.4614345 -0.33666968 4288569600
1.2324232 -1.4450948 -0.3345845 4288439040
1.235522 -1.4486345 -0.33669865 4288439040
1.2418606 -1.455968 -0.33931103 4288569600
1.2322602 -1.4446311 -0.33717695 4288439040
1.2492168 -1.4643989 -0.34190983 4288569600
1.2575085 -1.4740158 -0.34387386 4288569600
1.2625668 -1.4798447 -0.34454918 4288569600
1.2745713 -1.4938062 -0.34670469 4288700160
1.2715788 -1.4902054 -0.34437317 4288700160
1.2817562 -1.5020243 -0.34519434 4288700160
1.2925245 -1.5145328 -0.34573895 4288830720
1.2901211 -1.5116196 -0.34234709 4288830720
1.2928604 -1.5147263 -0.33992118 4288830720
1.2937241 -1.5156367 -0.33660048 4288830720
1.2913368 -1.5127414 -0.33205092 4288830720
1.2913851 -1.5126966 -0.32775196 4288830720
1.2945294 -1.5162746 -0.32385004 4288830720
1.2861152 -1.5063258 -0.31670827 4288700160
1.2840948 -1.5038595 -0.31081918 4288700160
1.2738355 -1.4917535 -0.3026365 4288700160
1.2761701 -1.4943827 -0.29713458 4288700160
1.2918453 -1.5126182 -0.29431036 4288700160
1.3081921 -1.5316364 -0.29114151 4288830720
1.2934572 -1.5142946 -0.28072521 4288700160
1.2795762 -1.4979539 -0.27033946 4288700160
1.2726241 -1.4897187 -0.26123527 4288700160
1.2798765 -1.4980961 -0.2547501 4288700160
1.2866782 -1.5059448 -0.24780239 4288700160
1.2839494 -1.5026482 -0.238719 4288700160
1.2775643 -1.4950765 -0.22875376 4288700160
1.2847366 -1.5033563 -0.22095613 4288700160
1.2927892 -1.5126636 -0.21295792 4288700160
1.293489 -1.5133741 -0.2034519 4288700160
1.2779529 -1.4951062 -0.19128343 4288700160
1.2683933 -1.483826 -0.17999363 4288569600
1.2749782 -1.4914157 -0.17082164 4288569600
1.2770898 -1.4937766 -0.16079673 4288569600
1.275498 -1.491809 -0.1501285 4288569600
1.2739682 -1.4899142 -0.13933246 4288569600
1.282619 -1.4999142 -0.1294411 4288700160
1.2890067 -1.5072687 -0.11905606 4288700160
1.2878513 -1.50581 -0.10780334 4288700160
1.2709316 -1.4859363 -0.09527427 4288569600
1.2779083 -1.4939779 -0.084524713 4288569600
1.2792789 -1.4954702 -0.073242255 4288569600
1.2701342 -1.4846817 -0.061350714 4288569600
1.2753747 -1.4906936 -0.050127368 4288569600
1.2762001 -1.4915491 -0.03862489 4288569600
1.2825954 -1.498908 -0.027188193 4288569600
1.2709372 -1.4851875 -0.015388568 4288569600
1.284903 -1.501384 -0.0038688099 4288700160
1.2923344 -1.50995 0.0078666601 4288700160
1.295523 -1.5135622 0.019661387 4288700160
1.2901975 -1.5072362 0.031284261 4288700160
1.3234971 -1.5459912 0.044051617 4288830720
1.4033328 -1.6390499 0.059326313 4289222400
1.4848199 -1.7340221 0.076049171 4289614080
1.5456309 -1.8048548 0.09289971 4290005760
1.5615115 -1.8232529 0.10763376 4290136320
1.5550511 -1.8155837 0.1207948 4290005760
1.4835563 -1.7320458 0.12810688 4289614080
1.4056315 -1.6410195 0.13343629 4289222400
1.5559903 -1.8162861 0.16083452 4290005760
1.5596926 -1.8204734 0.17422932 4290136320
1.5095457 -1.7618576 0.18104595 4289875200
1.5731409 -1.8358954 0.20137416 4290136320
1.5880662 -1.8531686 0.21589102 4290266880
1.5819016 -1.8458481 0.22737451 4290266880
1.5662971 -1.8275226 0.23708141 4290136320
1.5098586 -1.7615935 0.23981279 4289875200
1.5800533 -1.8433 0.26243964 4290266880
1.581329 -1.8446567 0.27386227 4290266880
1.5604054 -1.8201377 0.28100187 4290136320
1.5223746 -1.7756838 0.28434908 4289875200
1.4785607 -1.7244965 0.28575709 4289744640
1.5821586 -1.8451056 0.3156437 4290266880
1.5808467 -1.8434484 0.32491356 4290266880
1.5639404 -1.8236212 0.33050573 4290136320
1.5220531 -1.7746911 0.33011776 4289875200
1.5426496 -1.7985647 0.34275711 4290005760
1.4990082 -1.7476006 0.34064034 4289875200
1.4120779 -1.6462172 0.32767344 4289352960
1.4147328 -1.6491976 0.33467662 4289352960
1.404541 -1.637215 0.33822641 4289352960
1.4072528 -1.6402627 0.34445274 4289352960
1.3473786 -1.5704247 0.33477533 4289091840
1.3495299 -1.5728246 0.33987904 4289091840
1.3555716 -1.5797548 0.34558964 4289091840
1.3642179 -1.5897171 0.35160139 4289091840
1.3581238 -1.5825169 0.35341746 4289091840
1.3610656 -1.5858378 0.35715738 4289091840
1.3634071 -1.5884597 0.36033124 4289091840
1.3632237 -1.5881426 0.36241928 4289091840
1.3605174 -1.5848897 0.36340752 4289091840
1.3604256 -1.5846807 0.36466154 4289091840
1.3571708 -1.580791 0.36463735 4289091840
1.3539631 -1.5769572 0.36419305 4289091840
1.3604327 -1.5843853 0.36591709 4289091840
1.3573197 -1.5806628 0.36463767 4289091840
1.3664535 -1.5911907 0.36620829 4289091840
1.3634346 -1.5875788 0.36409315 4289091840
1.3546801 -1.5772952 0.36003444 4289091840
1.3517493 -1.573788 0.35711318 4289091840
1.3366514 -1.5561289 0.35059667 4288961280
1.4060251 -1.6367253 0.36566272 4289352960
1.4096648 -1.6408587 0.36307105 4289352960
1.4165636 -1.6487824 0.36086398 4289352960
1.4196459 -1.6522672 0.35723552 4289352960
1.4388592 -1.6745105 0.35716793 4289483520
1.4516836 -1.6893225 0.35498849 4289614080
1.5107398 -1.7578882 0.36340159 4289875200
1.5516282 -1.8053234 0.36662164 4290136320
1.5801097 -1.8383291 0.36618781 4290266880
1.5766851 -1.83424 0.35783586 4290266880
1.574909 -1.8320681 0.34947065 4290136320
1.5683869 -1.8238084 0.28769681 4290136320
1.5689207 -1.8243252 0.27715042 4290136320
1.5700868 -1.825577 0.26639134 4290136320
1.5496986 -1.8017864 0.25181994 4290005760
1.5414224 -1.7920703 0.23913762 4290005760
1.553396 -1.8058796 0.2292942 4290005760
1.4994473 -1.7431103 0.20980689 4289744640
1.4375612 -1.6711284 0.1898775 4289483520
1.5346833 -1.7838433 0.19040371 4289875200
1.5530672 -1.8050963 0.18004443 4290005760
1.5504683 -1.8019781 0.16693021 4290005760
1.5380276 -1.7874314 0.15269956 4289875200
1.4738278 -1.7127812 0.13382208 4289614080
1.3527386 -1.5720804 0.11122871 4288961280
1.3084109 -1.5205244 0.09622962 4288700160
1.2847906 -1.4930167 0.083233565 4288569600
1.3008912 -1.5116276 0.07277403 4288700160
1.2987373 -1.5090446 0.06109371 4288700160
1.2957253 -1.5054657 0.049351331 4288700160
1.2855175 -1.4935343 0.037399784 4288569600
1.2869911 -1.4951636 0.025822025 4288569600
1.2815639 -1.4887828 0.014113097 4288569600
1.2939458 -1.5030723 0.0025170874 4288700160
1.2710961 -1.4764724 -0.0090515874 4288569600
1.2805558 -1.4873698 -0.020725995 4288569600
1.2900919 -1.4983546 -0.032552987 4288700160
1.2809136 -1.4876227 -0.04387562 4288569600
1.2867616 -1.4943272 -0.055639051 4288569600
1.2957485 -1.5046723 -0.067613073 4288700160
1.2953728 -1.5041544 -0.079103395 4288700160
1.304388 -1.5145307 -0.091160372 4288700160
1.2949156 -1.5034592 -0.10182373 4288700160
1.297168 -1.5059896 -0.11323795 4288700160
1.3064134 -1.5166306 -0.12524045 4288700160
1.3028889 -1.5124592 -0.13593307 4288700160
1.3026364 -1.5120831 -0.1467889 4288700160
1.3145156 -1.5257759 -0.15894906 4288830720
1.3191535 -1.5310699 -0.17019653 4288830720
1.3112355 -1.5218031 -0.17961359 4288830720
1.2867639 -1.4933426 -0.18631348 4288700160
1.3064384 -1.5160712 -0.19916055 4288700160
1.3146989 -1.5255634 -0.21026155 4288830720
1.3139404 -1.5245984 -0.21974537 4288830720
1.3052026 -1.5143828 -0.22758479 4288700160
1.2602458 -1.4621831 -0.22848515 4288569600
1.3247125 -1.5368259 -0.2490862 4288830720
1.3273014 -1.5397389 -0.25822917 4288830720
1.3194799 -1.5305856 -0.26502663 4288830720
1.3150357 -1.5253471 -0.27212894 4288830720
1.3002933 -1.5081747 -0.2766822 4288700160
1.2999315 -1.5076681 -0.28389406 4288700160
1.3053786 -1.5138921 -0.29208013 4288830720
1.3077929 -1.516601 -0.29929838 4288830720
1.308961 -1.5178654 -0.30590937 4288830720
1.3053819 -1.5136293 -0.31105211 4288830720
1.3135805 -1.5230376 -0.31866345 4288830720
1.300799 -1.508141 -0.32080683 4288830720
1.3034614 -1.5111347 -0.32634726 4288830720
1.3032253 -1.5107704 -0.33079621 4288830720
1.291541 -1.4971466 -0.33192194 4288700160
1.2906079 -1.4959751 -0.33538634 4288700160
1.2816015 -1.4854541 -0.33634034 4288700160
1.2666974 -1.4681046 -0.33530113 4288569600
1.2754825 -1.4781866 -0.34012344 4288700160
1.2605847 -1.4608458 -0.33823201 4288569600
1.266878 -1.4680412 -0.34161377 4288569600
1.2699955 -1.4715585 -0.34375402 4288569600
1.2503259 -1.4486963 -0.33931956 4288569600
1.2634906 -1.4638433 -0.34338644 4288569600
1.2603058 -1.4600642 -0.3426179 4288569600
1.2692972 -1.4703778 -0.34475616 4288569600
1.2808276 -1.4836279 -0.34717375 4288700160
1.2864759 -1.4900688 -0.34758273 4288700160
1.2937015 -1.4983337 -0.34799999 4288700160
1.2988063 -1.504143 -0.34742659 4288830720
1.3071284 -1.5136737 -0.34728745 4288830720
1.3022733 -1.5079571 -0.3432419 4288830720
1.3048903 -1.5108852 -0.34077126 4288830720
1.3145939 -1.5220102 -0.33972362 4288830720
1.3050665 -1.5108883 -0.33331934 4288830720
