# .PCD v0.7 - Point Cloud Data file format
VERSION 0.7
FIELDS x y z rgba
SIZE 4 4 4 4
TYPE F F F U
COUNT 1 1 1 1
WIDTH 1129
HEIGHT 1
VIEWPOINT 0 0 0 1 0 0 0
POINTS 1129
DATA ascii
3.1349118 1.7362721 0.59552991 4294183680
3.1198363 1.7280658 0.58547801 4294183680
3.1208732 1.7287774 0.57779628 4294183680
3.1216173 1.729328 0.56938291 4294183680
3.1099036 1.7229826 0.55806977 4294053120
3.1154742 1.7262067 0.54922515 4294183680
3.1519158 1.7465249 0.54504216 4294314240
3.1326618 1.7360064 0.5305528 4294183680
3.1345131 1.7371747 0.51908487 4294183680
3.0919185 1.7145147 0.42355895 4294053120
3.1271563 1.7341872 0.41258892 4294183680
3.1336191 1.7379173 0.39714876 4294183680
3.1258368 1.7337533 0.37946555 4294053120
3.0904386 1.7142824 0.35824209 4293922560
3.1035025 1.7216723 0.34234914 4294053120
3.1139271 1.7276007 0.32564914 4294053120
3.1062243 1.7234805 0.30667692 4294053120
3.0749278 1.7062777 0.28526732 4293922560
3.1034968 1.7222691 0.26910034 4293922560
3.1102092 1.7261425 0.25052676 4294053120
3.1163032 1.7296741 0.23154554 4294053120
3.0793359 1.7093219 0.2093078 4293922560
3.1112118 1.7271546 0.19153988 4294053120
3.1184077 1.7312992 0.1717914 4294053120
3.1041274 1.7235295 0.15071739 4293922560
2.3283956 1.2932595 0.097775131 4290919680
2.0171142 1.1206411 0.07134819 4289744640
2.1455805 1.1920342 0.061547119 4290266880
2.9154966 1.6194497 0.06398239 4293269760
3.0877957 1.7152296 0.046955001 4293922560
3.089746 1.7164648 0.026121432 4293922560
3.1057065 1.7254781 0.0052514053 4293922560
3.0685084 1.7049789 -0.015571689 4293792000
3.0955081 1.7201223 -0.036643479 4293922560
3.0995698 1.7225308 -0.057617478 4293922560
3.1115639 1.7293448 -0.078790069 4294053120
3.0833819 1.713846 -0.098754704 4293922560
3.1093702 1.7284335 -0.1203395 4293922560
3.1200359 1.7345114 -0.14144924 4294053120
3.1119802 1.7301897 -0.16157876 4294053120
3.0849733 1.7153376 -0.18032381 4293922560
3.1005526 1.7241457 -0.20129307 4293922560
3.1059022 1.7272702 -0.22151864 4294053120
3.0562732 1.699841 -0.23730528 4293792000
3.1081376 1.7288163 -0.26073065 4294053120
3.1337538 1.7432061 -0.28215402 4294053120
3.1393867 1.7464898 -0.30166474 4294183680
3.12761 1.7400947 -0.31913957 4294053120
2.9776363 1.656862 -0.32121876 4293530880
3.1351972 1.7446152 -0.35615334 4294183680
3.1383724 1.7465315 -0.37407759 4294183680
3.128597 1.7412453 -0.39001191 4294183680
3.1003401 1.7256787 -0.40300888 4294053120
3.002867 1.6716086 -0.40590751 4293661440
2.8044307 1.5613654 -0.39320517 4292878080
2.7196858 1.5143522 -0.39459372 4292616960
2.6687953 1.4861659 -0.39980045 4292355840
2.6756902 1.4901271 -0.41300723 4292355840
2.6274743 1.4634212 -0.41706479 4292225280
2.4782183 1.3804806 -0.40377882 4291703040
2.4732211 1.3778137 -0.41289213 4291572480
2.4859884 1.3850334 -0.42453179 4291703040
2.50249 1.3943325 -0.43643555 4291703040
2.483109 1.3836567 -0.44157851 4291703040
2.4923575 1.3889179 -0.45127112 4291703040
2.4809256 1.3826647 -0.45669854 4291703040
2.4640377 1.3733717 -0.46051574 4291572480
2.4405079 1.360378 -0.46245378 4291572480
2.4264452 1.3526541 -0.46555802 4291441920
2.3848431 1.3295896 -0.46271867 4291311360
2.3387566 1.3040233 -0.45829567 4291180800
2.3467422 1.3085728 -0.46385992 4291180800
2.3832004 1.3289843 -0.47458014 4291311360
2.2903354 1.277348 -0.45894 4290919680
2.2985547 1.2820249 -0.46290988 4291050240
2.2939472 1.2795544 -0.46376315 4290919680
2.2980225 1.2819214 -0.46582991 4291050240
2.2892771 1.2771431 -0.46475515 4290919680
2.369513 1.3219564 -0.48120183 4291311360
2.3523314 1.3124769 -0.47731677 4291180800
2.3446937 1.3083152 -0.47481754 4291180800
2.3199341 1.2946073 -0.46831751 4291050240
2.4191964 1.3500395 -0.4862313 4291441920
2.4285636 1.3553585 -0.48541796 4291441920
2.4591844 1.3725282 -0.48823592 4291572480
2.4816508 1.3851526 -0.48879191 4291703040
2.4821961 1.3855534 -0.48442775 4291703040
2.4914927 1.3908343 -0.4811902 4291703040
2.4982712 1.3947107 -0.47687584 4291703040
2.4805577 1.384926 -0.46736518 4291703040
2.4841318 1.3870137 -0.46136019 4291703040
2.4665053 1.3772742 -0.45092937 4291572480
2.4346528 1.3595963 -0.43753099 4291441920
2.5260506 1.4106798 -0.44557336 4291833600
2.5896661 1.4462682 -0.44768038 4292094720
2.6325934 1.4703164 -0.44531837 4292225280
2.740238 1.5304818 -0.45281658 4292616960
2.825036 1.5779045 -0.45525938 4293008640
2.9717731 1.6599013 -0.46619421 4293530880
3.0901129 1.7260581 -0.47099543 4294053120
3.1101632 1.7373595 -0.45966786 4294053120
3.1182003 1.7419558 -0.44591901 4294183680
3.117223 1.7415198 -0.43034968 4294053120
3.0833709 1.7227296 -0.40994045 4293922560
3.0911009 1.7271526 -0.39473692 4294053120
3.1123092 1.7391013 -0.38066313 4294053120
3.1104486 1.7381696 -0.36324391 4294053120
3.0654278 1.7131354 -0.34064946 4293922560
3.0668323 1.7140244 -0.32308766 4293922560
3.0820358 1.7226195 -0.30652907 4293922560
3.0831516 1.7233471 -0.28813905 4293922560
3.0616505 1.7114414 -0.2674464 4293792000
3.0801711 1.7218899 -0.24997757 4293922560
3.08498 1.7246792 -0.2309808 4293922560
3.1049263 1.7359256 -0.21271218 4294053120
3.103354 1.7351505 -0.1926237 4294053120
3.0735245 1.7185872 -0.17077841 4293922560
3.0929267 1.7295302 -0.15155517 4293922560
3.0942459 1.7303697 -0.13114819 4293922560
3.0615919 1.7122241 -0.1093698 4293792000
3.0902703 1.7283522 -0.089695804 4293922560
3.1072164 1.7379251 -0.069281109 4294053120
3.1011984 1.7346638 -0.048208289 4293922560
2.4671021 1.3803338 -0.021616474 4291572480
2.0884516 1.1687535 -0.0041152448 4290005760
2.1260111 1.1898187 0.010218203 4290136320
2.7721572 1.5511198 0.03203024 4292747520
3.1126525 1.741578 0.056970071 4294053120
3.1226499 1.7472702 0.078187749 4294053120
3.1334672 1.7534217 0.099478044 4294053120
3.0936232 1.731245 0.11886011 4293922560
3.10062 1.7352601 0.13968672 4293922560
3.1175287 1.744819 0.16096206 4294053120
3.1220489 1.7474507 0.1815618 4294053120
3.0568953 1.711113 0.19752459 4293792000
3.1143274 1.7433398 0.22112426 4294053120
3.1233778 1.7485068 0.24147312 4294053120
3.1200058 1.7467254 0.26063204 4294053120
3.0644324 1.7157398 0.27478573 4293922560
3.1226103 1.7483933 0.29883242 4294053120
3.1302369 1.7527665 0.31811121 4294183680
3.1329255 1.7543776 0.33659568 4294183680
3.0920336 1.7316023 0.34981084 4294053120
2.9703612 1.6636178 0.35259649 4293530880
2.9999328 1.6802706 0.37240481 4293661440
2.8553383 1.5994462 0.36959293 4293139200
2.8185036 1.5789285 0.37934372 4293008640
2.9274049 1.6399864 0.40861455 4293400320
2.9002755 1.6249027 0.41886801 4293269760
2.526525 1.4157676 0.37675926 4291833600
2.5079393 1.4054523 0.38529387 4291703040
2.5140555 1.4089668 0.39712289 4291833600
2.5236976 1.4144568 0.40912113 4291833600
2.5677795 1.4392335 0.42644244 4291964160
2.6051748 1.4602695 0.44248068 4292225280
2.3930721 1.3415772 0.41505995 4291311360
2.3932102 1.3417434 0.42317203 4291311360
2.4122841 1.3525167 0.43420035 4291441920
2.3981352 1.3446816 0.43877071 4291311360
2.4114563 1.352235 0.44784677 4291441920
2.4321687 1.3639309 0.45786217 4291572480
2.4437275 1.3705006 0.46570191 4291572480
2.4636106 1.381736 0.47465104 4291703040
2.4784801 1.3901643 0.48214957 4291703040
2.4778521 1.3899097 0.48609865 4291703040
2.4738767 1.3877798 0.4888151 4291703040
2.4854419 1.3943604 0.49403331 4291703040
2.4850545 1.394243 0.49631098 4291703040
2.4804552 1.3917652 0.49716115 4291703040
2.4759421 1.3893362 0.49743831 4291703040
2.4680793 1.3850296 0.49645367 4291703040
2.4474161 1.3735461 0.49231055 4291572480
2.4465864 1.3731827 0.49157345 4291572480
2.4389808 1.3690205 0.48890162 4291572480
2.4193418 1.3581096 0.48326221 4291441920
2.3947113 1.3443984 0.47609553 4291441920
2.3870051 1.3401786 0.47176269 4291311360
2.3658831 1.3284334 0.46426594 4291311360
2.3598995 1.3251793 0.4592315 4291180800
2.3417885 1.3151218 0.45134518 4291180800
2.3335433 1.3105985 0.44488105 4291180800
2.334686 1.3113427 0.43969947 4291180800
2.3432093 1.3162293 0.43536925 4291180800
2.3530891 1.3218787 0.43073517 4291180800
2.3736086 1.333501 0.42745802 4291311360
2.3874881 1.3413987 0.42238587 4291311360
2.4081459 1.3531033 0.41790903 4291441920
2.3987436 1.3479353 0.40770265 4291311360
2.4248548 1.3627051 0.40299082 4291441920
2.7469714 1.5443794 0.37759563 4292747520
2.9922814 1.6823188 0.3961179 4293661440
3.0818486 1.7327825 0.39188758 4293922560
3.0723398 1.7275877 0.37421405 4293922560
3.05091 1.7156938 0.35483807 4293792000
3.064785 1.7236385 0.3392055 4293922560
3.0814154 1.7331336 0.32332423 4293922560
3.0657372 1.7244712 0.3036918 4293922560
3.0703762 1.7272284 0.28579509 4293922560
3.0674112 1.7257116 0.26686341 4293922560
3.0863657 1.7365184 0.24944036 4293922560
3.097369 1.7428566 0.23091227 4294053120
3.0538917 1.7185615 0.20827875 4293792000
3.082201 1.734632 0.19039668 4293922560
3.1023526 1.7461178 0.17148723 4294053120
3.100142 1.745028 0.15103664 4294053120
2.3208239 1.3068115 0.097791836 4290919680
2.0358164 1.1465945 0.072256111 4289875200
2.1979175 1.2378943 0.063263126 4290528000
2.9772022 1.676471 0.065565355 4293530880
3.0839314 1.736676 0.047071006 4293922560
3.097553 1.744495 0.026293932 4293922560
3.1032689 1.7478662 0.0052862358 4294053120
3.0613458 1.7244242 -0.015564191 4293792000
3.0814095 1.7358705 -0.036573224 4293922560
3.0976558 1.7451698 -0.057748031 4293922560
3.1034846 1.7486056 -0.078819819 4294053120
3.0789707 1.7349573 -0.098913513 4293922560
3.1055403 1.7500716 -0.12056166 4294053120
3.110714 1.7531395 -0.14146478 4294053120
3.0974979 1.7458504 -0.16132957 4293922560
3.0941715 1.7441303 -0.18143061 4293922560
3.0969739 1.7458618 -0.2016954 4294053120
3.1112068 1.7540327 -0.22259989 4294053120
3.1014929 1.7487131 -0.2415823 4294053120
3.0945861 1.7449741 -0.26041964 4294053120
3.1244459 1.7619518 -0.28221267 4294053120
3.1217508 1.7605858 -0.30092767 4294053120
3.1229885 1.7614357 -0.31968695 4294183680
3.0503955 1.7206714 -0.33012238 4293792000
3.1157358 1.7576511 -0.35507688 4294053120
3.1199534 1.7601794 -0.37307519 4294183680
3.1178498 1.7591439 -0.38992026 4294183680
3.1008039 1.7496827 -0.40436456 4294053120
3.017905 1.7030858 -0.40925232 4293792000
2.7811234 1.5697012 -0.39119238 4292878080
2.7030404 1.5257961 -0.39344177 4292486400
2.637183 1.4887787 -0.39633808 4292225280
2.5679631 1.4498578 -0.3976582 4291964160
2.5818105 1.4577899 -0.41113901 4292094720
2.4321976 1.3735038 -0.39756024 4291441920
2.4799993 1.4005871 -0.41536012 4291703040
2.4980516 1.4108878 -0.42796919 4291703040
2.4822099 1.4020631 -0.43429768 4291703040
2.4833581 1.4028245 -0.44304994 4291703040
2.4865401 1.4047333 -0.45167327 4291703040
2.4811733 1.4018165 -0.45822093 4291703040
2.476124 1.3990779 -0.46427095 4291703040
2.4713845 1.396513 -0.46981847 4291703040
2.4437046 1.3809953 -0.47038597 4291572480
2.359889 1.3337793 -0.45935982 4291311360
2.3763528 1.3431793 -0.46716869 4291311360
2.3305016 1.3173903 -0.46214187 4291180800
2.3428226 1.3244494 -0.46805182 4291180800
2.3629341 1.3359091 -0.47501749 4291311360
2.3539617 1.3309422 -0.47560132 4291180800
2.3656514 1.3376453 -0.47980532 4291311360
2.2776587 1.2880361 -0.46319866 4290919680
2.3695555 1.3400496 -0.48260757 4291311360
2.3532023 1.3309085 -0.4794386 4291180800
2.3446488 1.3261725 -0.47729984 4291180800
2.3164599 1.3103396 -0.47062144 4291050240
2.3738277 1.3428538 -0.48074728 4291311360
2.4374213 1.3788905 -0.49148113 4291572480
2.439122 1.3799496 -0.48910785 4291572480
2.4441881 1.3829104 -0.4868319 4291572480
2.4734786 1.3995644 -0.4887614 4291703040
2.4759128 1.4010376 -0.48476759 4291703040
2.4813673 1.404218 -0.48078799 4291703040
2.4767473 1.4017016 -0.47429991 4291703040
2.4806371 1.4039962 -0.46889442 4291703040
2.4810684 1.4043347 -0.46228412 4291703040
2.467443 1.3967233 -0.45256203 4291703040
2.4840484 1.4062073 -0.44785225 4291703040
2.5057487 1.4185737 -0.4434242 4291833600
2.560544 1.4496605 -0.44407988 4291964160
2.6271865 1.4874524 -0.44584247 4292225280
2.736043 1.549129 -0.45358664 4292747520
2.8055677 1.5885614 -0.45358512 4293008640
2.960063 1.6760725 -0.4658592 4293530880
3.0732179 1.7402031 -0.46993491 4294053120
3.0961449 1.7532862 -0.45907506 4294053120
3.1040111 1.7578474 -0.44532397 4294053120
3.0949693 1.7528402 -0.42865717 4294053120
3.0753157 1.7418261 -0.41018906 4293922560
3.0833004 1.7464527 -0.39501071 4294053120
3.100035 1.7560322 -0.38038391 4294053120
3.1188498 1.7667897 -0.36539811 4294183680
3.0601597 1.7336732 -0.34115824 4293922560
3.0693603 1.7389868 -0.32439345 4293922560
3.0849845 1.7479376 -0.30780756 4293922560
3.0800443 1.7452453 -0.28877157 4293922560
3.0612874 1.7347292 -0.26827079 4293922560
3.0716212 1.7406842 -0.25008005 4293922560
3.087039 1.7495186 -0.23187201 4293922560
3.0967505 1.7551222 -0.21282648 4294053120
3.1033511 1.7589643 -0.19323409 4294053120
3.0701342 1.740254 -0.17112839 4293922560
3.089932 1.7515703 -0.15188371 4293922560
3.1022696 1.758662 -0.13189858 4294053120
3.0602639 1.7349689 -0.1096598 4293792000
3.0888491 1.7512647 -0.089927219 4293922560
3.104177 1.7600513 -0.069418691 4294053120
3.0971429 1.7561686 -0.048281405 4294053120
2.4039638 1.3634964 -0.021110844 4291311360
2.069499 1.1740477 -0.00407517 4290005760
2.0023954 1.136089 0.0096818032 4289744640
2.5938432 1.4713447 0.030100772 4292094720
3.0685303 1.7404643 0.056371827 4293922560
3.0784986 1.7462159 0.077360511 4293922560
3.0979815 1.7573613 0.09869922 4294053120
3.0747919 1.7443191 0.11854793 4293922560
3.0035331 1.7040251 0.13578707 4293661440
3.0073719 1.7063016 0.15581588 4293661440
3.0438244 1.7270691 0.17762311 4293792000
3.0216889 1.7146204 0.1959161 4293661440
2.6979656 1.531162 0.19225204 4292486400
2.598721 1.4749751 0.20164391 4292094720
2.5655553 1.4562548 0.2150971 4291964160
2.5705142 1.4591541 0.23132721 4291964160
2.366641 1.3436126 0.22733264 4291180800
2.3285663 1.3220974 0.23752774 4291050240
2.3072419 1.3100815 0.24881423 4290919680
2.2987075 1.3053197 0.26102766 4290919680
2.3490412 1.3339535 0.27985695 4291180800
2.230866 1.2669903 0.27796215 4290658560
2.2198064 1.2607934 0.2883803 4290658560
2.2321496 1.267875 0.30151522 4290658560
2.2392564 1.2719864 0.31370315 4290789120
2.2764633 1.29318 0.32996389 4290919680
2.1983695 1.2489423 0.32897422 4290528000
2.2017012 1.2509121 0.33942851 4290658560
2.1969895 1.2483175 0.3482523 4290528000
2.2127304 1.2573322 0.35996124 4290658560
2.2288501 1.2665637 0.37144914 4290658560
2.2488341 1.2779906 0.38329363 4290789120
2.171288 1.2340487 0.3778913 4290528000
2.1707799 1.2338414 0.38516414 4290528000
2.1804092 1.2393906 0.39381707 4290528000
2.1812105 1.2399281 0.40045419 4290528000
2.185919 1.2426852 0.40735826 4290528000
2.1843443 1.2418748 0.41262788 4290528000
2.1956081 1.2483567 0.41986111 4290658560
2.1872153 1.2436752 0.42285827 4290528000
2.2028823 1.2526604 0.43001875 4290658560
2.2151794 1.2597331 0.43606833 4290658560
2.218972 1.2619759 0.43996003 4290658560
2.2185514 1.2618259 0.44250587 4290658560
2.218205 1.2617188 0.44454581 4290658560
2.2055094 1.2545949 0.44358167 4290658560
2.2091756 1.2567687 0.44537541 4290658560
2.2176223 1.2616603 0.44761148 4290658560
2.2004559 1.2519959 0.44415876 4290658560
2.1885047 1.2452949 0.44123739 4290658560
2.1971822 1.25032 0.44194973 4290658560
2.1768169 1.2388359 0.43631735 4290528000
2.1762094 1.2385837 0.4341425 4290528000
2.1688337 1.2344837 0.43011808 4290528000
2.1657238 1.2328094 0.42644668 4290528000
2.1606405 1.2300133 0.42189971 4290528000
2.1555543 1.2272158 0.41687572 4290528000
2.1610417 1.2304319 0.41340441 4290528000
2.1541703 1.2266196 0.4070932 4290397440
2.1591754 1.2295632 0.40255207 4290528000
2.1430705 1.2204987 0.39364299 4290397440
2.1544552 1.2270728 0.38933015 4290397440
2.1599813 1.2303153 0.38345701 4290528000
2.1700845 1.2361633 0.3778998 4290528000
2.1708574 1.236703 0.37024644 4290528000
2.1683307 1.2353657 0.36161122 4290528000
2.1706662 1.2373561 0.29946452 4290528000
2.2004254 1.2544069 0.29237688 4290528000
2.2316222 1.2722799 0.28483552 4290658560
2.247488 1.2814242 0.27477086 4290789120
2.2539103 1.2851914 0.26312384 4290789120
2.2615814 1.2896711 0.25124866 4290789120
2.3079121 1.3161763 0.24307029 4290919680
2.3579223 1.3447828 0.23444588 4291180800
2.4275899 1.3845955 0.22679965 4291441920
2.4881144 1.419205 0.21726111 4291703040
2.593462 1.4793657 0.2103669 4292094720
2.816669 1.606711 0.21072821 4292878080
2.7519479 1.5699598 0.18835586 4292747520
2.8041615 1.5998608 0.17384043 4292878080
2.921185 1.6667155 0.16204394 4293400320
3.0421772 1.7358447 0.14872909 4293792000
2.2867212 1.3052362 0.096693225 4290919680
2.0039244 1.1440856 0.07137721 4289744640
2.1489878 1.2269155 0.062079709 4290266880
2.9630442 1.6913199 0.065491267 4293530880
3.0737634 1.7546227 0.047093321 4293922560
3.0931106 1.7658135 0.026365137 4294053120
3.100745 1.770324 0.0053214119 4294053120
3.0599353 1.7471956 -0.015586834 4293922560
3.0842741 1.7612368 -0.036706749 4293922560
3.0917804 1.7656749 -0.057807039 4294053120
3.1019304 1.7716225 -0.079019003 4294053120
3.0705466 1.7538656 -0.098947167 4293922560
3.0933652 1.7670442 -0.12046395 4294053120
3.1074293 1.7752274 -0.14176096 4294053120
3.1075923 1.7754757 -0.16236942 4294053120
3.0771008 1.7582216 -0.18100442 4293922560
3.0982001 1.7704227 -0.20242125 4294053120
3.1009381 1.7721403 -0.22257736 4294053120
3.0990527 1.7712173 -0.24216935 4294053120
3.0899222 1.7661562 -0.26086608 4294053120
3.1219218 1.7845869 -0.28289619 4294183680
3.1200964 1.7836981 -0.30174202 4294183680
3.1130469 1.7798241 -0.31970239 4294183680
3.06234 1.7510056 -0.33249107 4293922560
3.1022503 1.77396 -0.35468891 4294053120
3.1096489 1.778339 -0.3730526 4294183680
3.104099 1.7753183 -0.38946447 4294053120
3.0948741 1.7701962 -0.40490642 4294053120
2.9906914 1.7107958 -0.40688446 4293661440
2.7928729 1.5978591 -0.39412695 4292878080
2.6932507 1.5410403 -0.3932969 4292486400
2.6435573 1.5127574 -0.39859399 4292355840
2.6581528 1.5212283 -0.41296867 4292355840
2.5982132 1.4870788 -0.41510382 4292225280
2.4533777 1.4043733 -0.40233389 4291572480
2.4718008 1.4150245 -0.41534212 4291703040
2.4777734 1.4185556 -0.42588541 4291703040
2.4752285 1.4172148 -0.43449479 4291703040
2.4794352 1.4197352 -0.44379944 4291703040
2.4778378 1.4189347 -0.45156783 4291703040
2.468683 1.4138097 -0.45740917 4291703040
2.4559422 1.4066311 -0.46199742 4291703040
2.4512222 1.4040407 -0.46751451 4291703040
2.4193573 1.3859146 -0.467228 4291572480
2.4020369 1.3761091 -0.46909645 4291441920
2.3599365 1.352118 -0.46546456 4291311360
2.3150938 1.3265527 -0.46059394 4291050240
2.32652 1.3331949 -0.46632141 4291180800
2.3380177 1.3398781 -0.47155285 4291180800
2.3461714 1.344647 -0.47558424 4291180800
2.3501306 1.3470142 -0.47822341 4291311360
2.357589 1.3513849 -0.48102471 4291311360
2.3454773 1.3445481 -0.47927377 4291180800
2.3249059 1.3328648 -0.47523081 4291180800
2.3129623 1.3261205 -0.47239769 4291050240
2.2959733 1.3164846 -0.46799269 4291050240
2.348877 1.3468839 -0.47725824 4291311360
2.4165306 1.3857369 -0.48887056 4291572480
2.4391708 1.3988055 -0.49072462 4291572480
2.4605491 1.4111521 -0.49170014 4291703040
2.4622321 1.4122144 -0.48813805 4291703040
2.4762652 1.4203532 -0.48642942 4291703040
2.464114 1.4134866 -0.4790141 4291703040
2.4762449 1.420535 -0.4757615 4291703040
2.470696 1.4174503 -0.4685497 4291703040
2.4771302 1.4212332 -0.46306643 4291703040
2.4460137 1.4034905 -0.45010567 4291572480
2.5203848 1.4462179 -0.45589441 4291964160
2.5257404 1.4493831 -0.44842887 4291964160
2.5769351 1.4788296 -0.4483892 4292094720
2.6358869 1.5127271 -0.44878677 4292355840
2.7514188 1.5790727 -0.45763198 4292747520
2.839968 1.6299524 -0.46065217 4293139200
2.9728646 1.7062711 -0.46940795 4293661440
3.0592127 1.7559017 -0.46932688 4293922560
3.07548 1.765342 -0.45750535 4294053120
3.0905371 1.7740886 -0.4448432 4294053120
3.0725768 1.7638958 -0.42694902 4294053120
3.0567961 1.7549515 -0.40905297 4293922560
3.0783558 1.7674279 -0.39566687 4294053120
3.091305 1.774965 -0.38055217 4294053120
3.0939224 1.7765745 -0.36366108 4294053120
3.0633256 1.7591249 -0.34262541 4293922560
3.0642948 1.7597867 -0.32491356 4293922560
3.0892656 1.7742221 -0.30923823 4294053120
3.0819294 1.7701176 -0.28988779 4294053120
3.0642934 1.7601005 -0.26940599 4293922560
3.0685561 1.7626513 -0.25063992 4293922560
3.0799339 1.7692863 -0.23208606 4293922560
3.079262 1.7690045 -0.2123064 4293922560
3.095921 1.7786717 -0.19339074 4294053120
3.0732951 1.7657859 -0.17185304 4293922560
3.0847001 1.7724371 -0.15210913 4294053120
3.093704 1.7777101 -0.13194992 4294053120
3.0622416 1.759747 -0.11007434 4293922560
3.0863986 1.7737213 -0.090133019 4294053120
3.107569 1.7859819 -0.069704086 4294053120
3.091197 1.7766826 -0.048326924 4294053120
2.4792259 1.4252995 -0.021832827 4291572480
2.0200672 1.1616489 -0.0039722114 4289875200
1.9992136 1.1497372 0.009712846 4289744640
2.4339519 1.3995392 0.028370105 4291441920
2.3848698 1.3714234 0.044026766 4291311360
2.3225374 1.3356918 0.058634032 4291050240
2.2822502 1.3126223 0.073035508 4290919680
2.3186502 1.3336134 0.089773871 4291050240
2.1718006 1.2493086 0.098603226 4290397440
2.166429 1.2462946 0.11271398 4290397440
2.1500995 1.2369829 0.1259889 4290397440
2.139358 1.230882 0.13927457 4290266880
2.1320851 1.2267741 0.15251532 4290266880
2.1434836 1.233398 0.16694628 4290397440
2.1424649 1.2328851 0.18029349 4290397440
2.098938 1.2079368 0.18959582 4290136320
2.1455555 1.2348082 0.2068305 4290397440
2.1554956 1.2405968 0.22064821 4290397440
2.1560097 1.2409666 0.23331954 4290397440
2.1464875 1.2355661 0.24459502 4290397440
2.0993047 1.2085094 0.25099376 4290136320
2.135777 1.2295566 0.26703316 4290397440
2.1407831 1.2325107 0.27907073 4290397440
2.1329162 1.2280618 0.28910473 4290397440
2.1121874 1.216215 0.29692695 4290266880
2.0809197 1.1983052 0.30267763 4290136320
2.1292551 1.2261844 0.31972271 4290397440
2.1319628 1.227819 0.32980222 4290397440
2.1354635 1.2299105 0.33965605 4290397440
2.1224768 1.2225168 0.34646404 4290266880
2.1219146 1.2222714 0.35484433 4290266880
2.0898342 1.2038906 0.35742933 4290266880
2.1180863 1.2202264 0.36988831 4290266880
2.1268957 1.2253757 0.3786613 4290397440
2.1165776 1.2195177 0.38359249 4290266880
2.1203401 1.221764 0.39060619 4290397440
2.1101649 1.2159884 0.39458507 4290266880
2.1107223 1.2163908 0.40008259 4290266880
2.1237555 1.2239759 0.40750745 4290397440
2.1148798 1.2189493 0.41026962 4290266880
2.1135104 1.2182443 0.4139851 4290266880
2.105299 1.2136002 0.41586119 4290266880
2.1125171 1.2178411 0.42029053 4290266880
2.096314 1.2085953 0.41956356 4290266880
2.084034 1.2016082 0.41909698 4290266880
2.0957296 1.2084298 0.42294997 4290266880
2.0921311 1.2064435 0.42322934 4290266880
2.095434 1.2084332 0.42440414 4290266880
2.1077774 1.2156317 0.42690912 4290266880
2.1035454 1.2132825 0.42555952 4290266880
2.0993736 1.210968 0.4237242 4290266880
2.1122723 1.2184904 0.42482451 4290266880
2.1130431 1.2190255 0.42297909 4290397440
2.1218421 1.2241881 0.42223066 4290397440
2.1063766 1.2153671 0.41617531 4290266880
2.1084754 1.2166694 0.4131164 4290266880
2.1110942 1.2182723 0.40966687 4290266880
2.1177397 1.2221973 0.40649959 4290397440
2.1094861 1.2175338 0.40000632 4290266880
2.0985641 1.2113317 0.39258817 4290266880
2.094208 1.208915 0.38597953 4290266880
2.0919414 1.2077036 0.37932581 4290266880
2.1001222 1.2125174 0.37410477 4290266880
2.1166384 1.2221403 0.36985159 4290266880
2.1205595 1.2245002 0.36290306 4290266880
2.1212654 1.2250063 0.35497007 4290266880
2.0921423 1.2088487 0.28962684 4290136320
2.1192222 1.2245804 0.28255934 4290266880
2.130852 1.2313967 0.27291676 4290397440
2.1126146 1.2209719 0.25918439 4290266880
2.0756104 1.1997108 0.24316479 4290136320
2.1102703 1.2198251 0.23526345 4290266880
2.1235375 1.2275903 0.2244447 4290266880
2.1070728 1.2181867 0.21025829 4290266880
2.0761509 1.2004322 0.19468045 4290136320
2.1028979 1.2159842 0.18430614 4290136320
2.1016417 1.2153633 0.17112118 4290136320
2.115243 1.2233255 0.15887555 4290266880
2.0817831 1.2040999 0.14305387 4290136320
2.1198967 1.226226 0.13194844 4290266880
2.1213653 1.227181 0.11816469 4290266880
2.1006861 1.2153372 0.10314575 4290136320
2.0243263 1.171311 0.085929766 4289875200
1.895963 1.0972196 0.067785203 4289352960
2.2096276 1.2786279 0.064053848 4290658560
2.9652607 1.7155684 0.065780751 4293530880
3.0842667 1.7845212 0.047433738 4294053120
3.0934689 1.7899977 0.026478516 4294053120
3.1078019 1.7984421 0.0053730076 4294053120
3.062624 1.7724729 -0.015631251 4293922560
3.087208 1.7868458 -0.036843095 4294053120
3.0819817 1.7839789 -0.057794586 4294053120
3.0855699 1.7862102 -0.078843005 4294053120
3.0729351 1.7790568 -0.099334501 4293922560
3.099457 1.794556 -0.12108424 4294053120
3.1082406 1.7997944 -0.14225149 4294053120
3.0946801 1.7921041 -0.16221461 4294053120
3.0581255 1.7711055 -0.18046926 4293922560
3.0752389 1.7811635 -0.20157251 4293922560
3.085851 1.7874597 -0.22221519 4294053120
3.0563884 1.7705595 -0.23961394 4293922560
3.0616629 1.7737656 -0.25932521 4293922560
3.0808837 1.785046 -0.28009161 4294053120
3.0883007 1.7894934 -0.29964691 4294053120
3.0794773 1.7845373 -0.31729397 4294053120
2.9850194 1.7299888 -0.32516181 4293661440
3.0594587 1.7732474 -0.35094854 4293922560
3.0617626 1.774732 -0.36851892 4293922560
3.0624387 1.7752734 -0.38550562 4294053120
3.0241489 1.7532418 -0.39696029 4293792000
2.9113333 1.6880295 -0.39739734 4293400320
2.9003971 1.6818339 -0.4106541 4293400320
2.8202882 1.6355553 -0.41321054 4293008640
2.7963924 1.6218433 -0.42303318 4293008640
2.7564292 1.5988168 -0.42965448 4292878080
2.7475049 1.5937756 -0.44040823 4292747520
2.4571493 1.4256063 -0.40428877 4291703040
2.4596603 1.4271775 -0.41467369 4291703040
2.4669781 1.4315351 -0.42543757 4291703040
2.4699883 1.4333954 -0.43501464 4291703040
2.4745448 1.436152 -0.44439527 4291703040
2.460988 1.4284049 -0.44998759 4291703040
2.4727414 1.4353337 -0.45968351 4291703040
2.4613798 1.4288572 -0.4645592 4291703040
2.4523058 1.4237058 -0.46927619 4291703040
2.4306257 1.4112408 -0.4709647 4291572480
2.4114404 1.4002204 -0.47249886 4291572480
2.3562856 1.3683302 -0.46629071 4291311360
2.298806 1.335086 -0.45887595 4291050240
2.318717 1.3467396 -0.46630439 4291180800
2.3301756 1.3534899 -0.47153574 4291180800
2.3383014 1.3583063 -0.47556707 4291180800
2.3337293 1.3557534 -0.4764677 4291180800
2.3420148 1.360662 -0.47943872 4291311360
2.3256855 1.3512833 -0.47681287 4291180800
2.3256204 1.3513434 -0.47695988 4291180800
2.3052006 1.3395865 -0.47238076 4291050240
2.3655066 1.3746938 -0.48376831 4291311360
2.3949716 1.3918988 -0.4882426 4291441920
2.4236205 1.4086316 -0.49193752 4291572480
2.4309838 1.4130057 -0.49070677 4291572480
2.4480293 1.4230027 -0.49082813 4291703040
2.4582279 1.4290236 -0.48896745 4291703040
2.4594276 1.4298182 -0.48473155 4291703040
2.4477911 1.4231563 -0.47742635 4291703040
2.4679306 1.4349507 -0.47574335 4291703040
2.4623997 1.4318337 -0.46853161 4291703040
2.4552417 1.4277703 -0.46050355 4291703040
2.4377992 1.4177303 -0.45008776 4291572480
2.4999611 1.4539418 -0.453706 4291833600
2.5505846 1.4834524 -0.45434624 4292094720
2.6840968 1.5611342 -0.46858692 4292616960
2.7897351 1.6226262 -0.47655779 4293008640
2.9064755 1.6905779 -0.48502684 4293400320
2.9571998 1.7201672 -0.48126066 4293661440
2.9872627 1.7377498 -0.47324908 4293792000
3.0136096 1.7531739 -0.46386749 4293792000
3.0408187 1.7691005 -0.45385203 4293922560
3.0520215 1.7757227 -0.4407582 4293922560
3.0318882 1.7641263 -0.42269349 4293922560
3.0193753 1.7569585 -0.40538567 4293792000
3.0263436 1.7611171 -0.39027104 4293922560
3.0410886 1.7697979 -0.37561032 4293922560
3.0515893 1.7760111 -0.35987228 4293922560
3.0114183 1.7527547 -0.33793315 4293792000
3.0274405 1.7621779 -0.32206598 4293792000
3.0385501 1.7687445 -0.30516461 4293922560
3.0484517 1.7746086 -0.28768328 4293922560
3.0192144 1.7577051 -0.26631528 4293792000
3.0284941 1.7632068 -0.24817923 4293792000
3.0550179 1.7787412 -0.23096243 4293922560
3.0610046 1.782328 -0.21173699 4293922560
3.0357633 1.7677448 -0.19024877 4293792000
3.053062 1.7779132 -0.17127496 4293922560
3.0809088 1.7942208 -0.15241252 4294053120
3.0997076 1.8052646 -0.13263014 4294053120
3.048054 1.7753066 -0.10991158 4293922560
3.0814593 1.7948515 -0.090270162 4294053120
3.101434 1.8065811 -0.069778748 4294053120
3.101536 1.8067443 -0.048630662 4294053120
2.4873023 1.4492874 -0.021960881 4291703040
1.9847485 1.1568047 -0.0038984974 4289744640
1.9366204 1.1288513 0.0094606951 4289483520
1.9901612 1.1600888 0.023330063 4289744640
2.0982924 1.2231157 0.038909767 4290136320
2.117178 1.234183 0.053666409 4290266880
2.119946 1.2358657 0.068103485 4290266880
2.1137929 1.2323537 0.082156651 4290266880
2.1073229 1.2286565 0.096021816 4290266880
2.1067829 1.2284131 0.11000347 4290266880
2.1147208 1.2331078 0.12435398 4290266880
2.1017096 1.2256004 0.13730578 4290136320
2.1091046 1.2299794 0.1513992 4290266880
2.1160848 1.2341176 0.16538794 4290266880
2.1151631 1.2336529 0.1786163 4290266880
2.0950654 1.2220159 0.18990059 4290136320
2.1218336 1.2376848 0.2052535 4290266880
2.1372173 1.2467221 0.21953432 4290397440
2.1288495 1.2419201 0.2311783 4290266880
2.1140633 1.2333773 0.24173477 4290266880
2.0858386 1.2170018 0.25024351 4290136320
2.1083124 1.2301738 0.26450998 4290266880
2.1139438 1.2335308 0.2765232 4290266880
2.1141055 1.2337 0.28754202 4290266880
2.0959916 1.2232162 0.29566398 4290266880
2.0675297 1.2066988 0.30176377 4290136320
2.1001148 1.2257712 0.31643379 4290266880
2.1103866 1.2318364 0.3275874 4290266880
2.1085436 1.2308391 0.3365286 4290266880
2.0945361 1.2227486 0.34307981 4290266880
2.1032214 1.2278911 0.35292634 4290266880
2.0898137 1.2201502 0.3586491 4290266880
2.0963392 1.2240345 0.36734807 4290266880
2.0969176 1.2244512 0.37460816 4290266880
2.0948284 1.2233124 0.38095453 4290266880
2.1008179 1.2268866 0.38833809 4290266880
2.091707 1.2216525 0.39247558 4290266880
2.0903394 1.2209361 0.39757887 4290266880
2.0909538 1.2213763 0.40259317 4290266880
2.0920756 1.2221134 0.40723896 4290266880
2.0790429 1.2145914 0.40863448 4290266880
2.0854113 1.2183912 0.41334608 4290266880
2.0849473 1.2182044 0.41623044 4290266880
2.0811601 1.2160786 0.41795853 4290266880
2.0884917 1.2204434 0.42142844 4290266880
2.0805788 1.2159104 0.42133188 4290266880
2.0923047 1.2228423 0.42471182 4290266880
2.0760312 1.2134289 0.42191711 4290266880
2.0717402 1.2110108 0.42105407 4290136320
2.0836704 1.2180651 0.42298537 4290266880
2.0973022 1.2261146 0.42475468 4290266880
2.0894902 1.2216426 0.42168573 4290266880
2.0922189 1.2233269 0.4202486 4290266880
2.0857425 1.2196356 0.41647607 4290266880
2.0926745 1.2237765 0.41488644 4290266880
2.0881562 1.2212297 0.41054058 4290266880
2.0860832 1.2201116 0.40620527 4290266880
2.0974586 1.2268513 0.40399006 4290266880
2.0877905 1.2212969 0.39725336 4290266880
2.0814908 1.2177104 0.39073214 4290266880
2.0802071 1.2170553 0.38471609 4290266880
2.066493 1.2091358 0.37600151 4290136320
2.0853157 1.2202331 0.37274417 4290266880
2.1111062 1.2354057 0.37015122 4290266880
2.1023493 1.2303852 0.36102492 4290266880
2.0952451 1.2263308 0.35182476 4290266880
2.0725343 1.2136939 0.28790396 4290136320
2.0926793 1.2255794 0.27998653 4290266880
2.1173098 1.2400918 0.27211964 4290266880
2.0877554 1.2229036 0.25702277 4290136320
2.0647709 1.2095573 0.24273212 4290136320
2.0822704 1.2198998 0.23294917 4290136320
2.093065 1.2263205 0.22199458 4290136320
2.0751884 1.2159616 0.20779938 4290136320
2.0606358 1.2075468 0.19389845 4290005760
2.0881233 1.2237408 0.18364947 4290136320
2.0886738 1.2241677 0.17065929 4290136320
2.0811722 1.2198807 0.15686694 4290136320
2.0609126 1.2081227 0.14211811 4290005760
2.0909045 1.2257897 0.13060458 4290136320
2.1035271 1.2332877 0.11758617 4290266880
2.0936294 1.2275971 0.10316402 4290136320
1.9803915 1.1613749 0.084370054 4289744640
1.9369907 1.1360515 0.069495238 4289614080
2.2924514 1.3443949 0.066687398 4290919680
3.0219688 1.7719331 0.067283526 4293792000
3.0746078 1.8029306 0.047468547 4294053120
3.0966189 1.8159856 0.026617484 4294053120
3.0980692 1.8169934 0.0053972211 4294053120
3.0569944 1.7930771 -0.015633278 4293922560
3.0779648 1.8055247 -0.036835 4294053120
3.0665343 1.798981 -0.057677485 4293922560
2.9876745 1.7529051 -0.0765744 4293661440
3.0015206 1.7611753 -0.097330682 4293661440
3.0385542 1.7830427 -0.1190839 4293922560
3.0482523 1.788884 -0.13995591 4293922560
3.0255961 1.7757517 -0.15910816 4293792000
3.0181074 1.7715129 -0.17869014 4293792000
3.0431833 1.786374 -0.20012674 4293922560
3.0476038 1.7891207 -0.22018427 4293922560
3.0115426 1.7681186 -0.23687825 4293792000
3.0374699 1.7834818 -0.2581287 4293922560
3.0507119 1.7914041 -0.27826947 4293922560
3.0549128 1.794022 -0.2973932 4293922560
3.0007167 1.762369 -0.31020799 4293792000
2.8537755 1.6762775 -0.31190085 4293139200
3.0298746 1.7797818 -0.34871551 4293922560
3.0275474 1.7785655 -0.36561877 4293922560
2.9992044 1.762076 -0.37880865 4293792000
2.9515986 1.7342737 -0.3887344 4293661440
2.8634615 1.6826682 -0.39217272 4293269760
2.9885526 1.7562616 -0.42455411 4293792000
2.970686 1.7459146 -0.43670508 4293661440
2.9100189 1.7104286 -0.44169909 4293400320
2.817143 1.6560181 -0.44059229 4293139200
2.7586746 1.621809 -0.44368437 4292878080
2.4206357 1.4233619 -0.39962068 4291572480
2.4427755 1.4364836 -0.41321251 4291703040
2.4585998 1.4458964 -0.42541936 4291703040
2.4556217 1.444262 -0.43394032 4291703040
2.4573979 1.4454205 -0.44280213 4291703040
2.4531045 1.4430115 -0.45005685 4291703040
2.4509761 1.4418739 -0.45717284 4291703040
2.4436471 1.4376787 -0.46276689 4291703040
2.4347036 1.432533 -0.46747857 4291703040
2.4030521 1.4140369 -0.4671925 4291572480
2.3858471 1.4040302 -0.46906123 4291441920
2.3440289 1.3795501 -0.46542993 4291311360
2.2824979 1.3434745 -0.457158 4291050240
2.3193278 1.3652328 -0.46800056 4291180800
2.3264997 1.3695525 -0.47238034 4291180800
2.3388414 1.3769124 -0.47728184 4291311360
2.3419228 1.3788259 -0.47975355 4291311360
2.3416903 1.37879 -0.48099011 4291311360
2.3254156 1.3693163 -0.47836661 4291180800
2.3211064 1.3668799 -0.47764111 4291180800
2.2973609 1.3530071 -0.47236374 4291050240
2.349823 1.3839709 -0.48218381 4291311360
2.3902206 1.4078394 -0.48891923 4291441920
2.3959832 1.4113289 -0.48797086 4291441920
2.4303551 1.4316549 -0.49223608 4291703040
2.4354553 1.4347553 -0.48995608 4291703040
2.4410071 1.4381212 -0.48718196 4291703040
2.4472871 1.4419154 -0.48396754 4291703040
2.4511373 1.4442791 -0.4796927 4291703040
2.448957 1.4430922 -0.47368008 4291703040
2.4472914 1.4422075 -0.46722916 4291703040
2.4596448 1.4495759 -0.46288618 4291703040
2.4511755 1.4446839 -0.45408413 4291703040
2.4548464 1.4469396 -0.44702289 4291703040
2.5584059 1.5080191 -0.45727673 4292094720
2.7063532 1.5952473 -0.47406545 4292747520
2.8829477 1.6993585 -0.49413964 4293400320
2.9734199 1.752755 -0.49787 4293792000
2.9884231 1.7617028 -0.48798069 4293792000
2.976337 1.754693 -0.4731071 4293792000
2.9705596 1.7513984 -0.45878166 4293661440
2.9998233 1.7687473 -0.44924122 4293792000
3.0090387 1.7742856 -0.43601364 4293792000
2.9951806 1.766228 -0.41898072 4293792000
2.9691145 1.7509754 -0.39997798 4293661440
3.0016141 1.7702329 -0.38838264 4293792000
3.0286925 1.7862973 -0.3753354 4293922560
3.0293849 1.7868122 -0.35845235 4293922560
3.005959 1.773111 -0.33845145 4293792000
3.0030315 1.7714903 -0.320539 4293792000
3.0244541 1.7842226 -0.3047649 4293922560
3.0300267 1.7876124 -0.28689957 4293922560
3.0068388 1.7740465 -0.26610821 4293792000
3.0213068 1.7826798 -0.24841456 4293792000
3.039881 1.7937349 -0.2305813 4293922560
3.0508285 1.8002938 -0.21173218 4293922560
3.0229681 1.7839688 -0.19007234 4293792000
3.0131018 1.7782532 -0.16958788 4293792000
3.0636895 1.8081894 -0.15205611 4294053120
3.0868404 1.8219471 -0.1325084 4294053120
3.0624397 1.8076593 -0.11078661 4293922560
3.0916181 1.8249733 -0.090855747 4294053120
3.0962851 1.8278306 -0.069878578 4294053120
3.0811164 1.8189863 -0.048452362 4294053120
2.4438841 1.4431535 -0.021630565 4291572480
1.9693651 1.1632762 -0.0038660332 4289744640
1.8542074 1.0953971 0.0091111576 4289222400
1.8909101 1.1171161 0.022266826 4289352960
2.0661607 1.2205926 0.038463205 4290136320
2.0933728 1.2367207 0.053262111 4290136320
2.0963554 1.2385514 0.067593746 4290136320
2.0936689 1.2370367 0.081670292 4290136320
2.0792568 1.2286011 0.095085561 4290136320
2.0916281 1.2359737 0.10960279 4290136320
2.0925765 1.2366045 0.12349084 4290136320
2.0807042 1.2296673 0.13641651 4290136320
2.0810556 1.2299458 0.14991598 4290136320
2.0925367 1.2367953 0.16412576 4290136320
2.0873299 1.233793 0.17688851 4290136320
2.0655169 1.2209852 0.18788269 4290136320
2.0929484 1.2372549 0.20317213 4290266880
2.1125777 1.2489191 0.2177655 4290266880
2.1087203 1.2467148 0.22979496 4290266880
2.0843413 1.2323904 0.23917241 4290136320
2.046412 1.2100614 0.24637601 4290005760
2.090759 1.2363282 0.26322415 4290266880
2.0902157 1.2360817 0.27437517 4290266880
2.0898178 1.2359213 0.28523174 4290266880
2.0743766 1.2268741 0.29363632 4290136320
2.0442359 1.2091416 0.29940537 4290005760
2.089828 1.236154 0.31597951 4290266880
2.0898666 1.2362533 0.32553276 4290266880
2.0809438 1.2310574 0.3332822 4290266880
2.0869014 1.2346553 0.34301701 4290266880
2.0755854 1.2280452 0.34950322 4290136320
2.0583949 1.2179631 0.3544893 4290136320
2.0665479 1.2228599 0.36339012 4290136320
2.0665617 1.2229465 0.3704721 4290136320
2.0743365 1.2276218 0.37854043 4290266880
2.0677774 1.2238241 0.3835631 4290136320
2.0733881 1.2272217 0.39039105 4290266880
2.0738833 1.2275957 0.39581987 4290266880
2.0681653 1.2242963 0.39959088 4290136320
2.0590398 1.2189822 0.40220517 4290136320
2.0597205 1.2194672 0.40624422 4290136320
2.0591967 1.2192403 0.40957078 4290136320
2.0587378 1.2190526 0.41242868 4290136320
2.0424731 1.209516 0.41161993 4290136320
2.0387609 1.2074043 0.41283125 4290136320
2.0419016 1.209347 0.41494194 4290136320
2.0459599 1.2118334 0.41675505 4290136320
2.0500889 1.2143625 0.41809514 4290136320
2.0458121 1.211919 0.41723207 4290136320
2.0532351 1.216399 0.41825926 4290136320
2.0575788 1.219058 0.41816404 4290136320
2.0649674 1.2235202 0.41818759 4290136320
2.0652018 1.2237489 0.41626683 4290136320
2.0662801 1.2244781 0.4140254 4290266880
2.0586948 1.2200794 0.40957364 4290136320
2.0675626 1.2254211 0.40790686 4290266880
2.0698817 1.2268869 0.40445277 4290266880
2.0663967 1.2249169 0.39939585 4290136320
2.0624216 1.2226568 0.39379442 4290136320
2.0503638 1.2156106 0.38623261 4290136320
2.046845 1.213621 0.37986836 4290136320
2.0442204 1.2121612 0.3732461 4290136320
2.0574152 1.2200723 0.36904117 4290136320
2.0877111 1.2381154 0.36732665 4290266880
2.0832319 1.2355602 0.35898995 4290266880
2.0795519 1.2334785 0.35040748 4290266880
2.0417721 1.2117306 0.28462622 4290005760
2.0690486 1.2280016 0.27779582 4290136320
2.093807 1.2427824 0.2700434 4290266880
2.0689263 1.2281332 0.25559863 4290136320
2.0360391 1.2087342 0.24019721 4290005760
2.0577023 1.2216827 0.23101129 4290136320
2.0738955 1.2313894 0.22073592 4290136320
2.0560141 1.2208872 0.20660529 4290136320
2.0329936 1.207335 0.19197448 4290005760
2.0518024 1.2185956 0.18109623 4290005760
2.0652082 1.2266527 0.16934082 4290136320
2.056356 1.221505 0.15554807 4290005760
2.0452566 1.2150232 0.14154062 4290005760
2.0749211 1.2327313 0.13006918 4290136320
2.0842831 1.2383933 0.11692883 4290136320
2.0692608 1.2295833 0.10233212 4290136320
1.9159497 1.1386843 0.081927925 4289483520
1.876194 1.1151814 0.06756708 4289352960
1.8730192 1.1133926 0.05473249 4289352960
2.8842962 1.7139336 0.064470991 4293269760
3.062371 1.8198224 0.047465414 4294053120
3.0792556 1.8300066 0.026582826 4294053120
3.0394838 1.8065439 0.0053392518 4293922560
2.9992225 1.7827867 -0.01536529 4293792000
2.9922783 1.7788157 -0.03590611 4293661440
2.9952817 1.7807535 -0.056505647 4293792000
2.9323943 1.7435452 -0.075392224 4293530880
2.9857745 1.775412 -0.097131222 4293661440
3.0240119 1.798286 -0.11889971 4293792000
3.0160065 1.7936834 -0.13892925 4293792000
2.9418545 1.7497681 -0.15521279 4293530880
2.9855521 1.7758907 -0.17734897 4293661440
3.0016427 1.7856072 -0.19805206 4293792000
2.9916654 1.7798288 -0.21686438 4293792000
2.917279 1.7357569 -0.230231 4293400320
2.9468281 1.7534736 -0.25126553 4293530880
2.9498506 1.7554199 -0.26997355 4293530880
2.9387007 1.7489382 -0.28704301 4293530880
2.8679154 1.7069887 -0.29747871 4293269760
2.8113801 1.6735071 -0.30830592 4293008640
2.910881 1.7328327 -0.33615339 4293400320
2.9246397 1.7411624 -0.35438746 4293530880
2.9023306 1.7280358 -0.36781615 4293400320
2.8153284 1.6764159 -0.3720457 4293139200
2.725528 1.6231221 -0.37454993 4292747520
2.9202704 1.7391406 -0.4162643 4293530880
2.9067588 1.7312424 -0.42876112 4293530880
2.8514411 1.6984609 -0.43428105 4293269760
2.7376199 1.6308516 -0.42961374 4292878080
2.654706 1.5816283 -0.42841867 4292486400
2.4547117 1.4626976 -0.4066264 4291703040
2.4543555 1.462603 -0.41658631 4291703040
2.4538724 1.4624321 -0.42604938 4291703040
2.4526753 1.4618354 -0.43489817 4291703040
2.4438794 1.456713 -0.44186923 4291703040
2.4381979 1.4534436 -0.44884926 4291703040
2.4290004 1.4480792 -0.45462134 4291703040
2.4272614 1.4471557 -0.46123412 4291703040
2.4117341 1.438018 -0.46465087 4291572480
2.382647 1.4208002 -0.46480882 4291441920
2.3451231 1.3985527 -0.462632 4291311360
2.2794785 1.3595462 -0.45416257 4291050240
2.3152695 1.3809749 -0.46530548 4291180800
2.3231871 1.3857961 -0.4703818 4291180800
2.3430238 1.3977207 -0.47736138 4291311360
2.260257 1.3484948 -0.46282634 4291050240
2.2599528 1.348412 -0.46454898 4291050240
2.2554989 1.345855 -0.46487492 4290919680
2.2553544 1.3458658 -0.46554464 4290919680
2.3300223 1.3904769 -0.4811157 4291311360
2.3173528 1.3830221 -0.47810352 4291180800
2.3013818 1.3735968 -0.47386175 4291180800
2.2812607 1.3616948 -0.46823317 4291050240
2.3379409 1.3955898 -0.47778165 4291311360
2.3749859 1.4177791 -0.48267016 4291441920
2.3959913 1.4304042 -0.48366785 4291572480
2.4229298 1.446569 -0.48522934 4291703040
2.4311285 1.4515572 -0.48241773 4291703040
2.4360306 1.4545785 -0.47836795 4291703040
2.4410055 1.4576433 -0.47375765 4291703040
2.4460504 1.4607491 -0.46858978 4291703040
2.4545522 1.4659175 -0.46350804 4291703040
2.4375017 1.4558389 -0.45309591 4291703040
2.4640656 1.4717845 -0.45023584 4291833600
2.5125053 1.5007864 -0.45060942 4291964160
2.6144154 1.5617031 -0.45952868 4292355840
2.7901714 1.6667018 -0.47987413 4293008640
2.8892226 1.7259289 -0.48542655 4293400320
2.8991218 1.7319456 -0.47501722 4293530880
2.8729095 1.7164053 -0.45822763 4293400320
2.871182 1.7154796 -0.44494846 4293400320
2.8726304 1.7164495 -0.43166256 4293400320
2.8783462 1.7199668 -0.41849974 4293400320
2.8548155 1.7060205 -0.40070796 4293269760
2.8235242 1.6874378 -0.3816615 4293139200
2.8411467 1.6980627 -0.36887142 4293269760
2.9000661 1.7333512 -0.36061791 4293400320
2.9100075 1.7393914 -0.34549722 4293530880
2.9169071 1.743615 -0.32953995 4293530880
2.9443684 1.7601206 -0.31534359 4293661440
2.9827781 1.7831676 -0.30158392 4293792000
2.978992 1.7810097 -0.28302163 4293661440
2.9449179 1.7607564 -0.26150811 4293530880
2.9697731 1.7757081 -0.24500035 4293661440
2.9866731 1.785908 -0.22730693 4293792000
2.9729171 1.7777908 -0.20701572 4293661440
2.9363689 1.7560527 -0.18524261 4293530880
2.968832 1.775553 -0.16765191 4293661440
2.9785616 1.7814687 -0.14831814 4293661440
2.9102266 1.7407286 -0.12533081 4293400320
2.9599872 1.7705692 -0.10742493 4293661440
3.0372508 1.8168525 -0.089542516 4293922560
3.0740063 1.8389264 -0.069592692 4294053120
2.804821 1.6781117 -0.044223882 4293008640
1.9668227 1.1772232 -0.017417228 4289744640
1.9093424 1.1429242 -0.0037414739 4289483520
1.8761199 1.1231248 0.009261623 4289352960
1.913552 1.1455703 0.022622524 4289483520
2.0512934 1.228 0.038335156 4290005760
2.0689735 1.2386423 0.052841451 4290136320
2.074729 1.2421544 0.067145832 4290136320
2.071213 1.240122 0.081092119 4290136320
2.0557725 1.2309574 0.094355412 4290005760
2.0631819 1.2354592 0.10850574 4290136320
2.0645747 1.2363629 0.12227963 4290136320
2.022419 1.2112157 0.13307807 4290005760
2.0595131 1.2334763 0.14889669 4290136320
2.0715947 1.2407752 0.16306488 4290136320
2.064208 1.2364274 0.17555438 4290136320
2.043046 1.2238368 0.18650179 4290005760
2.0694592 1.239713 0.20160767 4290136320
2.0847538 1.2489376 0.21566272 4290266880
2.0786555 1.2453613 0.22732486 4290136320
2.0550473 1.2313054 0.23664936 4290136320
1.9246268 1.153319 0.23255484 4289614080
2.0524676 1.2299072 0.25932211 4290136320
2.0611894 1.2352015 0.27152449 4290136320
2.0435812 1.2247348 0.27991301 4290136320
2.0231507 1.2125777 0.28740409 4290005760
2.0178206 1.2094601 0.2965824 4290005760
2.0655761 1.2381269 0.31341678 4290136320
2.0664735 1.2387402 0.32302621 4290136320
2.0609891 1.2355326 0.33125147 4290136320
2.0550394 1.2320465 0.33897454 4290136320
2.0441091 1.2255776 0.34541997 4290136320
2.0168424 1.2093242 0.3485634 4290005760
2.0341747 1.2197821 0.35896176 4290136320
2.0404623 1.2236263 0.36708444 4290136320
2.0323606 1.2188518 0.37219298 4290136320
2.0368376 1.2216128 0.37915832 4290136320
2.006978 1.2038031 0.37922987 4290005760
2.0265541 1.2156113 0.38815632 4290005760
1.9773071 1.1861832 0.38339967 4289875200
1.9766855 1.1858898 0.38749436 4289875200
1.9795048 1.1876589 0.39181367 4289875200
1.9832282 1.1899707 0.39586464 4289875200
1.9827859 1.1897867 0.39862671 4289875200
1.974802 1.1850828 0.3993966 4289875200
1.9744917 1.1849787 0.40123743 4289875200
1.9860771 1.1920065 0.40502897 4289875200
1.985901 1.1919845 0.40595695 4289875200
1.9857941 1.1920047 0.40642133 4289875200
1.9857566 1.1920671 0.4064216 4289875200
1.9857886 1.1921718 0.40595776 4289875200
1.9740623 1.1852257 0.40262109 4289875200
1.9818349 1.1899735 0.40278268 4289875200
1.9744667 1.1856413 0.39939895 4289875200
2.0190344 1.2124615 0.40599197 4290005760
2.0033484 1.2031419 0.39997697 4290005760
2.0134804 1.2093103 0.39864659 4290005760
2.0206134 1.2136809 0.39622587 4290005760
2.0315125 1.2203122 0.39404249 4290136320
2.0210328 1.2141169 0.38725889 4290005760
2.0225132 1.2150985 0.38233325 4290005760
2.0206246 1.2140589 0.37632796 4290005760
2.0167956 1.2118551 0.36954126 4290005760
2.0417998 1.226958 0.36753318 4290136320
2.0586269 1.2371554 0.36349154 4290136320
2.0590372 1.2374995 0.35607603 4290136320
2.0458238 1.2296647 0.34594652 4290136320
2.0332499 1.2227536 0.28444177 4290005760
2.0578227 1.2376162 0.27726799 4290136320
2.0707054 1.245458 0.2680136 4290136320
2.0370185 1.2253208 0.25255415 4290005760
2.015074 1.2122364 0.23857059 4290005760
2.0360112 1.2249194 0.22939111 4290005760
2.0451441 1.2305107 0.21845406 4290005760
2.0183396 1.2145034 0.20354731 4290005760
2.0029509 1.2053556 0.18981628 4289875200
2.0326178 1.2232915 0.18004604 4290005760
2.0375104 1.2263364 0.16767111 4290005760
2.0415096 1.2288449 0.15498035 4290005760
2.0176134 1.2145807 0.14013304 4289875200
2.0504041 1.2344025 0.12899871 4290005760
2.0519912 1.2354624 0.11553787 4290005760
2.0454304 1.231622 0.10152427 4290005760
1.832521 1.1036619 0.078658536 4289222400
1.8456855 1.1116755 0.066717602 4289222400
1.8721925 1.1277175 0.054912634 4289352960
1.9318842 1.1637282 0.04342556 4289614080
2.2392757 1.3487881 0.034906339 4290789120
2.8985727 1.7456427 0.025144164 4293400320
2.8725674 1.7301424 0.0050959 4293269760
2.8539376 1.7190783 -0.014641745 4293269760
2.8980374 1.7457705 -0.034869689 4293400320
2.8771844 1.7333674 -0.054439362 4293269760
2.8282313 1.7040455 -0.072941579 4293139200
2.8968582 1.74551 -0.094541952 4293400320
2.9334109 1.7676686 -0.11571439 4293530880
2.9489841 1.7771977 -0.13629177 4293661440
2.8668337 1.7278767 -0.1517588 4293269760
2.9356129 1.7694483 -0.17496812 4293530880
2.9412539 1.7729968 -0.19472176 4293530880
2.8837578 1.7385132 -0.20974796 4293400320
2.8338826 1.7086143 -0.22440751 4293139200
2.8490291 1.7178847 -0.24375194 4293269760
2.8554933 1.7219247 -0.26222798 4293269760
2.8257203 1.7041292 -0.27694902 4293139200
2.8084445 1.6938615 -0.29230645 4293139200
2.7359281 1.650299 -0.30105907 4292747520
