# .PCD v0.7 - Point Cloud Data file format
VERSION 0.7
FIELDS x y z rgba
SIZE 4 4 4 4
TYPE F F F U
COUNT 1 1 1 1
WIDTH 1101
HEIGHT 1
VIEWPOINT 0 0 0 1 0 0 0
POINTS 1101
DATA ascii
1.2348922 -1.5042279 -0.10855298 4278516480
1.2397841 -1.5100899 -0.11990032 4278647040
1.2408179 -1.5112523 -0.1307952 4278647040
1.2301127 -1.4981179 -0.1402262 4278516480
1.2461618 -1.5175664 -0.15259677 4278647040
1.2511511 -1.5235447 -0.16362229 4278777600
1.2576576 -1.5313697 -0.17476045 4278908160
1.244186 -1.5148692 -0.1828744 4278647040
1.2432597 -1.5136443 -0.19251423 4278647040
1.2523968 -1.5246711 -0.20356154 4278777600
1.2558179 -1.5287378 -0.21354911 4278908160
1.2551109 -1.5277793 -0.22261688 4278908160
1.2394434 -1.5086116 -0.22866531 4278647040
1.2435164 -1.5134722 -0.23801568 4278777600
1.2582607 -1.5313193 -0.24926782 4278908160
1.2605817 -1.5340456 -0.25789151 4279038720
1.2578642 -1.5306406 -0.26519087 4278908160
1.250918 -1.5220906 -0.27123934 4278908160
1.2281781 -1.4943255 -0.27338219 4278516480
1.2343115 -1.5016917 -0.2815432 4278647040
1.2394656 -1.5078658 -0.28921995 4278777600
1.2458007 -1.5154756 -0.29689956 4278777600
1.2432573 -1.5122849 -0.3021419 4278777600
1.2492362 -1.5194603 -0.3091222 4278908160
1.2421957 -1.5108001 -0.31252161 4278777600
1.2460974 -1.5154485 -0.31829864 4278908160
1.2441595 -1.5129945 -0.32222348 4278777600
1.2394558 -1.5071781 -0.32503605 4278777600
1.2313311 -1.4972026 -0.32653454 4278647040
1.2411115 -1.5089982 -0.33240303 4278777600
1.2280154 -1.4929798 -0.33175245 4278647040
1.2309285 -1.4964255 -0.33501506 4278647040
1.2251277 -1.4892781 -0.33551067 4278647040
1.2281213 -1.4928217 -0.33801672 4278647040
1.2195752 -1.4823387 -0.33694628 4278516480
1.2163955 -1.4783792 -0.33695272 4278516480
1.2279679 -1.4923484 -0.3406533 4278647040
1.2248741 -1.4884933 -0.33989075 4278647040
1.2274461 -1.4915233 -0.34030136 4278647040
1.2343888 -1.4998637 -0.34152064 4278777600
1.239886 -1.5064467 -0.34193131 4278777600
1.2413549 -1.5081348 -0.34082428 4278777600
1.2401588 -1.5065852 -0.33858722 4278777600
1.248741 -1.516914 -0.33861023 4278908160
1.2414815 -1.5079991 -0.33394247 4278777600
1.242714 -1.5093994 -0.33118254 4278777600
1.2453145 -1.5124612 -0.32839161 4278777600
1.2499261 -1.5179648 -0.32572797 4278908160
1.2441767 -1.5108858 -0.31999198 4278777600
1.2352723 -1.4999765 -0.31312674 4278647040
1.2343562 -1.4987682 -0.30796158 4278647040
1.2238013 -1.4858571 -0.30008566 4278516480
1.2268968 -1.4895201 -0.29524305 4278516480
1.2412962 -1.5069054 -0.29269826 4278777600
1.2541487 -1.5224106 -0.28931856 4278908160
1.2514335 -1.5190172 -0.28196636 4278908160
1.2411997 -1.5064989 -0.27267164 4278647040
1.225744 -1.4876443 -0.2620689 4278516480
1.2315853 -1.4946381 -0.25577822 4278516480
1.2415504 -1.5066352 -0.24995638 4278647040
1.2487774 -1.5153083 -0.2431913 4278777600
1.2273253 -1.4891821 -0.23066679 4278516480
1.2243495 -1.4854764 -0.22152367 4278385920
1.242842 -1.5078164 -0.21590543 4278647040
1.2483644 -1.5144193 -0.20761985 4278777600
1.2430627 -1.5078912 -0.19730337 4278647040
1.2180535 -1.4774592 -0.18387531 4278255360
1.2327479 -1.4951874 -0.17631599 4278516480
1.2418219 -1.5060967 -0.16756918 4278647040
1.2377703 -1.501087 -0.15682766 4278516480
1.2235619 -1.4837608 -0.14478029 4278385920
1.2381909 -1.5014046 -0.13598205 4278516480
1.2471775 -1.5122049 -0.12621452 4278647040
1.2391615 -1.5023893 -0.11458202 4278516480
1.2328627 -1.4946569 -0.1031101 4278385920
1.2304641 -1.4916534 -0.091930225 4278385920
1.2325097 -1.4940377 -0.080986507 4278385920
1.2260351 -1.4860941 -0.069436394 4278385920
1.160594 -1.406682 -0.055128962 4278252555
1.2070746 -1.4629246 -0.046249963 4278255105
1.2310971 -1.4919434 -0.035812832 4278385920
1.2360603 -1.4978622 -0.024515927 4278516480
1.2400186 -1.5025628 -0.013090868 4278516480
1.2476926 -1.5117649 -0.0015838057 4278647040
1.2438148 -1.5069699 0.009974001 4278516480
1.2405535 -1.5029223 0.02145884 4278516480
1.2532957 -1.5182623 0.033284217 4278647040
1.3015016 -1.5765588 0.046577569 4279299840
1.452461 -1.7593092 0.065329432 4281388800
1.4149971 -1.7138211 0.07657969 4280866560
1.5026058 -1.8198147 0.094968289 4282172160
1.5114475 -1.8304058 0.10915016 4282172160
1.4745706 -1.7856326 0.11966129 4281780480
1.3664585 -1.6546084 0.12297498 4280213760
1.5070568 -1.8247384 0.1488103 4282172160
1.5180726 -1.8379585 0.16301213 4282302720
1.4984595 -1.8140965 0.17367408 4282041600
1.4239141 -1.7237384 0.17698547 4281127680
1.5290259 -1.8508646 0.20267458 4282563840
1.5436269 -1.8684193 0.21712883 4282694400
1.5306751 -1.8526237 0.22748268 4282563840
1.4726968 -1.7823368 0.23033801 4281780480
1.3896326 -1.6817003 0.22792953 4280605440
1.5367771 -1.8596524 0.26348746 4282694400
1.5364231 -1.859105 0.27455297 4282694400
1.5078206 -1.8243786 0.28005919 4282302720
1.4692526 -1.7775997 0.28293508 4281780480
1.4263911 -1.7256327 0.28411859 4281258240
1.5362732 -1.858448 0.31582469 4282694400
1.5327542 -1.8540723 0.32454118 4282694400
1.5073866 -1.8232701 0.32809147 4282302720
1.4657824 -1.7728342 0.3273485 4281780480
1.4771041 -1.7864132 0.3378773 4281911040
1.4318991 -1.7316314 0.33491799 4281388800
1.4096839 -1.7046571 0.33661053 4280997120
1.3608125 -1.645454 0.33121723 4280344320
1.357771 -1.6416714 0.33635882 4280344320
1.3748983 -1.6622735 0.34616476 4280605440
1.3131813 -1.5875552 0.33555692 4279691520
1.3190565 -1.594556 0.34162071 4279822080
1.3274781 -1.6046338 0.34799439 4279952640
1.3302753 -1.6079122 0.35252362 4279952640
1.3236845 -1.5998434 0.35414574 4279822080
1.3265611 -1.6032177 0.35787758 4279952640
1.3200564 -1.5952544 0.35865474 4279822080
1.319878 -1.5949367 0.36071879 4279822080
1.3197439 -1.5946727 0.36237267 4279822080
1.322795 -1.5982572 0.36447978 4279822080
1.3290317 -1.6056899 0.36704475 4279952640
1.3258954 -1.6017983 0.36659428 4279952640
1.3259457 -1.6017566 0.36659443 4279952640
1.3260428 -1.6017715 0.36617813 4279952640
1.3199055 -1.594256 0.36361545 4279822080
1.3232354 -1.5981759 0.36323601 4279822080
1.3203287 -1.5945632 0.36072025 4279822080
1.3206074 -1.594798 0.35865653 4279822080
1.3089865 -1.5806632 0.35296431 4279691520
1.3711939 -1.6556755 0.36665049 4280474880
1.3684696 -1.6522803 0.36241415 4280474880
1.3569756 -1.6382978 0.35547388 4280344320
1.4139248 -1.7069443 0.36590251 4281127680
1.4207741 -1.7151034 0.36273739 4281258240
1.4364828 -1.7339554 0.36133161 4281388800
1.4858758 -1.7934624 0.367722 4282041600
1.4994662 -1.8097502 0.36456892 4282302720
1.5431126 -1.8623093 0.36804375 4282824960
1.5378326 -1.8558184 0.35925153 4282824960
1.535464 -1.8528416 0.35076693 4282694400
1.5076791 -1.8185629 0.28517643 4282302720
1.5306309 -1.8461293 0.27891046 4282563840
1.5251294 -1.8393762 0.26702884 4282433280
1.5222142 -1.835743 0.25536361 4282433280
1.4992195 -1.8078965 0.24024093 4282041600
1.5149291 -1.8267237 0.2311067 4282302720
1.5134788 -1.8248582 0.21899047 4282302720
1.4916456 -1.7984182 0.20387074 4281911040
1.4748629 -1.7780702 0.18952994 4281780480
1.5025853 -1.811376 0.18060791 4282041600
1.5067438 -1.816273 0.16839123 4282172160
1.5070419 -1.8165162 0.15552236 4282172160
1.4660618 -1.7670078 0.13857791 4281519360
1.3707687 -1.6520478 0.11754132 4280213760
1.2760146 -1.5377519 0.098100655 4278908160
1.2547073 -1.5119776 0.085232019 4278647040
1.2473869 -1.50306 0.073478781 4278516480
1.251693 -1.5081524 0.062358692 4278647040
1.2497785 -1.5057492 0.050840523 4278647040
1.2490066 -1.5047231 0.039339386 4278516480
1.2455727 -1.5004902 0.027751565 4278516480
1.2358147 -1.48864 0.016115591 4278385920
1.1995203 -1.4448282 0.0045430567 4278254085
1.2023189 -1.4481064 -0.0065755453 4278254595
1.2336953 -1.4858021 -0.018158643 4278385920
1.2346736 -1.4868852 -0.029573133 4278385920
1.2376056 -1.4903208 -0.041037686 4278385920
1.2302456 -1.4813633 -0.052075326 4278255360
1.2447075 -1.4986813 -0.064044021 4278516480
1.2519596 -1.5073168 -0.075769365 4278647040
1.2605461 -1.5175576 -0.087635651 4278777600
1.2354305 -1.4872262 -0.096916206 4278385920
1.2532055 -1.5085276 -0.10938834 4278647040
1.2485611 -1.502841 -0.11990032 4278647040
1.2559781 -1.5116718 -0.1314626 4278647040
1.2371314 -1.4888932 -0.14003505 4278385920
1.260717 -1.5171815 -0.15329407 4278777600
1.2689235 -1.5269599 -0.16478026 4278908160
1.2714599 -1.5299144 -0.17543678 4278908160
1.2587186 -1.5144862 -0.18371035 4278777600
1.2552381 -1.5102019 -0.19300328 4278777600
1.2612587 -1.5173484 -0.20356154 4278777600
1.2647033 -1.5213952 -0.21354911 4278908160
1.2639906 -1.5204408 -0.22261688 4278908160
1.2513866 -1.5051835 -0.2292469 4278647040
1.2586597 -1.5138347 -0.2392219 4278777600
1.2735046 -1.5315914 -0.25051567 4279038720
1.2757938 -1.5342464 -0.25917047 4279038720
1.2692957 -1.5263344 -0.26572156 4279038720
1.2653873 -1.5215373 -0.27244991 4278908160
1.2425619 -1.4939959 -0.27464169 4278647040
1.2493683 -1.5020837 -0.2829766 4278777600
1.2602489 -1.5150683 -0.29200482 4278908160
1.2571384 -1.5112321 -0.29749811 4278908160
1.2640562 -1.5194511 -0.30503994 4278908160
1.265425 -1.5209992 -0.31092995 4279038720
1.2564018 -1.5100572 -0.31387687 4278908160
1.264376 -1.5195444 -0.32070073 4279038720
1.2561091 -1.5095125 -0.32303506 4278908160
1.2545255 -1.5075132 -0.32667911 4278908160
1.2526493 -1.5051624 -0.32985666 4278777600
1.2498822 -1.5017416 -0.33240303 4278777600
1.2498702 -1.5016311 -0.33528733 4278777600
1.2427876 -1.4930266 -0.33586946 4278647040
1.2426081 -1.4927156 -0.33791035 4278647040
1.2308064 -1.4784439 -0.3363792 4278516480
1.2307117 -1.4782357 -0.33763784 4278516480
1.2369614 -1.4856476 -0.34024614 4278647040
1.2423133 -1.49198 -0.34221563 4278647040
1.2366765 -1.4851155 -0.34075895 4278647040
1.2455685 -1.4956983 -0.34290385 4278777600
1.2462578 -1.4964305 -0.34238645 4278777600
1.257467 -1.5097934 -0.34434801 4278908160
1.2532729 -1.5046616 -0.34168372 4278908160
1.254238 -1.5057241 -0.34003019 4278908160
1.2549853 -1.506525 -0.33791763 4278908160
1.2590792 -1.5113429 -0.33630174 4278908160
1.2603225 -1.5127385 -0.33352068 4278908160
1.2604184 -1.5127571 -0.33004472 4278908160
1.2619065 -1.5144464 -0.32654509 4278908160
1.2561173 -1.5074023 -0.32079872 4278908160
1.253471 -1.5041305 -0.31551313 4278777600
1.2462289 -1.4953446 -0.30874482 4278647040
1.2349678 -1.4817379 -0.30070177 4278516480
1.2418832 -1.4899398 -0.2967554 4278647040
1.2468886 -1.4958495 -0.29195693 4278647040
1.2686992 -1.5219177 -0.29062468 4279038720
1.263657 -1.5157722 -0.28272587 4278908160
1.2499559 -1.4992418 -0.27267164 4278647040
1.2375633 -1.484283 -0.26274249 4278516480
1.2443044 -1.4922727 -0.25660971 4278647040
1.2566599 -1.5069941 -0.25122634 4278777600
1.2639408 -1.5156286 -0.24442042 4278908160
1.2448841 -1.4926819 -0.23232839 4278647040
1.2355286 -1.4813695 -0.22198096 4278516480
1.2516057 -1.5005498 -0.21590543 4278647040
1.2699065 -1.5223933 -0.20972385 4278908160
1.2582003 -1.5082633 -0.1983079 4278777600
1.2355682 -1.4810385 -0.18521354 4278385920
1.248683 -1.4966632 -0.17734492 4278647040
1.2537671 -1.5026612 -0.16799681 4278647040
1.249688 -1.4976766 -0.15722938 4278647040
1.2379359 -1.4834976 -0.14545591 4278385920
1.2509795 -1.4990329 -0.13642506 4278647040
1.2559668 -1.504913 -0.12621452 4278647040
1.2536507 -1.5020418 -0.11511063 4278647040
1.24155 -1.4874486 -0.1031101 4278385920
1.2455349 -1.4921274 -0.092405111 4278516480
1.2475963 -1.4945015 -0.081404291 4278516480
1.2410771 -1.4865973 -0.069796577 4278385920
1.2096714 -1.448886 -0.057058215 4278254595
1.2323797 -1.4759907 -0.046889246 4278255360
1.2539247 -1.5016989 -0.036221758 4278647040
1.2505344 -1.4975429 -0.024629533 4278516480
1.2513157 -1.4983828 -0.013117746 4278516480
1.2590433 -1.50754 -0.0015870377 4278647040
1.258984 -1.5073726 0.010025045 4278647040
1.2582631 -1.5064133 0.021612991 4278647040
1.2687231 -1.5188394 0.033458352 4278777600
1.3230957 -1.5838298 0.047019329 4279560960
1.4658908 -1.7546525 0.065472551 4281519360
1.4281621 -1.7093827 0.076751865 4280997120
1.5131829 -1.8110293 0.094968289 4282172160
1.5151051 -1.8132141 0.10864954 4282172160
1.5012596 -1.7965295 0.12097564 4281911040
1.3929527 -1.6668143 0.12448324 4280474880
1.5208627 -1.8197559 0.14912407 4282172160
1.5377125 -1.8397996 0.16396725 4282433280
1.5179576 -1.8160479 0.17470463 4282172160
1.4460803 -1.7299454 0.17848483 4281258240
1.5493701 -1.8533925 0.20393641 4282694400
1.5608748 -1.8670355 0.21802115 4282824960
1.5478286 -1.851312 0.22842507 4282694400
1.4983749 -1.7920476 0.23271723 4282041600
1.4019588 -1.6766275 0.22834519 4280736000
1.5539628 -1.8582932 0.26457319 4282824960
1.5536026 -1.8577437 0.27568403 4282824960
1.5305291 -1.8300364 0.28229183 4282433280
1.4795842 -1.7690094 0.28293508 4281780480
1.4427857 -1.7249024 0.28537753 4281258240
1.5559814 -1.8601133 0.3176429 4282824960
1.5467098 -1.8489113 0.32520968 4282694400
1.5300597 -1.8288914 0.33070153 4282563840
1.4792628 -1.7680607 0.32805291 4281780480
1.502727 -1.7959912 0.34133902 4282172160
1.4508498 -1.7338791 0.33698192 4281388800
1.4284742 -1.7070295 0.33871669 4281127680
1.3703762 -1.6374978 0.33121723 4280344320
1.3730183 -1.6405503 0.33776239 4280344320
1.3877283 -1.6580207 0.34695697 4280605440
1.3255759 -1.5836616 0.33636066 4279822080
1.3219913 -1.5792781 0.33999196 4279691520
1.3399701 -1.6006539 0.34881845 4279952640
1.3332912 -1.5925739 0.35085797 4279822080
1.3329829 -1.5921042 0.35414574 4279822080
1.3327159 -1.5916835 0.35703009 4279822080
1.3324913 -1.5913137 0.35950807 4279822080
1.3291481 -1.5872197 0.36071879 4279822080
1.3321745 -1.5907325 0.36323488 4279822080
1.3320844 -1.5905232 0.36447978 4279822080
1.3383642 -1.5979195 0.36704475 4279952640
1.3288816 -1.5864966 0.36485803 4279822080
1.3320934 -1.5902295 0.36572632 4279822080
1.3321904 -1.5902437 0.365311 4279822080
1.332334 -1.5903138 0.36448061 4279822080
1.3356872 -1.5942144 0.36409822 4279952640
1.3270657 -1.5838232 0.36003363 4279822080
1.3362051 -1.594629 0.36036325 4279952640
1.3245035 -1.5805635 0.35465929 4279822080
1.3808169 -1.6476586 0.36665049 4280474880
1.3749061 -1.6405008 0.36158133 4280474880
1.3690319 -1.6333877 0.35613313 4280344320
1.4213107 -1.695653 0.365251 4281127680
1.4370831 -1.7143605 0.36434489 4281258240
1.4497324 -1.7293401 0.36212385 4281388800
1.5051842 -1.7953721 0.36990538 4282172160
1.5220476 -1.8153709 0.36748138 4282433280
1.5418775 -1.838905 0.36518762 4282694400
1.5543385 -1.8536482 0.36057836 4282824960
1.5525914 -1.8514465 0.35220936 4282824960
1.52782 -1.8211567 0.28697422 4282433280
1.5465329 -1.8433447 0.27984634 4282694400
1.5511509 -1.8487312 0.26969436 4282694400
1.5424707 -1.8382684 0.25696072 4282563840
1.516122 -1.8067515 0.24125852 4282172160
1.5223569 -1.8140659 0.23062354 4282302720
1.5268981 -1.8193612 0.21939468 4282302720
1.432225 -1.7064455 0.19438726 4280997120
1.4083072 -1.6778413 0.17971781 4280736000
1.5041484 -1.7919109 0.17953785 4282041600
1.5301266 -1.8227428 0.16981472 4282302720
1.520166 -1.8107619 0.15578535 4282172160
1.4827503 -1.7660811 0.13918038 4281649920
1.3890427 -1.654362 0.11827978 4280344320
1.2862345 -1.5318187 0.098198555 4279038720
1.2667075 -1.5084672 0.085448712 4278777600
1.2619066 -1.5026542 0.073817112 4278647040
1.265756 -1.5071417 0.062620774 4278647040
1.2671474 -1.5087023 0.051188637 4278647040
1.2643236 -1.5052441 0.039544921 4278647040
1.2529444 -1.4916013 0.027721711 4278516480
1.2654843 -1.5064338 0.016387763 4278647040
1.2573696 -1.4966786 0.0047290479 4278516480
1.2081624 -1.4380143 -0.0065615708 4278254085
1.2455473 -1.482417 -0.018205654 4278385920
1.2491046 -1.4865561 -0.029710831 4278516480
1.2494835 -1.486912 -0.041143581 4278516480
1.2485024 -1.4856498 -0.052480832 4278385920
1.253418 -1.4914041 -0.064044021 4278516480
1.2671494 -1.5076466 -0.076155767 4278647040
1.2693663 -1.5101877 -0.087635651 4278777600
1.2537142 -1.4914709 -0.097667165 4278516480
1.2619733 -1.5012007 -0.10938834 4278647040
1.2701417 -1.5108212 -0.12112535 4278777600
1.270543 -1.511202 -0.13206327 4278777600
1.2628906 -1.5020044 -0.14195783 4278647040
1.2759515 -1.5174414 -0.15406884 4278908160
1.2810054 -1.5233546 -0.16519381 4278908160
1.2875977 -1.5310965 -0.1764296 4279038720
1.2707253 -1.510937 -0.18417478 4278777600
1.2672185 -1.5066712 -0.19349234 4278777600
1.2790418 -1.5206317 -0.20499827 4278908160
1.2799459 -1.5216094 -0.21462226 4278908160
1.2766103 -1.5175472 -0.22327845 4278908160
1.266529 -1.5054673 -0.23041011 4278777600
1.2706537 -1.5102739 -0.23982503 4278908160
1.2887943 -1.5317377 -0.25176352 4279169280
1.2905022 -1.5336698 -0.26033878 4279169280
1.2845486 -1.5264971 -0.26704827 4279038720
1.2799715 -1.5209608 -0.27367738 4279038720
1.2576209 -1.4943068 -0.27604112 4278777600
1.2644715 -1.5023509 -0.28441003 4278777600
1.2722396 -1.511484 -0.29273769 4278908160
1.2691054 -1.5076643 -0.29824629 4278908160
1.2728873 -1.5120608 -0.30503994 4278908160
1.2757638 -1.5153809 -0.3112956 4279038720
1.2717994 -1.5105758 -0.31551948 4278908160
1.2732866 -1.5122457 -0.32072058 4279038720
1.2674248 -1.5051877 -0.3236843 4278908160
1.2664642 -1.5039511 -0.32750064 4278908160
1.2639382 -1.5008557 -0.33052111 4278908160
1.2681363 -1.5057447 -0.33491883 4278908160
1.2605667 -1.4966614 -0.33581185 4278777600
1.2578133 -1.4932971 -0.33757317 4278777600
1.2576311 -1.4929855 -0.3396244 4278777600
1.2425723 -1.4750147 -0.33724043 4278647040
1.2456492 -1.4785728 -0.33936673 4278647040
1.2541671 -1.4885886 -0.34258738 4278777600
1.2573304 -1.4922479 -0.34395149 4278777600
1.2541922 -1.4884286 -0.34318995 4278777600
1.2599732 -1.4951938 -0.34446535 4278777600
1.2644755 -1.500441 -0.34498385 4278908160
1.2643932 -1.5002478 -0.34384522 4278908160
1.2620181 -1.4973341 -0.34168372 4278908160
1.2665198 -1.5025793 -0.34098065 4278908160
1.2726336 -1.5097364 -0.34029534 4279038720
1.2742165 -1.5115179 -0.33798692 4279038720
1.2786472 -1.5166771 -0.33602586 4279038720
1.2692107 -1.5053879 -0.33004472 4278908160
1.2675289 -1.5032973 -0.32572797 4278908160
1.2706041 -1.5068486 -0.32225087 4278908160
1.2743057 -1.511142 -0.31853586 4279038720
1.2612872 -1.4956087 -0.31031135 4278777600
1.2467649 -1.478294 -0.30147195 4278647040
1.2505428 -1.4826791 -0.2967554 4278647040
1.2587707 -1.4923393 -0.29269826 4278777600
1.2807344 -1.5182816 -0.29135031 4279038720
1.2845942 -1.52276 -0.28542042 4279038720
1.2650558 -1.4995037 -0.27405512 4278777600
1.2493849 -1.4808341 -0.26341608 4278516480
1.2593708 -1.4925749 -0.25791904 4278647040
1.274374 -1.5102601 -0.25300431 4278908160
1.2725222 -1.5079693 -0.24437673 4278908160
1.2599635 -1.4929918 -0.23351525 4278647040
1.2569532 -1.4893299 -0.22426739 4278647040
1.2635325 -1.49703 -0.21645455 4278647040
1.2813206 -1.5180085 -0.21014464 4278908160
1.2759514 -1.5115511 -0.19971423 4278908160
1.2532214 -1.4845296 -0.18656008 4278516480
1.2573817 -1.4893627 -0.17734492 4278647040
1.268883 -1.5028903 -0.16884609 4278777600
1.2673953 -1.5010326 -0.15835422 4278647040
1.2465581 -1.4762599 -0.14545591 4278385920
1.26291 -1.4955299 -0.13677357 4278647040
1.2705083 -1.5044317 -0.12679283 4278777600
1.2673078 -1.5005462 -0.11555991 4278647040
1.259216 -1.4908702 -0.1038541 4278516480
1.25743 -1.4886608 -0.092642553 4278516480
1.2595061 -1.4910237 -0.081613176 4278516480
1.2497172 -1.4793413 -0.069796577 4278385920
1.2539309 -1.4842346 -0.05873698 4278516480
1.2625685 -1.4943632 -0.047705784 4278647040
1.2627743 -1.4945116 -0.036225244 4278647040
1.2653682 -1.4974862 -0.024749434 4278647040
1.2591494 -1.4900317 -0.013108638 4278516480
1.2736598 -1.5071067 -0.0015943666 4278777600
1.2788492 -1.5131508 0.010112857 4278777600
1.2721258 -1.5050997 0.021700114 4278647040
1.2807779 -1.5152398 0.033542871 4278777600
1.3290739 -1.5722767 0.046905439 4279430400
1.4531989 -1.7190053 0.064457253 4281127680
1.4471303 -1.7117177 0.077233978 4281127680
1.5391916 -1.820495 0.095933296 4282302720
1.5411232 -1.8226635 0.10975193 4282302720
1.495277 -1.7683293 0.11966129 4281780480
1.3465551 -1.5923479 0.11950573 4279691520
1.499281 -1.7728385 0.14599267 4281780480
1.5426168 -1.8239651 0.16335428 4282433280
1.5349528 -1.8147876 0.17544074 4282302720
1.4657918 -1.7329077 0.17966852 4281388800
1.5691516 -1.8549849 0.20511411 4282824960
1.5807321 -1.8685557 0.21927041 4282955520
1.5561985 -1.8394377 0.2280748 4282563840
1.5184312 -1.7946823 0.23420425 4282172160
1.4271219 -1.6866533 0.23083913 4280866560
1.567974 -1.8530022 0.26511607 4282824960
1.5701764 -1.8554868 0.27670199 4282824960
1.5475806 -1.8286687 0.28346691 4282563840
1.502049 -1.774754 0.28524873 4281911040
1.4617835 -1.7270683 0.28714007 4281388800
1.5699954 -1.8548002 0.31829226 4282824960
1.5574653 -1.83988 0.3252117 4282694400
1.5496492 -1.8305298 0.33262473 4282563840
1.5048916 -1.7775466 0.33143419 4282041600
1.4615666 -1.7262619 0.32969937 4281388800
1.4730706 -1.7397386 0.33978298 4281649920
1.435201 -1.6949056 0.3379645 4281127680
1.3773389 -1.6264694 0.33060408 4280344320
1.3857449 -1.6362917 0.33854216 4280474880
1.3916217 -1.6431262 0.34553099 4280474880
1.3284012 -1.5683801 0.33475316 4279691520
1.3400979 -1.5820892 0.34227222 4279822080
1.3397102 -1.5815308 0.34634623 4279822080
1.3489208 -1.5923024 0.35252362 4279952640
1.3390502 -1.5805502 0.3533051 4279822080
1.3419667 -1.5838919 0.35703009 4279822080
1.3328223 -1.5729988 0.35711867 4279822080
1.3326409 -1.5726845 0.35917389 4279822080
1.3229522 -1.561151 0.35823408 4279691520
1.3355975 -1.5759728 0.36292249 4279822080
1.3323691 -1.5720633 0.36288252 4279822080
1.3412861 -1.5824836 0.36572614 4279822080
1.3356048 -1.5756803 0.3641637 4279822080
1.3382487 -1.5786989 0.36444387 4279822080
1.3447615 -1.5862808 0.36534575 4279952640
1.3417678 -1.5826488 0.36323601 4279822080
1.3420048 -1.5828274 0.36157852 4279822080
1.3391007 -1.5793017 0.35865653 4279822080
1.3900108 -1.6392393 0.36963636 4280474880
1.3961312 -1.6463521 0.36816362 4280605440
1.3844407 -1.6324625 0.36158133 4280474880
1.3817151 -1.6291448 0.35695723 4280344320
1.4337186 -1.6903532 0.36590251 4281127680
1.4496007 -1.7089694 0.36498791 4281258240
1.4655317 -1.7276407 0.36354983 4281519360
1.4789541 -1.7433528 0.36095691 4281649920
1.5195121 -1.7910473 0.36434355 4282302720
1.5711136 -1.851752 0.36955047 4282955520
1.571511 -1.8521025 0.36205262 4282955520
1.5723153 -1.8529326 0.35422871 4282955520
1.550612 -1.8266047 0.28925139 4282563840
1.567467 -1.8463421 0.28168306 4282824960
1.5683278 -1.8472384 0.27080497 4282824960
1.5589467 -1.8360721 0.25791898 4282694400
1.5356374 -1.808504 0.24268313 4282302720
1.5393425 -1.8127521 0.23159279 4282302720
1.5374722 -1.8104343 0.21939468 4282302720
1.3496729 -1.589192 0.1819232 4279822080
1.3911437 -1.6379181 0.17630671 4280344320
1.5235995 -1.7937561 0.18060908 4282041600
1.5371006 -1.8095357 0.16941574 4282302720
1.5345761 -1.8064488 0.15618084 4282172160
1.4955997 -1.7604551 0.13942136 4281649920
1.3805556 -1.6249346 0.11674894 4280083200
1.2977242 -1.5273435 0.098394692 4279038720
1.280081 -1.5064826 0.085757315 4278777600
1.2667598 -1.4907103 0.073591687 4278647040
1.2868586 -1.514266 0.063227229 4278908160
1.2780143 -1.503763 0.051272817 4278777600
1.2696925 -1.4938762 0.03943995 4278647040
1.2686052 -1.4925019 0.027875341 4278647040
1.2733794 -1.4980234 0.0163767 4278647040
1.247568 -1.4675649 0.0046599456 4278255360
1.2435404 -1.4627341 -0.0067073111 4278255360
1.2664695 -1.4896098 -0.018384296 4278516480
1.2577444 -1.4792533 -0.029710831 4278516480
1.2646017 -1.4872235 -0.041355375 4278516480
1.2597271 -1.4813967 -0.052588966 4278516480
1.2743882 -1.4985421 -0.06466829 4278647040
1.2823856 -1.5078502 -0.076542169 4278777600
1.2780929 -1.502707 -0.087632187 4278777600
1.2682064 -1.4909881 -0.098117739 4278647040
1.2797551 -1.5044699 -0.11016802 4278777600
1.2756889 -1.4995942 -0.12081909 4278777600
1.279326 -1.5037739 -0.13206327 4278777600
1.2683886 -1.4908228 -0.14159708 4278647040
1.2847707 -1.5099816 -0.15406884 4278908160
1.2936885 -1.520366 -0.16568427 4279038720
1.2997241 -1.5273619 -0.17686884 4279038720
1.2827332 -1.5072992 -0.1846392 4278908160
1.2792002 -1.5030519 -0.19398139 4278777600
1.290874 -1.5166721 -0.20547491 4279038720
1.2945892 -1.5209402 -0.21558811 4279038720
1.2918713 -1.5176506 -0.22439729 4279038720
1.2784977 -1.5018442 -0.23099172 4278777600
1.2884403 -1.5134274 -0.24151374 4279038720
1.2976966 -1.5242029 -0.25176352 4279169280
1.3000134 -1.526827 -0.26045853 4279169280
1.3007174 -1.5275564 -0.26855484 4279169280
1.2927445 -1.5180966 -0.27451262 4279038720
1.2663057 -1.4869543 -0.27604112 4278777600
1.273203 -1.4949583 -0.28441003 4278777600
1.2842313 -1.5078114 -0.29347056 4279038720
1.2900944 -1.5145988 -0.3010999 4279038720
1.2906475 -1.5151517 -0.30717531 4279038720
1.2845709 -1.5079223 -0.3112956 4279038720
1.2895441 -1.5136638 -0.31772843 4279038720
1.2820756 -1.5048016 -0.32072058 4279038720
1.2825723 -1.5052887 -0.32530746 4279038720
1.2809629 -1.5033041 -0.32897937 4279038720
1.2790569 -1.5009718 -0.33218217 4278908160
1.2800847 -1.5020823 -0.3357574 4279038720
1.2756582 -1.4967929 -0.33750325 4278908160
1.2696881 -1.4896932 -0.33842504 4278777600
1.2726991 -1.4931308 -0.34133846 4278908160
1.2607304 -1.478995 -0.33982414 4278777600
1.2606323 -1.4787859 -0.34109566 4278777600
1.2631338 -1.4816259 -0.34267285 4278777600
1.2723926 -1.4923913 -0.34568739 4278908160
1.2660376 -1.484843 -0.34405819 4278777600
1.275053 -1.4953215 -0.34620035 4278908160
1.2789474 -1.4997932 -0.34654227 4278908160
1.2820606 -1.5033482 -0.34626192 4279038720
1.27967 -1.5004495 -0.34409016 4279038720
1.287043 -1.5089986 -0.3441332 4279038720
1.2878033 -1.5097939 -0.34199369 4279038720
1.2855601 -1.5070682 -0.33866102 4279038720
1.287462 -1.5092018 -0.33602586 4279038720
1.2901218 -1.5122234 -0.33318564 4279038720
1.2884321 -1.5101467 -0.32883304 4279038720
1.2825646 -1.5031739 -0.32305762 4279038720
1.2798841 -1.4999369 -0.31774041 4278908160
1.272544 -1.4912399 -0.31093794 4278777600
1.2649776 -1.4822788 -0.3037824 4278777600
1.2681439 -1.4858944 -0.29887268 4278777600
1.2828525 -1.5030332 -0.29625666 4278908160
1.295982 -1.5183194 -0.29280156 4279169280
1.2966577 -1.5190144 -0.28612953 4279169280
1.2795579 -1.4988869 -0.27530026 4278908160
1.264425 -1.4810659 -0.26476327 4278647040
1.2697511 -1.4872098 -0.25826594 4278777600
1.2805752 -1.4997923 -0.2524963 4278908160
1.2905376 -1.511364 -0.24614121 4279038720
1.2750885 -1.4931765 -0.23470211 4278777600
1.2681897 -1.4850031 -0.22472468 4278647040
1.2786881 -1.4972012 -0.2175528 4278777600
1.290143 -1.5105175 -0.21014464 4278908160
1.2879673 -1.5078741 -0.20021649 4278908160
1.265082 -1.4809872 -0.18703802 4278647040
1.2742169 -1.4915862 -0.17849065 4278647040
1.2867236 -1.5061307 -0.1700495 4278908160
1.2793565 -1.4974122 -0.15875596 4278777600
1.2616155 -1.4765534 -0.1462066 4278516480
1.2765559 -1.4939442 -0.13730642 4278647040
1.2824934 -1.5007973 -0.12711412 4278777600
1.2807959 -1.4987155 -0.11599164 4278777600
1.2743685 -1.4910996 -0.10438552 4278647040
1.2736422 -1.4901551 -0.093195766 4278647040
1.2772602 -1.4942931 -0.082198068 4278647040
1.2706527 -1.4864682 -0.07048092 4278647040
1.2362144 -1.4460888 -0.057511456 4278255105
1.2618276 -1.4759564 -0.047352064 4278516480
1.2795174 -1.4965531 -0.036454804 4278647040
1.2743973 -1.4904696 -0.024755763 4278647040
1.2796061 -1.4964663 -0.013230612 4278647040
1.2895223 -1.5079671 -0.0016031978 4278777600
1.2864075 -1.5042289 0.010103148 4278777600
1.2822299 -1.4992487 0.021723097 4278777600
1.2995996 -1.5194616 0.033803374 4278908160
1.3658985 -1.5968752 0.047875885 4279822080
1.4384984 -1.6816449 0.06336955 4280866560
1.4694223 -1.7176867 0.077888273 4281258240
1.5588658 -1.822126 0.09649621 4282433280
1.557561 -1.8204851 0.11016533 4282433280
1.5088006 -1.7633816 0.1199193 4281780480
1.3343898 -1.5594431 0.11761771 4279430400
1.5005 -1.7534573 0.14511411 4281649920
1.5713708 -1.8361589 0.16526349 4282694400
1.5513362 -1.812633 0.17610325 4282433280
1.4816972 -1.7311543 0.18037874 4281388800
1.5831723 -1.8495961 0.20553473 4282824960
1.5910096 -1.8586341 0.2191902 4282955520
1.5759529 -1.8409277 0.22939414 4282694400
1.5411572 -1.8001672 0.2360878 4282302720
1.4433929 -1.685865 0.23187828 4280997120
1.5859118 -1.8522077 0.26631984 4282955520
1.5783849 -1.8432996 0.27625126 4282824960
1.5607922 -1.8226383 0.28393692 4282563840
1.5188197 -1.7735115 0.28646645 4282041600
1.4847273 -1.7335918 0.28965795 4281519360
1.5817311 -1.8467376 0.31848472 4282955520
1.5716999 -1.8349091 0.32594612 4282824960
1.5503191 -1.8098326 0.33049956 4282433280
1.5306807 -1.7867934 0.33481547 4282302720
1.4902695 -1.7395099 0.33388227 4281649920
1.496052 -1.7461486 0.34273148 4281780480
1.3931433 -1.6259329 0.32582432 4280344320
1.3925786 -1.6251706 0.33198366 4280344320
1.3952549 -1.6281903 0.33854216 4280474880
1.3411855 -1.5649947 0.3307384 4279691520
1.3439392 -1.5681082 0.33636066 4279822080
1.3492928 -1.5742546 0.34227222 4279822080
1.3521113 -1.5774429 0.34717029 4279822080
1.3459821 -1.5701923 0.34935889 4279822080
1.3482361 -1.5727218 0.3533051 4279822080
1.351172 -1.5760463 0.35703009 4279822080
1.3355509 -1.5577264 0.35541198 4279691520
1.3385749 -1.5611541 0.35831565 4279691520
1.3352312 -1.5571555 0.35909629 4279691520
1.3351396 -1.5569497 0.36032701 4279691520
1.3318888 -1.5530602 0.36028114 4279691520
1.3383019 -1.5604389 0.36242732 4279691520
1.3473269 -1.5708621 0.36485821 4279822080
1.3474238 -1.5708752 0.36444387 4279822080
1.3539807 -1.578419 0.36534575 4279952640
1.3541727 -1.5785426 0.36409822 4279952640
1.3512039 -1.5749817 0.36157852 4279822080
1.3546953 -1.5789511 0.36036325 4279952640
1.3486066 -1.5717543 0.35618475 4279822080
1.3367801 -1.5578721 0.35011312 4279691520
1.3971388 -1.6281102 0.36241415 4280474880
1.394395 -1.6248094 0.35778129 4280474880
1.4038973 -1.635778 0.35585344 4280605440
1.4659612 -1.7079842 0.36659545 4281388800
1.4820033 -1.7265651 0.3651343 4281649920
1.4980934 -1.7451994 0.36314029 4281780480
1.5485878 -1.803908 0.36878887 4282433280
1.5649881 -1.8228965 0.36560529 4282694400
1.58362 -1.8444816 0.36236036 4282955520
1.5812067 -1.8415538 0.35380861 4282955520
1.5615469 -1.8179109 0.28931049 4282563840
1.5802047 -1.839515 0.28204131 4282824960
1.5913682 -1.8523926 0.27291518 4282955520
1.5728672 -1.8307406 0.25845295 4282694400
1.552631 -1.8070718 0.2437007 4282433280
1.5589589 -1.8143214 0.23294973 4282433280
1.5577286 -1.8127744 0.22077435 4282433280
1.3623393 -1.5852933 0.18238243 4279822080
1.4267472 -1.6601363 0.17959005 4280605440
1.5463725 -1.7992159 0.18206288 4282302720
1.5636151 -1.8191621 0.17116703 4282433280
1.5509287 -1.8042877 0.15677258 4282302720
1.5090846 -1.7554964 0.13972259 4281780480
1.3926032 -1.6198922 0.11696763 4280213760
1.3170999 -1.5319686 0.099185333 4279169280
1.2978743 -1.5095108 0.086358689 4278908160
1.2858454 -1.4954252 0.074193031 4278777600
1.2908945 -1.5012019 0.062994711 4278777600
1.2948071 -1.5056562 0.051593717 4278777600
1.2861133 -1.4954516 0.0396787 4278777600
1.2837994 -1.4926662 0.028017636 4278647040
1.2878114 -1.4972358 0.016449839 4278777600
1.2861645 -1.4952261 0.004771491 4278777600
1.2653123 -1.470891 -0.0067784041 4278385920
1.2710174 -1.4774292 -0.018325051 4278516480
1.2728627 -1.47948 -0.029863829 4278516480
1.2882993 -1.4973272 -0.041844342 4278777600
1.2740083 -1.4806234 -0.052824128 4278516480
1.2830974 -1.4910917 -0.06466829 4278647040
1.2911489 -1.5003532 -0.076542169 4278777600
1.2992587 -1.5096811 -0.088478841 4278908160
1.2833867 -1.4911438 -0.098618373 4278647040
1.2884988 -1.4969882 -0.11016802 4278777600
1.2935203 -1.5027269 -0.12167662 4278777600
1.294575 -1.5038565 -0.13273068 4278908160
1.2868139 -1.4947457 -0.14267935 4278777600
1.2994008 -1.5092707 -0.15476614 4278908160
1.3084224 -1.5196528 -0.1664345 4279038720
1.3144506 -1.5265572 -0.1776595 4279169280
1.3005891 -1.5103631 -0.1859396 4279038720
1.2937803 -1.5023606 -0.1948617 4278908160
1.3096563 -1.5206994 -0.20705076 4279169280
1.3034285 -1.5133718 -0.21558811 4279038720
1.3065282 -1.5168746 -0.22540425 4279038720
1.2898189 -1.4973799 -0.23145701 4278908160
1.2972361 -1.505895 -0.24151374 4279038720
1.3123832 -1.5233817 -0.25288659 4279169280
1.3147581 -1.5260414 -0.26162681 4279169280
1.3145409 -1.5256925 -0.26956904 4279299840
1.3131269 -1.5239546 -0.27695066 4279169280
1.2872283 -1.493803 -0.27870008 4278908160
1.2967963 -1.5048108 -0.28771695 4279038720
1.2994521 -1.5077968 -0.2949363 4279038720
1.3014789 -1.5100527 -0.30169845 4279038720
1.3091317 -1.5188354 -0.3094632 4279169280
1.3030095 -1.5116364 -0.31362426 4279169280
1.3015648 -1.5098646 -0.31851733 4279169280
1.3037117 -1.5122589 -0.32392341 4279169280
1.3035626 -1.51199 -0.32839146 4279169280
1.2993616 -1.5070214 -0.33144394 4279169280
1.2967955 -1.5039498 -0.33450767 4279038720
1.2913896 -1.4975852 -0.33642828 4279038720
1.2933685 -1.4997847 -0.33987123 4279038720
1.2783458 -1.4822705 -0.33842504 4278777600
1.2813767 -1.4856905 -0.34133846 4278908160
1.2751163 -1.4783379 -0.34137434 4278777600
1.2750165 -1.4781283 -0.34265167 4278777600
1.2717446 -1.4742415 -0.34267285 4278777600
1.2836392 -1.4879354 -0.34638175 4278908160
1.2836735 -1.4878808 -0.34648919 4278908160
1.2869602 -1.4915956 -0.34706786 4278908160
1.2908809 -1.4960446 -0.34740806 4279038720
1.2958894 -1.5017538 -0.34762782 4279038720
1.2948263 -1.5004265 -0.34580904 4279038720
1.295813 -1.5014744 -0.3441332 4279038720
1.3023728 -1.5089796 -0.34352222 4279169280
1.3007593 -1.5070144 -0.34034619 4279169280
1.3020313 -1.5083923 -0.33752894 4279169280
1.2989104 -1.5046811 -0.33318564 4279038720
1.3036555 -1.5100821 -0.33046728 4279169280
1.29775 -1.5031461 -0.32467112 4279038720
1.2950534 -1.4999273 -0.31933132 4279038720
1.2876655 -1.4912759 -0.31250447 4278908160
1.2826329 -1.4853534 -0.30593884 4278777600
1.2832402 -1.4859622 -0.30038506 4278777600
1.2948197 -1.4992758 -0.29699796 4279038720
1.304806 -1.510743 -0.29280156 4279169280
1.308074 -1.5144305 -0.28669679 4279169280
1.2947431 -1.4989015 -0.27668375 4278908160
1.2844969 -1.4869453 -0.2671476 4278777600
1.2874678 -1.4902897 -0.26009899 4278777600
1.2986006 -1.5030808 -0.2543194 4279038720
1.3090535 -1.5150836 -0.24798489 4279169280
1.2896092 -1.4924841 -0.23577029 4278777600
1.2765534 -1.4772805 -0.22467774 4278647040
1.2985945 -1.502692 -0.21944632 4278908160
1.302173 -1.5067372 -0.21067065 4279038720
1.3090919 -1.5146469 -0.20212509 4279038720
1.273689 -1.4735914 -0.18703802 4278647040
1.2887468 -1.4909179 -0.17930615 4278777600
1.2954768 -1.4986084 -0.1700495 4278908160
1.2847996 -1.4861627 -0.15835422 4278647040
1.2793273 -1.4797387 -0.14725758 4278647040
1.2943727 -1.4970459 -0.13828228 4278777600
1.2977427 -1.5008484 -0.12775669 4278908160
1.2971127 -1.5000244 -0.11667587 4278777600
1.2871238 -1.4883785 -0.10471824 4278647040
1.2823025 -1.4827093 -0.093195766 4278647040
1.284901 -1.4856195 -0.082131363 4278647040
1.2936338 -1.4956214 -0.071271092 4278777600
1.2723505 -1.4709216 -0.058792897 4278516480
1.2805459 -1.4803021 -0.047730032 4278647040
1.2914857 -1.4928536 -0.036547363 4278777600
1.2922187 -1.493606 -0.024932483 4278777600
1.2893941 -1.4902467 -0.013241816 4278647040
1.2993137 -1.501616 -0.0016044666 4278777600
1.3075821 -1.511076 0.010200132 4278908160
1.2993922 -1.5015162 0.021865275 4278777600
1.3090277 -1.5125544 0.033818811 4278908160
1.3774661 -1.5915325 0.047955506 4279822080
1.4731305 -1.7019557 0.064457253 4281127680
1.4826754 -1.7128745 0.078060456 4281258240
1.5631738 -1.8057563 0.096109994 4282302720
1.5655357 -1.80837 0.1099823 4282433280
1.4972303 -1.7293597 0.11819687 4281519360
1.3987632 -1.6155237 0.12246007 4280213760
1.5175556 -1.7526138 0.14577354 4281780480
1.5673529 -1.8100094 0.16372904 4282433280
1.5576465 -1.798686 0.17562696 4282302720
1.5106841 -1.7443457 0.18266721 4281649920
1.5812719 -1.8257354 0.20390354 4282694400
1.5864924 -1.8316469 0.21709397 4282694400
1.5681949 -1.810407 0.22672568 4282433280
1.4957848 -1.7267033 0.22759226 4281519360
1.4720764 -1.699227 0.2348918 4281258240
1.5931031 -1.8388121 0.26572385 4282824960
1.5695337 -1.8114924 0.27285025 4282563840
1.529863 -1.7655941 0.27643427 4282041600
1.5013734 -1.7326047 0.28126714 4281649920
1.4432415 -1.665414 0.27966666 4280866560
1.5892923 -1.8338314 0.31785044 4282824960
1.5716136 -1.8133174 0.32373175 4282563840
1.5385338 -1.7750375 0.32577693 4282172160
1.5101351 -1.7421627 0.32809559 4281780480
1.5282502 -1.7629493 0.34008452 4282041600
1.4612613 -1.6855657 0.33250579 4281127680
1.4213734 -1.6394508 0.33018711 4280605440
1.4240334 -1.6424147 0.33719534 4280736000
1.3572447 -1.5652844 0.32710108 4279822080
1.3690398 -1.5787872 0.33533326 4279952640
1.3776249 -1.5885867 0.34246922 4280083200
1.3804207 -1.5917096 0.34781 4280083200
1.3800201 -1.5911468 0.35194993 4280083200
1.3796586 -1.590629 0.35568836 4280083200
1.3670652 -1.5760099 0.35582697 4279952640
1.301512 -1.5003422 0.34159246 4279038720
1.2948341 -1.4925494 0.34225658 4279038720
1.2914288 -1.4885296 0.34336802 4278908160
1.2912953 -1.4882814 0.34494233 4278908160
1.3506429 -1.5565835 0.36205733 4279822080
1.353824 -1.5601507 0.36374965 4279822080
1.2879359 -1.4841268 0.34644005 4278908160
1.2912099 -1.4878051 0.34730831 4278908160
1.3662362 -1.5741549 0.36704525 4279952640
1.3754203 -1.5846361 0.36863336 4280083200
1.3820719 -1.5921983 0.36909902 4280213760
1.3823147 -1.5923769 0.36741477 4280213760
1.3858339 -1.5963296 0.36616611 4280213760
1.376478 -1.5854521 0.36110014 4280083200
1.3678074 -1.5753652 0.35582945 4279952640
1.3559414 -1.5615995 0.34936163 4279822080
1.4225919 -1.638255 0.36256096 4280736000
1.4289302 -1.6454496 0.35976249 4280736000
1.44243 -1.6608896 0.35828498 4280997120
1.4585663 -1.6793633 0.35694313 4281127680
1.4773409 -1.7008721 0.35570166 4281388800
1.5335531 -1.7654774 0.36275268 4282172160
1.5598172 -1.7955996 0.36194712 4282433280
1.5875355 -1.8273919 0.36081398 4282824960
1.5876878 -1.8274513 0.3528704 4282824960
1.5613252 -1.7963716 0.28732544 4282433280
1.5646942 -1.8001335 0.27739623 4282433280
1.57142 -1.8077567 0.26768327 4282563840
1.5580201 -1.7922277 0.25429314 4282302720
1.5588498 -1.7930684 0.24303292 4282302720
1.5407244 -1.7721071 0.22867833 4282041600
1.5374856 -1.7682698 0.2164415 4282041600
1.4654765 -1.6853448 0.19487201 4281127680
1.5041032 -1.7296571 0.18805546 4281519360
1.5279946 -1.7570198 0.17869087 4281911040
1.5394975 -1.7701343 0.16739507 4282041600
1.5409681 -1.7717128 0.15471967 4282041600
1.5174227 -1.744531 0.13955115 4281649920
1.4056172 -1.6158894 0.11726796 4280213760
1.3230029 -1.52082 0.098960914 4279169280
1.3099258 -1.5056921 0.086575381 4278908160
1.3050902 -1.5000386 0.074797906 4278908160
1.3139509 -1.5101272 0.063689411 4279038720
1.2965429 -1.4900256 0.051316086 4278777600
1.3000464 -1.4939573 0.039839346 4278777600
1.2902867 -1.4826475 0.027970215 4278647040
1.299795 -1.4934788 0.016491484 4278777600
1.2998832 -1.4934855 0.004790023 4278777600
1.2780749 -1.4683357 -0.006800829 4278516480
1.2849894 -1.4761859 -0.01840218 4278647040
1.2927799 -1.4850415 -0.030127617 4278647040
1.2970011 -1.4897959 -0.041844342 4278777600
1.2879976 -1.4793602 -0.053045888 4278647040
1.3084041 -1.5027032 -0.065501377 4278908160
1.311182 -1.5057981 -0.077208363 4278908160
1.3138556 -1.508773 -0.088872738 4279038720
1.2937905 -1.4856367 -0.098751016 4278777600
1.3096577 -1.5037614 -0.11122613 4278908160
1.3077624 -1.5014899 -0.12219133 4278908160
1.3091316 -1.5029666 -0.13332307 4278908160
1.3003508 -1.4927909 -0.14321351 4278777600
1.3165141 -1.5112505 -0.15575306 4279038720
1.3231456 -1.5187666 -0.1671789 4279169280
1.3224708 -1.5178957 -0.17754517 4279169280
1.3194581 -1.5143418 -0.18737265 4279169280
1.3125508 -1.5063187 -0.19636364 4279038720
1.3211079 -1.5160429 -0.20746124 4279169280
1.3241388 -1.5194247 -0.21754569 4279169280
1.324541 -1.5197898 -0.22698034 4279169280
1.3083098 -1.5010707 -0.23320182 4279038720
1.3160037 -1.5098023 -0.24336597 4279169280
1.3244963 -1.5194492 -0.2535105 4279299840
1.3294915 -1.5250831 -0.26278603 4279299840
1.3299209 -1.5254788 -0.27089575 4279299840
1.3219836 -1.5162783 -0.27695066 4279169280
1.3046316 -1.496281 -0.28057581 4279038720
1.3022895 -1.4935002 -0.28700024 4279038720
1.3142971 -1.5071753 -0.29630756 4279169280
1.3167533 -1.5098962 -0.30319479 4279169280
1.320557 -1.5141617 -0.31007332 4279299840
1.3161089 -1.508966 -0.31465578 4279169280
1.3191603 -1.5123684 -0.32066149 4279299840
1.3208551 -1.5142155 -0.32598537 4279299840
1.315593 -1.5080874 -0.32920304 4279169280
1.3121797 -1.5040792 -0.33247262 4279169280
1.3133235 -1.5052949 -0.33650306 4279169280
1.3065742 -1.4974641 -0.33810547 4279038720
1.306555 -1.4973471 -0.34103814 4279038720
1.3050911 -1.4955746 -0.34319282 4279038720
1.2926021 -1.4811687 -0.34202409 4278908160
1.2924564 -1.4809078 -0.34370083 4278908160
1.295593 -1.4844078 -0.3458513 4278908160
1.2987742 -1.4879582 -0.3476142 4279038720
1.3020009 -1.4915602 -0.34898558 4279038720
1.3078542 -1.4981707 -0.35065398 4279169280
1.2988672 -1.4877816 -0.34793535 4279038720
1.3060527 -1.4959174 -0.34913966 4279038720
1.3110952 -1.5015978 -0.34935403 4279169280
1.3128948 -1.5035634 -0.34828907 4279169280
1.3110195 -1.5013207 -0.34584281 4279169280
1.317027 -1.5081044 -0.34506401 4279299840
1.3154093 -1.5061567 -0.34187752 4279169280
1.3193609 -1.5105853 -0.33973402 4279299840
1.3167381 -1.5074869 -0.3355 4279169280
1.3156766 -1.5061761 -0.3312844 4279169280
1.3155755 -1.5059649 -0.32693002 4279169280
1.3096161 -1.499048 -0.32076314 4279038720
1.3016874 -1.4898779 -0.31379545 4279038720
1.2929844 -1.4798229 -0.30634621 4278908160
1.291876 -1.4784606 -0.30038506 4278777600
1.3094352 -1.498461 -0.29834279 4279038720
1.3259561 -1.5172706 -0.29555896 4279299840
1.325173 -1.5162783 -0.28850332 4279299840
1.3088253 -1.497478 -0.2778239 4279038720
1.2919667 -1.4780957 -0.26690552 4278777600
1.3048739 -1.4927678 -0.26185393 4278908160
1.3171282 -1.5066911 -0.25622436 4279169280
1.3145926 -1.5036952 -0.24737033 4279038720
1.3037748 -1.4912268 -0.23676765 4278908160
1.296712 -1.4830545 -0.2267011 4278777600
1.3073274 -1.4951006 -0.21944632 4278908160
1.3192682 -1.5086608 -0.21201071 4279038720
1.3113908 -1.4995574 -0.20112763 4279038720
1.2905028 -1.4755787 -0.18824141 4278647040
1.3057048 -1.4928663 -0.18045233 4278908160
1.3168824 -1.5055506 -0.17170495 4279038720
1.3080326 -1.4953382 -0.16014121 4278908160
1.2929668 -1.4780213 -0.14783382 4278647040
1.3015288 -1.4877144 -0.13811845 4278777600
1.3126125 -1.5002885 -0.12835784 4278908160
1.3134847 -1.5011902 -0.1173598 4278908160
1.3113317 -1.4986346 -0.10597558 4278908160
1.301868 -1.4877248 -0.093986183 4278777600
1.3049254 -1.4911243 -0.082854599 4278777600
1.3036197 -1.4895378 -0.071341917 4278777600
1.2914096 -1.4754927 -0.059275337 4278647040
1.3042963 -1.4901218 -0.048290864 4278777600
1.2899666 -1.4736573 -0.036260787 4278647040
1.2693951 -1.4500644 -0.024328697 4278385920
1.296838 -1.4813193 -0.013229405 4278647040
1.3028911 -1.4881392 -0.0015981506 4278777600
1.324204 -1.5123864 0.010260884 4279038720
1.3204378 -1.5079894 0.022071194 4279038720
1.3270397 -1.5154331 0.034055468 4279038720
1.3418915 -1.5322961 0.046405405 4279299840
1.3314998 -1.5203335 0.057871599 4279169280
1.4028386 -1.601688 0.073364615 4280083200
1.4575183 -1.664013 0.089016281 4280866560
1.4914379 -1.7026304 0.10407809 4281258240
1.513203 -1.727368 0.1186613 4281519360
1.4745978 -1.6831923 0.12823856 4281127680
1.5418401 -1.759835 0.14711885 4281911040
1.5403743 -1.7580504 0.15983808 4281911040
1.5336741 -1.7502925 0.17177132 4281911040
1.5365894 -1.7535084 0.18456112 4281911040
1.5802467 -1.8032146 0.20241317 4282433280
1.5920712 -1.8165923 0.21640539 4282694400
1.5813409 -1.8042344 0.22710264 4282563840
1.5274643 -1.7426534 0.23086369 4281780480
1.494408 -1.704832 0.23686618 4281388800
1.6155748 -1.8429432 0.26767653 4282955520
1.6033542 -1.8288869 0.27687258 4282824960
1.5907817 -1.8144308 0.28552675 4282694400
1.5081707 -1.7200965 0.28065827 4281649920
1.52314 -1.7370591 0.293183 4281780480
1.6149756 -1.8416759 0.32083556 4283086080
1.5919529 -1.8153065 0.32573724 4282824960
1.552115 -1.769767 0.32646379 4282302720
1.5235237 -1.7370564 0.32879999 4281911040
1.535233 -1.750296 0.33936334 4282041600
1.5378206 -1.7531347 0.3475965 4282041600
1.4217737 -1.6207372 0.32808092 4280474880
1.4146793 -1.6125479 0.33275008 4280474880
1.4265094 -1.6259296 0.34150526 4280605440
1.3625861 -1.5529716 0.33153063 4279822080
1.3712335 -1.5627282 0.33861119 4279822080
1.3773062 -1.5695496 0.34471536 4279952640
1.3860141 -1.5793729 0.35112584 4280083200
1.3732927 -1.5647775 0.3516908 4279952640
1.3697215 -1.5606095 0.35414574 4279822080
1.360343 -1.5498257 0.35465717 4279822080
1.3601114 -1.5494636 0.35711867 4279822080
1.3534253 -1.541749 0.35745737 4279691520
1.3441868 -1.531128 0.35668212 4279560960
1.3440934 -1.5309247 0.35790458 4279560960
1.3531439 -1.5411355 0.36114827 4279691520
1.3407986 -1.5269784 0.35826033 4279560960
1.3596911 -1.5483961 0.36329558 4279822080
1.3656365 -1.555068 0.36444387 4279822080
1.3787801 -1.5699353 0.36707607 4279952640
1.3789744 -1.5700572 0.36582264 4279952640
1.3818167 -1.5731937 0.36483997 4280083200
1.376253 -1.5667601 0.3612166 4279952640
1.3700815 -1.5596355 0.35703224 4279822080
1.358095 -1.5458927 0.35095376 4279691520
1.4218724 -1.6183866 0.36391327 4280605440
1.4099779 -1.6047466 0.35695723 4280344320
1.4202574 -1.6163436 0.35520193 4280474880
1.4331884 -1.6309565 0.35362315 4280736000
1.4526831 -1.6530367 0.35314047 4280997120
1.537237 -1.7491415 0.367663 4282041600
1.5438131 -1.7565126 0.36275268 4282172160
1.5927501 -1.8120772 0.36713293 4282824960
1.6202813 -1.8432828 0.36580935 4283086080
1.6149709 -1.8371251 0.35654917 4283086080
1.5950805 -1.8137567 0.29158768 4282694400
1.6081017 -1.8284472 0.2831983 4282955520
1.6089828 -1.8293331 0.27226171 4282955520
1.5950731 -1.8134037 0.25861192 4282694400
1.5744252 -1.789816 0.24383128 4282433280
1.5836051 -1.8001378 0.23348215 4282563840
1.5965809 -1.8147728 0.22326845 4282694400
1.5544451 -1.7667668 0.20533033 4282172160
1.5407993 -1.7511461 0.19136462 4281911040
1.5466665 -1.7577031 0.17967378 4282041600
1.5619795 -1.7749931 0.16871227 4282172160
1.5571972 -1.7694464 0.15531141 4282172160
1.5134019 -1.7195728 0.13825764 4281519360
1.4199144 -1.6132473 0.11767459 4280344320
1.3442349 -1.5271667 0.099881828 4279299840
1.3266571 -1.5071013 0.087099366 4279038720
1.3198398 -1.4992619 0.07514134 4278908160
1.3267919 -1.5070635 0.063885137 4279038720
1.3275989 -1.5078846 0.052196655 4279038720
1.3179784 -1.4968628 0.040120922 4278908160
1.2626907 -1.4339802 0.02719043 4278255105
1.3110503 -1.4888059 0.016523952 4278777600
1.3105786 -1.4881759 0.0047974028 4278777600
1.2938501 -1.4690875 -0.0068391101 4278647040
1.3061935 -1.4830086 -0.018581785 4278777600
1.3094494 -1.4866112 -0.030313725 4278777600
1.3160907 -1.4940563 -0.042178661 4278908160
1.3044835 -1.4807858 -0.053368632 4278777600
1.3154722 -1.4931651 -0.065418594 4278908160
1.3261594 -1.5052005 -0.077572577 4279038720
1.3323189 -1.5120958 -0.089524195 4279169280
1.310113 -1.4867994 -0.099333987 4278777600
1.3237395 -1.5021685 -0.11167688 4279038720
1.3279124 -1.5068085 -0.12325169 4279038720
1.3317796 -1.511101 -0.13473065 4279169280
1.3112099 -1.4876673 -0.14345244 4278908160
1.3251266 -1.5033617 -0.15573309 4279038720
1.3340106 -1.5133448 -0.1674348 4279169280
1.3417312 -1.5220069 -0.17893739 4279299840
1.332381 -1.5113046 -0.18795417 4279169280
1.3231069 -1.5006901 -0.19663148 4279038720
1.335009 -1.5140938 -0.20825538 4279169280
1.3356453 -1.5147195 -0.2179825 4279169280
1.3357322 -1.5147221 -0.22738193 4279299840
1.3275526 -1.5053509 -0.23506443 4279169280
1.3372536 -1.5162553 -0.24565782 4279299840
1.3508748 -1.5316029 -0.25684705 4279430400
1.3416344 -1.5210298 -0.26343003 4279299840
1.3464242 -1.5263635 -0.2724413 4279430400
1.3373489 -1.5159793 -0.27831453 4279299840
1.3192226 -1.4953371 -0.28183532 4279038720
1.323642 -1.5002517 -0.28977469 4279169280
1.3296006 -1.5069098 -0.29777327 4279299840
