# .PCD v0.7 - Point Cloud Data file format
VERSION 0.7
FIELDS x y z rgba
SIZE 4 4 4 4
TYPE F F F U
COUNT 1 1 1 1
WIDTH 1129
HEIGHT 1
VIEWPOINT 0 0 0 1 0 0 0
POINTS 1129
DATA ascii
1.9610189 1.2248108 0.38084361 4289875200
1.9552498 1.2213025 0.37463918 4289875200
1.9290415 1.2050412 0.3641969 4289744640
1.9336958 1.2080356 0.35918167 4289744640
1.8939006 1.1832931 0.34566364 4289614080
1.8863032 1.1786411 0.33773959 4289614080
1.9195966 1.1995096 0.33660194 4289744640
1.9403692 1.2125667 0.33269444 4289744640
1.9337826 1.2090588 0.27447286 4289744640
1.8470048 1.1549581 0.25263038 4289352960
1.8298911 1.1443601 0.24049214 4289352960
1.9008209 1.188755 0.23925033 4289614080
1.9627478 1.2275335 0.23587783 4289875200
1.969964 1.2321389 0.22533624 4289875200
1.9780362 1.23728 0.21455106 4289875200
1.9453475 1.2169539 0.19929978 4289744640
1.9340615 1.2099986 0.18626283 4289744640
1.9654266 1.2296963 0.17695369 4289875200
1.9703789 1.23289 0.16487166 4289875200
1.966957 1.2308502 0.15190624 4289875200
1.9588627 1.2258897 0.13849212 4289744640
1.9830828 1.241129 0.1270688 4289875200
1.9825367 1.2408879 0.1137877 4289875200
1.9608372 1.2274209 0.099338502 4289744640
1.7843976 1.1171961 0.078443862 4289091840
1.7762283 1.112178 0.065926172 4289091840
1.8417389 1.1532372 0.055593211 4289352960
2.2734032 1.4233071 0.052424423 4291050240
2.121953 1.3286933 0.034315374 4290397440
2.0572782 1.2883447 0.01899277 4290136320
2.1067085 1.3193721 0.0047002994 4290397440
2.0241494 1.2678274 -0.0095439283 4290005760
2.0328083 1.2733479 -0.023779402 4290136320
2.024122 1.2680159 -0.037772503 4290005760
2.0235224 1.2677433 -0.05182068 4290005760
1.9991902 1.2526182 -0.065013453 4290005760
1.9987804 1.2524631 -0.078766696 4290005760
1.9980379 1.2520998 -0.092415571 4290005760
2.0462906 1.2824067 -0.10859887 4290136320
1.9971696 1.2517583 -0.11941174 4290005760
2.0017209 1.2547089 -0.13305281 4290005760
2.0361373 1.2763594 -0.14881967 4290136320
2.1001477 1.3165447 -0.16725886 4290397440
2.0197115 1.2662779 -0.17379653 4290005760
2.0357392 1.2764174 -0.18811165 4290136320
2.0656686 1.2952654 -0.20380706 4290266880
2.1251512 1.332628 -0.22277178 4290528000
2.0986853 1.3161548 -0.23262285 4290397440
2.0596726 1.2918181 -0.24042939 4290266880
2.0788372 1.3039277 -0.25468907 4290266880
2.1371546 1.3405718 -0.2739343 4290528000
2.229146 1.3983228 -0.29805201 4290919680
2.2180104 1.391454 -0.30842364 4290919680
2.1307216 1.3368556 -0.30729672 4290528000
2.1497307 1.3488744 -0.32087731 4290658560
2.1834474 1.370114 -0.3365643 4290789120
2.2264473 1.397176 -0.35367671 4290919680
2.2411485 1.4065003 -0.36614445 4291050240
2.0672321 1.2975663 -0.34657097 4290266880
2.0027039 1.2572045 -0.34400314 4290005760
2.0293436 1.2740054 -0.35660991 4290136320
2.0610116 1.2939619 -0.36992133 4290266880
2.030436 1.2748834 -0.37160456 4290136320
1.9968166 1.2538925 -0.37208292 4290005760
2.0678797 1.2985618 -0.39182588 4290266880
1.9912415 1.2505825 -0.38302773 4290005760
1.9701771 1.2374601 -0.38423946 4289875200
1.9677162 1.2360076 -0.38858652 4289875200
1.9628901 1.2330701 -0.39199811 4289875200
1.9967569 1.2544115 -0.40276688 4290005760
1.9681482 1.2365494 -0.40043887 4290005760
1.9980119 1.2553807 -0.4095788 4290005760
1.9816762 1.2452182 -0.40876323 4290005760
-5.0629382 -3.1764371 1.0545952 4278190335
-5.0622525 -3.1762323 1.0585042 4278190335
2.0050545 1.2601599 -0.41842222 4290136320
1.9948664 1.2538521 -0.41691735 4290005760
1.9924334 1.2524122 -0.41654819 4290005760
1.944082 1.2221395 -0.40606841 4289875200
1.9338663 1.2158091 -0.40311971 4289875200
2.0118754 1.2648811 -0.41810721 4290136320
1.9845791 1.2478247 -0.41062203 4290005760
1.9626058 1.2341087 -0.40381268 4289875200
2.0072463 1.2622312 -0.41024953 4290136320
2.0177016 1.2688836 -0.40911913 4290136320
2.0120516 1.265419 -0.40422961 4290136320
2.0251942 1.2737596 -0.40264237 4290136320
2.0595181 1.2954087 -0.40470716 4290266880
2.0276158 1.2754489 -0.39324552 4290136320
2.0598443 1.2957834 -0.39380455 4290266880
2.0447426 1.2863775 -0.38478369 4290266880
2.0977404 1.3197666 -0.38805848 4290397440
2.1241243 1.3364333 -0.38568598 4290528000
2.1334333 1.3423696 -0.37963572 4290528000
2.1218467 1.3351719 -0.36942989 4290528000
2.1312263 1.3411525 -0.36247474 4290528000
2.1238732 1.3366144 -0.35224348 4290528000
2.1215649 1.3352469 -0.34249455 4290528000
2.1376007 1.3454121 -0.3352696 4290528000
2.1185296 1.3335044 -0.32215303 4290528000
2.086844 1.3136629 -0.30699459 4290397440
2.092104 1.3170513 -0.29708427 4290397440
2.1091356 1.3278427 -0.28840604 4290397440
2.1143959 1.3312321 -0.27767017 4290528000
2.1185658 1.3339355 -0.26643035 4290528000
2.0993793 1.3219482 -0.25202689 4290397440
2.0888128 1.3153812 -0.23855756 4290397440
2.098197 1.3213636 -0.22712535 4290397440
2.1064734 1.3266494 -0.21521686 4290397440
2.1027308 1.3243741 -0.20180832 4290397440
2.1158097 1.3326818 -0.18974806 4290397440
2.1613615 1.3614229 -0.1800459 4290658560
2.2013984 1.3866969 -0.16913415 4290789120
2.2266288 1.4026562 -0.15646525 4290919680
2.3065696 1.4530481 -0.14681809 4291180800
2.3749237 1.4961532 -0.13527758 4291441920
2.3878582 1.5043821 -0.11984824 4291572480
2.4983189 1.5739988 -0.108417 4291964160
2.6493146 1.6691393 -0.096867934 4292486400
2.6417792 1.6644933 -0.078326821 4292486400
2.7151728 1.7107956 -0.061701301 4292747520
2.7396162 1.7262849 -0.043186478 4292878080
2.5530565 1.6089232 -0.022289641 4292225280
1.7735873 1.1182164 -0.0025063951 4289091840
1.7718412 1.1171821 0.0098943869 4289091840
1.7692176 1.1155952 0.022249386 4289091840
1.9480811 1.2283034 0.037892759 4289744640
1.9704629 1.2424715 0.052007783 4289875200
1.9756628 1.2458193 0.065820687 4289875200
1.9754328 1.2457472 0.07942041 4289875200
1.9492514 1.2293283 0.091735512 4289744640
1.972016 1.243741 0.10617901 4289875200
1.9692386 1.2420645 0.11929314 4289875200
1.9584432 1.2353362 0.13170877 4289744640
1.9585124 1.2354528 0.14462808 4289875200
1.9694217 1.2423998 0.15824933 4289875200
1.9689609 1.242183 0.17086327 4289875200
1.8646328 1.1765115 0.17372407 4289483520
1.8320333 1.156037 0.1821328 4289352960
1.8185551 1.1476114 0.19193424 4289222400
1.8780847 1.1852012 0.20941728 4289483520
1.9052676 1.2024068 0.22361487 4289614080
1.9021828 1.2005347 0.23418787 4289614080
1.9709899 1.2439839 0.25363618 4289875200
1.9791321 1.2491927 0.26549205 4289875200
1.9748048 1.2465407 0.27541316 4289875200
1.9532008 1.2329953 0.28250065 4289875200
1.8917735 1.1943376 0.28313792 4289614080
1.9381009 1.2236255 0.29937175 4289744640
1.9287941 1.2178323 0.30691794 4289744640
1.9198239 1.2122509 0.31408551 4289744640
1.9049687 1.2029576 0.31983614 4289614080
1.8463787 1.1660774 0.31762832 4289483520
1.7854862 1.1277404 0.31418741 4289222400
1.9430188 1.2271895 0.34888366 4289875200
1.9525404 1.2332751 0.35739341 4289875200
1.9475076 1.2301792 0.36286119 4289875200
1.9559216 1.2355676 0.37040833 4289875200
1.9428636 1.2274083 0.37347463 4289875200
1.9415611 1.2266666 0.37831274 4289875200
1.9421961 1.2271479 0.38308442 4289875200
1.939155 1.2253098 0.38668439 4289875200
1.9389296 1.2252489 0.3903845 4289875200
1.9293492 1.2192837 0.39173996 4289744640
1.9405848 1.2264582 0.3968384 4289875200
1.9368931 1.2242105 0.39844996 4289875200
1.936587 1.2241006 0.40028214 4289875200
1.9363467 1.2240326 0.40165803 4289875200
1.9361732 1.2240072 0.40257618 4289875200
1.9277382 1.2187655 0.40131205 4289744640
1.9476759 1.2314413 0.4054462 4289875200
1.9393766 1.2262858 0.40326291 4289875200
1.940222 1.2269062 0.4024981 4289875200
1.9483869 1.2321502 0.40276402 4289875200
1.9435461 1.22918 0.39988369 4289875200
1.9338528 1.2231443 0.39555866 4289875200
1.9439502 1.2296116 0.39479116 4289875200
1.939918 1.2271529 0.39070171 4289875200
1.9475465 1.2320622 0.38848206 4289875200
1.940577 1.2277482 0.38291532 4289875200
1.9381818 1.2263246 0.3778201 4289875200
1.9288729 1.2205317 0.37097609 4289744640
1.9128945 1.2105229 0.36249626 4289744640
1.9128653 1.2105947 0.35664457 4289744640
1.9260744 1.2190354 0.3527894 4289744640
1.9432646 1.2299947 0.34914845 4289875200
1.9306573 1.2221166 0.33977392 4289744640
1.9302208 1.2219334 0.33218458 4289744640
1.9094959 1.2094296 0.27205253 4289614080
1.915894 1.2135717 0.26293585 4289744640
1.9104701 1.2102349 0.25191045 4289614080
1.8954159 1.2008041 0.23945604 4289614080
1.9245636 1.2193435 0.23218477 4289744640
1.9551815 1.2388165 0.2244871 4289875200
1.9632201 1.2440021 0.21374649 4289875200
1.9180194 1.2154907 0.19725588 4289614080
1.9193989 1.2164605 0.1855499 4289614080
1.9411936 1.2303547 0.1754442 4289744640
1.9419067 1.2309043 0.16312075 4289744640
1.9353014 1.2268206 0.15004839 4289744640
1.9375526 1.2283443 0.13751557 4289744640
1.9597886 1.2425239 0.12606616 4289875200
1.9592397 1.2422762 0.11289219 4289875200
1.9188572 1.2167994 0.097616501 4289614080
1.7491542 1.1094052 0.07722 4288961280
1.7494531 1.1096839 0.065204322 4288961280
2.1666892 1.3740988 0.065300368 4290658560
2.668546 1.6921694 0.061431699 4292616960
2.7277813 1.7298386 0.04373071 4292878080
2.7093549 1.7183021 0.024504904 4292747520
2.7055509 1.7160302 0.0055263615 4292747520
2.6894073 1.7059376 -0.013338632 4292747520
2.6945882 1.709359 -0.032236692 4292747520
2.7040706 1.7155077 -0.051260456 4292747520
2.6693938 1.6936637 -0.069189899 4292616960
2.6745279 1.6970553 -0.087901428 4292616960
2.6768832 1.6986855 -0.10648018 4292747520
2.6869187 1.7051857 -0.1253431 4292747520
2.6507382 1.6823797 -0.1417096 4292616960
2.5908577 1.64454 -0.15599196 4292355840
2.5596645 1.6248883 -0.17124146 4292225280
2.581145 1.6386431 -0.18980098 4292355840
2.5617034 1.626442 -0.20513566 4292225280
2.4211333 1.5373964 -0.20943457 4291703040
2.4099996 1.5304555 -0.22381558 4291703040
2.4614716 1.5632355 -0.24406321 4291833600
2.5289178 1.6061565 -0.26637787 4292094720
2.4213328 1.538012 -0.26961735 4291703040
2.3314421 1.4810857 -0.2733621 4291311360
2.3558347 1.496684 -0.28989485 4291441920
2.4233246 1.5396397 -0.31196401 4291703040
2.5229442 1.6029973 -0.33877686 4292094720
2.4476826 1.5553439 -0.34176826 4291833600
2.3306642 1.4811718 -0.33750942 4291311360
2.3562737 1.4975471 -0.35314298 4291441920
2.3849461 1.5158695 -0.3691119 4291572480
2.4678817 1.5686529 -0.39363 4291964160
2.5066283 1.5933805 -0.41119593 4292094720
2.2258098 1.4151464 -0.3746396 4290919680
2.2033834 1.4010096 -0.38001093 4290919680
2.1735709 1.3821781 -0.38346076 4290789120
2.1967039 1.3969781 -0.39581937 4290919680
2.168395 1.3790979 -0.39840898 4290789120
2.1337636 1.3571974 -0.39916039 4290658560
2.1169417 1.3466096 -0.40262908 4290528000
2.1718819 1.3816218 -0.41943935 4290789120
2.1763411 1.3845576 -0.42615554 4290789120
2.1464159 1.36564 -0.42556247 4290658560
2.1413059 1.3624918 -0.42932835 4290658560
2.1333504 1.3575338 -0.43199673 4290658560
2.110065 1.3428295 -0.43099219 4290528000
2.1095619 1.3426062 -0.43411326 4290528000
2.1207676 1.3498266 -0.43915984 4290658560
2.0474975 1.3033351 -0.42608368 4290266880
2.0555284 1.308534 -0.42941448 4290266880
2.055321 1.3084941 -0.43052369 4290266880
2.1280732 1.3548533 -0.44648504 4290658560
2.0881319 1.3295445 -0.43822739 4290528000
2.1280246 1.3550102 -0.44625562 4290658560
2.1341867 1.3590231 -0.44665763 4290658560
2.102777 1.3391349 -0.43866837 4290528000
2.1069937 1.3419085 -0.43763992 4290528000
2.1191783 1.3497514 -0.43774348 4290528000
2.129549 1.3564404 -0.43693259 4290658560
2.1521513 1.3709131 -0.4380796 4290658560
2.1810179 1.3893734 -0.43990588 4290789120
2.2068725 1.4059188 -0.44050398 4290919680
2.1675994 1.3810163 -0.427587 4290789120
2.203856 1.4041829 -0.42912275 4290919680
2.1846564 1.3920531 -0.4192895 4290789120
2.2249534 1.4177945 -0.42036328 4291050240
2.2744458 1.4493923 -0.42241654 4291180800
2.3060179 1.4695849 -0.42037779 4291311360
2.3424881 1.4928982 -0.41851276 4291441920
2.3768396 1.5148649 -0.41552529 4291572480
2.4260504 1.5462958 -0.41434062 4291833600
2.4137857 1.5385822 -0.4020015 4291703040
2.4003356 1.5301123 -0.38912055 4291703040
2.3999472 1.5299596 -0.37798715 4291703040
2.4291101 1.5486284 -0.37096336 4291833600
2.4248517 1.546011 -0.35827968 4291703040
2.4659133 1.5722617 -0.35173079 4291964160
2.5144639 1.6032858 -0.34539562 4292094720
2.5601425 1.6324837 -0.33777538 4292225280
2.5903594 1.6518339 -0.32731426 4292355840
2.6079102 1.6631156 -0.314614 4292486400
2.6167274 1.6688336 -0.300356 4292486400
2.6338792 1.6798627 -0.28657556 4292616960
2.6560097 1.6940657 -0.27278841 4292616960
2.6665974 1.7009138 -0.25730982 4292747520
2.6489885 1.6897914 -0.23885797 4292616960
2.6584084 1.6958952 -0.22265165 4292616960
2.6974072 1.7208534 -0.20838624 4292747520
2.6930313 1.7181652 -0.19029254 4292747520
2.6922996 1.7177992 -0.17228732 4292747520
2.6807477 1.7105349 -0.15348019 4292747520
2.6918879 1.7177373 -0.13582475 4292747520
2.6937809 1.7190443 -0.11746294 4292747520
2.6703258 1.7041885 -0.098002657 4292616960
2.6921613 1.7182117 -0.080141604 4292747520
2.7107589 1.7301713 -0.061816633 4292878080
2.7083664 1.7287458 -0.042821355 4292878080
2.402 1.5334487 -0.020929899 4291572480
1.8257568 1.1659945 -0.0026415014 4289352960
1.684121 1.0757178 0.0095370524 4288700160
1.7087182 1.0914707 0.021637218 4288830720
1.9378657 1.2377158 0.037848298 4289744640
1.9419347 1.2403835 0.05147747 4289744640
1.9588802 1.2512671 0.065524556 4289875200
1.9553981 1.249118 0.078930773 4289875200
1.9252084 1.2299272 0.090968616 4289744640
1.948735 1.2450117 0.1053424 4289744640
1.9509645 1.246507 0.11864716 4289744640
1.9408191 1.2401053 0.13102977 4289744640
1.9272597 1.2315239 0.14288463 4289744640
1.9495939 1.2458515 0.15726171 4289744640
1.9435461 1.2420645 0.16931398 4289744640
1.8944652 1.2108071 0.17712733 4289614080
1.9360064 1.2373981 0.1930653 4289744640
1.955757 1.2500808 0.20702153 4289875200
1.9543442 1.2492532 0.21864437 4289875200
1.9367652 1.2381036 0.22812194 4289744640
1.8855393 1.2054682 0.23302193 4289614080
1.9426452 1.2420073 0.25095081 4289744640
1.9536438 1.2491062 0.26307681 4289875200
1.9423863 1.2419922 0.2719366 4289875200
1.9070938 1.2195269 0.27691111 4289614080
1.7768512 1.1364113 0.26706356 4289091840
1.9454993 1.2442087 0.30162382 4289875200
1.9430448 1.2427175 0.31031883 4289875200
1.9400501 1.2408814 0.318551 4289875200
1.9301479 1.2346323 0.32523853 4289744640
1.9232951 1.2303312 0.33199444 4289744640
1.9094422 1.221557 0.33708823 4289744640
1.9181972 1.2272288 0.34573743 4289744640
1.9187459 1.2276574 0.35255426 4289744640
1.9141233 1.2247818 0.35800755 4289744640
1.9171851 1.2268173 0.36446935 4289744640
1.9127554 1.2240653 0.36909097 4289744640
1.9049879 1.2191797 0.37261146 4289744640
1.9095569 1.2221801 0.37808722 4289744640
1.9024354 1.2177076 0.38081813 4289744640
1.879902 1.2033815 0.37998006 4289614080
1.8877263 1.2084644 0.3847658 4289614080
1.8512855 1.185244 0.38009512 4289483520
1.8509308 1.1850967 0.38228846 4289483520
1.8506378 1.1849896 0.38404593 4289483520
1.8545573 1.1875769 0.38622454 4289483520
1.8460921 1.1822438 0.38538557 4289483520
1.8418415 1.1796062 0.38496348 4289483520
1.8459532 1.1823181 0.38582551 4289483520
1.8944228 1.213408 0.39543688 4289744640
1.87792 1.2029347 0.39110023 4289614080
1.9033654 1.2192999 0.39497703 4289744640
1.8803499 1.2046593 0.38839883 4289614080
1.910156 1.2238184 0.39219534 4289744640
1.909255 1.2233294 0.38923115 4289744640
1.9091822 1.2233708 0.38598087 4289744640
1.9132745 1.2260785 0.38310874 4289744640
1.9142522 1.2267934 0.37915972 4289744640
1.9134092 1.2263435 0.37441054 4289744640
1.9068071 1.2222068 0.36812526 4289744640
1.895376 1.2149783 0.36053607 4289614080
1.9043456 1.2208116 0.35638946 4289744640
1.9217876 1.2320713 0.35332119 4289744640
1.9354889 1.2409375 0.34905687 4289875200
1.9275894 1.2359717 0.34050229 4289744640
1.9160335 1.2286636 0.3309893 4289744640
1.9173906 1.2301408 0.2741878 4289744640
1.9374912 1.2431177 0.26686761 4289744640
1.9384294 1.2438158 0.25651935 4289744640
1.9076142 1.2241621 0.24188325 4289614080
1.8955398 1.2165182 0.22957073 4289614080
1.9300338 1.2387261 0.22245613 4289744640
1.9310721 1.2394892 0.21106802 4289744640
1.8980542 1.2184179 0.19595514 4289614080
1.9079976 1.2248899 0.18515073 4289614080
1.9224238 1.2342378 0.17441896 4289744640
1.9273281 1.237481 0.16251861 4289744640
1.9163605 1.2305454 0.1491574 4289744640
1.9262205 1.2369678 0.13723649 4289744640
1.9407486 1.2463857 0.12533039 4289744640
1.9314327 1.2405092 0.11173747 4289744640
1.8430357 1.1838969 0.094192028 4289352960
1.7266797 1.109337 0.07654056 4288961280
1.6983719 1.0912621 0.06359724 4288830720
2.243942 1.4414476 0.067816511 4290919680
2.5596554 1.6441761 0.059232388 4292225280
2.6942394 1.7306861 0.043386742 4292747520
2.6924329 1.7296656 0.024463646 4292747520
2.68331 1.7239488 0.0055260807 4292747520
2.6592262 1.7086264 -0.01320792 4292616960
2.6856439 1.7257246 -0.032234013 4292747520
2.6873093 1.7269325 -0.051111814 4292747520
2.651068 1.7038001 -0.068949297 4292616960
2.6704934 1.7164114 -0.08808396 4292747520
2.6923878 1.7306105 -0.10749713 4292747520
2.703768 1.7380584 -0.12660094 4292878080
2.6408911 1.6978102 -0.14169371 4292616960
2.6647873 1.7132965 -0.16108204 4292747520
2.6691689 1.7162484 -0.17929806 4292747520
2.6777763 1.7219155 -0.19769584 4292747520
2.6129348 1.6803898 -0.21004337 4292486400
2.677851 1.7222376 -0.23267506 4292747520
2.6963551 1.7342657 -0.25153273 4292878080
2.6883104 1.7292329 -0.26769269 4292747520
2.6455922 1.701913 -0.27977344 4292616960
2.4852576 1.5989859 -0.27780229 4291964160
2.659853 1.7113484 -0.31325021 4292747520
2.6604121 1.7118422 -0.32879356 4292747520
2.6494646 1.7049375 -0.34248737 4292616960
2.573734 1.6563764 -0.34690896 4292355840
2.4101799 1.5513333 -0.33775541 4291703040
2.6644533 1.7149743 -0.38749889 4292747520
2.661587 1.7132633 -0.40057999 4292747520
2.6422637 1.7009666 -0.41061792 4292616960
2.6157815 1.6840628 -0.418859 4292616960
2.5139623 1.6186924 -0.41393399 4292225280
2.4005632 1.5458617 -0.40567115 4291703040
2.3507929 1.5139574 -0.40703943 4291572480
2.3213267 1.4951122 -0.41114959 4291441920
2.2808027 1.4691478 -0.41255626 4291180800
2.231782 1.4377114 -0.41162211 4291050240
2.2706347 1.4628233 -0.42643669 4291180800
2.2328234 1.4385954 -0.42632699 4291050240
2.2036278 1.419909 -0.42717367 4290919680
2.2542102 1.4525743 -0.44309595 4291180800
2.2197018 1.4304649 -0.44177812 4291050240
2.2629037 1.4583827 -0.45547667 4291180800
2.2124865 1.4260265 -0.44974083 4291050240
2.2359159 1.4412153 -0.45848122 4291050240
2.2594047 1.456444 -0.46677834 4291180800
2.2821295 1.4711823 -0.4744392 4291311360
2.2742879 1.4662361 -0.4751952 4291311360
2.2099924 1.4249271 -0.46350667 4291050240
2.2696092 1.463428 -0.47732541 4291180800
2.2735987 1.4660997 -0.47888848 4291311360
2.2453887 1.4480276 -0.47308969 4291180800
2.2454016 1.4481354 -0.47270018 4291180800
2.233906 1.4408276 -0.46933362 4291050240
2.2713432 1.4650484 -0.47571003 4291180800
2.2475877 1.4498392 -0.46867433 4291180800
2.2823949 1.472368 -0.47332168 4291311360
2.214895 1.4289635 -0.4561924 4291050240
2.2676158 1.4630383 -0.46337754 4291180800
2.293324 1.4797057 -0.46435317 4291311360
2.2500269 1.451893 -0.45081824 4291180800
2.3018558 1.4853994 -0.45585015 4291311360
2.331125 1.5043656 -0.45567691 4291441920
2.3394208 1.5098112 -0.45076656 4291441920
2.4003246 1.5491775 -0.45529899 4291703040
2.444227 1.5775856 -0.45574746 4291964160
2.5121272 1.621472 -0.45978624 4292225280
2.5904162 1.6720631 -0.46468636 4292486400
2.6277883 1.6962709 -0.46126282 4292616960
2.6545506 1.7136381 -0.45519316 4292747520
2.6599925 1.7172548 -0.44480726 4292747520
2.6415696 1.7054769 -0.42997238 4292747520
2.6241322 1.694333 -0.4149757 4292616960
2.6258972 1.6955754 -0.40263188 4292616960
2.6490133 1.7105927 -0.39299893 4292747520
2.6466506 1.709172 -0.37902868 4292747520
2.6332829 1.7006497 -0.36313617 4292616960
2.64538 1.7085583 -0.35037139 4292616960
2.6660156 1.7219777 -0.33817258 4292747520
2.6673021 1.7229108 -0.32301107 4292747520
2.6533868 1.7140321 -0.30571777 4292747520
2.6282301 1.6978962 -0.28701913 4292616960
2.6555197 1.7156117 -0.27374989 4292747520
2.6641781 1.721302 -0.25802836 4292747520
2.6396053 1.7055397 -0.23888823 4292616960
2.6439619 1.7084522 -0.22225273 4292616960
2.6638627 1.7214007 -0.20653506 4292747520
2.6680992 1.7242366 -0.18921176 4292747520
2.6705017 1.7258883 -0.17150921 4292747520
2.6505983 1.7131357 -0.15229365 4292616960
2.6703031 1.7259601 -0.13521698 4292747520
2.6753247 1.7293031 -0.11707374 4292747520
2.6493514 1.7126278 -0.097573951 4292616960
2.6703484 1.7262887 -0.079766184 4292747520
2.6926038 1.7407639 -0.061611108 4292747520
2.6863918 1.7368513 -0.04260879 4292747520
2.4859405 1.6074564 -0.021800179 4291964160
1.8147324 1.1739125 -0.0026200549 4289222400
1.7385441 1.1247556 0.0098237768 4288961280
1.6981304 1.0987078 0.021598866 4288830720
1.9154319 1.2391838 0.037577368 4289744640
1.9262776 1.2462639 0.051274195 4289744640
1.9389631 1.2545335 0.065126188 4289744640
1.9363353 1.2529076 0.078478344 4289744640
1.9020646 1.2308304 0.090240546 4289614080
1.921312 1.2433423 0.10428242 4289744640
1.9236722 1.24494 0.11745913 4289744640
1.8136307 1.1738786 0.12304091 4289222400
1.7970808 1.1632479 0.13387689 4289222400
1.8047944 1.1683027 0.1462867 4289222400
1.8272803 1.182909 0.15991232 4289352960
1.88924 1.2230401 0.17731141 4289614080
1.9239136 1.2455325 0.19259681 4289744640
1.9476446 1.2609518 0.20694968 4289875200
1.9476013 1.2609984 0.21871944 4289875200
1.9318701 1.2508993 0.22840902 4289744640
1.8721944 1.2123774 0.23226044 4289614080
1.865833 1.2083353 0.24202393 4289483520
1.7730156 1.1483692 0.2398582 4289091840
1.8079411 1.1710311 0.25422221 4289352960
1.7416668 1.1282275 0.25403816 4289091840
1.7082514 1.1066775 0.25780678 4288961280
1.9269693 1.2482563 0.29989827 4289744640
1.925702 1.2475129 0.30872819 4289744640
1.9249506 1.2471036 0.31728035 4289744640
1.9185953 1.2430681 0.3245236 4289744640
1.9172187 1.2422546 0.33219957 4289744640
1.8988738 1.2304595 0.33649811 4289744640
1.9075673 1.2361635 0.34512958 4289744640
1.9029224 1.2332351 0.3509832 4289744640
1.8945142 1.2278707 0.35569876 4289744640
1.8983983 1.2304635 0.3622804 4289744640
1.8828088 1.2204498 0.3647179 4289614080
1.8642507 1.2085131 0.3660675 4289614080
1.8582525 1.2047079 0.36937875 4289614080
1.8176166 1.1784734 0.36531597 4289352960
1.8336481 1.1889324 0.37208554 4289483520
1.777994 1.1529683 0.36390322 4289222400
1.781731 1.1554652 0.36728224 4289222400
1.7846973 1.1574639 0.3700828 4289222400
1.7844144 1.1573584 0.37178382 4289222400
1.7808847 1.1551503 0.37237412 4289222400
1.7807243 1.1551249 0.37322494 4289222400
1.7723588 1.1497841 0.37192702 4289222400
1.7640558 1.1444834 0.37020361 4289222400
1.7640815 1.1445794 0.36978227 4289222400
1.8317101 1.1884836 0.38297322 4289483520
1.8078865 1.1731275 0.3766979 4289352960
1.8514109 1.2014188 0.38389981 4289483520
1.8537337 1.2030092 0.3821162 4289614080
1.8748107 1.2167571 0.38369343 4289614080
1.8788561 1.2194666 0.38132012 4289614080
1.8982353 1.2321178 0.38154966 4289744640
1.898454 1.2323487 0.37746859 4289744640
1.9006034 1.2338319 0.37332362 4289744640
1.8902926 1.2272362 0.36633435 4289744640
1.881608 1.2216945 0.35928479 4289614080
1.8822447 1.2221975 0.35360995 4289614080
1.9097135 1.2401038 0.35244131 4289744640
1.927145 1.2515026 0.34887424 4289875200
1.9150349 1.2437408 0.33957696 4289744640
1.910903 1.2411537 0.33135575 4289744640
1.89679 1.2326047 0.27229148 4289614080
1.9217025 1.2488706 0.26571214 4289744640
1.9295154 1.2540392 0.25631592 4289744640
1.9003161 1.2351807 0.241878 4289614080
1.8762938 1.2196805 0.22812204 4289614080
1.814118 1.1794055 0.21001758 4289352960
1.8129476 1.178738 0.19903924 4289352960
1.7218058 1.1196433 0.17863135 4288961280
1.8841722 1.2251803 0.1835584 4289614080
1.8951298 1.2323941 0.17262477 4289614080
1.9031711 1.2377148 0.16111699 4289614080
1.8966055 1.2335479 0.1482019 4289614080
1.8947043 1.2324108 0.13553798 4289614080
1.9091702 1.2419074 0.12379362 4289614080
1.9139192 1.2450919 0.11116455 4289744640
1.7802292 1.1583182 0.091397651 4289091840
1.7277284 1.1242923 0.076877885 4288961280
1.6877944 1.0984285 0.063454919 4288830720
2.2589753 1.4697645 0.068521611 4291050240
2.525722 1.6432725 0.058701649 4292094720
2.6514146 1.725113 0.04289791 4292616960
2.6674373 1.7356679 0.02435486 4292747520
2.6564527 1.7286651 0.0055194967 4292616960
2.6357391 1.7153351 -0.013115055 4292616960
2.6512332 1.725548 -0.031908046 4292616960
2.6537321 1.7273114 -0.050631385 4292616960
2.6209819 1.7061495 -0.068394288 4292486400
2.640337 1.7188752 -0.087388329 4292616960
2.6658726 1.7356232 -0.10681319 4292747520
2.6659558 1.7358159 -0.12526734 4292747520
2.6279986 1.71126 -0.14151654 4292616960
2.635725 1.7164235 -0.15989847 4292616960
2.6544719 1.7287586 -0.17896515 4292747520
2.6434395 1.7217168 -0.19586635 4292616960
2.5913932 1.6879817 -0.20907532 4292486400
2.6477108 1.7247696 -0.23089664 4292616960
2.6544559 1.7292966 -0.24852389 4292747520
2.6614873 1.73401 -0.26599669 4292747520
2.615598 1.7042725 -0.2776185 4292616960
2.4558756 1.6004183 -0.27552748 4291964160
2.6452007 1.7238144 -0.31268319 4292747520
2.6518009 1.7282467 -0.32895288 4292747520
2.6353083 1.7176412 -0.34192669 4292616960
2.5440578 1.658347 -0.34417769 4292355840
2.4619124 1.6049734 -0.34633407 4291964160
2.6622674 1.7356004 -0.38863337 4292747520
2.6529636 1.7296731 -0.40077671 4292747520
2.6493428 1.7274469 -0.4132688 4292747520
2.620743 1.7089458 -0.4212333 4292616960
2.4920406 1.6252187 -0.41185397 4292094720
2.488745 1.6231943 -0.42220941 4292094720
2.4406106 1.5919499 -0.42423767 4291964160
2.3941674 1.561802 -0.42569277 4291703040
2.3793526 1.5522634 -0.43206516 4291703040
2.3539071 1.5357935 -0.43586037 4291572480
2.3142002 1.5100243 -0.43628258 4291441920
2.2715459 1.4823294 -0.43537876 4291311360
2.310297 1.507702 -0.44960761 4291441920
2.2614105 1.4759382 -0.44619015 4291180800
2.2886872 1.4938312 -0.45726815 4291311360
2.3160093 1.5117556 -0.4679552 4291441920
2.2569926 1.4733773 -0.46054488 4291180800
2.2646368 1.4784683 -0.46613857 4291180800
2.2682238 1.480913 -0.47037184 4291311360
2.279309 1.4882483 -0.47563708 4291311360
2.2871675 1.4934794 -0.47969553 4291311360
2.2984018 1.5009127 -0.483922 4291441920
2.2866235 1.4933327 -0.48272714 4291311360
2.2741036 1.4852674 -0.48080111 4291311360
2.2740347 1.4853246 -0.48094961 4291311360
2.2625031 1.4779012 -0.47810709 4291180800
2.2543497 1.4726809 -0.47542766 4291180800
2.3284473 1.5211391 -0.48954406 4291572480
2.2891176 1.4955716 -0.47916034 4291311360
2.2696533 1.4829668 -0.47244668 4291311360
2.3138525 1.511917 -0.47843453 4291441920
2.2945373 1.4994075 -0.47066405 4291311360
2.3358393 1.5264699 -0.47477174 4291572480
2.2935448 1.4989557 -0.46129835 4291311360
2.3410637 1.5300798 -0.46538764 4291572480
2.4028463 1.5705212 -0.47151211 4291833600
2.4289594 1.5876743 -0.46983919 4291964160
2.4650249 1.6113285 -0.46937364 4292094720
2.5098395 1.6406991 -0.46978509 4292225280
2.5423422 1.6620318 -0.46708837 4292355840
2.5885818 1.6923389 -0.46610683 4292486400
2.6182153 1.7118019 -0.46130949 4292616960
2.6482005 1.7314965 -0.45581234 4292747520
2.6378727 1.724856 -0.44275838 4292747520
2.6216459 1.7143604 -0.42832625 4292616960
2.6064203 1.704517 -0.41371781 4292616960
2.6163292 1.7110955 -0.4026708 4292616960
2.6350307 1.7234199 -0.39238915 4292747520
2.6320271 1.7215608 -0.37834567 4292616960
2.6033745 1.7029384 -0.36034599 4292486400
2.6079283 1.7060165 -0.34668925 4292616960
2.6359625 1.724442 -0.33560112 4292616960
2.6413975 1.7280968 -0.32106215 4292747520
2.6150303 1.7109627 -0.30240849 4292616960
2.6096294 1.7075328 -0.28604805 4292486400
2.6212976 1.7152613 -0.27121654 4292616960
2.6261091 1.7185075 -0.2552731 4292616960
2.6129329 1.7099926 -0.23734534 4292486400
2.6139266 1.7107419 -0.22053321 4292486400
2.6449692 1.7311407 -0.20582686 4292616960
2.637958 1.7266558 -0.18775535 4292616960
2.631988 1.7228512 -0.16964282 4292616960
2.6163309 1.7127101 -0.15086342 4292486400
2.6326103 1.7234566 -0.13378002 4292616960
2.6476526 1.7333951 -0.11627477 4292616960
2.6150715 1.7121814 -0.096644603 4292486400
2.6405261 1.7289318 -0.079145238 4292616960
2.6539695 1.737826 -0.060921989 4292747520
2.6486146 1.734422 -0.042133812 4292616960
2.4960949 1.6347265 -0.021971868 4292094720
1.7760644 1.163673 -0.0025298735 4289091840
1.6917969 1.1085966 0.0096505135 4288830720
1.6716189 1.0954552 0.021375543 4288700160
1.8823446 1.2334284 0.037106398 4289614080
1.9114549 1.2525514 0.05109242 4289744640
1.9157292 1.2554208 0.064618357 4289744640
1.9089328 1.2510442 0.077694245 4289744640
1.8946453 1.2417634 0.090242125 4289614080
1.9014976 1.2463205 0.10362425 4289614080
1.8959528 1.2427622 0.1162401 4289614080
1.7708414 1.1609212 0.12064651 4289091840
1.7490532 1.1467223 0.13085288 4289091840
1.7442316 1.1436316 0.14198849 4289091840
1.7647049 1.1571046 0.15509851 4289091840
1.8401928 1.2066069 0.17342341 4289483520
1.9124554 1.2540027 0.1921943 4289744640
1.9360982 1.2695608 0.20652175 4289875200
1.9212822 1.2599312 0.21661735 4289744640
1.9171597 1.2573051 0.22755216 4289744640
1.8558174 1.2171966 0.2311269 4289483520
1.8608731 1.2205808 0.24230786 4289483520
1.8640593 1.222741 0.25302324 4289614080
1.8487676 1.2127954 0.26090461 4289483520
1.7832732 1.1699551 0.26104546 4289222400
1.7278022 1.1336778 0.26172596 4288961280
1.8898842 1.2399589 0.29529274 4289614080
1.9070452 1.2512807 0.30692592 4289744640
1.8973583 1.2450087 0.31395859 4289744640
1.9000762 1.2468667 0.32263967 4289744640
1.8996501 1.2466645 0.3304325 4289744640
1.883495 1.2361523 0.33506507 4289614080
1.8860899 1.2379307 0.34257191 4289744640
1.8868771 1.2385244 0.34937122 4289744640
1.8755797 1.2311959 0.35351068 4289614080
1.8812968 1.2350225 0.36040777 4289614080
1.8718606 1.2289141 0.36399424 4289614080
1.8588854 1.2204846 0.36641333 4289614080
1.8504038 1.2150012 0.36923191 4289614080
1.8393317 1.2078187 0.37106243 4289483520
1.8429269 1.2102557 0.3753832 4289483520
1.8392849 1.2079464 0.37780172 4289483520
1.8429921 1.210458 0.38127786 4289483520
1.8385185 1.2076038 0.38262594 4289483520
1.8464643 1.2128974 0.38609675 4289614080
1.8462337 1.2128278 0.38742352 4289614080
1.8378308 1.2073964 0.38658714 4289483520
1.8377286 1.2074115 0.38702822 4289483520
1.833573 1.2047672 0.38616657 4289483520
1.8408841 1.2096483 0.38724998 4289483520
1.8368565 1.2070887 0.38550863 4289483520
1.8516026 1.2168516 0.38722181 4289614080
1.8588278 1.2216796 0.38689989 4289614080
1.8549763 1.2192373 0.38383093 4289614080
1.8601774 1.2227381 0.38217115 4289614080
1.8774989 1.2341977 0.38250187 4289614080
1.8747686 1.2324934 0.37830171 4289614080
1.8758754 1.2333089 0.37443244 4289614080
1.8798066 1.2359798 0.37067536 4289614080
1.8770596 1.2342656 0.36517641 4289614080
1.8657552 1.2269312 0.35763907 4289614080
1.8747151 1.2329065 0.35355094 4289614080
1.8840978 1.2391608 0.34907451 4289744640
1.8984156 1.2486584 0.34502208 4289744640
1.8849452 1.2399017 0.335556 4289614080
1.8699071 1.230114 0.32553661 4289614080
1.8784873 1.2363572 0.27071825 4289614080
1.9011543 1.2513536 0.26390165 4289744640
1.9145317 1.2602454 0.25531715 4289744640
1.8759331 1.2349641 0.23971769 4289614080
1.8533605 1.2202172 0.22622418 4289483520
1.8276302 1.2033918 0.21237674 4289352960
1.7869611 1.1767393 0.19696939 4289222400
1.7843931 1.1751425 0.18575656 4289222400
1.8581387 1.2237419 0.18174651 4289483520
1.8794042 1.2378268 0.17186746 4289614080
1.8884268 1.2438601 0.16049951 4289614080
1.8799194 1.2383611 0.14748132 4289614080
1.8674772 1.2302725 0.13413416 4289483520
1.8860525 1.2425931 0.12279067 4289614080
1.8837671 1.2411876 0.10986738 4289614080
1.7976532 1.1846123 0.092628591 4289222400
1.7211484 1.1343524 0.076888494 4288961280
1.7236464 1.1360871 0.065011397 4288961280
2.1986027 1.4488342 0.067003995 4290919680
2.4718447 1.6288352 0.057718541 4291964160
2.6249831 1.72979 0.042660728 4292616960
2.6297183 1.7330457 0.024138318 4292616960
2.6346304 1.7364188 0.005519717 4292616960
2.6098323 1.7202265 -0.013008341 4292486400
2.6210923 1.7277796 -0.031635609 4292616960
2.6269231 1.7317579 -0.050283674 4292616960
2.606586 1.7184999 -0.068259582 4292486400
2.6060696 1.7182968 -0.086551286 4292486400
2.6315122 1.7351954 -0.10580715 4292616960
2.6315999 1.7353914 -0.12409357 4292616960
2.6021347 1.7161142 -0.14063308 4292486400
2.6131713 1.7235233 -0.15911227 4292616960
2.6243474 1.7310252 -0.17758182 4292616960
2.6058633 1.71898 -0.19378693 4292486400
2.5573571 1.6871442 -0.20708714 4292355840
2.6254933 1.732191 -0.22981142 4292616960
2.6328657 1.7371874 -0.24742243 4292616960
2.6297195 1.7352498 -0.26379797 4292616960
2.6088219 1.7216074 -0.2779451 4292616960
2.4224062 1.5988228 -0.272782 4291833600
2.6153574 1.726186 -0.31031084 4292616960
2.6184385 1.7283523 -0.32602772 4292616960
2.6143842 1.7258124 -0.34048799 4292616960
2.5620368 1.6914183 -0.34793869 4292355840
2.3446887 1.5481775 -0.33102378 4291572480
2.6282651 1.7353688 -0.3851091 4292747520
2.6271081 1.7347383 -0.39836553 4292747520
2.6235089 1.732496 -0.41078132 4292616960
2.5867543 1.7083756 -0.41733319 4292486400
2.4511144 1.6189976 -0.4066081 4291964160
2.5308063 1.6717114 -0.43100536 4292355840
2.5105717 1.6584824 -0.4381035 4292225280
2.4965043 1.6493214 -0.44564298 4292225280
2.4643476 1.6282181 -0.44925711 4292094720
2.4338543 1.608209 -0.45243108 4291964160
2.3759995 1.5701327 -0.44967979 4291703040
2.3315527 1.5409029 -0.44862238 4291572480
2.3701274 1.5664855 -0.4630475 4291703040
2.3005867 1.5206796 -0.45567626 4291441920
2.323627 1.5360049 -0.46604183 4291572480
2.3384898 1.5459312 -0.47431397 4291572480
2.3542345 1.5564407 -0.48228124 4291703040
2.2696671 1.5006933 -0.46896023 4291311360
2.2855668 1.5113024 -0.47578824 4291311360
2.3007128 1.5214144 -0.48194945 4291441920
2.3003187 1.5212606 -0.48430365 4291441920
2.2958963 1.5184444 -0.48523855 4291441920
2.2915552 1.5156813 -0.4856185 4291441920
2.3037252 1.5238276 -0.48894188 4291441920
2.2872264 1.5130286 -0.48559505 4291441920
2.3710902 1.5685561 -0.50303376 4291703040
2.3547575 1.5578674 -0.49856168 4291703040
2.3434353 1.5504885 -0.49458593 4291572480
2.3321929 1.5431606 -0.49006784 4291572480
2.3087013 1.5277336 -0.48243466 4291441920
2.3694093 1.5679691 -0.49182701 4291703040
2.3386719 1.5477499 -0.48157671 4291572480
2.3776369 1.5736145 -0.48513865 4291703040
2.4357357 1.6121336 -0.49185622 4291964160
2.4616163 1.6293519 -0.49129507 4292094720
2.4891682 1.6476769 -0.49036798 4292225280
2.4987009 1.6540867 -0.48521665 4292225280
2.5242956 1.67112 -0.48253 4292355840
2.526947 1.6729792 -0.47480351 4292355840
2.5536385 1.6907402 -0.47096187 4292486400
2.5654113 1.6986338 -0.46368548 4292486400
2.589437 1.7146338 -0.45796475 4292616960
2.6100035 1.7283466 -0.45093143 4292616960
2.6122689 1.7299516 -0.44012022 4292616960
2.5880067 1.7140031 -0.42442501 4292486400
2.5683398 1.701093 -0.40920722 4292486400
2.5831583 1.7110023 -0.39906353 4292486400
2.5935016 1.7179506 -0.38765433 4292616960
2.5904927 1.7160622 -0.37377146 4292486400
2.5842247 1.7120159 -0.35904843 4292486400
2.5813699 1.710228 -0.34445143 4292486400
2.6018264 1.7238706 -0.33249748 4292616960
2.6240003 1.7386518 -0.3201527 4292616960
2.5850995 1.7129995 -0.30006793 4292486400
2.5763886 1.7073324 -0.28345945 4292486400
2.5830173 1.711821 -0.26824939 4292486400
2.596108 1.7205887 -0.25329825 4292486400
2.5754917 1.7070363 -0.23481019 4292486400
2.5806289 1.710537 -0.21852992 4292486400
2.6032243 1.7256 -0.20332065 4292486400
2.6162021 1.7342947 -0.18689904 4292616960
2.6019261 1.7249384 -0.16832075 4292486400
2.5904865 1.7174597 -0.14992093 4292486400
2.6062329 1.7279888 -0.13292181 4292486400
2.6050181 1.7272826 -0.11480427 4292486400
2.5850537 1.7141546 -0.095872827 4292486400
2.6029069 1.7260808 -0.078282595 4292486400
2.6196291 1.7372588 -0.060331978 4292616960
2.6339679 1.7468587 -0.042042512 4292616960
2.4865279 1.6492556 -0.021956446 4292094720
1.8260039 1.2116227 -0.0026602566 4289352960
1.653634 1.0974562 0.0095152035 4288700160
1.676877 1.1129234 0.021522272 4288830720
1.8796461 1.2473837 0.037202835 4289614080
1.8916247 1.2553947 0.050781596 4289614080
1.9006685 1.2614611 0.06437695 4289744640
1.8957829 1.2582942 0.077473976 4289614080
1.8715541 1.2423033 0.089513958 4289614080
1.8870622 1.252656 0.1032529 4289614080
1.8806006 1.2484434 0.11576325 4289614080
1.8461075 1.2256435 0.12617466 4289483520
1.8632227 1.2370632 0.13979915 4289483520
1.8746356 1.2447028 0.15303884 4289614080
1.865952 1.2390158 0.16451123 4289614080
1.8507526 1.2290069 0.17508161 4289483520
1.8726581 1.2436074 0.18896773 4289614080
1.9024116 1.2634153 0.20375122 4289744640
1.9067584 1.2663726 0.215828 4289744640
1.875518 1.2457223 0.22351797 4289614080
1.7215486 1.1436492 0.21539223 4288961280
1.8778311 1.2474039 0.24544124 4289614080
1.8851323 1.2523221 0.25684777 4289614080
1.8826609 1.2507567 0.2666738 4289614080
1.8676893 1.2408966 0.274353 4289614080
1.8382441 1.2214308 0.27938715 4289483520
1.8695687 1.2422932 0.29327178 4289614080
1.8769442 1.2472636 0.30328473 4289614080
1.8703409 1.2429568 0.31071657 4289614080
1.8546064 1.2325885 0.31619069 4289614080
1.8305588 1.216701 0.31972885 4289483520
1.7274013 1.148294 0.30867612 4289091840
1.863 1.2383896 0.33971408 4289614080
1.8547487 1.2329886 0.34478915 4289614080
1.857227 1.2347115 0.35142705 4289614080
1.8605521 1.2369975 0.35783681 4289614080
1.8531553 1.232164 0.36177284 4289614080
1.8562553 1.2343016 0.36731204 4289614080
1.8621194 1.2382755 0.3729904 4289614080
1.8574232 1.2352364 0.37613669 4289614080
1.8503917 1.230646 0.37835047 4289614080
1.8540226 1.2331384 0.38228148 4289614080
1.8572131 1.2353392 0.38568634 4289614080
1.8568559 1.2351835 0.38791189 4289614080
1.849175 1.2301624 0.38815445 4289614080
1.8489436 1.230091 0.38948831 4289614080
1.848776 1.2300625 0.39037839 4289614080
1.8445708 1.2273512 0.3899619 4289614080
1.848634 1.2301353 0.39082402 4289614080
1.8483363 1.2300217 0.39031115 4289614080
1.8484266 1.2301664 0.38942173 4289614080
1.8591752 1.2373968 0.39029914 4289614080
1.8552903 1.2349004 0.38766152 4289614080
1.8531792 1.2335836 0.38494444 4289614080
1.8530215 1.2335657 0.38218269 4289614080
1.8494095 1.2312514 0.37827238 4289614080
1.8531477 1.233825 0.37541303 4289614080
1.8503703 1.2320664 0.37080282 4289614080
1.835722 1.2224131 0.36343858 4289483520
1.8437229 1.227823 0.36012089 4289614080
1.8328621 1.2206882 0.35273519 4289483520
1.8376645 1.2239721 0.34795144 4289483520
1.8646524 1.242016 0.34683344 4289614080
1.873511 1.2480012 0.34184492 4289614080
1.8663136 1.243305 0.33354881 4289614080
1.8539232 1.235153 0.32402375 4289614080
1.8411188 1.2272316 0.2664063 4289483520
1.8779205 1.2518276 0.26171494 4289614080
1.8788282 1.2525282 0.2515693 4289614080
1.8304243 1.2203935 0.23486337 4289483520
1.8324913 1.2218643 0.22456968 4289483520
1.8552812 1.237137 0.21639408 4289483520
1.8721439 1.2484643 0.20705731 4289614080
1.8326687 1.2222677 0.19146524 4289483520
1.8424151 1.2288557 0.18092714 4289483520
1.8522432 1.2354995 0.17007305 4289483520
1.8570724 1.2388139 0.15848382 4289483520
1.8602153 1.2410055 0.14652573 4289483520
1.8561238 1.2383769 0.13385084 4289483520
1.8746258 1.2508044 0.12253535 4289614080
1.8679472 1.2464523 0.10938734 4289614080
1.7172585 1.1461154 0.088921979 4288961280
1.6255199 1.0850569 0.073011532 4288569600
1.7169977 1.1461234 0.065022111 4288961280
2.2658172 1.5120947 0.069265962 4291180800
2.5252836 1.6852065 0.059160572 4292225280
2.5948937 1.7317547 0.042365916 4292486400
2.5996089 1.7350366 0.023985144 4292486400
2.6045015 1.7384373 0.0055084121 4292486400
2.575639 1.7193261 -0.012854096 4292486400
2.5830636 1.7244149 -0.031261299 4292486400
2.5934982 1.7315124 -0.04980351 4292486400
2.5682521 1.7148083 -0.067480251 4292355840
2.5805709 1.723163 -0.086009517 4292486400
2.6014049 1.7372001 -0.10497188 4292486400
2.6014965 1.7373989 -0.12311949 4292486400
2.5679946 1.7151806 -0.13929327 4292355840
2.5756724 1.72044 -0.1574022 4292486400
2.5859833 1.7274575 -0.17562905 4292486400
2.5875027 1.7286079 -0.19314559 4292486400
2.5350368 1.6937224 -0.20605119 4292225280
2.5871549 1.7286477 -0.22729902 4292486400
2.6028011 1.7392291 -0.24551632 4292616960
2.6071339 1.7422581 -0.26252201 4292616960
2.5631285 1.7130108 -0.27409714 4292486400
2.3857281 1.5946807 -0.26966015 4291703040
2.5895329 1.730911 -0.30841219 4292486400
2.5917823 1.7325475 -0.32393378 4292616960
2.584445 1.7277806 -0.33786592 4292486400
2.5323095 1.6930882 -0.34520736 4292355840
2.3951492 1.6015905 -0.33948416 4291833600
2.5983024 1.7374365 -0.38216761 4292616960
2.601284 1.7395612 -0.3959544 4292616960
2.5853405 1.7290401 -0.40634301 4292616960
2.5756996 1.7227286 -0.41714522 4292486400
2.4924486 1.6672231 -0.41508484 4292225280
2.5397086 1.698934 -0.43419501 4292355840
2.5268738 1.6904824 -0.44265908 4292355840
2.5089359 1.678618 -0.44959766 4292225280
2.4892612 1.6655902 -0.45556518 4292225280
2.4777985 1.6580498 -0.46240422 4292225280
2.4525399 1.6412842 -0.46600461 4292094720
2.43378 1.6288607 -0.47016385 4291964160
2.3762991 1.5905427 -0.46605027 4291703040
2.3991649 1.6059488 -0.47709838 4291833600
2.351825 1.5744045 -0.47353718 4291703040
2.3625197 1.5816703 -0.48105419 4291703040
2.38147 1.5944583 -0.48976228 4291833600
2.3051784 1.5435382 -0.47816065 4291441920
2.3242807 1.5564259 -0.48574147 4291572480
2.3352644 1.5638833 -0.49109942 4291572480
2.3504157 1.5741295 -0.49679458 4291703040
2.3427279 1.5690945 -0.4970794 4291703040
2.3457625 1.5712333 -0.49906111 4291703040
2.3456066 1.5712365 -0.49978122 4291703040
2.3258963 1.5581524 -0.4957383 4291572480
2.3144522 1.5505985 -0.49288374 4291572480
2.3827603 1.5964241 -0.50645834 4291833600
2.3673925 1.5862439 -0.501589 4291703040
2.348012 1.5733756 -0.49531004 4291703040
2.328707 1.5605555 -0.48850983 4291572480
2.3796346 1.5947548 -0.49586642 4291833600
2.4156587 1.6189791 -0.49940029 4291964160
2.4361613 1.6328127 -0.49903768 4291964160
2.4738653 1.6581665 -0.50151044 4292225280
2.4840405 1.665087 -0.49770123 4292225280
2.4970944 1.6739359 -0.49383688 4292225280
2.5149484 1.6860001 -0.49027008 4292355840
2.5282083 1.6949881 -0.48514941 4292355840
2.5355754 1.7000293 -0.47827235 4292355840
2.5346406 1.699509 -0.46925527 4292355840
2.539042 1.702563 -0.46067914 4292355840
2.5522828 1.7115391 -0.45311818 4292486400
2.5844474 1.7331952 -0.44822818 4292616960
2.5782897 1.729175 -0.43605548 4292616960
2.558224 1.7158338 -0.42114553 4292486400
2.5468571 1.70832 -0.40734056 4292355840
2.5533736 1.7127898 -0.39596939 4292486400
2.5677872 1.7225528 -0.38527897 4292486400
2.5722036 1.7256156 -0.37255588 4292486400
2.5502787 1.7110214 -0.35568053 4292355840
2.5515499 1.7119746 -0.34176937 4292355840
2.5762272 1.7286186 -0.33048189 4292486400
2.5898633 1.7378618 -0.31718671 4292616960
2.5577252 1.7164158 -0.29801926 4292486400
2.5498562 1.7112395 -0.28160596 4292355840
2.5572789 1.7163157 -0.26658431 4292355840
2.5661726 1.7223788 -0.25132349 4292486400
2.5596333 1.7180927 -0.23425311 4292355840
2.5581925 1.7172252 -0.21744934 4292355840
2.5773804 1.7301928 -0.20205955 4292486400
2.5820124 1.7333984 -0.18514282 4292486400
2.5644667 1.7217282 -0.16650914 4292355840
2.5663455 1.7230864 -0.1490766 4292486400
2.5720603 1.727018 -0.13165736 4292486400
2.5874414 1.737435 -0.11445245 4292486400
2.5434823 1.7080402 -0.094660476 4292355840
2.5728829 1.7278634 -0.077650934 4292486400
2.5938706 1.7420439 -0.059944216 4292486400
2.6038184 1.7488177 -0.041692775 4292616960
2.4988556 1.6784784 -0.022152197 4292094720
1.891454 1.2709377 -0.0028297759 4289614080
1.6845911 1.1321731 0.0096984766 4288830720
1.6144946 1.085189 0.02087684 4288569600
1.8558085 1.2472267 0.036903016 4289483520
1.8726568 1.2586068 0.050492227 4289614080
1.8733674 1.259155 0.06373217 4289614080
1.8768022 1.2615322 0.077021405 4289614080
1.8526696 1.2454016 0.088980421 4289483520
1.863973 1.2530615 0.10241596 4289614080
1.8676265 1.2555859 0.11543089 4289614080
1.8566234 1.248269 0.12738022 4289483520
1.8494238 1.2435054 0.13932399 4289483520
1.8648258 1.25392 0.15284638 4289614080
1.8701454 1.2575645 0.16552295 4289614080
1.8506441 1.2445389 0.17575784 4289483520
1.8021697 1.212051 0.18264791 4289352960
1.7413564 1.1712714 0.18741472 4289091840
1.7835065 1.1996543 0.20280775 4289222400
1.7418544 1.1717422 0.20855661 4289091840
1.6096296 1.0829765 0.20231995 4288569600
1.8722398 1.2594829 0.24567519 4289614080
1.869185 1.2575045 0.25569081 4289614080
1.8713748 1.2590504 0.26612625 4289614080
1.8545339 1.247808 0.27350265 4289614080
1.8438519 1.2407037 0.28132927 4289483520
1.8513641 1.245827 0.29157475 4289614080
1.8499017 1.2449191 0.30011773 4289614080
1.8314801 1.2326121 0.30549893 4289483520
1.8046333 1.2146405 0.30893666 4289352960
1.7256323 1.1616068 0.30271381 4289091840
1.7559835 1.1820828 0.31497249 4289222400
1.7863933 1.2026012 0.3271153 4289352960
1.8064657 1.216172 0.33718836 4289352960
1.8162041 1.2227962 0.34506112 4289483520
1.8336574 1.2346095 0.35407814 4289483520
1.8377527 1.2374417 0.36018941 4289614080
1.8334733 1.2346423 0.36425272 4289483520
1.8352267 1.2359003 0.36907643 4289614080
1.8387377 1.2383415 0.37383384 4289614080
1.8341192 1.2353148 0.37651178 4289614080
1.8336484 1.2350785 0.37958637 4289614080
1.8373241 1.2376322 0.38307491 4289614080
1.8305012 1.2331231 0.38393688 4289483520
1.8334793 1.2352085 0.38638654 4289614080
1.8299801 1.2329363 0.38702708 4289483520
1.8330827 1.2351068 0.3886002 4289614080
1.8329798 1.2351208 0.38904354 4289614080
1.843493 1.2422802 0.39126968 4289614080
1.8361636 1.2374318 0.38927463 4289614080
1.8321666 1.2348261 0.38752863 4289614080
1.8380501 1.2388719 0.38740259 4289614080
1.8284459 1.2324923 0.38358328 4289483520
1.8304273 1.2339123 0.3817369 4289483520
1.8302668 1.2338909 0.37899753 4289483520
1.8225758 1.2287992 0.37427878 4289483520
1.8111547 1.2211955 0.36839733 4289483520
1.7971539 1.2118537 0.36161786 4289352960
1.7986413 1.2129424 0.35754043 4289352960
1.7783769 1.1993809 0.34880224 4289352960
1.7830999 1.2026491 0.34456724 4289352960
1.8046401 1.217247 0.34307998 4289352960
1.8430245 1.2431954 0.34418169 4289614080
1.8580785 1.2534293 0.34037769 4289614080
1.8453465 1.2449431 0.33112103 4289614080
1.8387287 1.2405761 0.32264748 4289483520
1.7609913 1.1887711 0.25590995 4289222400
1.705539 1.1514748 0.23882903 4288961280
1.7470431 1.1795481 0.23499794 4289091840
1.8064395 1.2196913 0.23272544 4289352960
1.821372 1.2298554 0.22409762 4289483520
1.8464241 1.2468463 0.21621823 4289483520
1.8554957 1.2530615 0.20604251 4289614080
1.8141273 1.2252545 0.19029558 4289352960
1.8156352 1.2263671 0.17903012 4289352960
1.8412296 1.2437298 0.16974023 4289483520
1.8415536 1.2440457 0.15779632 4289483520
1.8435637 1.2454995 0.14580542 4289483520
1.8331547 1.2385734 0.13274175 4289483520
1.8515795 1.2511047 0.12153228 4289483520
1.8580012 1.2555373 0.10924606 4289614080
1.7180047 1.1611447 0.089311503 4288961280
1.6067458 1.0861356 0.072476782 4288569600
1.667212 1.1270399 0.063444793 4288830720
2.2349875 1.5104436 0.068624616 4291050240
2.4880772 1.6814415 0.058554333 4292094720
2.5607276 1.73063 0.042006146 4292355840
2.5773902 1.7420188 0.023898583 4292486400
2.5620084 1.7317692 0.0054796115 4292355840
2.5456893 1.7208847 -0.01272379 4292355840
2.5489423 1.7232182 -0.030935826 4292355840
2.5638356 1.733415 -0.049396835 4292486400
2.5466194 1.7219219 -0.06714993 4292355840
2.5588913 1.7303491 -0.085597165 4292355840
2.5715461 1.7390361 -0.10414419 4292486400
2.5731258 1.7402409 -0.12222584 4292486400
2.5380931 1.7167046 -0.13818181 4292355840
2.5531931 1.7270446 -0.15661615 4292355840
2.5570309 1.7297745 -0.17431544 4292355840
2.5558162 1.7290893 -0.19149858 4292355840
2.501982 1.6928346 -0.20413128 4292225280
2.561341 1.7330953 -0.22588797 4292486400
2.5761063 1.7432132 -0.24392524 4292486400
2.5812542 1.7468299 -0.26091021 4292486400
2.5374277 1.7173311 -0.27238798 4292355840
2.3607273 1.5979736 -0.26785648 4291703040
2.5592079 1.7323271 -0.30596864 4292486400
