# .PCD v0.7 - Point Cloud Data file format
VERSION 0.7
FIELDS x y z rgba
SIZE 4 4 4 4
TYPE F F F U
COUNT 1 1 1 1
WIDTH 1108
HEIGHT 1
VIEWPOINT 0 0 0 1 0 0 0
POINTS 1108
DATA ascii
2.9780705 1.0904329 -0.47546911 4292747520
3.0998673 1.1351398 -0.48421085 4293139200
3.1189945 1.1422551 -0.47587174 4293269760
3.1251554 1.1446228 -0.46491891 4293269760
3.1266983 1.1452992 -0.45272085 4293269760
3.1105759 1.1395044 -0.43751228 4293139200
3.0006647 1.0993474 -0.40915635 4292747520
3.0338686 1.1116203 -0.40017805 4292878080
2.963618 1.0859859 -0.37727904 4292616960
2.9427252 1.0784348 -0.36066258 4292616960
2.912534 1.0674742 -0.34274951 4292486400
2.8915572 1.0598891 -0.32579094 4292355840
2.9741516 1.0902697 -0.31982017 4292616960
2.8190482 1.0335121 -0.2883251 4292094720
2.7210774 0.99769127 -0.26369548 4291703040
2.6680191 0.97833234 -0.24394374 4291572480
2.7291803 1.0008568 -0.23431619 4291703040
2.5954623 0.95191169 -0.20811687 4291311360
2.5185676 0.92379946 -0.18744686 4291050240
2.4708881 0.90639895 -0.16946743 4290789120
2.3446693 0.86018151 -0.14694129 4290397440
2.1024926 0.77140981 -0.11918351 4289483520
2.1881967 0.80293292 -0.11081346 4289744640
2.1580615 0.79195207 -0.096122369 4289744640
2.1206546 0.77830029 -0.081416801 4289614080
2.1980371 0.80677885 -0.070780881 4289875200
2.1273227 0.78089923 -0.055260345 4289614080
2.0576959 0.75541395 -0.040583737 4289352960
-5.6946917 -2.0908177 0.076581687 4278190335
2.0601685 0.75646853 -0.014747234 4289352960
1.9099034 0.70136118 -0.0016439736 4288830720
1.8973604 0.69682276 0.010317493 4288700160
1.9996853 0.73447376 0.023457656 4289091840
2.2357409 0.82125545 0.040268 4290005760
2.2492549 0.82629979 0.054594148 4290005760
2.2436373 0.82431602 0.068446919 4290005760
2.1802859 0.80111837 0.080036819 4289744640
2.2285876 0.81894571 0.095543951 4290005760
2.2260959 0.81810945 0.10905275 4289875200
2.078531 0.76395214 0.11442675 4289352960
1.8725303 0.6883046 0.11432829 4288700160
2.0877972 0.76750684 0.13986778 4289483520
2.1223216 0.78027421 0.15462731 4289614080
2.1587813 0.79375571 0.16977267 4289744640
1.935285 0.71164799 0.16322604 4288961280
2.256592 0.82988036 0.20297833 4290005760
2.2468886 0.82639194 0.21448179 4290005760
2.2231789 0.81775099 0.22423066 4290005760
1.9942573 0.73361796 0.21169484 4289091840
1.9095086 0.70250994 0.2125791 4288830720
2.2021129 0.81023794 0.25627634 4289875200
2.159889 0.79477924 0.26199207 4289744640
2.0184498 0.74280548 0.25449604 4289222400
1.9397321 0.71390599 0.2535809 4288961280
1.8622892 0.68547004 0.25183386 4288700160
2.2266161 0.81965065 0.31077814 4290005760
2.2272568 0.81996596 0.32019654 4290005760
2.2037971 0.81140786 0.32569605 4289875200
2.1056707 0.77535415 0.31931797 4289614080
2.0603287 0.75873178 0.3200354 4289352960
1.9912374 0.7333594 0.3162891 4289222400
2.1980677 0.80961204 0.3564541 4289875200
2.184103 0.80454636 0.36104882 4289875200
2.1831548 0.80427498 0.36733347 4289875200
2.1579578 0.7950694 0.36904255 4289744640
2.1617479 0.79654294 0.37522286 4289744640
2.1620286 0.79672348 0.38037017 4289744640
2.146055 0.79091376 0.38218313 4289744640
2.1546421 0.7941553 0.38790837 4289744640
2.1000423 0.77410597 0.38172838 4289614080
2.104142 0.77569222 0.38568488 4289614080
2.1129291 0.77900696 0.39006844 4289614080
2.1125386 0.77893841 0.3923133 4289614080
2.1075985 0.77719212 0.39324984 4289614080
2.1119728 0.77888048 0.39546278 4289614080
2.1164196 0.78059596 0.39723125 4289614080
2.1070807 0.77722675 0.39594698 4289614080
2.1024365 0.77558875 0.39507905 4289614080
2.0941706 0.77261418 0.39306954 4289614080
2.1380725 0.7888875 0.40037405 4289744640
2.1345763 0.78767365 0.39831713 4289744640
2.1491473 0.79312718 0.39915511 4289744640
2.1576715 0.79634994 0.39838117 4289744640
2.1698484 0.80092162 0.39779109 4289875200
2.1782064 0.80408442 0.39600801 4289875200
2.1750665 0.80300301 0.39166576 4289875200
2.1923308 0.80945504 0.39051375 4289875200
2.184705 0.8067174 0.38445717 4289875200
2.1937699 0.81014299 0.38088682 4289875200
2.1862378 0.80743951 0.37399179 4289875200
2.1870899 0.8078323 0.36811569 4289875200
2.187989 0.80824256 0.36181808 4289875200
2.2152839 0.81840432 0.35938078 4290005760
2.2238302 0.82164103 0.35337538 4290005760
2.2078907 0.81583065 0.34310195 4290005760
2.184376 0.80764526 0.28114963 4289875200
2.2105756 0.81741124 0.27411112 4289875200
2.2333579 0.82591528 0.26610816 4290005760
2.2216856 0.8216781 0.25365055 4290005760
2.1921666 0.81083894 0.23908195 4289875200
2.1632369 0.8002156 0.2246142 4289744640
2.1646922 0.80083132 0.21319622 4289744640
2.1217103 0.78500593 0.19739279 4289614080
2.1142027 0.78230375 0.18494827 4289614080
2.1934664 0.81171143 0.17948475 4289875200
2.2097461 0.81781477 0.16812909 4289875200
2.2098761 0.81794184 0.15526636 4289875200
2.1929502 0.81175536 0.14113474 4289875200
2.2144914 0.81980824 0.12929606 4289875200
2.2282281 0.82497323 0.11664934 4290005760
2.1822088 0.80801308 0.10094493 4289744640
1.9826257 0.73418373 0.079533651 4289091840
1.9473848 0.72120333 0.066072665 4288961280
2.005492 0.74279463 0.055563588 4289091840
2.0517545 0.76000255 0.044015143 4289352960
2.0532153 0.76061702 0.031159339 4289352960
2.0936482 0.77567035 0.018597452 4289483520
2.0427148 0.75687313 0.0052701943 4289222400
2.0473731 0.75867224 -0.0076279687 4289352960
2.0294561 0.75210547 -0.020350564 4289222400
2.0292845 0.75211442 -0.033115473 4289222400
2.0871651 0.77364129 -0.047154345 4289483520
2.0465419 0.7586568 -0.059026439 4289352960
2.1374021 0.7924152 -0.074938469 4289614080
2.1819072 0.80899286 -0.08998464 4289744640
2.0938346 0.77641273 -0.099200703 4289483520
2.1901133 0.81219196 -0.11708908 4289875200
2.1763284 0.80715775 -0.12946917 4289744640
2.3091323 0.85649461 -0.15113813 4290266880
2.2764289 0.84444577 -0.16240913 4290136320
2.2543743 0.83634508 -0.17394204 4290005760
2.2534449 0.83608085 -0.18678148 4290005760
2.3019872 0.85417342 -0.20378548 4290266880
2.3080773 0.85651577 -0.21711528 4290266880
2.1410017 0.79459137 -0.21304217 4289614080
2.3964291 0.88947397 -0.25122812 4290528000
2.4129524 0.89569312 -0.2655381 4290658560
2.5105221 0.93200094 -0.28905547 4291050240
2.5942776 0.96318686 -0.31157324 4291311360
2.703546 1.003852 -0.33775103 4291703040
2.6188986 0.97251523 -0.3394562 4291441920
2.6258814 0.97520214 -0.35229248 4291441920
2.6664679 0.99037051 -0.36945096 4291572480
2.734313 1.0156671 -0.39043534 4291833600
2.733748 1.0155549 -0.40149489 4291833600
2.4953818 0.92709392 -0.37624025 4291050240
2.494128 0.92671722 -0.38537189 4291050240
2.5151596 0.93462175 -0.39757773 4291050240
2.4438069 0.90819478 -0.39455929 4290789120
2.4602876 0.91440743 -0.40508103 4290919680
2.4814291 0.9223538 -0.41602099 4290919680
2.502604 0.930314 -0.4266105 4291050240
2.5145657 0.93485057 -0.43522796 4291050240
2.4143341 0.89767337 -0.42371246 4290789120
2.4356894 0.90570062 -0.43284941 4290789120
2.4487796 0.91065568 -0.44008851 4290919680
2.461009 0.91529161 -0.44670936 4290919680
2.5000956 0.92991799 -0.45776892 4291050240
2.5041471 0.9315145 -0.46194723 4291050240
2.4232543 0.90150988 -0.44982821 4290789120
2.4367137 0.90660435 -0.45461714 4290789120
2.4400983 0.90795088 -0.45700973 4290789120
2.449105 0.91138983 -0.45992735 4290919680
2.4175854 0.89974684 -0.45469144 4290789120
2.4221485 0.90153176 -0.4557007 4290789120
2.5025542 0.93154848 -0.47043264 4291050240
2.4712949 0.92000097 -0.46362182 4290919680
2.453964 0.91363692 -0.45890337 4290919680
2.4320982 0.90558302 -0.45282802 4290789120
2.4149253 0.89927518 -0.4471325 4290789120
2.4061382 0.89608908 -0.44249588 4290658560
2.4836643 0.92505008 -0.45311338 4291050240
2.4621077 0.91710925 -0.44504872 4290919680
2.4276743 0.90437001 -0.43423951 4290789120
2.4108551 0.89819068 -0.42617637 4290658560
2.4594698 0.91639066 -0.4291091 4290919680
2.4427774 0.91025847 -0.42008021 4290789120
2.4968164 0.93048453 -0.42262498 4291050240
2.5070872 0.93440181 -0.41709781 4291050240
2.4988911 0.93143654 -0.40801376 4291050240
2.4930212 0.92933786 -0.39888543 4291050240
2.5034368 0.93331003 -0.39188892 4291050240
2.4730849 0.92208296 -0.37813714 4290919680
2.446007 0.91207463 -0.36466864 4290789120
2.4295738 0.90603387 -0.35254118 4290789120
2.3319752 0.869721 -0.3287068 4290397440
2.2404974 0.83568412 -0.30616227 4290005760
2.2416329 0.83618784 -0.29631695 4290005760
2.2381167 0.83495635 -0.28553462 4290005760
2.1309378 0.79504824 -0.26173258 4289614080
2.2003183 0.82101268 -0.25949386 4289875200
2.0920541 0.78069049 -0.23621961 4289483520
2.1424656 0.7995792 -0.2308833 4289744640
2.1717875 0.81060004 -0.22260416 4289744640
2.1242609 0.79293722 -0.20630312 4289614080
2.1111934 0.78813493 -0.19344832 4289614080
2.0435762 0.7629658 -0.17583171 4289352960
2.0998507 0.78405094 -0.16873974 4289483520
2.0735445 0.77430284 -0.15465872 4289352960
2.061192 0.76976401 -0.14167336 4289352960
2.1151757 0.7900002 -0.13284504 4289614080
2.1005085 0.78459728 -0.11932815 4289483520
2.0983315 0.78385931 -0.10649204 4289483520
2.0588808 0.76919562 -0.0919028 4289352960
2.0711491 0.77385324 -0.079687931 4289352960
2.0868435 0.77979195 -0.067345396 4289483520
2.0824697 0.7782321 -0.054212082 4289483520
2.1229792 0.79344678 -0.041961778 4289614080
2.0581071 0.76927501 -0.027737038 4289352960
2.0404036 0.7627309 -0.014637315 4289222400
1.9318166 0.72220874 -0.0016664292 4288830720
1.8529921 0.6928066 0.010098004 4288569600
1.9231786 0.71911716 0.022608947 4288830720
2.2215531 0.83076525 0.040098958 4289875200
2.2290919 0.8336643 0.054221723 4290005760
2.2175071 0.82941109 0.067796029 4289875200
2.1662207 0.81030607 0.079692453 4289744640
2.2153559 0.82876515 0.095182076 4289875200
2.2111239 0.82726109 0.10855357 4289875200
2.1596005 0.80806172 0.11914694 4289744640
1.9162991 0.71709377 0.11725371 4288830720
2.2154708 0.82912546 0.14874212 4289875200
2.2038693 0.82486272 0.1609161 4289875200
2.1483722 0.80416811 0.16931964 4289744640
1.9394336 0.7260288 0.16392994 4288961280
2.1994584 0.823448 0.19826737 4289875200
2.1629751 0.80986673 0.20691855 4289744640
2.0639832 0.77287579 0.20862477 4289352960
1.8687314 0.69982904 0.19879943 4288700160
1.8584793 0.69605625 0.20734613 4288700160
2.2128172 0.82884574 0.25807968 4290005760
2.2090318 0.82750696 0.26853326 4289875200
2.1680882 0.8122471 0.2739552 4289744640
2.1153328 0.79255879 0.27713612 4289614080
1.8359686 0.68795425 0.24881238 4288569600
2.1579537 0.80868232 0.30184713 4289744640
2.1032813 0.7882694 0.30302858 4289614080
2.0709357 0.77622116 0.3067238 4289483520
2.0018694 0.75040573 0.30423471 4289222400
2.0277402 0.76017612 0.31565598 4289352960
1.928511 0.72304535 0.30698955 4288961280
2.1803679 0.81755066 0.35435021 4289875200
2.1764951 0.81617653 0.36057115 4289875200
2.175185 0.81576312 0.36678597 4289875200
2.1746514 0.81564099 0.37270376 4289875200
2.1591113 0.80988979 0.3755779 4289744640
2.1629567 0.81140965 0.38135871 4289875200
2.1543694 0.80826551 0.38449591 4289744640
2.1410384 0.80334079 0.38629532 4289744640
2.1450527 0.80492377 0.39075577 4289744640
2.1372778 0.80208296 0.39260852 4289744640
2.1405022 0.8033697 0.39601612 4289744640
2.1447179 0.80502886 0.39915347 4289744640
2.1255162 0.79789752 0.39745367 4289744640
2.1114361 0.79268777 0.39622039 4289614080
2.1112626 0.79269826 0.39712346 4289614080
2.1392555 0.80328518 0.40286565 4289744640
2.1355424 0.8019675 0.40217134 4289744640
2.1355925 0.80206287 0.40171462 4289744640
2.1337314 0.80144036 0.40042871 4289744640
2.146579 0.80634296 0.4014267 4289744640
2.1639206 0.81293476 0.40277174 4289875200
2.1725574 0.81625724 0.40200087 4289875200
2.1655056 0.81368548 0.39785731 4289875200
2.1702449 0.81554407 0.39541778 4289875200
2.1619368 0.81249952 0.3901473 4289875200
2.1700356 0.81562096 0.38738224 4289875200
2.1418955 0.80512118 0.37774277 4289744640
2.143693 0.80587369 0.37300122 4289744640
2.1301804 0.8008703 0.36519423 4289744640
2.0862811 0.78444052 0.35191151 4289483520
2.091763 0.78657681 0.34665754 4289614080
2.1328032 0.80208582 0.34675235 4289744640
2.1772957 0.81889623 0.34673312 4289875200
2.1789765 0.8196066 0.33934507 4289875200
2.1239381 0.79939598 0.27396557 4289614080
2.1153622 0.79624403 0.26287544 4289614080
2.1257215 0.8002196 0.25383431 4289614080
2.1178172 0.79732007 0.24231812 4289614080
2.1392708 0.80547374 0.23382089 4289744640
2.1693373 0.81687206 0.22573797 4289744640
2.1881719 0.82404286 0.21597788 4289875200
2.1730697 0.81843346 0.20261119 4289744640
2.1448228 0.80787194 0.18803544 4289744640
2.1717043 0.81807506 0.17809103 4289744640
2.1828735 0.82236069 0.16644621 4289875200
2.186398 0.82376695 0.15395138 4289875200
2.1620295 0.81466323 0.13944784 4289744640
2.2033622 0.8303166 0.12892655 4289875200
2.2071183 0.83181125 0.11579598 4289875200
2.1048307 0.79333699 0.097577728 4289483520
1.9060428 0.71847975 0.076628126 4288830720
1.9805766 0.74664617 0.067345284 4289091840
2.0601349 0.7767123 0.057201911 4289352960
2.0981479 0.79111928 0.045108512 4289483520
2.2045236 0.83130795 0.03352851 4289875200
2.2064772 0.83212382 0.01964242 4289875200
2.2046881 0.83152825 0.0057004872 4289875200
2.1948476 0.82789552 -0.0081952522 4289875200
2.2070336 0.83257133 -0.022179505 4289875200
2.2070518 0.83265734 -0.036094971 4289875200
2.2073863 0.83286279 -0.049979229 4289875200
2.1906645 0.82663214 -0.063321061 4289875200
2.217005 0.83665109 -0.077898964 4289875200
2.2160623 0.83637488 -0.091592655 4289875200
2.1314654 0.80452329 -0.10120391 4289614080
2.1536455 0.81297249 -0.1153907 4289744640
2.1613843 0.81597137 -0.1288608 4289744640
2.0625358 0.77872783 -0.13529247 4289352960
2.051178 0.77451319 -0.14665832 4289352960
2.1680028 0.81870347 -0.16764304 4289744640
2.0871792 0.78825694 -0.17337795 4289483520
2.1263623 0.8031314 -0.18864918 4289614080
2.0971053 0.79215616 -0.19770044 4289483520
2.0619149 0.77893746 -0.20562066 4289352960
2.1373315 0.80750459 -0.22455518 4289614080
2.1539447 0.81385863 -0.2375529 4289744640
2.1069379 0.79617292 -0.2431177 4289614080
2.0964756 0.79229468 -0.25233725 4289483520
2.0238836 0.76493359 -0.25339404 4289222400
2.2163222 0.8377459 -0.28790286 4290005760
2.2281401 0.84229296 -0.29958418 4290005760
2.2631364 0.85560375 -0.31425297 4290136320
2.3240614 0.87872052 -0.33258048 4290397440
2.3299284 0.88102251 -0.34293553 4290397440
2.2281189 0.84260499 -0.33667827 4290005760
2.2408841 0.84751284 -0.34699982 4290136320
2.2481124 0.85032737 -0.35614198 4290136320
2.2692382 0.85839945 -0.36717591 4290266880
2.2996254 0.86997682 -0.37945646 4290266880
2.2483852 0.85067284 -0.3777748 4290136320
2.2917743 0.86717129 -0.39152569 4290266880
2.2409391 0.8480165 -0.38871649 4290136320
2.3065517 0.8729285 -0.4056825 4290397440
2.3463461 0.88807327 -0.41788453 4290528000
2.3210301 0.87857467 -0.41804254 4290397440
2.3683031 0.89655381 -0.4308227 4290528000
2.3179004 0.8775565 -0.42533785 4290397440
2.2765598 0.8619867 -0.42088285 4290266880
2.3203428 0.87864792 -0.43166777 4290397440
2.3116791 0.87545025 -0.43223378 4290397440
2.3021758 0.871934 -0.43212217 4290397440
2.2973595 0.87019229 -0.43237522 4290397440
2.346307 0.88881695 -0.4422521 4290528000
2.3287587 0.88225305 -0.43909004 4290397440
2.3066881 0.87397438 -0.43456334 4290397440
2.3528671 0.89155561 -0.44237146 4290528000
2.318064 0.87845111 -0.43443912 4290397440
2.255698 0.8548981 -0.42090467 4290136320
2.2805867 0.86441267 -0.42318451 4290266880
2.326236 0.88179874 -0.42873919 4290397440
2.2557716 0.85516912 -0.41243923 4290136320
2.2120802 0.8386851 -0.40073043 4290005760
2.2766604 0.86325169 -0.40812027 4290266880
2.2413836 0.84995615 -0.39708692 4290136320
2.2245996 0.8436715 -0.38898179 4290005760
2.212476 0.83915317 -0.38131002 4290005760
2.2133241 0.83955431 -0.37546107 4290005760
2.284152 0.8665027 -0.38084209 4290266880
2.2721839 0.86204427 -0.37181124 4290266880
2.2593215 0.8572455 -0.36228624 4290136320
2.1764586 0.82588339 -0.34145108 4289875200
2.1774871 0.826352 -0.33367044 4289875200
2.1655781 0.82191038 -0.32356867 4289875200
2.1573822 0.81887728 -0.31373203 4289744640
2.1278746 0.80775362 -0.30059579 4289614080
2.1861615 0.82995826 -0.29939303 4289875200
2.1161098 0.80343968 -0.28033832 4289614080
2.1837351 0.82919407 -0.27920833 4289875200
2.1671891 0.82298917 -0.26676956 4289744640
2.1413231 0.81324351 -0.25309077 4289744640
2.1919982 0.83256805 -0.2480481 4289875200
2.1480572 0.81595546 -0.23199426 4289744640
2.171751 0.82503384 -0.22308932 4289744640
2.1767583 0.82701433 -0.21186589 4289875200
2.1951468 0.83407956 -0.20158282 4289875200
2.1759796 0.82687497 -0.18763518 4289744640
2.1757755 0.82687563 -0.17522506 4289744640
2.2057149 0.83833301 -0.16487838 4289875200
2.2148783 0.8418954 -0.15257134 4289875200
2.1838303 0.83017224 -0.1374584 4289875200
2.0934396 0.79588592 -0.11918797 4289483520
2.1746721 0.82684726 -0.11060899 4289744640
2.1203876 0.80628359 -0.094856381 4289614080
2.0441873 0.77738172 -0.078823492 4289352960
2.1884873 0.83233607 -0.070780881 4289875200
2.1134071 0.80385721 -0.055138454 4289614080
2.1077023 0.80176312 -0.041751444 4289483520
2.0623195 0.78457379 -0.02785494 4289352960
1.9839216 0.75482005 -0.014263434 4289091840
1.8967334 0.72171587 -0.0016397651 4288830720
1.8040632 0.68651932 0.0098529933 4288439040
1.9189563 0.73030984 0.022608947 4288830720
2.1989202 0.83693671 0.039777782 4289875200
2.210182 0.84130251 0.053880062 4289875200
2.1937099 0.83511132 0.067216091 4289875200
2.1353109 0.81295651 0.078728236 4289614080
2.1884108 0.83325142 0.094231367 4289875200
2.19964 0.83760625 0.10822754 4289875200
2.1669035 0.82521832 0.11981307 4289744640
2.0916302 0.7966274 0.12826362 4289483520
2.195087 0.83610928 0.14769815 4289875200
2.1937423 0.83567607 0.16052945 4289875200
2.1503823 0.81923604 0.16985139 4289744640
1.9482125 0.74228501 0.16503473 4288961280
1.9930574 0.75944299 0.18005744 4289091840
1.9921441 0.75916666 0.1909961 4289091840
2.0181758 0.7691595 0.20444413 4289222400
1.8599732 0.70893276 0.19830376 4288700160
1.8320878 0.6983701 0.20485218 4288569600
2.201637 0.83931714 0.25734171 4289875200
2.185605 0.83328402 0.26627114 4289875200
2.1679585 0.82663411 0.27454272 4289744640
2.1014051 0.80133319 0.27591842 4289614080
1.8235869 0.69545782 0.24767932 4288569600
2.1390467 0.81584102 0.29986227 4289744640
2.1119666 0.80558854 0.30495095 4289614080
2.0043719 0.76461977 0.29751986 4289222400
1.926239 0.73488325 0.29338646 4288961280
1.952088 0.74481523 0.30454963 4289091840
1.8660486 0.71205419 0.29770184 4288700160
2.1505218 0.82068205 0.35027084 4289744640
2.1584136 0.82377142 0.35836467 4289875200
2.1523027 0.82151663 0.36372843 4289744640
2.1514134 0.82125461 0.36953488 4289744640
2.1626549 0.82562363 0.37702465 4289875200
2.1282294 0.81255782 0.37606415 4289744640
2.1240845 0.81105179 0.37992778 4289744640
2.1234255 0.81087661 0.38396341 4289744640
2.1238925 0.81113142 0.38775545 4289744640
2.0999124 0.80204874 0.3865965 4289614080
2.1040568 0.80370742 0.39013302 4289614080
2.1119497 0.80679846 0.39392313 4289614080
2.1208313 0.81026769 0.39745367 4289744640
2.1159825 0.80849135 0.39795071 4289744640
2.1066084 0.80498546 0.39712346 4289614080
2.1065087 0.80502319 0.39757529 4289614080
2.0982041 0.80192512 0.39601287 4289614080
2.1216838 0.81097537 0.39998034 4289744640
2.1172078 0.80934072 0.398206 4289744640
2.1209435 0.81084508 0.3975094 4289744640
2.1375167 0.81725812 0.39873669 4289744640
2.142009 0.81905282 0.39722463 4289744640
2.1414902 0.81893152 0.394315 4289744640
2.1391189 0.8181017 0.3906084 4289744640
2.1485143 0.82177234 0.38858247 4289744640
2.1399171 0.81856108 0.38285053 4289744640
2.1359823 0.81713289 0.37753314 4289744640
2.1278563 0.81410086 0.37106466 4289744640
2.1185844 0.81062984 0.36400977 4289614080
2.1032727 0.80484688 0.3555626 4289614080
2.1170571 0.81019795 0.35162574 4289614080
2.1225843 0.81238967 0.34585461 4289744640
2.1641052 0.82835913 0.34539527 4289875200
2.1659617 0.82914782 0.33806479 4289875200
2.1029329 0.80568767 0.27186459 4289614080
2.0438437 0.78312266 0.25455818 4289352960
2.067138 0.7921226 0.24739373 4289483520
2.0815077 0.7977041 0.23869973 4289483520
2.1321037 0.81717098 0.23356284 4289614080
2.1559734 0.82639724 0.22485395 4289744640
2.1743693 0.83352685 0.21510105 4289875200
2.1488929 0.823838 0.20081121 4289744640
2.1335883 0.81804752 0.18747561 4289614080
2.1430094 0.82173693 0.1761384 4289744640
2.1696007 0.83201158 0.1658124 4289744640
2.1669681 0.83108002 0.15293345 4289744640
2.1432049 0.82204354 0.13855238 4289744640
2.180711 0.83650798 0.12789695 4289875200
2.1832466 0.83755922 0.11481088 4289875200
2.0425637 0.78366262 0.094913952 4289352960
1.8709819 0.71789998 0.075397559 4288700160
1.9584066 0.75151557 0.06675224 4288961280
2.576997 0.9889853 0.071729615 4291180800
3.1061912 1.1921884 0.066950738 4293139200
2.9982533 1.1508688 0.045723215 4292747520
2.8402183 1.09031 0.025361266 4292225280
2.7851295 1.0692629 0.0072383997 4291964160
2.5907657 0.99473625 -0.0096749542 4291311360
2.4608793 0.94495451 -0.024765976 4290789120
2.4289341 0.93277544 -0.039792378 4290658560
2.4781098 0.95174956 -0.056213222 4290919680
2.3704162 0.91047382 -0.068649255 4290528000
2.3382523 0.89820403 -0.082322039 4290397440
2.3470681 0.90167511 -0.097202785 4290397440
2.392319 0.91914546 -0.11382125 4290528000
2.2786953 0.87557268 -0.12234227 4290136320
2.2686682 0.87180161 -0.13553776 4290136320
2.2995782 0.8837626 -0.15115638 4290266880
2.3761852 0.91328949 -0.17025292 4290528000
2.2931893 0.88147259 -0.17769721 4290266880
2.270983 0.87301862 -0.18904559 4290136320
2.3016243 0.88488084 -0.20463215 4290266880
2.3484921 0.90298426 -0.22187133 4290397440
2.351963 0.90440369 -0.23504651 4290528000
2.2607884 0.86942571 -0.23803501 4290136320
2.2735865 0.8744294 -0.25128651 4290136320
2.3169687 0.89119786 -0.26792857 4290397440
2.3376753 0.89924681 -0.28197575 4290397440
2.4349887 0.93676877 -0.30552429 4290789120
2.3322928 0.89734459 -0.30362386 4290397440
2.3449457 0.90229726 -0.31597349 4290528000
2.3696179 0.9118762 -0.32975405 4290528000
2.3892109 0.91950214 -0.34264821 4290658560
2.4236734 0.93285269 -0.35751185 4290789120
2.2625666 0.87092549 -0.34263057 4290136320
2.2438803 0.86381358 -0.34822437 4290136320
2.2557037 0.86844653 -0.35812807 4290136320
2.1893973 0.84299761 -0.35503522 4289875200
2.2105272 0.8512131 -0.3655569 4290005760
2.2538042 0.8679592 -0.37951967 4290136320
2.1889424 0.8430593 -0.37478322 4290005760
2.2322884 0.85983425 -0.38807186 4290136320
2.2046812 0.84928006 -0.38862383 4290005760
2.2481008 0.8660872 -0.40127504 4290136320
2.2449548 0.86495614 -0.40523884 4290136320
2.1982939 0.84705758 -0.40078598 4290005760
2.2501466 0.86711884 -0.41382542 4290136320
2.2052345 0.84989107 -0.40860698 4290005760
2.2360613 0.86185235 -0.41691902 4290136320
2.1697154 0.83635867 -0.40659893 4289875200
2.1611691 0.83314234 -0.40656587 4289875200
2.1784296 0.83987492 -0.41091442 4289875200
2.2396784 0.86356974 -0.42310548 4290136320
2.1955242 0.84662408 -0.41490361 4290005760
2.1735008 0.83820999 -0.41039866 4289875200
2.2133868 0.85367185 -0.41709113 4290005760
2.2503479 0.86800849 -0.42270687 4290136320
2.2530413 0.8691287 -0.42136672 4290136320
2.2055829 0.85090083 -0.41020143 4290005760
2.2547929 0.86996722 -0.4165231 4290136320
2.2019451 0.84965634 -0.40352157 4290005760
2.2350192 0.86249924 -0.40581742 4290136320
2.2227595 0.85784835 -0.39937699 4290136320
2.2013519 0.84966588 -0.39089698 4290005760
2.2671764 0.87515426 -0.39734614 4290266880
2.2643068 0.87412828 -0.39115077 4290266880
2.3309395 0.89993578 -0.39633587 4290397440
2.328196 0.89896065 -0.38909468 4290397440
2.3526721 0.90849626 -0.38588658 4290528000
2.3609519 0.91177875 -0.37947559 4290528000
2.3666494 0.91406453 -0.37216777 4290528000
2.3631504 0.9127984 -0.36298135 4290528000
2.3735321 0.91689414 -0.35548627 4290528000
2.365459 0.91386092 -0.34481561 4290528000
2.3490705 0.90761435 -0.33264238 4290528000
2.3410029 0.90458173 -0.32137439 4290397440
2.330297 0.90052903 -0.30946466 4290397440
2.3618968 0.91282588 -0.30272686 4290528000
2.3714256 0.91659415 -0.29262888 4290528000
2.3596282 0.91211951 -0.2795845 4290528000
2.3691347 0.91587985 -0.2687625 4290528000
2.4194591 0.935422 -0.26196393 4290658560
2.4147615 0.93369299 -0.24868201 4290658560
2.4121456 0.93276864 -0.23537825 4290658560
2.4610682 0.95177579 -0.22658831 4290919680
2.5176754 0.97375846 -0.21766898 4291050240
2.6067729 1.0083128 -0.21049321 4291441920
2.6300886 1.0174264 -0.19713116 4291441920
2.7038796 1.0460695 -0.18676774 4291703040
2.9769096 1.1518061 -0.18790323 4292747520
3.0122106 1.1655734 -0.17199016 4292878080
3.0097156 1.1647166 -0.15353434 4292878080
2.9923918 1.1581206 -0.13427664 4292747520
2.91189 1.12707 -0.11264274 4292486400
3.051713 1.1812997 -0.099036492 4293008640
3.048434 1.1801405 -0.079828061 4293008640
3.0344427 1.1748337 -0.060361072 4292878080
3.0299666 1.1732101 -0.041134126 4292878080
2.3908153 0.92581564 -0.017320897 4290528000
1.9011054 0.73624986 -0.0017220202 4288830720
1.7399647 0.67390698 0.0094554862 4288177920
1.8804487 0.72838587 0.02213042 4288700160
2.1778705 0.84366995 0.039398879 4289744640
2.1790791 0.84421688 0.05315439 4289875200
2.1815331 0.84524643 0.066906266 4289875200
2.1292839 0.82507914 0.07859768 4289614080
2.1704159 0.84109586 0.093580343 4289744640
2.174772 0.84286261 0.10715837 4289744640
2.1546328 0.83513522 0.11931749 4289744640
1.9490582 0.75552499 0.1197131 4288961280
2.1680481 0.84049165 0.14612246 4289744640
2.1587031 0.83694685 0.15823734 4289744640
2.1071858 0.81704932 0.16673325 4289614080
1.8369179 0.71232086 0.15588747 4288569600
2.1736491 0.84297717 0.19673319 4289875200
2.1676209 0.84071767 0.20820774 4289744640
2.1291397 0.82586962 0.2160932 4289614080
1.9693564 0.76396263 0.21036834 4289091840
1.7633665 0.68411773 0.19755054 4288308480
2.1759107 0.84424752 0.25483295 4289875200
2.1294622 0.82630265 0.25994447 4289744640
1.9745572 0.76626563 0.25055 4289091840
1.9269103 0.74784499 0.2535159 4288961280
1.8546022 0.71984887 0.25240242 4288700160
2.1526179 0.83559912 0.30238089 4289744640
2.1487038 0.83415741 0.31089327 4289744640
2.1398163 0.83078444 0.31828171 4289744640
2.1136127 0.82068735 0.32259554 4289614080
2.0818243 0.80841953 0.32547006 4289483520
2.0269864 0.78719801 0.32405806 4289352960
2.1459556 0.83347839 0.35026705 4289744640
2.1333082 0.82864332 0.35495019 4289744640
2.1285667 0.82687855 0.36048663 4289744640
2.1153519 0.82182151 0.36412194 4289744640
2.1032805 0.81720781 0.36746582 4289614080
2.0801497 0.80829579 0.36836624 4289614080
2.0432427 0.79402846 0.36626497 4289483520
1.9859043 0.77181792 0.35988331 4289222400
1.9991281 0.77702957 0.36578083 4289222400
2.0160804 0.78369159 0.37198374 4289352960
2.0202317 0.7853784 0.37542239 4289352960
2.0152657 0.7835207 0.37672833 4289352960
2.0241399 0.78704411 0.38018358 4289352960
2.0321634 0.79023731 0.38304749 4289352960
2.0274053 0.78846043 0.38305715 4289352960
2.019048 0.78528321 0.38193414 4289352960
2.0190225 0.78534639 0.3819381 4289352960
2.0098901 0.78186679 0.37977389 4289352960
1.9833874 0.77162874 0.37389642 4289222400
2.0493879 0.79738015 0.38498756 4289483520
2.0322044 0.79076779 0.37997329 4289352960
2.0828953 0.81056792 0.38716516 4289614080
2.1021833 0.81815004 0.38798669 4289614080
2.1256194 0.82734805 0.38905981 4289744640
2.1285663 0.82857198 0.38588831 4289744640
2.1321492 0.83004379 0.38237089 4289744640
2.1346264 0.83108538 0.37819853 4289744640
2.1353533 0.83144569 0.37327033 4289744640
2.1296105 0.82928663 0.36679202 4289744640
2.1189768 0.82522249 0.35909173 4289744640
2.1192389 0.82540119 0.35285249 4289744640
2.1364908 0.83219784 0.34898093 4289744640
2.1457784 0.83589315 0.34332234 4289744640
2.1367354 0.83244771 0.33433861 4289744640
2.1074202 0.82115841 0.27304304 4289614080
2.1441553 0.83554977 0.26763728 4289744640
2.1657243 0.84403336 0.25975949 4289875200
2.1508367 0.83830917 0.24718843 4289744640
2.1172724 0.82530379 0.23244296 4289614080
2.1308091 0.83065748 0.22271164 4289744640
2.139545 0.83414042 0.21211359 4289744640
2.1272964 0.82944208 0.19922103 4289614080
2.1101511 0.82283336 0.18581343 4289614080
2.1336656 0.83207989 0.175744 4289614080
2.1462572 0.83706796 0.16437544 4289744640
2.1445527 0.8364808 0.1516692 4289744640
2.128278 0.83020991 0.13787343 4289614080
2.1536021 0.84016645 0.12656651 4289744640
2.1577973 0.84188122 0.11370222 4289744640
1.9521189 0.76170486 0.090891212 4288961280
1.8668765 0.72851139 0.075377598 4288700160
1.9317625 0.75390172 0.065966785 4288961280
2.6290784 1.0261358 0.073308207 4291441920
3.1391397 1.2253276 0.067769192 4293269760
3.0090163 1.1746444 0.045947246 4292878080
3.031888 1.1836827 0.027088782 4292878080
2.996197 1.169857 0.0077589685 4292747520
2.9691372 1.159399 -0.01115909 4292616960
3.0270898 1.1821382 -0.03058097 4292878080
3.0538418 1.192696 -0.050192226 4293008640
3.0531242 1.1925262 -0.069463231 4293008640
3.1037259 1.2124033 -0.090141147 4293139200
3.1113808 1.2155062 -0.10984115 4293139200
3.0978117 1.2103174 -0.12863709 4293139200
3.0025456 1.1732055 -0.14322886 4292747520
3.0454924 1.1900967 -0.16393353 4293008640
3.037544 1.1871008 -0.18193595 4292878080
3.0305007 1.1844579 -0.19970472 4292878080
2.9363942 1.1477832 -0.21091868 4292616960
2.9496906 1.1530873 -0.22913723 4292616960
2.861974 1.1189009 -0.23883058 4292355840
2.8358142 1.1087763 -0.25274506 4292225280
2.8819826 1.126932 -0.27293763 4292355840
2.875006 1.1243082 -0.28801635 4292355840
2.6120107 1.0215552 -0.27568069 4291441920
2.6199703 1.024763 -0.29026878 4291441920
2.6760395 1.0467906 -0.31019425 4291703040
2.8298299 1.1070516 -0.3421579 4292225280
2.9309421 1.1467135 -0.36863038 4292616960
2.6003873 1.0174803 -0.33933032 4291441920
2.6027031 1.0184807 -0.35153702 4291441920
2.6456504 1.0353824 -0.36903685 4291572480
2.7000396 1.0567657 -0.38813832 4291833600
2.8476439 1.1146395 -0.42103821 4292355840
2.5073092 0.98151481 -0.38058284 4291050240
2.4687519 0.96651047 -0.38401714 4290919680
2.4767518 0.96973217 -0.39413917 4291050240
2.4181426 0.94687229 -0.39304 4290789120
2.4345169 0.95337224 -0.40353119 4290789120
2.39417 0.93765891 -0.40408751 4290658560
2.4373 0.95463866 -0.41826764 4290919680
2.368906 0.92793608 -0.41276827 4290658560
2.4203932 0.94819212 -0.42762518 4290789120
2.3799896 0.93245018 -0.42578679 4290658560
2.3364084 0.91546029 -0.42270759 4290528000
2.3797913 0.93254489 -0.43486091 4290658560
2.369065 0.92842764 -0.43668175 4290658560
2.3859584 0.93513453 -0.44309047 4290658560
2.3283584 0.91264361 -0.4351041 4290528000
2.3362374 0.91581666 -0.43878573 4290528000
2.3231034 0.91075218 -0.43800536 4290528000
2.3448951 0.91938043 -0.44329876 4290528000
2.3135881 0.90718955 -0.43803695 4290397440
2.3889842 0.93684 -0.45246011 4290658560
2.3532596 0.92291588 -0.44531798 4290528000
2.3863988 0.9359991 -0.45067871 4290658560
2.4238651 0.95078212 -0.4562937 4290789120
2.3718779 0.93047571 -0.44455516 4290658560
2.4255102 0.95160323 -0.4520795 4290789120
2.3865113 0.93638933 -0.44180369 4290658560
2.4451697 0.95949358 -0.4490535 4290919680
2.3980505 0.94109082 -0.43634677 4290789120
2.4553599 0.96367025 -0.44210422 4290919680
2.4597864 0.96549672 -0.43770739 4290919680
2.4921892 0.97830564 -0.43769634 4291050240
2.4976795 0.98055136 -0.43236259 4291050240
2.5487123 1.0006785 -0.43425983 4291311360
2.5836315 1.0144823 -0.43266961 4291441920
2.6323137 1.0336931 -0.43263271 4291572480
2.654197 1.0423827 -0.42747062 4291703040
2.6692281 1.0483828 -0.42059052 4291703040
2.6972084 1.0594702 -0.41511512 4291833600
2.7118728 1.0653288 -0.40695822 4291833600
2.757478 1.0833443 -0.40274242 4291964160
2.7692673 1.0880765 -0.39289871 4292094720
2.8149765 1.1061381 -0.38717568 4292225280
2.8909256 1.1360871 -0.38463584 4292486400
2.9695251 1.167083 -0.38130996 4292747520
2.9978325 1.1783172 -0.37059817 4292878080
3.0112088 1.1836841 -0.35742468 4292878080
3.0487814 1.1985642 -0.34646863 4293008640
3.0536597 1.2005926 -0.3311964 4293008640
3.0527487 1.2003453 -0.31490836 4293008640
3.0624793 1.2042824 -0.29932153 4293008640
3.068459 1.2067453 -0.28295192 4293139200
3.0281477 1.1910017 -0.26219574 4292878080
3.0696135 1.2074219 -0.24822174 4293139200
3.0933468 1.2168696 -0.23216642 4293139200
3.1048005 1.2214879 -0.21472996 4293139200
3.0502236 1.2001269 -0.19275044 4293008640
2.9878991 1.1757134 -0.1707731 4292747520
3.0253713 1.1905682 -0.15446137 4292878080
2.9774091 1.1718018 -0.13368639 4292747520
2.8915026 1.1380969 -0.11189061 4292355840
2.9692745 1.1688159 -0.096354291 4292747520
2.987385 1.1760532 -0.078177825 4292747520
2.9619563 1.16615 -0.058823779 4292616960
2.986974 1.1761081 -0.040409714 4292747520
2.5197985 0.99225116 -0.018099135 4291050240
1.8838685 0.74190176 -0.0015617168 4288700160
1.7729851 0.69829822 0.0097972192 4288308480
1.8437017 0.72621715 0.021893699 4288569600
2.1605737 0.85110861 0.039346725 4289744640
2.1681111 0.85415643 0.053179704 4289744640
2.1538537 0.84861767 0.066378951 4289744640
2.105963 0.82982522 0.07808093 4289614080
2.1470068 0.84607583 0.092951633 4289744640
2.1451814 0.84543437 0.10610999 4289744640
2.0925107 0.82475233 0.11630512 4289483520
1.8954241 0.74714047 0.11683143 4288830720
2.0109065 0.79273444 0.13599525 4289222400
1.9420677 0.7656675 0.14283021 4288961280
1.8475184 0.72845817 0.14665946 4288700160
1.7753357 0.70006168 0.15113713 4288439040
2.174968 0.85772616 0.19746113 4289875200
2.158721 0.8513974 0.20798172 4289744640
2.1490462 0.84765959 0.21876356 4289744640
2.0728548 0.81768227 0.22207342 4289483520
1.8155462 0.71624726 0.20398387 4288569600
2.0107832 0.79334289 0.23616497 4289222400
2.0016975 0.78983074 0.24503538 4289222400
1.9596639 0.77331626 0.24935105 4289091840
1.9225445 0.75873816 0.25363615 4288961280
1.7354393 0.68495953 0.23682642 4288308480
2.1321321 0.84160733 0.30030814 4289744640
2.1436415 0.8462283 0.31098601 4289744640
2.1318278 0.84164214 0.31792897 4289744640
2.1118715 0.83384007 0.32317105 4289614080
2.0903614 0.825423 0.32764992 4289614080
2.0540953 0.81117725 0.32923374 4289483520
2.1256251 0.8395021 0.34783021 4289744640
2.1236997 0.83881879 0.35424158 4289744640
2.1128111 0.83459473 0.35871208 4289744640
2.1014416 0.83017993 0.36262354 4289614080
2.0638542 0.81540585 0.3614634 4289483520
2.0091004 0.79384619 0.35665119 4289352960
1.9564118 0.77309865 0.35154742 4289091840
1.990651 0.78670102 0.36160812 4289222400
2.0120943 0.79524833 0.36902842 4289352960
2.0161736 0.79693395 0.37287796 4289352960
2.0203154 0.79864442 0.37631574 4289352960
2.0199409 0.7985698 0.37847781 4289352960
2.0278788 0.80178165 0.38176149 4289352960
1.9338859 0.76468903 0.36535385 4289091840
1.9383055 0.76650703 0.36705014 4289091840
2.0191352 0.79854465 0.38280603 4289352960
2.0007949 0.79136401 0.37932998 4289352960
2.0054204 0.7932663 0.3797625 4289352960
1.9835567 0.78468996 0.37474275 4289222400
1.9617587 0.77613801 0.36932078 4289091840
2.0139468 0.79685849 0.37736353 4289352960
2.0411878 0.80771112 0.38021433 4289483520
2.0846834 0.82499844 0.38556111 4289614080
2.0943165 0.82888675 0.38412273 4289614080
2.1141574 0.83681619 0.38405928 4289744640
2.1135442 0.83665031 0.37979954 4289744640
2.1148319 0.83723694 0.37543842 4289744640
2.1189473 0.83894306 0.37113109 4289744640
2.1047697 0.83340633 0.36321682 4289614080
2.1000376 0.83160895 0.35656253 4289614080
2.0965652 0.83031005 0.34973437 4289614080
2.1154449 0.83786386 0.34618291 4289744640
2.1089394 0.83536392 0.33804193 4289614080
2.054219 0.8137635 0.32200095 4289483520
2.0984247 0.83194846 0.27250883 4289614080
2.1285038 0.84395105 0.26630118 4289744640
2.1454241 0.85073793 0.25792342 4289744640
2.1534526 0.85399985 0.24806567 4289744640
2.0929894 0.83009791 0.23031317 4289614080
1.9756416 0.78362858 0.2069761 4289091840
1.9811765 0.785896 0.19687282 4289091840
2.0101707 0.79747051 0.18869384 4289222400
2.0749638 0.82325053 0.18314458 4289483520
2.1111095 0.83766824 0.1742961 4289614080
2.1236646 0.84272724 0.16302983 4289614080
2.120326 0.84147948 0.15031181 4289614080
2.096436 0.8320747 0.13613449 4289614080
2.1301105 0.84551758 0.125486 4289614080
2.1367426 0.8482278 0.11286442 4289744640
1.9559469 0.77652806 0.091290973 4289091840
1.8755476 0.74467701 0.075913869 4288700160
1.9049854 0.75643438 0.065214619 4288830720
2.6825821 1.0653012 0.074990451 4291703040
3.0606577 1.215553 0.066248409 4293008640
2.9890225 1.1872116 0.045768566 4292747520
3.0071931 1.1945382 0.026952296 4292878080
3.0249088 1.2016853 0.0078743771 4292878080
2.9668911 1.1787449 -0.011153186 4292747520
2.9224164 1.1611816 -0.029568188 4292486400
2.9138043 1.1578655 -0.047977157 4292486400
2.9534066 1.1737099 -0.067324735 4292616960
3.0788684 1.2236814 -0.089599162 4293139200
3.0902236 1.228307 -0.10931902 4293139200
3.0669661 1.2191741 -0.12762293 4293008640
2.9862883 1.187212 -0.14275526 4292747520
3.0476992 1.211737 -0.1644032 4293008640
3.0693123 1.2204418 -0.18423483 4293139200
3.0682726 1.22014 -0.20263208 4293139200
3.0446079 1.2108402 -0.21916801 4293008640
3.0767303 1.2237272 -0.23952883 4293139200
3.0869846 1.227918 -0.25817341 4293139200
3.1009772 1.2335967 -0.27698705 4293269760
3.0871656 1.2282147 -0.29301569 4293139200
3.0108509 1.1979629 -0.30229369 4292878080
3.071157 1.2220693 -0.32486078 4293139200
3.0738792 1.2232645 -0.34131622 4293139200
3.0801582 1.2258753 -0.35783473 4293139200
3.0189857 1.2016389 -0.36584529 4293008640
2.955503 1.1764786 -0.37255245 4292747520
3.0670128 1.2209783 -0.4011198 4293139200
3.0736806 1.2237448 -0.41608384 4293139200
3.0642278 1.2200927 -0.42838639 4293139200
3.0473619 1.213488 -0.4390555 4293139200
2.9164205 1.1614522 -0.43218195 4292616960
2.7176502 1.0823915 -0.41344434 4291833600
2.639538 1.0513769 -0.41151425 4291572480
2.6033213 1.037046 -0.41522193 4291441920
2.5264144 1.0065017 -0.41157249 4291180800
2.5252538 1.0061312 -0.41952494 4291180800
2.4638505 0.98175609 -0.41679719 4290919680
2.5068476 0.99898022 -0.43118617 4291180800
2.5232747 1.0056182 -0.44067273 4291180800
2.4633393 0.98182148 -0.43621072 4291050240
2.4312589 0.9691236 -0.43595803 4290919680
2.4698727 0.98460531 -0.44788221 4291050240
2.4957144 0.99499792 -0.45709455 4291180800
2.4578607 0.97999579 -0.45409489 4290919680
2.479269 0.98862195 -0.46148354 4291050240
2.4961734 0.99545354 -0.46754441 4291180800
2.5131552 1.0023173 -0.47310916 4291180800
2.4359715 0.97162294 -0.46035349 4290919680
2.5034556 0.99863112 -0.47437656 4291180800
2.4950793 0.9953807 -0.47350129 4291180800
2.4813035 0.98997539 -0.4710435 4291050240
2.4465773 0.97620958 -0.46406144 4290919680
2.5021675 0.99848181 -0.4736512 4291180800
2.4712715 0.98624289 -0.46631229 4291050240
2.5247018 1.007658 -0.47431406 4291180800
2.4683499 0.98525673 -0.46115118 4291050240
2.5267975 1.0086784 -0.46888196 4291180800
2.4925587 0.99510133 -0.45884302 4291050240
2.4712005 0.98666459 -0.45072708 4291050240
2.5238173 1.0077646 -0.45551464 4291180800
2.5291717 1.0099946 -0.45113078 4291180800
2.6091814 1.0420407 -0.4593426 4291572480
2.6412904 1.0549604 -0.45832241 4291703040
2.709687 1.0823774 -0.4628014 4291833600
2.8546984 1.1404059 -0.47922125 4292355840
3.0089478 1.2021356 -0.49573529 4293008640
3.0493155 1.2183744 -0.49230316 4293139200
3.0635619 1.2241783 -0.48390651 4293139200
3.056735 1.2215617 -0.47160339 4293139200
3.036155 1.2134479 -0.456745 4293008640
3.0284495 1.2104787 -0.44341421 4293008640
3.0534265 1.2205732 -0.43429229 4293139200
3.0733168 1.2286361 -0.42376474 4293139200
3.0767031 1.2301019 -0.41038191 4293139200
3.0445905 1.217374 -0.39193669 4293008640
3.0641377 1.2253015 -0.37975776 4293139200
3.0803607 1.2319012 -0.36656827 4293139200
3.0781476 1.2311282 -0.35070711 4293139200
3.0833542 1.233323 -0.33528534 4293139200
3.0331016 1.2133328 -0.31370088 4293008640
3.0580428 1.2234215 -0.29967788 4293139200
3.0585668 1.2237426 -0.28279287 4293008640
3.0343664 1.2141706 -0.26344398 4293008640
3.0591607 1.2242032 -0.2480536 4293008640
3.0566123 1.2232947 -0.23004672 4293008640
3.0706649 1.2290307 -0.21296938 4293139200
3.0347421 1.2147633 -0.19232516 4293008640
2.9716339 1.1896102 -0.17034505 4292747520
2.9125047 1.1660458 -0.14915086 4292486400
2.9215598 1.1697775 -0.1315918 4292486400
2.9806261 1.193536 -0.11571921 4292747520
2.9799533 1.1933752 -0.097038634 4292747520
2.9184933 1.1688689 -0.076664388 4292486400
2.9503808 1.1817476 -0.058844265 4292616960
2.9858866 1.1960778 -0.040605392 4292747520
2.4823382 0.99445844 -0.017969042 4290919680
1.908251 0.76454085 -0.0016610225 4288830720
1.7320452 0.69400716 0.0095244655 4288177920
1.8029162 0.72246993 0.021387301 4288439040
2.1346359 0.85547543 0.038879469 4289744640
2.1361237 0.85614961 0.052431494 4289744640
2.1395328 0.85759395 0.066005334 4289744640
2.1098516 0.84577376 0.078322694 4289614080
2.1315355 0.85454386 0.092411458 4289744640
2.1265237 0.85261214 0.10534726 4289614080
2.0813305 0.8345682 0.11587049 4289483520
1.8909866 0.75831336 0.11675472 4288830720
1.9206424 0.77027583 0.13011804 4288961280
1.9199276 0.77005917 0.14145617 4288961280
1.829309 0.73377991 0.14548182 4288569600
1.7711791 0.71052718 0.15106714 4288439040
2.1543961 0.86433727 0.1959682 4289744640
2.1466002 0.86128789 0.20721632 4289744640
2.1299143 0.85467064 0.21724363 4289744640
2.0352447 0.81675678 0.21847939 4289352960
1.7937573 0.71991181 0.20194258 4288439040
2.1065426 0.84552282 0.24791618 4289614080
2.0602136 0.82700247 0.25271738 4289483520
1.9249958 0.77279413 0.24544799 4288961280
1.8656127 0.74902272 0.24663992 4288700160
1.7844558 0.71650422 0.24402837 4288439040
2.1176615 0.85037196 0.29890257 4289744640
2.1149948 0.84937829 0.3074851 4289744640
2.107986 0.84664047 0.31504855 4289614080
2.0736444 0.83292335 0.31800693 4289483520
2.0456884 0.82176888 0.32134447 4289483520
1.9262289 0.77385134 0.30941358 4288961280
2.1066961 0.84642982 0.34548977 4289614080
2.0977595 0.84291589 0.35068703 4289614080
2.0882156 0.83915716 0.35532272 4289614080
2.079572 0.83575952 0.35964957 4289614080
2.0461917 0.82241905 0.35917255 4289483520
2.0395205 0.81981212 0.3628659 4289483520
2.0479805 0.82328749 0.36883315 4289483520
1.9893615 0.79979521 0.36219433 4289222400
1.9888018 0.7996428 0.36558831 4289222400
1.9883035 0.79951501 0.36856589 4289222400
1.9970106 0.80308908 0.37283063 4289352960
2.0057795 0.80668873 0.3766928 4289352960
2.0091298 0.80810946 0.37910968 4289352960
1.9961004 0.80294162 0.37798655 4289352960
2.0005031 0.80478561 0.3797152 4289352960
2.0004072 0.80482006 0.38014725 4289352960
1.9958137 0.80304486 0.37927932 4289352960
1.9867224 0.79945934 0.37711433 4289222400
1.9831823 0.79810721 0.37556496 4289222400
2.0485904 0.82450467 0.38659111 4289483520
2.0360558 0.81953412 0.38242391 4289483520
2.0318124 0.8179003 0.37938264 4289483520
2.0426917 0.82235432 0.37871218 4289483520
2.0756714 0.83570713 0.381632 4289614080
2.0793967 0.83728296 0.37867105 4289614080
2.1023304 0.8465941 0.37871572 4289744640
2.0960717 0.84415036 0.37303013 4289614080
2.0839679 0.83935189 0.36591399 4289614080
2.0843375 0.83957678 0.36059207 4289614080
2.0741413 0.83554548 0.35305309 4289614080
2.0860026 0.84039986 0.34885451 4289614080
2.0971041 0.84494895 0.34405693 4289614080
2.1028292 0.84733248 0.33792788 4289614080
2.0990107 0.84587049 0.32987249 4289614080
2.0838346 0.8402459 0.27124524 4289614080
2.1049957 0.84885544 0.26397434 4289614080
2.1262324 0.85749692 0.25621247 4289744640
2.1221168 0.85591471 0.24502626 4289744640
2.0715752 0.83560532 0.22848856 4289483520
2.035569 0.82115597 0.21375193 4289352960
2.0259109 0.81733394 0.20178793 4289352960
2.0092556 0.8106879 0.18904811 4289222400
2.0594487 0.83101481 0.18219943 4289483520
2.0869992 0.84220809 0.17270772 4289483520
2.1083019 0.85088176 0.16222829 4289614080
2.1061342 0.85008395 0.14965433 4289614080
2.0822964 0.8405385 0.13553202 4289483520
2.1112597 0.85230696 0.12466591 4289614080
2.1214931 0.85651559 0.1123206 4289614080
1.9606535 0.79165113 0.091724358 4289091840
1.8046552 0.72872978 0.073215067 4288439040
1.8467931 0.74581271 0.063370161 4288700160
2.5850863 1.0440611 0.072433814 4291311360
3.1335413 1.2656848 0.067984454 4293269760
3.0219207 1.22071 0.046380427 4292878080
2.9553277 1.1939176 0.026549341 4292616960
3.0354726 1.2264062 0.0079203434 4293008640
2.9775891 1.2031287 -0.011219564 4292747520
2.9728024 1.2013031 -0.030148281 4292747520
2.8977385 1.1710758 -0.047824159 4292486400
2.9814608 1.2050198 -0.068123139 4292747520
3.022567 1.2217443 -0.088166371 4292878080
3.05913 1.2366351 -0.1084721 4293008640
3.0677221 1.2402205 -0.12795289 4293139200
3.0593348 1.2369416 -0.14658915 4293008640
3.0396886 1.2291094 -0.16435458 4293008640
3.0588963 1.2369879 -0.1840391 4293008640
3.0662596 1.2400776 -0.20297286 4293139200
3.0734642 1.2431037 -0.22176285 4293139200
3.0473776 1.232664 -0.23779875 4293008640
3.0509412 1.234217 -0.25575608 4293008640
3.0836122 1.2475464 -0.27608052 4293139200
3.09128 1.2507616 -0.29409286 4293269760
3.064661 1.2401034 -0.30841649 4293139200
3.0615659 1.2389629 -0.32460433 4293139200
3.0738668 1.2440532 -0.34211385 4293139200
3.0767593 1.2453364 -0.35827672 4293139200
3.0630779 1.2399107 -0.37205759 4293139200
2.9612086 1.198783 -0.37414572 4292747520
3.0786452 1.2464374 -0.40358409 4293269760
3.0816085 1.2477498 -0.41813403 4293269760
3.0791237 1.2468563 -0.43147716 4293269760
3.0770512 1.2461295 -0.44437158 4293269760
3.0060852 1.2175001 -0.44651288 4293008640
2.7983408 1.1334634 -0.42671752 4292225280
2.7007596 1.0940372 -0.42204556 4291833600
2.6458266 1.0718813 -0.42299029 4291703040
2.5690758 1.0408819 -0.41950321 4291441920
2.5678949 1.0404973 -0.42760888 4291441920
2.5020356 1.013903 -0.4242489 4291180800
2.5449133 1.0313715 -0.43875971 4291311360
2.5695171 1.0414366 -0.44980073 4291441920
2.5106165 1.0176557 -0.44562501 4291180800
2.5444844 1.0314769 -0.45733079 4291311360
2.4814575 1.0060179 -0.45103824 4291050240
2.5072334 1.0165595 -0.46028122 4291180800
2.5285041 1.0252763 -0.46824214 4291311360
2.5544102 1.0358744 -0.47658542 4291311360
2.5584772 1.0376172 -0.48033836 4291441920
2.4808009 1.0062054 -0.46811405 4291050240
2.4896119 1.0098703 -0.47159448 4291180800
2.4756918 1.0043144 -0.47021642 4291050240
2.5573537 1.0375358 -0.48645827 4291441920
2.5436082 1.0320522 -0.4840045 4291311360
2.530865 1.0269743 -0.48117572 4291311360
2.5090842 1.0182279 -0.47607541 4291180800
2.5668647 1.0417701 -0.48548713 4291441920
2.5498233 1.034947 -0.48015827 4291311360
2.5146048 1.0207443 -0.47089586 4291180800
2.5738378 1.0448827 -0.47873247 4291441920
2.5305569 1.0274049 -0.46693197 4291311360
2.5138268 1.0207045 -0.45957863 4291180800
2.5754709 1.0458285 -0.46592927 4291441920
2.6287065 1.0675422 -0.46998641 4291572480
2.6423836 1.0731933 -0.46628064 4291703040
2.7068748 1.0994853 -0.47080636 4291964160
2.7901223 1.133401 -0.47765908 4292225280
2.9173174 1.1851768 -0.49088404 4292616960
3.0270696 1.2298751 -0.49989301 4293008640
3.0517755 1.2400246 -0.49385837 4293139200
3.0695927 1.2473766 -0.48599878 4293269760
3.0444462 1.2372694 -0.47081161 4293139200
3.0344319 1.2333107 -0.45755902 4293139200
3.0273023 1.2305237 -0.44428843 4293008640
3.0481503 1.2391095 -0.43456131 4293139200
3.0577679 1.243131 -0.42261228 4293139200
3.0606227 1.2444038 -0.40919718 4293139200
3.0174127 1.2269456 -0.38935167 4293008640
3.042043 1.2370722 -0.37790626 4293008640
3.0550814 1.2424862 -0.36441526 4293139200
3.0581341 1.2438397 -0.34924665 4293139200
3.0644138 1.2465061 -0.3340098 4293139200
3.0241737 1.2302485 -0.31351352 4293008640
3.0434942 1.2382195 -0.29895404 4293008640
3.0461304 1.2394036 -0.2823059 4293008640
3.0451357 1.2391105 -0.26500127 4293008640
3.0376453 1.2361736 -0.24688882 4293008640
3.0536957 1.2428173 -0.23036829 4293008640
3.0528078 1.2425677 -0.21222939 4293008640
3.0400133 1.2374713 -0.19311285 4293008640
2.9400158 1.1968739 -0.16892946 4292616960
2.9405367 1.1971936 -0.15094103 4292616960
2.976414 1.2119095 -0.13437827 4292747520
2.9551105 1.2033436 -0.11499885 4292747520
3.0001462 1.2217923 -0.097926334 4292878080
2.9382033 1.1966741 -0.077363975 4292616960
2.9925218 1.2189065 -0.059825376 4292878080
