# .PCD v0.7 - Point Cloud Data file format
VERSION 0.7
FIELDS x y z rgba
SIZE 4 4 4 4
TYPE F F F U
COUNT 1 1 1 1
WIDTH 1102
HEIGHT 1
VIEWPOINT 0 0 0 1 0 0 0
POINTS 1102
DATA ascii
1.3724873 -1.8303207 -0.25278103 4289744640
1.3815882 -1.8423369 -0.24360879 4289744640
1.3668985 -1.8226291 -0.23001862 4289614080
1.3520778 -1.8027492 -0.21639259 4289614080
1.3665954 -1.8219863 -0.20722365 4289614080
1.3760685 -1.834496 -0.19685894 4289744640
1.365441 -1.8202089 -0.18341471 4289614080
1.3499568 -1.7994499 -0.16934814 4289483520
1.3782433 -1.8370347 -0.16047053 4289744640
1.3728172 -1.8296825 -0.14728802 4289614080
1.3632295 -1.8167853 -0.13363791 4289614080
1.2919103 -1.7216251 -0.11454848 4289222400
1.3682851 -1.8232843 -0.10837642 4289614080
1.3621426 -1.8149804 -0.094888166 4289614080
1.3418993 -1.7878902 -0.080569319 4289483520
1.3574241 -1.8084567 -0.068356365 4289614080
1.3672521 -1.821431 -0.05553773 4289614080
1.3648636 -1.81813 -0.042091675 4289614080
1.2856098 -1.7124443 -0.027031915 4289222400
1.3730713 -1.8288242 -0.015367056 4289614080
1.3845675 -1.8440156 -0.00186322 4289744640
1.3607295 -1.8121487 0.0115675 4289614080
1.2822111 -1.7074702 0.02351271 4289091840
1.4082251 -1.8751554 0.039646756 4289875200
1.3953868 -1.8579388 0.052939016 4289744640
1.328966 -1.7693846 0.063367382 4289352960
1.2498826 -1.6639842 0.07170891 4288961280
1.3991302 -1.8625574 0.093742363 4289744640
1.3868016 -1.8460245 0.10616668 4289744640
1.3165642 -1.7524142 0.11325858 4289352960
1.2427877 -1.6541058 0.11856502 4288961280
1.3982662 -1.8609203 0.14636286 4289744640
1.3350106 -1.7766187 0.1519666 4289483520
1.3149641 -1.7498263 0.16156164 4289352960
1.2471415 -1.6594661 0.16432451 4288961280
1.4164164 -1.8845828 0.19902447 4289875200
1.4029398 -1.8665296 0.20919132 4289875200
1.3611646 -1.8108318 0.21443902 4289614080
1.2828054 -1.7064747 0.21268618 4289222400
1.2142638 -1.6151901 0.2111243 4288830720
1.3861289 -1.8436813 0.2519275 4289744640
1.3533287 -1.7999363 0.25635388 4289614080
1.3301909 -1.7690471 0.26189896 4289483520
1.2798295 -1.7019591 0.26125249 4289222400
1.2386265 -1.6470584 0.26152775 4288961280
1.3947707 -1.8545692 0.30394512 4289875200
1.3554837 -1.802213 0.30423188 4289614080
1.327049 -1.7642916 0.30617431 4289483520
1.3490582 -1.7934352 0.31936061 4289614080
1.2958922 -1.7226439 0.3142136 4289222400
1.2435521 -1.6529593 0.30831638 4288961280
1.3821079 -1.837011 0.34982654 4289744640
1.3836519 -1.8389429 0.35698068 4289744640
1.3573623 -1.8038847 0.35642955 4289614080
1.3202453 -1.7544429 0.35234401 4289483520
1.3340452 -1.7726653 0.36133534 4289483520
1.3508358 -1.7948592 0.37083447 4289614080
1.3587552 -1.8052638 0.37755585 4289614080
1.3667085 -1.8157119 0.3838982 4289744640
1.3116413 -1.7424395 0.37196708 4289352960
1.3143476 -1.7459207 0.37584406 4289352960
1.3194655 -1.7526042 0.37998867 4289483520
1.3192919 -1.7522593 0.38217551 4289483520
1.3280505 -1.7637768 0.38651437 4289483520
1.3250039 -1.7596155 0.38697392 4289483520
1.3220036 -1.7555164 0.38698876 4289483520
1.3249743 -1.7593462 0.3882972 4289483520
1.3191048 -1.751438 0.38656116 4289483520
1.3138736 -1.7443784 0.38456133 4289352960
1.311058 -1.7405264 0.38282201 4289352960
1.3493965 -1.7913065 0.3926135 4289614080
1.3520122 -1.7946614 0.39150861 4289614080
1.344002 -1.7839121 0.3868793 4289614080
1.3271364 -1.761411 0.37929764 4289483520
1.3587686 -1.8032763 0.38509354 4289614080
1.387305 -1.8410277 0.3894105 4289875200
1.3916174 -1.8466299 0.3863844 4289875200
1.3914443 -1.8462794 0.38165182 4289875200
1.3866471 -1.8397938 0.37522697 4289875200
1.3819721 -1.8334712 0.36843765 4289744640
1.391503 -1.8459952 0.36498815 4289875200
1.3823519 -1.8337355 0.35621935 4289744640
1.3800451 -1.8305557 0.34885857 4289744640
1.3898565 -1.8434495 0.34412175 4289875200
1.4041077 -1.8622301 0.33996204 4289875200
1.389537 -1.842128 0.27855778 4289744640
1.4039017 -1.8610499 0.27112517 4289875200
1.4076718 -1.8659257 0.26121014 4289875200
1.3970637 -1.8517432 0.24839056 4289744640
1.3782123 -1.8266373 0.23406251 4289744640
1.3673586 -1.8121337 0.22107263 4289614080
1.3659431 -1.8101395 0.20946535 4289614080
1.3756241 -1.8228496 0.19925907 4289614080
1.3732821 -1.8196273 0.18703091 4289614080
1.3892682 -1.8406889 0.17697404 4289744640
1.4009893 -1.8560973 0.1659354 4289744640
1.3828088 -1.8318913 0.15123497 4289744640
1.371731 -1.8170972 0.1374142 4289614080
1.400525 -1.8551186 0.12727308 4289744640
1.4205483 -1.8815182 0.11574172 4289875200
1.3854307 -1.8348851 0.099738121 4289744640
1.3810264 -1.8289325 0.086213872 4289614080
1.3889263 -1.8392744 0.073331594 4289744640
1.3895553 -1.8399872 0.059905123 4289744640
1.3704567 -1.8145791 0.045744378 4289614080
1.3777891 -1.8241687 0.032531872 4289614080
1.3757799 -1.8213893 0.019012889 4289614080
1.3771784 -1.8231218 0.0055275843 4289614080
1.3479782 -1.7843498 -0.0078126434 4289483520
1.3643904 -1.8059568 -0.021282149 4289614080
1.3670242 -1.809325 -0.034699332 4289614080
1.3681068 -1.8106396 -0.048074942 4289614080
1.3685281 -1.8110789 -0.061388977 4289614080
1.3778954 -1.8233562 -0.075131565 4289614080
1.3838623 -1.8311325 -0.088754311 4289744640
1.3814458 -1.8278157 -0.10177652 4289614080
1.3738192 -1.8176061 -0.1142083 4289614080
1.3827497 -1.829302 -0.12790298 4289744640
1.3852704 -1.8325169 -0.14097166 4289744640
1.3799543 -1.8253653 -0.15306292 4289614080
1.3789606 -1.8239317 -0.1654079 4289614080
1.3894308 -1.8376604 -0.17903028 4289744640
1.3951672 -1.8451271 -0.19198896 4289744640
1.3949933 -1.8447765 -0.20397112 4289744640
1.3562925 -1.7934805 -0.2097661 4289614080
1.3820192 -1.8273805 -0.22517906 4289744640
1.3895031 -1.8371563 -0.2376429 4289744640
1.392037 -1.8403864 -0.24907607 4289744640
1.3871604 -1.8338194 -0.25888768 4289744640
1.3532155 -1.7888275 -0.26269254 4289614080
1.3902041 -1.8376031 -0.27998737 4289744640
1.4000632 -1.8505142 -0.29184186 4289875200
1.4032401 -1.8545921 -0.3020654 4289875200
1.3984375 -1.8481241 -0.31021973 4289875200
1.3888415 -1.8353226 -0.31686673 4289744640
1.3684609 -1.808272 -0.32050878 4289614080
1.3802097 -1.8236777 -0.33125511 4289744640
1.3857074 -1.8308223 -0.34022102 4289744640
1.3904929 -1.837025 -0.34867769 4289744640
1.3871497 -1.8324887 -0.35470414 4289744640
1.3858618 -1.8306676 -0.36082536 4289744640
1.3892643 -1.8350426 -0.36776045 4289744640
1.3813292 -1.824442 -0.37125185 4289744640
1.3744063 -1.8151799 -0.37452736 4289744640
1.3689389 -1.8078412 -0.37772039 4289744640
1.3527637 -1.7863634 -0.37745103 4289614080
1.337286 -1.7658093 -0.37684384 4289483520
1.348318 -1.7802602 -0.38325179 4289614080
1.3109721 -1.7308373 -0.37540933 4289352960
1.3167362 -1.7383342 -0.37940452 4289352960
1.3106469 -1.7301822 -0.37954208 4289352960
1.3164986 -1.7377936 -0.38269109 4289352960
1.316448 -1.7376133 -0.38368276 4289352960
1.3164434 -1.7374939 -0.38423845 4289352960
1.307564 -1.7256619 -0.38175297 4289352960
1.345349 -1.7754128 -0.39243376 4289614080
1.3546891 -1.7876221 -0.3943423 4289614080
1.3465459 -1.7767605 -0.39070192 4289614080
1.3679382 -1.8048697 -0.39515448 4289744640
1.3762581 -1.8157285 -0.39532802 4289744640
1.3830657 -1.8245908 -0.39457861 4289744640
1.387917 -1.8308713 -0.39278641 4289744640
1.3903856 -1.8340081 -0.38984475 4289875200
1.3882855 -1.8311185 -0.38516828 4289744640
1.3918967 -1.8357618 -0.38162348 4289875200
1.3811065 -1.8214118 -0.3737146 4289744640
1.3755807 -1.8140059 -0.36685801 4289744640
1.3697948 -1.8062582 -0.35955441 4289744640
1.3701673 -1.8066314 -0.35347566 4289614080
1.3774711 -1.8161434 -0.34874207 4289744640
1.3899393 -1.8324627 -0.34481752 4289744640
1.4014614 -1.8475324 -0.34013841 4289875200
1.3886915 -1.8305787 -0.32918593 4289744640
1.3706727 -1.8067083 -0.31679371 4289614080
1.3684273 -1.8036309 -0.30780843 4289614080
1.384974 -1.825321 -0.30260932 4289744640
1.3914418 -1.8337256 -0.29471698 4289744640
1.3977896 -1.8419708 -0.28638059 4289744640
1.3672732 -1.8016396 -0.27034482 4289614080
1.3815126 -1.8202839 -0.26296958 4289744640
1.3945453 -1.8373361 -0.2548677 4289744640
1.4013174 -1.8461378 -0.24518679 4289744640
1.3889242 -1.8296914 -0.2319272 4289744640
1.373994 -1.8099051 -0.21820876 4289614080
1.3917722 -1.8332039 -0.20941819 4289744640
1.3870354 -1.8268455 -0.19690183 4289744640
1.3820505 -1.8201612 -0.18421817 4289614080
1.3736322 -1.8089564 -0.17099309 4289614080
1.3889229 -1.8289737 -0.16047053 4289744640
1.3919038 -1.8327793 -0.14818762 4289744640
1.3822443 -1.8199418 -0.13446018 4289614080
1.313395 -1.729178 -0.11555819 4289222400
1.3849267 -1.8232356 -0.10885131 4289614080
1.3787377 -1.8149694 -0.095305942 4289614080
1.357734 -1.7872036 -0.080893487 4289483520
1.3741421 -1.8086838 -0.068666406 4289614080
1.3802602 -1.8166182 -0.055635244 4289614080
1.376091 -1.8110129 -0.042111803 4289614080
1.3040348 -1.7160709 -0.027208637 4289222400
1.3951989 -1.8359206 -0.015494726 4289744640
1.401677 -1.8443247 -0.0018717522 4289744640
1.3773153 -1.8121513 0.011618544 4289614080
1.2745897 -1.6768845 0.023193398 4289091840
1.4202752 -1.8684306 0.039678857 4289875200
1.4114617 -1.8567148 0.053137559 4289744640
1.3247333 -1.7425139 0.062680408 4289352960
1.2359661 -1.6256464 0.070365883 4288830720
1.4129728 -1.8583392 0.093942799 4289875200
1.399254 -1.8401762 0.10629739 4289744640
1.3237294 -1.7407393 0.11300056 4289352960
1.2622899 -1.6598365 0.11950093 4288961280
1.3131065 -1.7265449 0.13639353 4289222400
1.3316305 -1.750787 0.15041812 4289352960
1.3221177 -1.7381666 0.16119358 4289352960
1.2537709 -1.6482048 0.16392994 4288961280
1.4300914 -1.8798727 0.1994036 4289875200
1.4083632 -1.85119 0.20838824 4289875200
1.3686777 -1.7989091 0.21396783 4289614080
1.3011616 -1.7100585 0.21407406 4289222400
1.2411196 -1.6310415 0.21413782 4288830720
1.4028671 -1.8434849 0.25301325 4289744640
1.3661995 -1.7951837 0.25680631 4289614080
1.3404752 -1.7612672 0.26189896 4289483520
1.2981398 -1.705531 0.2629573 4289222400
1.2596179 -1.6548121 0.26391974 4288961280
1.4055521 -1.8464116 0.30394512 4289875200
1.3719637 -1.8021703 0.30556887 4289614080
1.3457057 -1.7675636 0.30809751 4289483520
1.3034912 -1.7120038 0.30620712 4289222400
1.2626969 -1.6583164 0.30381688 4289091840
1.2675425 -1.6645718 0.31185457 4289091840
1.3889118 -1.8238384 0.34885317 4289744640
1.3683709 -1.796748 0.35033143 4289614080
1.376228 -1.8069471 0.3586129 4289744640
1.3448032 -1.7655723 0.35614663 4289483520
1.3557138 -1.7797807 0.3643896 4289614080
1.3756194 -1.8057951 0.37474349 4289744640
1.3277909 -1.7428963 0.36612394 4289483520
1.3364131 -1.7540997 0.37251142 4289483520
1.3390963 -1.757507 0.37684271 4289483520
1.3442087 -1.7641019 0.38143742 4289483520
1.3553343 -1.7785867 0.38732755 4289614080
1.3551553 -1.7782362 0.38955662 4289614080
1.3609929 -1.7857798 0.39306712 4289614080
1.3525473 -1.7745825 0.39199182 4289614080
1.3578809 -1.7814643 0.3944461 4289614080
1.3578889 -1.7813588 0.3948949 4289614080
1.346601 -1.7664355 0.39159623 4289483520
1.346704 -1.7664555 0.39115152 4289483520
1.3384941 -1.7555722 0.38783994 4289483520
1.3327177 -1.7478819 0.38479117 4289483520
1.3216087 -1.7331995 0.37977391 4289352960
1.3687122 -1.7948556 0.39097545 4289614080
1.3547075 -1.7763747 0.38421303 4289614080
1.3407385 -1.7579432 0.37707436 4289483520
1.3720682 -1.7989047 0.38218513 4289614080
1.4014733 -1.8373377 0.3861421 4289875200
1.4088523 -1.8468914 0.3834686 4289875200
1.4064146 -1.8435756 0.37766305 4289875200
1.4099988 -1.8481534 0.37303254 4289875200
1.4007545 -1.8359169 0.36460289 4289875200
1.3670096 -1.791572 0.34956998 4289614080
1.3996828 -1.8342732 0.3511152 4289744640
1.406666 -1.8433046 0.34561878 4289875200
1.4049906 -1.8409892 0.33757305 4289875200
1.3972429 -1.8300486 0.27795851 4289744640
1.41473 -1.8528317 0.27112573 4289875200
1.4327064 -1.8762527 0.26382205 4290005760
1.413269 -1.8506773 0.24935056 4289875200
1.3972934 -1.829638 0.2354895 4289744640
1.3661953 -1.7888012 0.21919736 4289614080
1.311253 -1.7167516 0.19954368 4289222400
1.3500382 -1.7674159 0.1940611 4289483520
1.3946661 -1.8257221 0.18849529 4289744640
1.4057322 -1.8400886 0.17770743 4289744640
1.4157273 -1.8530513 0.16640514 4289875200
1.4099594 -1.8453816 0.15303244 4289744640
1.3940096 -1.8243873 0.13858615 4289744640
1.4230744 -1.8623041 0.12834245 4289875200
1.4324077 -1.8743962 0.11582559 4289875200
1.4061542 -1.839922 0.10046665 4289744640
1.4031971 -1.8359331 0.086939633 4289744640
1.41116 -1.8462315 0.073948205 4289744640
1.4063318 -1.8397949 0.060177986 4289744640
1.3955872 -1.8256197 0.046240907 4289744640
1.3875355 -1.8149687 0.032526068 4289614080
1.392148 -1.8208836 0.019107357 4289614080
1.390823 -1.8190321 0.0055557406 4289614080
1.3674716 -1.7883748 -0.0078485413 4289483520
1.3779353 -1.8019419 -0.021311829 4289614080
1.3892254 -1.8165878 -0.034975227 4289614080
1.3816788 -1.8066021 -0.048162125 4289614080
1.3875682 -1.8141845 -0.061748028 4289614080
1.4006491 -1.8311681 -0.075768478 4289744640
1.4060521 -1.8381121 -0.089467607 4289744640
1.3975443 -1.8268709 -0.10215464 4289744640
1.3898572 -1.8167042 -0.11463722 4289614080
1.399461 -1.8291385 -0.12843762 4289744640
1.4050314 -1.8362995 -0.14186765 4289744640
1.3960329 -1.8244203 -0.15364058 4289744640
1.3942649 -1.8219912 -0.16594298 4289744640
1.4055773 -1.8366543 -0.1797038 4289744640
1.4089326 -1.8409188 -0.19237845 4289744640
1.4142044 -1.8476868 -0.20517667 4289875200
1.3727809 -1.7934493 -0.2106712 4289614080
1.401122 -1.830356 -0.2265241 4289744640
1.4092638 -1.8408722 -0.23915775 4289744640
1.411208 -1.843292 -0.250554 4289875200
1.4093099 -1.8406928 -0.26098913 4289744640
1.3720787 -1.7919486 -0.26429749 4289614080
1.4039154 -1.8334084 -0.2805666 4289744640
1.4174205 -1.8509246 -0.29318094 4289875200
1.4170474 -1.8503169 -0.30268595 4289875200
1.4152192 -1.8478094 -0.31152341 4289875200
1.4079554 -1.8382058 -0.31875369 4289875200
1.3910261 -1.815985 -0.323286 4289744640
1.3968407 -1.8234572 -0.33266735 4289744640
1.4047837 -1.8337067 -0.3422524 4289875200
1.4041898 -1.8328123 -0.349406 4289875200
1.4094988 -1.839622 -0.35765019 4289875200
1.407931 -1.8374563 -0.36375672 4289875200
1.4029461 -1.8308315 -0.36853209 4289875200
1.4003519 -1.8273271 -0.37347755 4289744640
1.3939725 -1.8188844 -0.37694696 4289744640
1.3742285 -1.7930052 -0.37627438 4289614080
1.3751565 -1.7940993 -0.38076049 4289614080
1.377231 -1.7966889 -0.38512948 4289744640
1.3676716 -1.784102 -0.38577878 4289614080
1.3270389 -1.7309847 -0.37710452 4289352960
1.3298484 -1.7345366 -0.38025436 4289483520
1.3321024 -1.7373635 -0.38280895 4289483520
1.3296069 -1.7339959 -0.38355124 4289483520
1.3295549 -1.7338153 -0.38454664 4289483520
1.326553 -1.7297881 -0.3842372 4289352960
1.3295909 -1.7336367 -0.38522622 4289483520
1.3640698 -1.7784775 -0.39486486 4289614080
1.3582143 -1.7707279 -0.39235991 4289614080
1.3742688 -1.7915419 -0.3957136 4289614080
1.3844348 -1.8046774 -0.39688092 4289744640
1.3898203 -1.8115797 -0.39619228 4289744640
1.3990794 -1.82353 -0.39611864 4289744640
1.4015684 -1.8266553 -0.39364254 4289875200
1.4094579 -1.8368181 -0.39219853 4289875200
1.4103457 -1.8378555 -0.38832691 4289875200
1.4115853 -1.8393512 -0.38409466 4289875200
1.4031184 -1.8281995 -0.37680206 4289875200
1.3975539 -1.8208309 -0.36990461 4289744640
1.3917279 -1.8131224 -0.36255667 4289744640
1.3836845 -1.8025264 -0.35427371 4289744640
1.3970643 -1.8198378 -0.35104093 4289744640
1.4150518 -1.8431488 -0.34840879 4289875200
1.4157759 -1.8439721 -0.34103295 4289875200
1.4077792 -1.8334376 -0.3312085 4289875200
1.3872133 -1.8065357 -0.31821594 4289744640
1.3879708 -1.8074046 -0.30987012 4289744640
1.4016293 -1.8250721 -0.30396217 4289744640
1.4105661 -1.8365891 -0.29654086 4289875200
1.4085032 -1.833784 -0.28642863 4289744640
1.3868251 -1.8054429 -0.27217451 4289614080
1.398152 -1.8200705 -0.26416469 4289744640
1.4082596 -1.8331091 -0.25547117 4289744640
1.4175079 -1.8450274 -0.24619035 4289875200
1.4044082 -1.8278581 -0.2327878 4289744640
1.3905861 -1.8097508 -0.21922426 4289614080
1.4085029 -1.8329492 -0.21038662 4289744640
1.4088918 -1.8333359 -0.19854821 4289744640
1.3926376 -1.8120672 -0.18428348 4289614080
1.3963076 -1.8167244 -0.17256172 4289744640
1.4080725 -1.8319125 -0.16151594 4289744640
1.4086465 -1.8325399 -0.14890145 4289744640
1.3989149 -1.8197616 -0.13511989 4289744640
1.3295399 -1.7294036 -0.11615983 4289352960
1.3955327 -1.8151259 -0.10892646 4289614080
1.3978219 -1.8179852 -0.095967501 4289744640
1.379705 -1.7943059 -0.081654795 4289614080
1.3954728 -1.814694 -0.069281489 4289614080
1.3999702 -1.8204241 -0.056081388 4289744640
1.3927225 -1.810882 -0.042378034 4289614080
1.3256015 -1.7234962 -0.027526602 4289222400
1.408929 -1.8317162 -0.015612254 4289744640
1.4206027 -1.8467729 -0.0019680394 4289744640
1.4078077 -1.8300205 0.011700188 4289744640
1.2666647 -1.6464407 0.02279675 4288961280
1.4311472 -1.860118 0.039590973 4289875200
1.4222659 -1.8484544 0.053049829 4289744640
1.3495033 -1.7537742 0.063283861 4289352960
1.2661493 -1.6453428 0.071458206 4288961280
1.4237965 -1.850083 0.093855046 4289875200
1.4042872 -1.8246139 0.10578237 4289744640
1.3630981 -1.7709811 0.11539312 4289483520
1.2573349 -1.6334639 0.11805021 4288961280
1.3621538 -1.7695242 0.14032988 4289483520
1.3909322 -1.8067918 0.15583858 4289614080
1.4166156 -1.8400344 0.17131735 4289744640
1.3132336 -1.705641 0.17032185 4289222400
1.445153 -1.8768574 0.19988763 4290005760
1.4352601 -1.8638881 0.21067114 4289875200
1.4319947 -1.8595266 0.22208348 4289875200
1.420017 -1.8438531 0.23177387 4289875200
1.3742009 -1.7842463 0.23522191 4289614080
1.3948852 -1.8109847 0.24958695 4289744640
1.4233364 -1.8478029 0.26543856 4289875200
1.4028469 -1.8210849 0.27193046 4289744640
1.3747002 -1.7844305 0.27628133 4289614080
1.3364568 -1.734676 0.27782702 4289352960
1.4091302 -1.8288848 0.30233771 4289744640
1.3741693 -1.7833939 0.30367276 4289614080
1.3346151 -1.7319479 0.30317897 4289352960
1.3515296 -1.7537841 0.31502375 4289483520
1.3128217 -1.703445 0.31342569 4289222400
1.2786561 -1.6590058 0.3121509 4289091840
1.3596492 -1.7639763 0.33886069 4289483520
1.3759958 -1.785068 0.34956157 4289614080
1.4044173 -1.8218207 0.3631348 4289744640
1.3566703 -1.7597686 0.35652116 4289483520
1.3767024 -1.7856368 0.36718389 4289614080
1.3937435 -1.8076223 0.37676358 4289744640
1.3378868 -1.7350659 0.36607715 4289483520
1.3519931 -1.7532461 0.37396649 4289483520
1.3601124 -1.7636606 0.37982801 4289614080
1.3772982 -1.7858294 0.3878403 4289614080
1.3860968 -1.797121 0.39309576 4289744640
1.3883196 -1.7998861 0.39604843 4289744640
1.3911903 -1.8034905 0.39873025 4289744640
1.3826778 -1.7923388 0.39767829 4289744640
1.3940663 -1.8069841 0.4018836 4289744640
1.3856514 -1.7959599 0.39991409 4289744640
1.3796912 -1.7881188 0.39818197 4289614080
1.3623478 -1.7655267 0.39270434 4289614080
1.368516 -1.773405 0.39354604 4289614080
1.3542719 -1.7548327 0.38806754 4289483520
1.4039205 -1.8190482 0.40039089 4289744640
1.3927816 -1.8044983 0.39486152 4289744640
1.3726505 -1.7783006 0.38638133 4289614080
1.3555641 -1.7560509 0.37838849 4289483520
1.3917516 -1.8028125 0.38476908 4289744640
1.3747433 -1.780665 0.37594983 4289614080
1.3523349 -1.7515262 0.36534256 4289483520
1.3840511 -1.7924883 0.36889341 4289614080
1.3822166 -1.7899961 0.36296761 4289614080
1.3912795 -1.8016157 0.35945344 4289744640
1.3631145 -1.7650293 0.34599653 4289614080
1.3782755 -1.7845447 0.3431941 4289614080
1.4162668 -1.8336155 0.34541595 4289875200
1.4169967 -1.8344413 0.33795726 4289875200
1.4944987 -1.934006 0.29506338 4290266880
1.4784967 -1.9131737 0.28120798 4290136320
1.4768832 -1.9109617 0.26990336 4290136320
1.4716091 -1.904014 0.257682 4290136320
1.4663156 -1.8970419 0.24525341 4290005760
1.4300497 -1.8500028 0.22770599 4289875200
1.4045945 -1.8169545 0.212129 4289744640
1.3928192 -1.801605 0.19869225 4289614080
1.4413221 -1.8642223 0.19332173 4289875200
1.4242969 -1.8420821 0.17868486 4289875200
1.4266561 -1.8450137 0.166412 4289875200
1.4194055 -1.8355176 0.15288129 4289744640
1.412953 -1.827055 0.13939403 4289744640
1.4283184 -1.8468035 0.12782611 4289875200
1.4341217 -1.8541869 0.11507011 4289875200
1.4128203 -1.8265276 0.10016081 4289744640
1.4224113 -1.8388077 0.08744283 4289744640
1.4281238 -1.8460727 0.074248359 4289875200
1.4252298 -1.8422122 0.0605007 4289744640
1.4092405 -1.8214265 0.046313785 4289744640
1.4072462 -1.8187308 0.032710373 4289744640
1.414035 -1.827386 0.019230653 4289744640
1.4105587 -1.8227754 0.005559803 4289744640
1.3864176 -1.791463 -0.0079305666 4289614080
1.4027377 -1.8124335 -0.021567067 4289614080
1.4089466 -1.8203378 -0.035241161 4289744640
1.4037893 -1.8135568 -0.048602119 4289614080
1.3968635 -1.8044922 -0.061732449 4289614080
1.4198399 -1.8340545 -0.076269016 4289744640
1.4167175 -1.8299024 -0.089509338 4289744640
1.4142601 -1.8266098 -0.10264107 4289744640
1.4095699 -1.8204339 -0.11543164 4289744640
1.4216886 -1.8359658 -0.12954047 4289744640
1.4208437 -1.8347557 -0.14243029 4289744640
1.4157821 -1.8281008 -0.15468785 4289744640
1.410943 -1.8217343 -0.16671121 4289744640
1.4253906 -1.8402689 -0.18091367 4289875200
1.4370048 -1.8551431 -0.19478406 4289875200
1.4310241 -1.8473022 -0.20610397 4289875200
1.3995553 -1.8065621 -0.21321256 4289614080
1.4233211 -1.8371202 -0.22843137 4289875200
1.4279108 -1.8429246 -0.240549 4289875200
1.4334716 -1.8499814 -0.25264218 4289875200
1.4315528 -1.8473853 -0.26316383 4289875200
1.3885577 -1.7917848 -0.26550794 4289614080
1.4258 -1.8397225 -0.28284591 4289875200
1.4306363 -1.8458432 -0.29373753 4289875200
1.4390191 -1.8565384 -0.30511576 4289875200
1.4358121 -1.8522807 -0.31372699 4289875200
1.4216533 -1.8338962 -0.3194806 4289875200
1.413087 -1.8227276 -0.32598844 4289744640
1.4160408 -1.8264191 -0.334748 4289875200
1.4214821 -1.8333184 -0.34375945 4289875200
1.4208804 -1.8324236 -0.35094219 4289875200
1.4225928 -1.8345128 -0.35829863 4289875200
1.424644 -1.8370388 -0.36534578 4289875200
1.4220393 -1.8335611 -0.3707757 4289875200
1.4200268 -1.8308475 -0.37591225 4289875200
1.4075481 -1.814641 -0.37778881 4289744640
1.4013877 -1.8065816 -0.38085616 4289744640
1.4017912 -1.8069847 -0.38524523 4289744640
1.3936975 -1.7964349 -0.38682964 4289744640
1.3810432 -1.7800084 -0.38664475 4289614080
1.3515792 -1.7419195 -0.38121051 4289483520
1.3513877 -1.7415599 -0.38352549 4289483520
1.348222 -1.7373674 -0.384543 4289483520
1.3511415 -1.7410166 -0.38684481 4289483520
1.3510883 -1.7408352 -0.3878457 4289483520
1.3510826 -1.7407149 -0.38840583 4289483520
1.3857727 -1.7852933 -0.39848804 4289614080
1.3858645 -1.7852958 -0.39815715 4289614080
1.3959525 -1.7981747 -0.40022582 4289744640
1.3954456 -1.7974052 -0.39878282 4289744640
1.4033668 -1.8074908 -0.3992722 4289744640
1.4118158 -1.8182549 -0.39942145 4289875200
1.4217519 -1.8309327 -0.39949223 4289875200
1.4266808 -1.8371612 -0.39765981 4289875200
1.4285865 -1.8394959 -0.39450529 4289875200
1.4300885 -1.8413104 -0.39077103 4289875200
1.4246836 -1.8342323 -0.38470864 4289875200
1.4197856 -1.8278079 -0.3783718 4289875200
1.411153 -1.8165765 -0.37065229 4289744640
1.4052838 -1.8089039 -0.36328807 4289744640
1.4059269 -1.8096144 -0.35721028 4289744640
1.4191535 -1.8265202 -0.35385352 4289875200
1.4312619 -1.841985 -0.34968883 4289875200
1.4374578 -1.8498389 -0.34358603 4289875200
1.4214621 -1.8291357 -0.33184326 4289875200
1.4125491 -1.8175486 -0.32151765 4289744640
1.4102795 -1.8145106 -0.31240526 4289744640
1.4265238 -1.8352921 -0.30695146 4289875200
1.4358883 -1.8472202 -0.29950634 4289875200
1.4284215 -1.8374953 -0.28820288 4289875200
1.4070677 -1.8099086 -0.27397585 4289744640
1.4180264 -1.8238866 -0.26580521 4289744640
1.4299338 -1.8390828 -0.25734749 4289875200
1.430711 -1.8399633 -0.24650574 4289875200
1.4248022 -1.8322453 -0.23427941 4289744640
1.4108799 -1.8142242 -0.22063519 4289744640
1.4246488 -1.8318106 -0.21107721 4289744640
1.4281008 -1.8361301 -0.19961676 4289875200
1.4190785 -1.8244117 -0.18624212 4289744640
1.4135987 -1.8172489 -0.1732536 4289744640
1.4300395 -1.8382653 -0.16266568 4289875200
1.4281703 -1.8357434 -0.14969012 4289744640
1.4208851 -1.8262609 -0.13606736 4289744640
1.3457122 -1.729529 -0.11655049 4289352960
1.4229861 -1.8287241 -0.11008479 4289744640
1.4210776 -1.826153 -0.096678317 4289744640
1.404548 -1.8047949 -0.08234673 4289614080
1.4157797 -1.8191092 -0.069603838 4289744640
1.4286231 -1.8354925 -0.056637481 4289744640
1.4195772 -1.8237522 -0.042707518 4289744640
1.3919239 -1.7881095 -0.02852449 4289614080
1.4347695 -1.843031 -0.015609872 4289875200
1.4440204 -1.8547939 -0.001813123 4289875200
1.3950619 -1.7917923 0.011675367 4289614080
1.3218488 -1.6976486 0.023772055 4289222400
1.4482042 -1.8598062 0.039939519 4289875200
1.4923195 -1.9163357 0.055428982 4290136320
1.5482317 -1.9880054 0.072250016 4290397440
1.5704596 -2.0164165 0.088162906 4290528000
1.5720186 -2.0182874 0.10304414 4290528000
1.6119196 -2.0693815 0.1207132 4290789120
1.6182419 -2.0773635 0.13616668 4290789120
1.3600067 -1.7457496 0.12690176 4289352960
1.4693284 -1.8859563 0.15041848 4290005760
1.5806891 -2.0287619 0.17596638 4290658560
1.6131994 -2.0703535 0.19382687 4290789120
1.5537336 -1.9939069 0.20019305 4290528000
1.6509057 -2.1184707 0.22683491 4291050240
1.6579068 -2.1273167 0.24172676 4291050240
1.666154 -2.1377606 0.2566596 4291180800
1.6115565 -2.0675752 0.26125431 4290789120
1.6517496 -2.1190042 0.28080192 4291050240
1.5960691 -2.0474401 0.2836262 4290789120
1.572293 -2.0168092 0.29119599 4290658560
1.5444604 -1.9809796 0.29730695 4290528000
1.5699664 -2.0135639 0.31332922 4290658560
1.527686 -1.9592103 0.31536081 4290397440
1.3959165 -1.7901038 0.29740101 4289614080
1.3952563 -1.7891414 0.30616099 4289614080
1.3885137 -1.78038 0.31319323 4289614080
1.3348571 -1.7114695 0.30893072 4289352960
1.318046 -1.6898059 0.31243363 4289222400
1.330846 -1.7061056 0.32257235 4289352960
1.4037075 -1.7993954 0.34733611 4289744640
1.3763504 -1.7642125 0.34714052 4289614080
1.4195716 -1.8194958 0.36440948 4289875200
1.3828343 -1.7722939 0.36077204 4289614080
1.4169766 -1.8159344 0.37518826 4289744640
1.3807105 -1.7693428 0.37052971 4289614080
1.4094429 -1.8060455 0.3828482 4289744640
1.3882769 -1.7788085 0.381199 4289614080
1.399484 -1.7930521 0.38796198 4289744640
1.3617374 -1.7445772 0.38064402 4289483520
1.3936459 -1.7853408 0.39232829 4289744640
1.398917 -1.7919773 0.39612731 4289744640
1.3507036 -1.7301052 0.38426289 4289483520
1.3681937 -1.7523946 0.39059421 4289614080
1.3681529 -1.7522287 0.39148065 4289614080
1.350583 -1.7296145 0.38688713 4289483520
1.3871937 -1.7763847 0.39735475 4289614080
1.367295 -1.75079 0.39117655 4289483520
1.4103636 -1.8058212 0.40253228 4289744640
1.3790399 -1.7656003 0.39218697 4289614080
1.4140315 -1.8102832 0.40022698 4289744640
1.3767264 -1.7624099 0.38735181 4289614080
1.4074128 -1.8015763 0.39315531 4289744640
1.378674 -1.7646747 0.38190556 4289614080
1.4007375 -1.7927994 0.38429219 4289744640
1.3574878 -1.7373317 0.36838338 4289483520
1.3817272 -1.7682391 0.3704105 4289614080
1.4037622 -1.7963216 0.37125817 4289744640
1.3696939 -1.7526127 0.35689241 4289483520
1.3757734 -1.7602779 0.35268345 4289614080
1.4086636 -1.8022437 0.35476759 4289744640
1.3939018 -1.7832419 0.34436575 4289614080
1.4861913 -1.9011862 0.35961863 4290136320
1.5015839 -1.9207528 0.35530242 4290266880
1.7181573 -2.1968403 0.33668587 4291441920
1.7191138 -2.197921 0.32453027 4291441920
1.7286355 -2.2099516 0.31355244 4291441920
1.7278353 -2.2087855 0.30028933 4291441920
1.7165031 -2.1941571 0.28495723 4291441920
1.6576277 -2.1187611 0.26197484 4291050240
1.5582273 -1.9915798 0.23357753 4290528000
1.6001318 -2.0450056 0.22656631 4290789120
1.6746005 -2.1400399 0.22293937 4291180800
1.7112405 -2.1867223 0.21308708 4291311360
1.7245721 -2.2036154 0.19966817 4291441920
1.7274559 -2.2071574 0.18468043 4291441920
1.6924427 -2.1622813 0.16573 4291180800
1.6189663 -2.0682733 0.14381649 4290789120
1.4624743 -1.8682295 0.11647909 4290005760
1.438851 -1.8379332 0.1012555 4289875200
1.4247987 -1.8198655 0.086947232 4289744640
1.4533919 -1.8562669 0.07501056 4289875200
1.4475323 -1.8486632 0.061002091 4289875200
1.4380155 -1.8363904 0.04692075 4289744640
1.4248245 -1.8194274 0.032886475 4289744640
1.4314768 -1.8278037 0.019338099 4289744640
1.428162 -1.8234531 0.0056034247 4289744640
1.409765 -1.7998476 -0.0079871779 4289614080
1.4241803 -1.818134 -0.02171571 4289744640
1.4285055 -1.8235377 -0.035445388 4289744640
1.4252019 -1.8192027 -0.048956305 4289744640
1.4216303 -1.8145263 -0.062338658 4289744640
1.4367031 -1.8336462 -0.076578699 4289744640
1.4413382 -1.8394428 -0.090364516 4289875200
1.4393182 -1.836746 -0.1036589 4289875200
1.4268901 -1.8207685 -0.11595655 4289744640
1.444717 -1.843397 -0.13063431 4289875200
1.4492501 -1.8490614 -0.14417122 4289875200
1.4390405 -1.8359165 -0.15603317 4289875200
1.4313397 -1.8259736 -0.16783649 4289744640
1.439769 -1.8366082 -0.18135199 4289875200
1.446542 -1.8451287 -0.19459046 4289875200
1.4518785 -1.8518157 -0.20752385 4289875200
1.427096 -1.8200887 -0.215763 4289744640
1.4423491 -1.8394232 -0.22973479 4289875200
1.445927 -1.8438668 -0.24174349 4289875200
1.453267 -1.853107 -0.25419697 4289875200
1.4514562 -1.8506783 -0.26480916 4289875200
1.4160529 -1.8054206 -0.26872331 4289744640
1.4506451 -1.8494048 -0.28560561 4289875200
1.4523247 -1.8514264 -0.29594433 4289875200
1.4584399 -1.8591018 -0.30690539 4290005760
1.457873 -1.8582587 -0.31615031 4290005760
1.4498179 -1.8478719 -0.32335949 4289875200
1.4275209 -1.8193356 -0.32684278 4289875200
1.4358337 -1.8298116 -0.33687684 4289875200
1.4403942 -1.8355047 -0.34571728 4289875200
1.445888 -1.8423864 -0.35443845 4289875200
1.4486566 -1.8457947 -0.36212608 4290005760
1.447692 -1.8444464 -0.36847278 4290005760
1.4400336 -1.8345704 -0.37265372 4289875200
1.4365355 -1.8299956 -0.37743413 4289875200
1.4351593 -1.8281242 -0.38231602 4289875200
1.4179918 -1.8061391 -0.38248524 4289744640
1.4123063 -1.798781 -0.38523242 4289744640
1.4126745 -1.7991337 -0.38916624 4289744640
1.3968793 -1.7789023 -0.38815689 4289614080
1.405764 -1.7901011 -0.39353305 4289744640
1.3615215 -1.7336506 -0.38351825 4289483520
1.3613734 -1.7333499 -0.38539842 4289483520
1.3612719 -1.7331084 -0.38684046 4289483520
1.3666928 -1.7398975 -0.38940293 4289483520
1.366686 -1.7397765 -0.38996691 4289483520
1.402244 -1.7849259 -0.40022486 4289744640
1.4147905 -1.8007802 -0.40344584 4289744640
1.4094568 -1.7938752 -0.40109551 4289744640
1.4144229 -1.8000792 -0.40120521 4289744640
1.4336685 -1.8244544 -0.40486735 4289875200
1.4400398 -1.832444 -0.40438625 4289875200
1.4437332 -1.8370249 -0.40266374 4289875200
1.4385946 -1.8303682 -0.39801264 4289875200
1.4461488 -1.8398606 -0.3964017 4290005760
1.4470285 -1.8408607 -0.39247823 4290005760
1.4411451 -1.8332574 -0.3862808 4289875200
1.4386991 -1.8300278 -0.38058433 4289875200
1.4395494 -1.8309909 -0.37532473 4289875200
1.4287848 -1.8171818 -0.36664456 4289875200
1.4294379 -1.8178948 -0.36051321 4289875200
1.4387709 -1.8296458 -0.35610995 4289875200
1.4443456 -1.8366163 -0.35029656 4289875200
1.4524252 -1.8467709 -0.34461981 4290005760
1.4373498 -1.8274843 -0.3330968 4289875200
1.4238927 -1.8102574 -0.32173124 4289744640
1.4277321 -1.8150212 -0.31396356 4289744640
1.4420741 -1.8331351 -0.30803686 4289875200
1.4508516 -1.8441736 -0.30042642 4289875200
1.4498949 -1.8428384 -0.29041162 4289875200
1.4239974 -1.8098054 -0.27526328 4289744640
1.4313625 -1.8190484 -0.26636508 4289744640
1.454079 -1.8477981 -0.25980517 4289875200
1.4573288 -1.8518081 -0.24928512 4289875200
1.4457283 -1.8369489 -0.23601452 4289875200
1.4278523 -1.8141181 -0.22169206 4289744640
1.4498256 -1.8419169 -0.2132761 4289875200
1.4467638 -1.837908 -0.20078933 4289875200
1.4399799 -1.8291719 -0.18764907 4289875200
1.4306014 -1.8171411 -0.17410402 4289744640
1.4487262 -1.8400441 -0.16363876 4289875200
1.4524018 -1.8445934 -0.15117253 4289875200
1.4363949 -1.8241464 -0.13660505 4289744640
1.3644221 -1.7326325 -0.11736504 4289352960
1.4311036 -1.8171917 -0.10996721 4289744640
1.4345194 -1.8214113 -0.096946172 4289744640
1.4243226 -1.8083475 -0.082964778 4289744640
1.4296654 -1.8150135 -0.069844835 4289744640
1.4412318 -1.8295792 -0.056795076 4289744640
1.4272784 -1.811749 -0.042702552 4289744640
1.3934683 -1.7687169 -0.028425215 4289483520
1.4451565 -1.8342059 -0.015691062 4289875200
1.4568697 -1.8489529 -0.0019020042 4289875200
1.3466431 -1.7089508 0.011106106 4289222400
1.3432304 -1.7045099 0.023896603 4289222400
1.5623436 -1.9824282 0.042673223 4290397440
1.6849786 -2.1378992 0.062018294 4291180800
1.6864245 -2.1395955 0.078012429 4291180800
1.6830394 -2.1351628 0.093679383 4291050240
1.7742853 -2.2507753 0.11533151 4291572480
1.7517473 -2.2220409 0.13010469 4291441920
1.6999758 -2.1562309 0.14187969 4291180800
1.6191468 -2.0535758 0.14986326 4290789120
1.7416997 -2.2088675 0.17687418 4291441920
1.7646174 -2.237788 0.19487898 4291572480
1.6892506 -2.1420734 0.20135866 4291180800
1.6690487 -2.1163194 0.2133577 4291050240
1.7894477 -2.2688363 0.24394286 4291703040
1.7681317 -2.2416651 0.25578418 4291572480
1.7441405 -2.2111058 0.26658145 4291441920
1.7240483 -2.185493 0.27732182 4291311360
1.7318466 -2.1952367 0.29214039 4291441920
1.7208536 -2.1811614 0.30344063 4291311360
1.6748965 -2.1227741 0.3078104 4291050240
1.6944021 -2.147357 0.32366505 4291180800
1.6400505 -2.0783417 0.32480747 4290919680
1.5909351 -2.0159702 0.32590508 4290658560
1.462236 -1.8527682 0.30915195 4290005760
1.4320728 -1.8144317 0.31184477 4289744640
1.4221983 -1.8018043 0.31835064 4289744640
1.3687432 -1.7339693 0.31436726 4289483520
1.3149956 -1.6657726 0.30934703 4289222400
1.3205023 -1.6726401 0.31764218 4289222400
1.4018805 -1.7756047 0.344262 4289614080
1.3911259 -1.7618692 0.34821898 4289614080
1.4009886 -1.7742457 0.35692871 4289614080
1.3794994 -1.7469184 0.35719353 4289483520
1.3736551 -1.7394052 0.36098424 4289483520
1.3565224 -1.7176 0.36130673 4289483520
1.3553013 -1.7159427 0.36538285 4289352960
-3.7079597 4.6943331 -1.0105281 4278190335
-3.7071109 4.6929555 -1.0199974 4278190335
-3.7063763 4.6917224 -1.0283048 4278190335
-3.70576 4.6906395 -1.0354418 4278190335
-3.7052655 4.6897106 -1.0414008 4278190335
-3.704896 4.68894 -1.0461755 4278190335
-3.7046533 4.6883302 -1.0497611 4278190335
-3.7045398 4.6878839 -1.0521537 4278190335
-3.7045562 4.6876016 -1.0533508 4278190335
-3.7047033 4.6874852 -1.0533513 4278190335
-3.7049813 4.6875343 -1.0521551 4278190335
-3.7053895 4.687748 -1.0497634 4278190335
1.3617508 -1.7226617 0.38442069 4289483520
1.3517827 -1.7099411 0.37979728 4289352960
1.356184 -1.7153978 0.37877327 4289483520
1.3840853 -1.7505764 0.38380748 4289614080
1.3907614 -1.7589066 0.38243726 4289614080
1.4009869 -1.7717246 0.38155529 4289614080
1.4147009 -1.788952 0.38111225 4289744640
1.4330167 -1.8119961 0.38136613 4289875200
1.4380872 -1.8182904 0.37757531 4289875200
1.4092871 -1.7817608 0.36454847 4289744640
1.4037807 -1.7746847 0.35726121 4289614080
1.4277267 -1.8048412 0.35697418 4289744640
1.4214455 -1.7967846 0.34864223 4289744640
1.4786135 -1.8689275 0.35521507 4290005760
1.5174419 -1.9178817 0.35648185 4290266880
1.7987057 -2.2724214 0.34986955 4291833600
1.7948693 -2.2674282 0.33633164 4291703040
1.8014114 -2.2755458 0.3243427 4291833600
1.7897595 -2.2606812 0.3087571 4291703040
1.7876314 -2.2578473 0.29457641 4291703040
1.7830088 -2.2518637 0.27971205 4291703040
1.7715572 -2.2372563 0.26359719 4291572480
1.7755275 -2.2421255 0.24954709 4291572480
1.7825633 -2.250865 0.23556256 4291703040
1.7771894 -2.2439344 0.21966745 4291572480
1.7930241 -2.2637818 0.20606287 4291703040
1.7700251 -2.2346003 0.18783638 4291572480
1.7494035 -2.2084234 0.17004493 4291441920
1.7444549 -2.2020342 0.15382162 4291441920
1.6104069 -2.0326934 0.1273158 4290658560
1.5655545 -1.9759523 0.10935992 4290397440
1.4375107 -1.8142258 0.087076455 4289744640
1.4613414 -1.8441824 0.074865021 4289875200
1.4616456 -1.8444473 0.061142944 4289875200
1.450861 -1.8307201 0.046991058 4289875200
1.4404187 -1.8174266 0.033001442 4289744640
1.4501975 -1.8296466 0.01944666 4289875200
1.4468863 -1.8253514 0.0056350678 4289744640
1.4249773 -1.7975956 -0.008013892 4289614080
1.4386799 -1.8147643 -0.021775208 4289744640
1.4415628 -1.8182833 -0.035505906 4289744640
1.4421735 -1.8189361 -0.049174417 4289744640
1.4370662 -1.8123777 -0.062551431 4289744640
1.4554558 -1.8354516 -0.077006936 4289875200
1.4592004 -1.840055 -0.090810701 4289875200
1.4540187 -1.8334028 -0.10394656 4289875200
1.4494772 -1.8275582 -0.11692481 4289875200
1.4573148 -1.8373216 -0.13080326 4289875200
1.4602611 -1.8409173 -0.14419715 4289875200
1.455538 -1.8348448 -0.15666017 4289875200
1.447397 -1.8244644 -0.16847003 4289875200
1.4609233 -1.8413956 -0.1826621 4289875200
1.4697329 -1.85238 -0.19625497 4289875200
1.4688346 -1.8511286 -0.20840235 4289875200
1.4463408 -1.8226626 -0.2170634 4289875200
1.4592279 -1.8387841 -0.23071291 4289875200
1.466537 -1.8478752 -0.24338511 4289875200
1.4702197 -1.852396 -0.25527012 4290005760
1.4640596 -1.8445156 -0.26514339 4289875200
1.4290177 -1.8002514 -0.26918858 4289744640
1.4644816 -1.8448092 -0.28620872 4289875200
1.4748082 -1.8576978 -0.29831526 4290005760
1.4747963 -1.8575629 -0.30806464 4290005760
1.474838 -1.8574957 -0.31747702 4290005760
1.4697999 -1.8510309 -0.3254053 4290005760
1.4436383 -1.8179663 -0.32810226 4289875200
1.4547782 -1.8318766 -0.33881176 4289875200
1.4658767 -1.8457329 -0.34924647 4290005760
1.4627471 -1.8416735 -0.3559348 4290005760
1.4679916 -1.8481575 -0.36426145 4290005760
1.4614859 -1.8398483 -0.36924899 4290005760
1.4685103 -1.8485719 -0.37722939 4290005760
1.4588394 -1.8362796 -0.38047677 4290005760
1.4519241 -1.8274574 -0.38393918 4289875200
1.4515063 -1.8268136 -0.38864776 4289875200
1.4344184 -1.805191 -0.38838845 4289875200
1.4261993 -1.7947316 -0.39000481 4289744640
1.4320363 -1.8019607 -0.39500207 4289875200
1.418622 -1.784966 -0.39421451 4289744640
1.4214846 -1.7884525 -0.39746696 4289744640
1.3769656 -1.7323289 -0.38694865 4289483520
1.3860556 -1.7436523 -0.39098984 4289614080
1.3829353 -1.7396147 -0.39113629 4289614080
1.4211575 -1.7875798 -0.40253103 4289744640
1.4181354 -1.7836635 -0.40178764 4289744640
1.4157763 -1.7805814 -0.40076175 4289744640
1.4254013 -1.7925709 -0.40265393 4289744640
1.4365348 -1.8064559 -0.40448505 4289875200
1.4473397 -1.8199258 -0.40572679 4289875200
1.4506916 -1.8240229 -0.40438625 4289875200
1.4636132 -1.8401512 -0.40521127 4290005760
1.4639609 -1.8404696 -0.40205711 4290005760
1.4629815 -1.8391198 -0.3980718 4290005760
1.4601852 -1.8354861 -0.39313948 4290005760
1.4610147 -1.8364104 -0.38873217 4290005760
1.4585056 -1.8331385 -0.38299197 4290005760
1.4532663 -1.8264354 -0.37612021 4289875200
1.4393479 -1.8088266 -0.36664456 4289875200
1.4486187 -1.8203597 -0.36266968 4289875200
1.4614104 -1.8363156 -0.35905924 4290005760
1.4667227 -1.842872 -0.35311359 4290005760
1.4705522 -1.8475643 -0.34636083 4290005760
1.4602543 -1.8345082 -0.33592209 4289875200
1.4422734 -1.8118019 -0.32349369 4289875200
1.4405903 -1.8095709 -0.31446731 4289875200
1.4626381 -1.8371475 -0.31013781 4289875200
1.4621872 -1.8364626 -0.30055299 4289875200
1.4642678 -1.8389573 -0.29113951 4289875200
1.4404379 -1.8089131 -0.27639934 4289744640
1.4540412 -1.8258784 -0.26860118 4289875200
1.4661331 -1.8409438 -0.26003805 4289875200
1.4724277 -1.8487285 -0.25002116 4290005760
1.4618235 -1.8352959 -0.2368924 4289875200
1.4443338 -1.813221 -0.222607 4289744640
1.4607952 -1.8337684 -0.21331447 4289875200
1.4612491 -1.8342201 -0.20131311 4289875200
1.4551536 -1.8264508 -0.18823649 4289875200
1.4427543 -1.8107711 -0.17429613 4289744640
1.4638022 -1.8370694 -0.16412988 4289875200
1.4668841 -1.8408186 -0.15156102 4289875200
1.4545186 -1.8251833 -0.13731499 4289875200
1.3832067 -1.7355866 -0.11810903 4289483520
1.4566084 -1.82757 -0.11110692 4289875200
1.4482207 -1.8169291 -0.097155064 4289744640
1.4320267 -1.7964964 -0.082802452 4289744640
1.4489386 -1.8175954 -0.070267856 4289744640
1.45805 -1.8289071 -0.057036951 4289875200
1.4471592 -1.8151292 -0.042980224 4289744640
1.4155935 -1.7754229 -0.028665051 4289614080
1.4707807 -1.8445193 -0.01585233 4289875200
1.4679663 -1.840871 -0.0019024564 4289875200
1.374658 -1.7237487 0.011254134 4289352960
1.349172 -1.6916815 0.023826554 4289222400
1.5919472 -1.9959607 0.043163441 4290528000
1.6942887 -2.1241381 0.061904404 4291050240
1.7169384 -2.1523952 0.078842528 4291180800
1.7135248 -2.1479776 0.094678044 4291180800
1.8221682 -2.2840195 0.11757698 4291833600
1.7796159 -2.2305381 0.13120708 4291572480
1.7274582 -2.165025 0.14311817 4291311360
1.6555499 -2.0747685 0.15211117 4290919680
1.8210537 -2.2820344 0.18357944 4291833600
1.7925608 -2.2461839 0.19651634 4291703040
1.7865325 -2.2384858 0.21139647 4291572480
1.6962752 -2.1252587 0.21525161 4291180800
1.8237712 -2.2848508 0.246803 4291833600
1.7985605 -2.2531211 0.25828269 4291703040
1.7774899 -2.2265818 0.26969132 4291572480
1.7609648 -2.2057395 0.28118804 4291441920
1.7570183 -2.2006543 0.29421869 4291441920
1.7571026 -2.2006183 0.30756643 4291441920
1.713895 -2.1463659 0.31267396 4291311360
1.6653156 -2.0853941 0.3157827 4291050240
1.6762878 -2.0989988 0.32955655 4291050240
1.63237 -2.0438745 0.33194801 4290789120
1.4637239 -1.8325964 0.30720386 4289875200
1.4308681 -1.7913452 0.30930448 4289744640
1.4301989 -1.790392 0.31780118 4289744640
1.3905631 -1.7406619 0.31704411 4289483520
1.3969553 -1.7485507 0.32622555 4289614080
1.3864578 -1.7352993 0.33106992 4289483520
1.4301479 -1.7898668 0.34863684 4289744640
1.4567145 -1.8229984 0.36197197 4289875200
1.4172585 -1.773507 0.35843515 4289744640
1.4728396 -1.8429404 0.37857541 4290005760
1.4472971 -1.8108629 0.37755767 4289875200
1.4573042 -1.8232664 0.38531378 4289875200
1.4334335 -1.7932857 0.38362363 4289744640
1.4121034 -1.766487 0.38202831 4289614080
-3.73439 4.6712775 -1.0199974 4278190335
-3.7336483 4.6700487 -1.0283048 4278190335
-3.7330258 4.6689692 -1.0354418 4278190335
-3.7325258 4.6680436 -1.0414008 4278190335
-3.7321517 4.667275 -1.0461755 4278190335
-3.7319057 4.6666665 -1.0497611 4278190335
-3.7317894 4.6662207 -1.0521537 4278190335
-3.7318044 4.6659389 -1.0533508 4278190335
-3.7319508 4.6658216 -1.0533513 4278190335
-3.732229 4.6658688 -1.0521551 4278190335
1.4554152 -1.819379 0.40931949 4289875200
1.4123865 -1.7654762 0.39580461 4289744640
1.393623 -1.7419096 0.38869473 4289614080
1.4778278 -1.8470396 0.40973505 4290005760
1.4773539 -1.8463284 0.40668103 4290005760
1.4389617 -1.7982317 0.39280391 4289875200
1.4634818 -1.8287561 0.39566708 4290005760
1.4282305 -1.7845913 0.38194951 4289744640
1.4832302 -1.8531948 0.39184931 4290005760
1.4511236 -1.8129631 0.37821832 4289875200
1.4313675 -1.7881656 0.36755893 4289744640
1.4289117 -1.7849827 0.36100414 4289744640
1.4413059 -1.8003494 0.35774061 4289744640
1.4232395 -1.7776681 0.34653601 4289744640
1.4894772 -1.8602811 0.35521507 4290005760
1.588809 -1.9842137 0.37052548 4290658560
1.8188381 -2.270546 0.35120642 4291833600
1.8285435 -2.2825148 0.34014395 4291833600
1.8270662 -2.2805238 0.32656395 4291833600
1.8147129 -2.2649589 0.31078008 4291833600
1.8125746 -2.2621443 0.2965098 4291703040
1.8110354 -2.260078 0.28203824 4291703040
1.8215936 -2.2731075 0.26906714 4291833600
1.8256105 -2.2779734 0.25471649 4291833600
1.816216 -2.2661052 0.2382609 4291703040
1.802081 -2.2483242 0.22112125 4291703040
1.8211555 -2.2719758 0.20777105 4291833600
1.8067307 -2.253835 0.19033484 4291703040
1.7803469 -2.2207792 0.17179208 4291572480
1.7422647 -2.1731362 0.15250947 4291311360
1.6190984 -2.0193801 0.12707062 4290658560
1.610164 -2.0081077 0.1116569 4290658560
1.4377601 -1.7929796 0.086457305 4289744640
1.4870683 -1.8543507 0.075628243 4290005760
1.478484 -1.8435277 0.061396971 4289875200
1.461512 -1.8222477 0.046991359 4289875200
1.4603673 -1.8207034 0.033214882 4289875200
1.4639122 -1.8250057 0.019487655 4289875200
1.4597316 -1.8196766 0.0056437086 4289744640
1.4448127 -1.800963 -0.0080662956 4289744640
1.4579893 -1.8172708 -0.02190684 4289744640
1.4580774 -1.8172636 -0.035651278 4289744640
1.4615062 -1.8214198 -0.049470928 4289875200
1.459488 -1.8187876 -0.063065074 4289744640
1.475508 -1.8386331 -0.077499785 4289875200
1.4786524 -1.8424326 -0.091351666 4289875200
1.4697416 -1.8312118 -0.10430606 4289875200
1.4632261 -1.8229766 -0.11717512 4289875200
1.4742448 -1.8365861 -0.13136016 4289875200
1.4801973 -1.843883 -0.1451025 4289875200
1.4718252 -1.8333359 -0.15726084 4289875200
1.4702156 -1.831213 -0.16988128 4289875200
1.4834865 -1.8476237 -0.18413417 4290005760
1.4929307 -1.8592663 -0.19790275 4290005760
1.4911782 -1.8569642 -0.21003388 4290005760
1.4552417 -1.8120959 -0.21681105 4289875200
1.4729835 -1.8340702 -0.23119433 4289875200
1.4842073 -1.8479266 -0.2445267 4290005760
1.486903 -1.8511637 -0.25628978 4290005760
1.4803821 -1.8429269 -0.26615036 4290005760
1.4488125 -1.8035097 -0.27093339 4289744640
1.4813737 -1.8439239 -0.28740552 4290005760
1.4856066 -1.8490738 -0.29831526 4290005760
1.497968 -1.8643396 -0.31063062 4290136320
1.4977785 -1.8639839 -0.32007203 4290136320
1.4894919 -1.8535519 -0.32736853 4290005760
1.4666108 -1.8249608 -0.33090118 4289875200
1.474417 -1.8345563 -0.34089041 4290005760
1.4796555 -1.840956 -0.3499679 4290005760
1.4852216 -1.8477623 -0.35877788 4290005760
1.4818305 -1.8434247 -0.36502409 4290005760
1.4870352 -1.8497806 -0.37297484 4290005760
1.4823492 -1.8438327 -0.37801829 4290005760
1.4812648 -1.8423655 -0.38351944 4290005760
1.471203 -1.829733 -0.3862116 4290005760
1.4593391 -1.8148613 -0.3879073 4289875200
1.4480013 -1.8006455 -0.38921899 4289875200
1.4514592 -1.8048294 -0.39403009 4289875200
1.4354255 -1.7847774 -0.39306197 4289744640
1.441349 -1.7920272 -0.39762193 4289744640
1.4411427 -1.7916554 -0.40003803 4289744640
1.3993837 -1.7396278 -0.39039356 4289614080
1.4017473 -1.7424543 -0.39254585 4289614080
1.40169 -1.7422709 -0.39356303 4289614080
1.4016818 -1.7421486 -0.39413303 4289614080
1.4408507 -1.7907164 -0.4052605 4289744640
1.4316828 -1.7792079 -0.40232325 4289744640
1.4506402 -1.8026512 -0.40680975 4289875200
1.4470352 -1.7980556 -0.40448505 4289875200
1.4613112 -1.815678 -0.40667099 4289875200
1.4761208 -1.8339609 -0.40848929 4290005760
1.4767811 -1.8346633 -0.40589061 4290005760
1.4864028 -1.8464978 -0.40525898 4290005760
1.4823277 -1.8413171 -0.40040994 4290005760
1.4832239 -1.8423119 -0.39644572 4290005760
1.4803511 -1.8386252 -0.39102012 4290005760
1.4778262 -1.8353714 -0.38525087 4290005760
1.4700747 -1.825627 -0.37771112 4290005760
1.4616319 -1.8150254 -0.36962092 4289875200
1.4639962 -1.8178445 -0.36386174 4289875200
1.4745646 -1.8308494 -0.3596642 4290005760
1.4837153 -1.8420928 -0.35461465 4290005760
1.4875751 -1.8467661 -0.34783009 4290005760
1.4771277 -1.8336781 -0.3373403 4290005760
1.4621246 -1.8149369 -0.32556891 4289875200
1.4629202 -1.8158077 -0.31702697 4289875200
1.4733169 -1.8285947 -0.31013781 4289875200
1.4909101 -1.8503113 -0.30423588 4290005760
1.4933275 -1.8531923 -0.29476559 4290005760
1.4627904 -1.8151796 -0.27865437 4289875200
1.4740052 -1.8289785 -0.270316 4289875200
1.4830712 -1.8401095 -0.26113632 4290005760
1.4869956 -1.84486 -0.2506654 4290005760
1.4840877 -1.841134 -0.23875798 4290005760
1.4698669 -1.8233746 -0.22490111 4289875200
1.4805164 -1.8364673 -0.2146282 4289875200
1.4812422 -1.8372494 -0.20258936 4289875200
1.4720266 -1.8257015 -0.18903995 4289875200
1.4589131 -1.8093209 -0.17497174 4289744640
1.4863782 -1.8432642 -0.16545425 4290005760
1.4838487 -1.8400091 -0.15220359 4289875200
1.4766554 -1.8309715 -0.13839538 4289875200
1.4026988 -1.7391576 -0.11890618 4289483520
1.4735025 -1.8268272 -0.11158181 4289875200
1.473837 -1.8271245 -0.098157734 4289875200
1.4575282 -1.8067902 -0.083666891 4289744640
1.4657798 -1.8169022 -0.070570014 4289875200
1.4780968 -1.832052 -0.057402626 4289875200
1.472778 -1.8253421 -0.043424502 4289875200
1.3955359 -1.7294981 -0.028054373 4289483520
1.4877821 -1.843701 -0.015919523 4289875200
1.4874588 -1.8431818 -0.0019137684 4289875200
1.4236155 -1.763957 0.011570605 4289614080
