# .PCD v0.7 - Point Cloud Data file format
VERSION 0.7
FIELDS x y z rgba
SIZE 4 4 4 4
TYPE F F F U
COUNT 1 1 1 1
WIDTH 1106
HEIGHT 1
VIEWPOINT 0 0 0 1 0 0 0
POINTS 1106
DATA ascii
3.5761502 0.87514734 0.59963131 4294444800
3.5673416 0.87311047 0.60627872 4294444800
3.5503707 0.86907506 0.6107806 4294444800
3.5636508 0.87244451 0.61976683 4294444800
3.5115571 0.85980797 0.61660016 4294314240
3.5202672 0.86205786 0.62331706 4294314240
3.5147295 0.8608188 0.62678987 4294314240
3.5322745 0.86523348 0.63365847 4294314240
3.5269709 0.86405182 0.63570154 4294314240
3.5313556 0.86524361 0.63874543 4294314240
3.5310798 0.86529362 0.64020127 4294314240
3.5261452 0.8642019 0.64006162 4294314240
3.5222921 0.86337483 0.6393674 4294314240
3.5080414 0.85999858 0.63603991 4294314240
3.5034785 0.85899663 0.63372898 4294314240
3.5453191 0.86937338 0.63904518 4294444800
3.5663292 0.87464416 0.63981462 4294444800
3.5658147 0.87463677 0.63595712 4294444800
3.5834796 0.879089 0.63457721 4294575360
3.5790458 0.87812048 0.62852764 4294575360
3.5942328 0.88196641 0.62517238 4294575360
3.5938578 0.88199407 0.6183579 4294575360
3.5935092 0.88202822 0.61083096 4294575360
3.6007514 0.8839258 0.60386997 4294575360
3.5816984 0.87936783 0.59183055 4294575360
3.5855629 0.88043612 0.58293092 4294575360
3.5832963 0.87999886 0.57235855 4294575360
3.5857415 0.88071883 0.56187934 4294575360
3.5982621 0.88391399 0.55228651 4294575360
3.6042657 0.88550884 0.54100055 4294575360
3.5495467 0.87282854 0.44127306 4294314240
3.5864131 0.8820135 0.42954066 4294444800
3.602257 0.88602996 0.4145678 4294444800
3.5875485 0.8825317 0.39561278 4294444800
3.5618932 0.8763392 0.37520769 4294314240
3.5654495 0.87733293 0.3575719 4294314240
3.5811648 0.88131928 0.3406606 4294444800
3.5788162 0.88086051 0.32158598 4294444800
3.5364428 0.8705489 0.29880038 4294183680
3.5528228 0.87469953 0.28078851 4294314240
3.5722523 0.87960202 0.26251256 4294314240
3.5778639 0.88110304 0.24279462 4294314240
3.5549238 0.87557209 0.22097316 4294314240
3.5742669 0.88045537 0.20155832 4294314240
3.5817652 0.88242179 0.18110086 4294314240
3.5835235 0.88297439 0.16010228 4294314240
3.5358944 0.87135655 0.13699566 4294183680
3.5477033 0.87438476 0.11625536 4294183680
3.5540128 0.87605834 0.095100388 4294314240
3.5488183 0.87489617 0.073528007 4294183680
3.529597 0.87027514 0.051733218 4294183680
3.5308187 0.87069398 0.03029103 4294183680
3.5488234 0.87525225 0.0088428138 4294183680
3.5112503 0.86610252 -0.012634533 4294053120
3.5249104 0.86958951 -0.034137264 4294183680
3.5351877 0.87224269 -0.055716343 4294183680
3.5482581 0.87558585 -0.077421322 4294183680
3.5238941 0.86969107 -0.098158419 4294183680
3.5481656 0.87579954 -0.12014329 4294314240
3.5677731 0.88075817 -0.14210348 4294314240
3.5573881 0.87831306 -0.16277109 4294314240
3.5257134 0.87061018 -0.18204084 4294183680
3.5484245 0.87633651 -0.20386742 4294314240
3.5539348 0.87781584 -0.22464837 4294314240
3.5460536 0.87598735 -0.24432537 4294314240
3.530513 0.87226605 -0.26307625 4294183680
3.5663764 0.88124555 -0.28548127 4294314240
3.5666916 0.88144231 -0.30492833 4294314240
3.5753667 0.88370538 -0.32480356 4294444800
3.5224061 0.87073278 -0.33849046 4294183680
3.5617108 0.88056755 -0.36059448 4294314240
3.5676768 0.8821615 -0.37915665 4294314240
3.5649486 0.88160568 -0.39639097 4294314240
3.5593915 0.88035011 -0.41282991 4294314240
3.5059841 0.86725765 -0.42298296 4294183680
3.5633216 0.88155979 -0.44603446 4294444800
3.5786638 0.88547468 -0.46365592 4294444800
3.578753 0.88561612 -0.47884738 4294444800
3.5658977 0.88255376 -0.49171448 4294444800
3.5439978 0.87725168 -0.50263941 4294314240
3.3885255 0.83888042 -0.49337697 4293792000
3.2990887 0.81684893 -0.49225879 4293530880
3.2463837 0.80390751 -0.49555612 4293269760
3.2137187 0.79592574 -0.50105798 4293269760
3.2096777 0.79503202 -0.51032937 4293269760
3.1895509 0.79015297 -0.51638579 4293139200
3.1466377 0.77962697 -0.51798344 4293008640
3.1161211 0.77216989 -0.52083021 4292878080
3.0992005 0.76808035 -0.52523047 4292878080
3.0661843 0.76000011 -0.5261842 4292747520
3.0881934 0.76555836 -0.53594196 4292747520
3.0321059 0.75175548 -0.53146845 4292616960
3.0686433 0.76091659 -0.54256988 4292747520
3.0727422 0.76203549 -0.54736441 4292747520
3.0855455 0.76531357 -0.5530901 4292747520
3.1080084 0.7709887 -0.55993545 4292878080
3.0942445 0.76767755 -0.55961013 4292878080
3.0977964 0.7686621 -0.56175357 4292878080
3.0890307 0.76659012 -0.56100488 4292878080
3.0746398 0.76312131 -0.5585742 4292747520
3.0431526 0.75540769 -0.5523873 4292616960
3.0251524 0.7510404 -0.54801303 4292616960
3.0882225 0.76680148 -0.55765331 4292878080
3.05705 0.75916338 -0.54961133 4292747520
3.0894451 0.76731116 -0.55234736 4292878080
3.0876107 0.76695853 -0.54828805 4292747520
3.1448016 0.78126955 -0.5539915 4293008640
3.1642447 0.78620541 -0.55228692 4293139200
3.179424 0.79008305 -0.54913592 4293139200
3.201179 0.79559582 -0.5464105 4293139200
3.2199228 0.80036169 -0.54245132 4293269760
3.2670827 0.81219298 -0.54249519 4293400320
3.3271015 0.82722455 -0.54377633 4293661440
3.4431162 0.85618448 -0.55310071 4294053120
3.519542 0.87530631 -0.55487603 4294314240
3.5439529 0.88149554 -0.54750842 4294314240
3.5656414 0.88700908 -0.53894317 4294444800
3.5424812 0.88136584 -0.52299213 4294314240
3.5314894 0.87874889 -0.50836331 4294314240
3.5236301 0.87691081 -0.49367821 4294314240
3.5342922 0.87968212 -0.48101586 4294314240
3.5513742 0.88405228 -0.46856967 4294314240
3.5465629 0.88297296 -0.45265618 4294314240
3.5221307 0.8770076 -0.43385899 4294183680
3.533231 0.87988949 -0.41901007 4294314240
3.5586784 0.88634551 -0.40522295 4294314240
3.5604413 0.88690335 -0.38815832 4294314240
3.5474935 0.88379639 -0.36911407 4294314240
3.5071003 0.87385017 -0.34707457 4294183680
3.5335233 0.88055176 -0.33133158 4294314240
3.5399237 0.88226491 -0.31317431 4294314240
3.5442181 0.88345343 -0.29442886 4294314240
3.5083439 0.87462831 -0.27219677 4294183680
3.5384943 0.88226283 -0.25481778 4294183680
3.5377395 0.88219273 -0.2347708 4294183680
3.547828 0.88482684 -0.21513362 4294314240
3.5172906 0.87732816 -0.19291759 4294183680
3.5293562 0.88045555 -0.17293461 4294183680
3.5428736 0.88394588 -0.15268449 4294183680
3.5326087 0.88150269 -0.13122503 4294183680
3.5249746 0.87971538 -0.10982782 4294183680
3.5555449 0.88746333 -0.089363508 4294314240
3.5509176 0.88642687 -0.0677616 4294314240
3.5120924 0.87685204 -0.045697376 4294183680
3.5515869 0.88683099 -0.024597973 4294314240
3.5680439 0.8910594 -0.0029715362 4294314240
3.5627975 0.88986814 0.018744821 4294314240
3.4415262 0.85969341 0.03906054 4293922560
3.5879097 0.89637983 0.062523417 4294444800
3.5917864 0.89746821 0.084348805 4294444800
3.5696213 0.89204907 0.1053617 4294314240
3.3222082 0.83033139 0.1179943 4293530880
3.5951016 0.89865655 0.1491217 4294444800
3.5939891 0.89849842 0.17034292 4294444800
3.5414486 0.88548154 0.18862751 4294183680
3.2623777 0.8158133 0.19271277 4293269760
3.6004045 0.90046287 0.23336218 4294444800
3.6016209 0.90088725 0.2538757 4294444800
3.5451488 0.88688004 0.26973677 4294314240
3.2719436 0.81864232 0.26699021 4293269760
3.622648 0.9065097 0.315258 4294575360
3.619925 0.90594912 0.33431068 4294575360
3.5657537 0.89251083 0.3479462 4294314240
3.3451395 0.83740264 0.34354359 4293661440
3.2057743 0.80262184 0.34527797 4293139200
3.6122849 0.90451944 0.40671131 4294575360
3.6040006 0.90256536 0.42293662 4294575360
3.5333159 0.88498145 0.43100041 4294314240
3.4254777 0.85808587 0.43323794 4293922560
3.2558086 0.81569231 0.42594627 4293269760
3.6204491 0.90716809 0.48887166 4294575360
3.6128342 0.90538073 0.50248152 4294575360
3.5801253 0.8973034 0.5118742 4294444800
3.5037014 0.87826592 0.51402301 4294183680
3.4379468 0.86189806 0.51663232 4294053120
3.3707027 0.8451525 0.51796567 4293792000
3.6092358 0.90508157 0.56623352 4294575360
3.5975184 0.90226334 0.57532328 4294575360
3.6037314 0.90394187 0.58660114 4294575360
3.5855057 0.89948994 0.59319407 4294575360
3.5853508 0.89957076 0.60204256 4294575360
3.5755918 0.89724165 0.60855895 4294575360
3.5682068 0.89550769 0.61473614 4294444800
3.5632892 0.89439249 0.62059969 4294444800
3.5160491 0.88265258 0.61828142 4294314240
3.5285671 0.88591284 0.62568998 4294314240
3.5192113 0.88368148 0.62849659 4294314240
3.5415058 0.88939792 0.63623327 4294444800
3.5409837 0.88938504 0.63915038 4294444800
3.5310307 0.88700312 0.63961059 4294444800
3.5403059 0.88945132 0.64280266 4294444800
3.5306017 0.88713121 0.64179784 4294444800
3.5257981 0.886042 0.64093 4294314240
3.5211191 0.88498372 0.63933504 4294314240
3.5675502 0.89677268 0.64625275 4294575360
3.5545232 0.89361686 0.64163184 4294444800
3.5841029 0.90117294 0.64393437 4294575360
3.5617614 0.89567447 0.63615417 4294444800
3.565187 0.89665496 0.63225228 4294444800
3.6015923 0.90593135 0.6334033 4294575360
3.5985959 0.90529782 0.62683803 4294575360
3.6020494 0.9062869 0.62066531 4294575360
3.6017048 0.90632057 0.61311126 4294575360
3.599369 0.90585303 0.60451299 4294575360
3.5947068 0.90479976 0.594841 4294575360
3.5889935 0.9034816 0.58433455 4294575360
3.5828998 0.9020673 0.573125 4294575360
3.6035578 0.90738881 0.56549001 4294575360
3.6074381 0.90848637 0.55449796 4294575360
3.6134391 0.91011834 0.54316419 4294575360
3.5626919 0.89810497 0.44355026 4294444800
3.5995138 0.90750754 0.43173563 4294575360
3.6065865 0.90941119 0.41566879 4294575360
3.5968077 0.90706569 0.39720988 4294444800
3.5663729 0.89950961 0.37622526 4294444800
3.5651026 0.89930832 0.35805652 4294314240
3.5856242 0.90460479 0.34158036 4294444800
3.5871465 0.90510869 0.32280293 4294444800
3.5496714 0.89577162 0.30035394 4294314240
3.5612009 0.89880008 0.28185973 4294314240
3.5722997 0.90172064 0.26289767 4294314240
3.5726697 0.90193343 0.24279462 4294314240
3.549762 0.89626896 0.22097316 4294314240
3.5690765 0.90126485 0.20155832 4294314240
3.5818026 0.90459818 0.18136616 4294444800
3.5734751 0.90261441 0.15988559 4294314240
3.549166 0.89659292 0.1377099 4294314240
3.5609605 0.8996914 0.11685958 4294314240
3.5624173 0.90017855 0.095463999 4294314240
3.562078 0.90021187 0.073910147 4294314240
3.5390079 0.89449984 0.051946655 4294183680
3.5441058 0.89590681 0.030449286 4294183680
3.5533588 0.8983646 0.0088670058 4294314240
3.5158393 0.88899648 -0.012669469 4294183680
3.5382037 0.89476961 -0.034315906 4294183680
3.5416749 0.8957659 -0.055899888 4294183680
3.5518198 0.89845043 -0.077611931 4294314240
3.5236127 0.89143312 -0.098293588 4294183680
3.5478475 0.89768279 -0.12030757 4294314240
3.5674245 0.9027555 -0.14229667 4294314240
3.5710263 0.9037863 -0.16363329 4294314240
3.5205812 0.89113694 -0.18204084 4294183680
3.5480981 0.89822066 -0.20414586 4294314240
3.5535982 0.89973181 -0.22495463 4294314240
3.5476727 0.89835012 -0.2447934 4294314240
3.5340731 0.89502454 -0.26372561 4294183680
3.5660141 0.90323299 -0.28586864 4294314240
3.5837183 0.90783715 -0.30683097 4294444800
3.5848935 0.90825468 -0.32614422 4294444800
3.5488505 0.89924163 -0.34152937 4294314240
3.5555584 0.90106022 -0.360497 4294314240
3.5615962 0.90270936 -0.37906295 4294314240
3.5868115 0.90922034 -0.39940423 4294444800
3.5542021 0.90107298 -0.41282991 4294314240
3.5219035 0.89300233 -0.42552406 4294314240
3.5705147 0.90544736 -0.44758761 4294444800
3.5811412 0.9082619 -0.46465462 4294444800
3.5774527 0.90744597 -0.47937265 4294444800
3.5606952 0.90331441 -0.49171448 4294444800
3.5388265 0.89788485 -0.50263941 4294314240
3.1122601 0.78975886 -0.45381436 4292878080
3.0761864 0.78070778 -0.45967034 4292747520
3.0468853 0.77337331 -0.46578285 4292616960
3.0157273 0.76556545 -0.47087619 4292486400
2.9889536 0.75886869 -0.47592977 4292486400
2.9772146 0.75598788 -0.48271364 4292355840
2.9413238 0.74697262 -0.48489389 4292225280
2.9398673 0.74670106 -0.49208984 4292225280
2.9059072 0.73817271 -0.49319297 4292225280
2.950804 0.74967629 -0.5071249 4292355840
2.9138486 0.74038494 -0.50642526 4292225280
2.9359498 0.74609888 -0.51536739 4292225280
2.9724567 0.75547558 -0.52633232 4292355840
2.9055526 0.73856854 -0.51833975 4292225280
2.9145484 0.74095261 -0.52320343 4292225280
2.9140916 0.74093395 -0.5257684 4292225280
2.9223254 0.7431252 -0.52929169 4292225280
2.9182503 0.74218661 -0.52996987 4292225280
2.9133239 0.74103111 -0.5298695 4292225280
2.8989563 0.73747355 -0.52742916 4292225280
2.9652088 0.7544269 -0.53902787 4292355840
2.9376857 0.74752259 -0.5329482 4292355840
2.9016702 0.73845518 -0.5247348 4292225280
2.9380138 0.74780256 -0.52898479 4292355840
2.8878665 0.73513538 -0.51706505 4292094720
2.9298396 0.74591804 -0.52103442 4292225280
2.9403419 0.74869025 -0.51873332 4292355840
2.9527636 0.75195187 -0.51613092 4292355840
2.9630435 0.75466889 -0.51251435 4292355840
2.9902728 0.76170409 -0.51115966 4292486400
3.0276246 0.77131993 -0.51080382 4292616960
3.0516858 0.77755183 -0.5074724 4292616960
3.0854075 0.78624719 -0.50501442 4292747520
3.2178538 0.82010585 -0.51767343 4293269760
3.4454157 0.87821782 -0.5439871 4294053120
3.5328884 0.90063226 -0.5466004 4294314240
3.5652068 0.90899038 -0.5396688 4294444800
3.5640247 0.90880829 -0.52694547 4294444800
3.5401678 0.90284336 -0.51036114 4294314240
3.5328634 0.90109873 -0.49569899 4294314240
3.5462792 0.90463924 -0.48335642 4294314240
3.5548968 0.90695655 -0.46972367 4294444800
3.5557826 0.90730143 -0.45449987 4294444800
3.5304306 0.90095073 -0.43552059 4294314240
3.5415208 0.90389937 -0.42061058 4294314240
3.5534539 0.90706402 -0.40522295 4294314240
3.5638855 0.90984607 -0.38910511 4294444800
3.5606003 0.90912652 -0.37102267 4294314240
3.5154521 0.89771652 -0.34841278 4294183680
3.5370171 0.90334177 -0.33214706 4294314240
3.5434115 0.90509343 -0.31394407 4294314240
3.5351477 0.90310097 -0.29410747 4294314240
3.5215454 0.89974385 -0.27362308 4294183680
3.5468252 0.90632147 -0.25579366 4294314240
3.5460758 0.90624869 -0.2356704 4294314240
3.5561531 0.90894312 -0.2159559 4294314240
3.5121193 0.89780569 -0.19291759 4294183680
3.5386829 0.90471464 -0.17364694 4294314240
3.5521832 0.90828508 -0.15331116 4294314240
3.5361266 0.90429777 -0.13154919 4294183680
3.5430303 0.90618187 -0.110553 4294314240
3.5503139 0.90816361 -0.089363508 4294314240
3.5544105 0.90933049 -0.06792821 4294314240
3.5166111 0.89977789 -0.045823608 4294183680
3.5599225 0.91097891 -0.024692046 4294314240
3.5763547 0.91530359 -0.0029828483 4294314240
3.5614276 0.9116025 0.018765239 4294314240
3.4509895 0.88344967 0.039225701 4293922560
3.5971556 0.92098844 0.062776975 4294444800
3.6010239 0.92209941 0.084690467 4294444800
3.5520494 0.90967762 0.1049977 4294314240
3.3269956 0.85215288 0.11833867 4293530880
3.6033559 0.92305845 0.14968461 4294444800
3.6022408 0.9228934 0.170986 4294444800
3.5497735 0.9095701 0.18934995 4294314240
3.2720761 0.83852434 0.19357096 4293269760
3.6047649 0.92390215 0.23398975 4294444800
3.6011431 0.92309439 0.25421682 4294444800
3.5447516 0.90875804 0.27010483 4294314240
3.2806375 0.84115773 0.26809499 4293400320
3.6308181 0.93106586 0.31643572 4294575360
3.6280923 0.93048829 0.33555993 4294575360
3.5653148 0.91450727 0.3484174 4294444800
3.3440592 0.85786694 0.34394014 4293661440
3.2058606 0.82252157 0.34579754 4293139200
3.6165826 0.92802083 0.40779707 4294575360
3.5986807 0.92354769 0.42293662 4294575360
3.5329094 0.90678674 0.43158793 4294314240
3.4300342 0.88049674 0.43445566 4293922560
3.2692578 0.83933461 0.42833826 4293400320
3.6151021 0.9282462 0.48887166 4294575360
3.6170967 0.9288795 0.50381851 4294575360
3.5700397 0.9169147 0.51118731 4294444800
3.5081141 0.9011274 0.51543188 4294314240
3.4510767 0.88659185 0.51937282 4294053120
3.3609319 0.86354589 0.51722854 4293792000
3.6268816 0.93199956 0.56984407 4294705920
3.6017714 0.92566764 0.57685614 4294575360
3.599375 0.92517227 0.58675945 4294575360
3.5888107 0.92257708 0.59462005 4294575360
3.5800488 0.92044455 0.60204256 4294575360
3.5846369 0.92174423 0.61100209 4294575360
3.5629289 0.91628164 0.61473614 4294444800
3.5761619 0.91980451 0.6237644 4294575360
3.5337594 0.90901679 0.62231642 4294444800
3.5328901 0.90891153 0.62738496 4294444800
3.5407219 0.91104501 0.63327539 4294444800
3.5400801 0.91099846 0.63691992 4294444800
3.5538666 0.91466528 0.64242673 4294444800
3.5439255 0.91222548 0.6428982 4294444800
3.5350637 0.91006279 0.64280266 4294444800
3.5387251 0.91112387 0.64422858 4294444800
3.5386963 0.91123503 0.64422888 4294444800
3.5254405 0.90793967 0.64106929 4294444800
3.5208912 0.90688598 0.63874692 4294314240
3.5769191 0.92143708 0.64663261 4294575360
3.554493 0.91577905 0.63956225 4294444800
3.5746117 0.9210822 0.63939691 4294575360
3.5742176 0.92110044 0.63479471 4294575360
3.5962532 0.92689961 0.6334033 4294575360
3.6018536 0.92846376 0.62833714 4294575360
3.6110344 0.9309513 0.62313753 4294705920
3.6097388 0.93073827 0.61539149 4294705920
3.6083663 0.93050522 0.6069243 4294705920
3.5989351 0.92819375 0.59642547 4294575360
3.5980155 0.92807716 0.58667386 4294575360
3.587152 0.92539519 0.57465786 4294575360
3.6029966 0.9296034 0.56624222 4294575360
3.6154916 0.93294841 0.55656189 4294705920
3.6128659 0.93239188 0.54388541 4294575360
3.5622051 0.92008811 0.44414952 4294444800
3.584548 0.9259792 0.43058038 4294444800
3.6012268 0.93040848 0.41566879 4294575360
3.6001263 0.9302448 0.39816812 4294575360
3.5658875 0.92151725 0.37673405 4294444800
3.568264 0.92225099 0.35890758 4294444800
3.5889697 0.92772287 0.34240818 4294444800
3.5779543 0.92499536 0.32245523 4294444800
3.549217 0.91768497 0.3007628 4294314240
3.5612144 0.92090642 0.28228068 4294314240
3.5766423 0.92501581 0.26360941 4294444800
3.5759289 0.9249512 0.24337821 4294444800
3.5493119 0.91818535 0.22127439 4294314240
3.5745182 0.92482591 0.2021665 4294444800
3.5909758 0.92920429 0.18210168 4294444800
3.5816963 0.92692322 0.16049233 4294444800
3.5487192 0.91850781 0.13789786 4294314240
3.5613797 0.92190415 0.11704762 4294314240
3.5667896 0.92342412 0.095723726 4294314240
3.5567727 0.92095 0.073910147 4294314240
3.5337362 0.91510367 0.051946655 4294183680
3.548506 0.91904747 0.030532578 4294314240
3.5567768 0.92130876 0.0088887792 4294314240
3.5154405 0.91071928 -0.012686937 4294183680
3.5415223 0.91759485 -0.03439936 4294314240
3.5393031 0.91713852 -0.055945843 4294314240
3.5556614 0.92149669 -0.077811874 4294314240
3.5270684 0.91420466 -0.098536894 4294183680
3.5561018 0.92184925 -0.12076756 4294314240
3.5659735 0.92452782 -0.14245124 4294314240
3.5705352 0.92583025 -0.16385518 4294314240
3.5249972 0.91414058 -0.18254147 4294183680
3.5466704 0.91988003 -0.20436864 4294314240
3.5618219 0.92392915 -0.22581215 4294314240
3.5510707 0.9212594 -0.24539407 4294314240
3.5384526 0.91810453 -0.26444709 4294314240
3.5645511 0.92499572 -0.28617856 4294314240
3.5822268 0.92970258 -0.30716184 4294444800
3.5843618 0.93037695 -0.32658347 4294444800
3.5435512 0.91990268 -0.34152937 4294314240
3.5608411 0.92451054 -0.36157259 4294444800
3.5755322 0.92844474 -0.38111544 4294444800
3.5814536 0.93010241 -0.39940423 4294444800
3.573911 0.92826349 -0.41574031 4294444800
3.5214474 0.91475511 -0.42610568 4294314240
3.588238 0.93222541 -0.45048255 4294575360
3.5853918 0.93160611 -0.46590248 4294444800
3.5721049 0.92827356 -0.47937265 4294444800
3.555372 0.92404443 -0.49171448 4294444800
3.4923215 0.90777475 -0.49677682 4294183680
3.008404 0.78208882 -0.43932757 4292486400
2.9657164 0.77109081 -0.44382674 4292355840
2.9642732 0.77081507 -0.45383266 4292355840
2.9380915 0.76410544 -0.45944145 4292225280
2.9069042 0.75609213 -0.46355867 4292225280
2.9115202 0.75739032 -0.47276965 4292225280
2.9222851 0.76028866 -0.48247731 4292225280
2.8758776 0.7483114 -0.48210055 4292094720
2.9111063 0.75757569 -0.49481612 4292225280
2.8559875 0.7433275 -0.49156567 4291964160
2.8732219 0.74790949 -0.50011319 4292094720
2.7976427 0.72832978 -0.49182591 4291833600
2.8284054 0.73643339 -0.50157648 4291964160
2.8554285 0.7435652 -0.510162 4291964160
2.864419 0.74600238 -0.51497597 4292094720
2.8687356 0.74722284 -0.51836187 4292094720
2.8721957 0.7482205 -0.52099293 4292094720
2.8633652 0.74601614 -0.52078295 4292094720
2.8679781 0.74731421 -0.52240515 4292094720
2.8402908 0.74019492 -0.51753151 4291964160
2.8308103 0.73781931 -0.51536906 4291964160
2.8080864 0.73199075 -0.51020163 4291833600
2.8792093 0.7506271 -0.52145499 4292094720
2.8471501 0.74236465 -0.51339495 4291964160
2.8968818 0.75542885 -0.51945847 4292225280
2.8611934 0.74621832 -0.50959116 4292094720
2.8984311 0.75602734 -0.51210785 4292225280
2.8858058 0.75283104 -0.50518513 4292094720
2.9002817 0.75670475 -0.50241262 4292225280
2.9176245 0.76132745 -0.49949089 4292225280
2.9415135 0.76765978 -0.49702176 4292355840
2.960732 0.77277464 -0.49308783 4292355840
3.0000062 0.78312624 -0.49177453 4292486400
3.0887382 0.80639267 -0.49764931 4292878080
3.3627698 0.87804824 -0.53173703 4293792000
3.5323656 0.92244971 -0.54734176 4294314240
3.5742097 0.93349695 -0.54184568 4294444800
3.5586693 0.92955762 -0.52694547 4294444800
3.5434716 0.92570674 -0.51160622 4294444800
3.5227599 0.92041421 -0.4950254 4294314240
3.5505402 0.92779171 -0.48466575 4294444800
3.5639474 0.93141478 -0.47162861 4294444800
3.5638783 0.93151629 -0.45622066 4294444800
3.5251215 0.92150444 -0.43552059 4294314240
3.5409999 0.9257741 -0.42118219 4294314240
3.5672579 0.93275881 -0.40740991 4294444800
3.564213 0.9320823 -0.38972718 4294444800
3.555243 0.92985588 -0.37102267 4294314240
3.5155163 0.9195835 -0.34894422 4294183680
3.5413287 0.92645437 -0.33305317 4294314240
3.5428975 0.92698371 -0.31437171 4294314240
3.5433264 0.92721486 -0.2952323 4294314240
3.5162435 0.92024589 -0.27362308 4294183680
3.5520163 0.92972732 -0.25655434 4294314240
3.5503895 0.92942071 -0.23631297 4294314240
3.5556257 0.93091077 -0.21624957 4294314240
3.5203531 0.92179412 -0.19366159 4294183680
3.5324695 0.92508531 -0.17360358 4294183680
3.5459402 0.92873204 -0.15327264 4294314240
3.554585 0.93111557 -0.13243544 4294314240
3.5376906 0.92680895 -0.110553 4294314240
3.5536661 0.93111348 -0.089582913 4294314240
3.5635598 0.93382549 -0.068205878 4294314240
3.5248508 0.92380011 -0.046000328 4294183680
3.559391 0.93297201 -0.024725642 4294314240
3.5709612 0.93612468 -0.0029828483 4294314240
3.5657289 0.93487269 0.018816283 4294314240
3.4496527 0.90455538 0.039269745 4293922560
3.6004331 0.94421333 0.062929116 4294444800
3.609129 0.94661498 0.085009351 4294444800
3.5515234 0.93162531 0.10514082 4294314240
3.3306746 0.87380475 0.1186486 4293530880
3.5979168 0.94403672 0.14968461 4294444800
3.6064651 0.9464007 0.17144533 4294444800
3.5492435 0.93150395 0.18960796 4294314240
3.2671351 0.85757393 0.19357096 4293269760
3.6041477 0.94615567 0.23430352 4294444800
3.6092134 0.94760668 0.25517195 4294575360
3.557724 0.93420756 0.27150345 4294314240
3.2756813 0.86025715 0.26809499 4293400320
3.6349697 0.95473528 0.31727692 4294575360
3.6274261 0.95287579 0.3360061 4294575360
3.5782208 0.94007039 0.35020792 4294444800
3.3390043 0.87733555 0.34394014 4293661440
3.2144811 0.84472454 0.34725234 4293139200
3.6245747 0.95261365 0.40931708 4294575360
3.6066921 0.94803488 0.42452011 4294575360
3.5458145 0.93215203 0.43382058 4294314240
3.4296455 0.90172786 0.43506452 4293922560
3.259515 0.85710633 0.42770877 4293400320
3.6230576 0.9528234 0.49068987 4294705920
3.6202493 0.95220643 0.50502181 4294705920
3.5876274 0.94374669 0.51448423 4294575360
3.5066342 0.92255872 0.51599538 4294314240
3.4554224 0.9092015 0.52081525 4294053120
3.3644521 0.88537812 0.51855534 4293792000
3.6099052 0.95009202 0.56803685 4294705920
3.6192524 0.95267367 0.58053499 4294705920
3.5986996 0.9473846 0.58753926 4294575360
3.6024711 0.94849849 0.59778887 4294705920
3.5879877 0.94480568 0.60429305 4294575360
3.5925634 0.94613123 0.61328238 4294575360
3.5766058 0.94204885 0.61803246 4294575360
3.5888586 0.94539672 0.62692916 4294575360
3.5369823 0.93185002 0.62382954 4294444800
3.5322998 0.93073499 0.62823242 4294444800
3.5448818 0.93416941 0.63498211 4294444800
3.5442386 0.93411899 0.63863641 4294444800
3.4801867 0.91735435 0.63006324 4294183680
3.5528364 0.93662369 0.64549369 4294444800
3.5430336 0.9341585 0.64523065 4294444800
3.5524018 0.93674791 0.64770103 4294444800
3.5428498 0.93434811 0.6459651 4294444800
3.5296135 0.93097597 0.64280355 4294444800
3.5155478 0.92738408 0.63874692 4294314240
3.5752995 0.94326645 0.64732242 4294575360
3.562433 0.93999153 0.64196545 4294575360
3.5739481 0.9431501 0.64025027 4294575360
3.5868955 0.9466874 0.63801515 4294575360
3.5946043 0.94884276 0.63407582 4294575360
3.6050596 0.95172375 0.62985307 4294705920
3.6065862 0.95224792 0.62331676 4294705920
3.6185641 0.95553207 0.61783469 4294705920
3.6162436 0.95504081 0.60917485 4294705920
3.6068308 0.95267618 0.59864366 4294705920
3.5925474 0.9490242 0.58667386 4294575360
3.5902982 0.9485507 0.57603741 4294575360
3.6061215 0.95285243 0.5675962 4294705920
3.6097851 0.95394176 0.55652958 4294705920
3.6073723 0.95342541 0.54388541 4294575360
3.5711162 0.94487941 0.44594729 4294444800
3.6020732 0.95319146 0.43335387 4294575360
3.6100905 0.95543438 0.41733658 4294575360
3.604192 0.95399445 0.39923567 4294575360
3.56424 0.94353932 0.3771449 4294444800
3.5812566 0.94816446 0.36077532 4294444800
3.597877 0.95268577 0.3437939 4294575360
3.5830288 0.94887453 0.32341826 4294444800
3.5520034 0.94077766 0.30147198 4294314240
3.569217 0.94545686 0.28336143 4294444800
3.5807688 0.94863719 0.26433194 4294444800
3.575356 0.94732344 0.24372712 4294444800
3.5621698 0.94394934 0.2224323 4294314240
3.5825164 0.94946152 0.20294651 4294444800
3.5709534 0.94651711 0.18138199 4294444800
3.5858264 0.95057994 0.16094291 4294444800
3.5480721 0.94069076 0.13810411 4294314240
3.5607135 0.94416207 0.11722626 4294314240
3.5612838 0.94443309 0.095744632 4294314240
3.569643 0.94676989 0.074314512 4294314240
3.541811 0.93950713 0.052169155 4294314240
3.5468929 0.94097447 0.030590435 4294314240
3.5609496 0.94482338 0.0089388108 4294314240
3.5148437 0.93270832 -0.012677744 4294183680
3.5399182 0.9394812 -0.034408987 4294314240
3.5425334 0.94029444 -0.056054439 4294314240
3.5555406 0.94386649 -0.077899352 4294314240
3.5216188 0.93497998 -0.098505907 4294183680
3.5457771 0.94151318 -0.12057111 4294314240
3.5797784 0.95066196 -0.14319064 4294444800
3.5732934 0.94905996 -0.16420138 4294444800
3.5378892 0.93977565 -0.18345803 4294314240
3.5420694 0.94100517 -0.20438404 4294314240
3.5574002 0.94519764 -0.22584474 4294314240
3.5667832 0.94781071 -0.24682455 4294444800
3.5378015 0.94022828 -0.26477069 4294314240
3.5821645 0.95213896 -0.2879999 4294444800
3.5815029 0.95208353 -0.3075369 4294444800
3.5884454 0.95404983 -0.32742313 4294444800
3.5393052 0.94110411 -0.34161001 4294314240
3.5649509 0.94804323 -0.36251178 4294444800
3.574724 0.95076245 -0.38158056 4294444800
3.5854456 0.9537347 -0.40042987 4294444800
3.5674927 0.94907922 -0.41559801 4294444800
3.5171063 0.93579298 -0.42620194 4294314240
3.5751295 0.9513514 -0.44949424 4294444800
3.5654602 0.94889832 -0.46399295 4294444800
3.5424991 0.94290668 -0.47609964 4294444800
3.5189319 0.9367522 -0.48739326 4294314240
3.4647851 0.92245471 -0.49358931 4294183680
2.9899726 0.79614252 -0.43728381 4292486400
2.9467783 0.78474027 -0.44164851 4292355840
2.9215434 0.77811843 -0.44795758 4292225280
2.9068027 0.7742902 -0.45522803 4292225280
2.8794808 0.76710927 -0.45987341 4292094720
2.8550127 0.76068693 -0.46429017 4291964160
2.8124352 0.74943727 -0.46503976 4291833600
2.7706053 0.73838401 -0.46515393 4291703040
2.8020022 0.74684572 -0.47699147 4291833600
2.8191528 0.75151187 -0.48596147 4291964160
2.7531288 0.73400426 -0.47993815 4291703040
2.7704418 0.73871326 -0.48778611 4291703040
2.7973528 0.74598294 -0.49682748 4291833600
2.8052969 0.74819589 -0.50197285 4291833600
2.721869 0.72603655 -0.49009922 4291572480
2.717634 0.7249983 -0.49181479 4291572480
2.7306223 0.7285552 -0.49607733 4291572480
2.7170589 0.7250278 -0.49493808 4291572480
2.7121563 0.72381079 -0.49478897 4291572480
2.7987695 0.74702007 -0.51075995 4291833600
2.7674177 0.73874503 -0.50461471 4291703040
2.7675624 0.73887682 -0.50362647 4291703040
2.7354479 0.73039502 -0.49619678 4291572480
2.8198807 0.75303447 -0.50927937 4291964160
2.7879543 0.74460256 -0.50071669 4291833600
2.8338923 0.75696701 -0.50552976 4291964160
2.8069015 0.74985182 -0.49672589 4291833600
2.8779526 0.76892966 -0.50461572 4292094720
2.8859692 0.77116871 -0.50073552 4292094720
2.8902073 0.77239847 -0.49559429 4292094720
2.9188175 0.78014272 -0.4939847 4292225280
2.9436247 0.78687227 -0.49103522 4292355840
2.9843771 0.7978664 -0.49001086 4292486400
3.0811853 0.82385159 -0.49724627 4292747520
3.3190176 0.8875553 -0.52568334 4293661440
3.4864275 0.93244058 -0.5411182 4294183680
3.5352669 0.94562155 -0.53683418 4294444800
3.5494134 0.949525 -0.52645481 4294444800
3.5277066 0.94383687 -0.51018786 4294314240
3.5246727 0.94314378 -0.49613354 4294314240
3.5507908 0.95025212 -0.48552683 4294444800
3.560216 0.95289427 -0.47194424 4294444800
3.5592 0.95274216 -0.4564105 4294444800
3.5318382 0.94553673 -0.43711188 4294314240
3.548907 0.95022589 -0.42286575 4294444800
3.5616882 0.95376801 -0.4074966 4294444800
3.5672929 0.95538896 -0.39076409 4294444800
3.5641069 0.95465571 -0.3726227 4294444800
3.5239103 0.94400758 -0.35041985 4294314240
3.5454171 0.94988829 -0.33405825 4294314240
3.5508366 0.95145988 -0.31567124 4294314240
3.5452423 0.95008022 -0.29595903 4294314240
3.5155659 0.94224572 -0.27410525 4294183680
3.5464666 0.95064718 -0.25666484 4294314240
3.5535173 0.95265681 -0.23700468 4294314240
3.5481293 0.95133179 -0.21624716 4294314240
3.5244973 0.94511425 -0.19431047 4294183680
3.5326543 0.94742054 -0.17400444 4294314240
3.5499737 0.95218498 -0.15381004 4294314240
3.5445848 0.95085895 -0.13239434 4294314240
3.5466433 0.95153058 -0.11113308 4294314240
3.5625958 0.95593047 -0.09007784 4294314240
3.5618536 0.95585126 -0.068410873 4294314240
3.5289998 0.94715357 -0.046257854 4294183680
3.5634866 0.9565295 -0.024926841 4294314240
3.5798678 0.96104723 -0.0031308711 4294444800
3.5736778 0.9595058 0.018750953 4294444800
3.4587481 0.92876452 0.039301582 4294053120
3.5948069 0.96542096 0.062789738 4294444800
3.6131444 0.97046739 0.085096389 4294575360
3.564316 0.95747244 0.10554538 4294314240
3.344774 0.89861012 0.11920634 4293661440
3.6066856 0.96909708 0.15014289 4294575360
3.598649 0.9670589 0.1712005 4294444800
3.5326355 0.94943815 0.18887793 4294314240
3.280349 0.88174361 0.19453011 4293400320
3.6120095 0.97101426 0.23504189 4294575360
3.6166499 0.9723835 0.25595829 4294575360
3.537266 0.9511593 0.27022916 4294314240
3.3032939 0.88835627 0.27065256 4293530880
3.6398714 0.97899479 0.31806514 4294705920
3.6301634 0.97650605 0.33665103 4294705920
3.577436 0.96244299 0.35054797 4294444800
3.3530045 0.90217674 0.34580171 4293661440
3.2277052 0.86857188 0.34911209 4293269760
3.6285088 0.97654992 0.41027632 4294705920
3.6049893 0.9703415 0.42486084 4294575360
3.5536969 0.95665503 0.43534702 4294444800
3.4377019 0.92554504 0.43665734 4294053120
3.2774088 0.88249922 0.43062636 4293400320
3.6403704 0.9803555 0.49369478 4294705920
3.6185119 0.97459096 0.50546229 4294705920
3.586798 0.96617013 0.51506788 4294575360
3.5107079 0.94579214 0.51730704 4294314240
3.4500158 0.92955786 0.52072358 4294053120
3.3821073 0.91137481 0.52200764 4293922560
3.6176188 0.97495985 0.5700556 4294705920
3.6088154 0.97270894 0.57968587 4294705920
3.6064165 0.97218388 0.58964473 4294705920
3.6101754 0.97331882 0.5999341 4294705920
3.5966611 0.96979654 0.60663664 4294705920
3.601223 0.97114795 0.61566293 4294705920
3.5709999 0.96311796 0.61797571 4294575360
3.587992 0.96782178 0.62771046 4294575360
3.5409529 0.95525283 0.62546551 4294444800
3.5400796 0.95513654 0.63056576 4294444800
3.5488324 0.9576177 0.63665491 4294444800
3.4752376 0.93787599 0.62716019 4294183680
3.5562196 0.95985073 0.64481896 4294575360
3.4743261 0.93786424 0.63220716 4294183680
3.4692969 0.93662357 0.63278711 4294183680
3.5468187 0.95767206 0.64769781 4294444800
3.5467875 0.95778322 0.64770448 4294444800
3.5278659 0.95279247 0.64350688 4294444800
3.5242798 0.95194274 0.64135849 4294444800
3.5744278 0.96560872 0.6482076 4294575360
3.5663357 0.96354288 0.64371163 4294575360
3.5816374 0.96779776 0.64267629 4294575360
3.5764887 0.9665271 0.63721097 4294575360
3.6079729 0.97515714 0.63748896 4294705920
3.6031849 0.9739846 0.63057673 4294705920
3.6151819 0.9773494 0.6258536 4294705920
3.6080952 0.97555512 0.61709166 4294705920
3.6141014 0.97730094 0.60985434 4294705920
3.6106706 0.97649491 0.60031337 4294705920
3.5954583 0.97250199 0.58816922 4294575360
3.5893991 0.97098416 0.57690227 4294575360
3.6195128 0.9792524 0.57071114 4294705920
3.6319797 0.98274773 0.56095052 4294705920
3.6155243 0.9784171 0.5460965 4294705920
3.5743077 0.96751451 0.44702595 4294444800
3.6013865 0.97496581 0.43392971 4294575360
3.6132307 0.97829407 0.41833246 4294575360
3.6035058 0.97578257 0.39976239 4294575360
3.5780196 0.96900189 0.37917241 4294444800
3.5852017 0.97106785 0.3617135 4294444800
3.5962446 0.9741801 0.34414971 4294575360
3.5910356 0.97289014 0.32462084 4294575360
3.5566268 0.96368802 0.30230808 4294444800
3.5734057 0.96835482 0.28410751 4294444800
3.5887938 0.97264588 0.26530677 4294444800
3.5891721 0.97286946 0.24501801 4294444800
3.5567436 0.96419942 0.22240584 4294314240
3.5866957 0.97244006 0.20346402 4294444800
3.5921082 0.97402871 0.18270306 4294444800
3.5986824 0.97593278 0.1617319 4294444800
3.5474868 0.96216851 0.13825548 4294314240
3.5687907 0.96806705 0.11763213 4294444800
3.5693617 0.9683423 0.096066341 4294444800
3.5603404 0.96601504 0.074189633 4294314240
3.5499194 0.96330726 0.052321699 4294314240
3.5559585 0.96506602 0.030666189 4294314240
3.5651679 0.96768558 0.008911253 4294314240
3.5181661 0.95504671 -0.012762577 4294183680
3.53649 0.96014023 -0.034484208 4294314240
3.5536463 0.96491796 -0.056374725 4294314240
3.5575793 0.96610588 -0.078123875 4294314240
3.526428 0.95776528 -0.098853439 4294183680
3.5586872 0.96664685 -0.12125988 4294314240
3.5694883 0.96970117 -0.14306419 4294444800
3.572654 0.97068167 -0.16449171 4294444800
3.5322711 0.95982885 -0.18351637 4294314240
3.5511076 0.96506715 -0.20529042 4294314240
3.5528491 0.96566027 -0.22597374 4294314240
3.5488961 0.96470559 -0.24603654 4294314240
3.5365677 0.96147364 -0.26515827 4294314240
3.5709441 0.97093993 -0.28761381 4294444800
3.5794303 0.97336811 -0.30790704 4294444800
3.569783 0.97086513 -0.32629699 4294444800
3.5301924 0.96021682 -0.34132984 4294314240
3.5463634 0.96473503 -0.36125222 4294314240
3.5592134 0.96835083 -0.38058555 4294444800
3.5555682 0.96747905 -0.39778 4294444800
3.5289428 0.96035326 -0.41181475 4294314240
3.4825161 0.94783634 -0.42273331 4294183680
3.522002 0.95870209 -0.44356981 4294314240
3.5115299 0.95597005 -0.45775065 4294314240
3.4883561 0.94977897 -0.46961573 4294183680
3.4578738 0.94159621 -0.4797428 4294053120
3.4274807 0.93343568 -0.48909378 4294053120
2.9929464 0.81519616 -0.43844983 4292486400
2.9336643 0.79914838 -0.44041455 4292225280
2.921834 0.79602426 -0.44874445 4292225280
2.9061446 0.79184794 -0.45587611 4292225280
2.8829043 0.78561288 -0.46117705 4292094720
2.8690422 0.78193218 -0.46733561 4292094720
2.7900178 0.76048899 -0.46208537 4291833600
2.8117776 0.76651508 -0.47283298 4291833600
2.7472465 0.74901605 -0.4684267 4291703040
2.7605813 0.75274479 -0.47663146 4291703040
2.7730322 0.75623345 -0.48418307 4291703040
2.6929555 0.7344867 -0.47490036 4291441920
2.7198439 0.74191207 -0.48382932 4291572480
2.7420518 0.74806249 -0.49143234 4291703040
2.7462814 0.749309 -0.49527371 4291703040
2.7544022 0.75161779 -0.49925011 4291703040
2.7540631 0.75161821 -0.50111622 4291703040
2.7633209 0.75423801 -0.50414616 4291703040
2.7489226 0.75040084 -0.5022704 4291703040
2.7308221 0.745552 -0.49912488 4291572480
2.7175684 0.74202526 -0.49628147 4291572480
2.6901579 0.73463172 -0.49028358 4291441920
2.7743535 0.75771761 -0.504013 4291833600
2.7566357 0.75297165 -0.49860308 4291703040
2.7199969 0.7430557 -0.48923871 4291572480
2.8019769 0.76554573 -0.5005753 4291833600
2.8438418 0.77707994 -0.50400162 4291964160
2.8543696 0.78005308 -0.50120968 4292094720
2.8801222 0.78718805 -0.50044298 4292094720
2.8810019 0.78752577 -0.49472356 4292094720
2.9151969 0.79697144 -0.49407253 4292225280
2.9434965 0.80480748 -0.49170449 4292355840
2.9731438 0.81301403 -0.48884639 4292486400
3.0628483 0.83764738 -0.49496827 4292747520
3.2620413 0.89223415 -0.51736325 4293400320
3.4091563 0.93258816 -0.52983767 4293922560
3.4628365 0.94738954 -0.52653468 4294183680
3.5034447 0.95861775 -0.52031803 4294314240
3.4808116 0.95254236 -0.5040561 4294183680
3.4816558 0.95289093 -0.49070153 4294183680
3.507652 0.96012425 -0.48022735 4294314240
3.5202067 0.96367961 -0.46721256 4294314240
3.5289998 0.96620601 -0.45308101 4294314240
3.4977291 0.95776248 -0.43339816 4294183680
3.5210783 0.964275 -0.42002943 4294314240
3.5450308 0.9709543 -0.40604126 4294444800
3.556375 0.97418153 -0.38998696 4294444800
3.5417342 0.9702906 -0.37066725 4294314240
3.5164564 0.96348429 -0.35002571 4294314240
3.5385747 0.96966404 -0.33372843 4294314240
3.5492678 0.97271413 -0.31581259 4294314240
3.5441911 0.97144252 -0.29611641 4294314240
3.5337832 0.96870917 -0.27573454 4294314240
3.5496745 0.9731853 -0.25707087 4294314240
3.5576785 0.97549981 -0.23742011 4294444800
3.5585406 0.97585642 -0.21698308 4294444800
3.4127657 0.93599594 -0.18821259 4293922560
3.532675 0.96900201 -0.17403311 4294314240
3.5413518 0.97150165 -0.15342748 4294314240
3.5387504 0.97090751 -0.1321307 4294314240
3.5411801 0.97169375 -0.11087939 4294314240
3.5618427 0.97748387 -0.089938909 4294314240
3.5708256 0.9800697 -0.068426102 4294444800
3.5370572 0.97092092 -0.046171464 4294314240
3.5723696 0.98073488 -0.024758482 4294444800
3.5830216 0.98378026 -0.002865993 4294444800
3.5729814 0.98114425 0.019050257 4294444800
3.4582267 0.94974935 0.039623488 4294053120
3.6037142 0.98982698 0.063322626 4294575360
3.6210554 0.99471241 0.085697278 4294575360
3.5684423 0.98038006 0.10611059 4294444800
3.3347805 0.91629738 0.11929595 4293530880
3.6098583 0.99200243 0.15079133 4294575360
3.6075251 0.99148321 0.17217202 4294575360
3.5271633 0.96951592 0.18915422 4294314240
3.2800786 0.90171033 0.19507214 4293400320
3.6295056 0.9978922 0.2368293 4294575360
3.6076052 0.99199277 0.2559936 4294575360
3.5317783 0.97126186 0.27050018 4294314240
3.2885556 0.90448517 0.27011397 4293400320
3.6390245 1.0010011 0.31875962 4294705920
3.6283674 0.99819231 0.33727786 4294705920
3.5901165 0.98779052 0.35260147 4294575360
3.3564291 0.92360681 0.34693643 4293661440
3.2370727 0.89087224 0.35090056 4293269760
3.631494 0.99954331 0.41150674 4294705920
3.6127951 0.9945187 0.426691 4294575360
3.5529571 0.97816676 0.43617201 4294444800
3.4457517 0.94876844 0.4385865 4294053120
3.2770922 0.90243977 0.43146375 4293530880
3.6308823 0.9999885 0.49339923 4294705920
3.6262572 0.99883729 0.50755012 4294705920
3.6041346 0.9928655 0.51857191 4294705920
3.5147884 0.96837127 0.51891059 4294314240
3.4580019 0.95284271 0.52292657 4294183680
3.3863783 0.93322152 0.52365392 4293922560
3.6167533 0.99683076 0.57098281 4294705920
3.621299 0.99820602 0.58276397 4294705920
3.6103263 0.99530339 0.59136015 4294705920
3.6045573 0.99383485 0.60008007 4294705920
3.6043851 0.9939093 0.60902274 4294705920
3.5908644 0.99030232 0.61497355 4294705920
3.5835102 0.98839527 0.62122089 4294575360
3.5364263 0.97552824 0.61975461 4294444800
3.5535014 0.98035854 0.62875068 4294575360
3.5440757 0.97787797 0.63234001 4294444800
3.5613625 0.98276812 0.63996559 4294575360
3.5559676 0.9813996 0.64278412 4294575360
3.483566 0.96153557 0.63267136 4294314240
3.486968 0.96259242 0.6355257 4294314240
3.5547576 0.98142624 0.64940238 4294575360
3.4865408 0.96271032 0.63768655 4294314240
3.5545723 0.98161548 0.65012878 4294575360
3.5413778 0.97809148 0.64695603 4294444800
3.5321038 0.97564954 0.64374858 4294444800
3.5869243 0.99091351 0.65143782 4294705920
3.5693526 0.98617989 0.64519709 4294575360
3.5760858 0.98816115 0.6426031 4294575360
3.5937448 0.99316227 0.6411919 4294705920
3.6109347 0.99803495 0.63890076 4294705920
3.6118603 0.99841297 0.63296008 4294705920
3.6181402 1.0002712 0.62720758 4294705920
3.6158233 0.99975288 0.6192289 4294705920
3.6097071 0.99818391 0.60990012 4294705920
3.6184063 1.0007119 0.60236073 4294705920
3.6079838 0.99795145 0.59094834 4294705920
3.6019425 0.99640226 0.57961738 4294705920
3.6224899 1.0022088 0.57185268 4294705920
3.6261537 1.003345 0.56069171 4294705920
3.6232851 1.0026739 0.54787654 4294705920
3.5781097 0.99121875 0.44822448 4294575360
3.5905802 0.99479485 0.43332765 4294575360
3.6169779 1.0022308 0.41944495 4294705920
3.6111057 1.0007257 0.40125585 4294575360
3.5808728 0.99246871 0.38009208 4294575360
3.5842102 0.99351496 0.36220303 4294575360
3.6096301 1.0006833 0.34599531 4294575360
3.5900376 0.99537313 0.32506266 4294575360
3.5691311 0.9896974 0.30386996 4294444800
3.5676343 0.98940307 0.28411707 4294444800
3.5878029 0.99511772 0.26567346 4294444800
3.5871007 0.99504435 0.24528493 4294444800
3.5596538 0.98755109 0.22296129 4294444800
3.5895593 0.99596924 0.2039707 4294444800
3.597285 0.99823451 0.18327853 4294575360
3.5880527 0.995794 0.16153248 4294444800
3.5600474 0.98814207 0.13898805 4294444800
3.5726521 0.99176157 0.11796985 4294444800
3.577076 0.99311066 0.09645094 4294444800
3.5584369 0.9880563 0.074292287 4294314240
3.549479 0.98568916 0.052423362 4294314240
3.5645761 0.99000227 0.030815048 4294444800
3.5543725 0.98728859 0.0089245383 4294314240
3.4988194 0.97197616 -0.012686334 4294183680
3.3960028 0.94352853 -0.033141047 4293792000
3.3860919 0.94088954 -0.053775799 4293792000
3.3808827 0.93955648 -0.074335091 4293792000
3.5230193 0.97917581 -0.098886855 4294314240
3.5428593 0.98480999 -0.120884 4294314240
3.5498736 0.98687994 -0.14247546 4294314240
3.5159342 0.97756356 -0.16210891 4294183680
3.5000494 0.97326547 -0.18210275 4294183680
3.5124273 0.97682631 -0.20334831 4294183680
3.4978027 0.9728775 -0.2227976 4294183680
3.47244 0.96594071 -0.24109036 4294053120
3.4673073 0.96463025 -0.26035047 4294053120
3.5038323 0.97491038 -0.2826288 4294183680
3.5071239 0.97594494 -0.30213872 4294183680
3.4954793 0.9728229 -0.31998563 4294183680
3.3893702 0.94340646 -0.32820863 4293792000
3.4757099 0.96755612 -0.35459149 4294183680
3.4844513 0.9701075 -0.37315768 4294183680
3.4782228 0.9684912 -0.38972041 4294183680
3.4695191 0.96618515 -0.40549952 4294183680
3.4333096 0.95621783 -0.41739953 4294053120
3.4848714 0.97069633 -0.43956858 4294183680
3.4738834 0.96775329 -0.45354152 4294183680
3.456274 0.96296471 -0.46601605 4294183680
3.4291825 0.95553273 -0.47649953 4294053120
3.3781493 0.94142675 -0.48280317 4293922560
2.9601479 0.8250379 -0.4343203 4292355840
2.9151125 0.81258452 -0.4383125 4292225280
2.8936701 0.80670547 -0.44511423 4292225280
2.8847668 0.80432105 -0.45323223 4292094720
2.8686924 0.79993641 -0.45962477 4292094720
2.8450856 0.79344988 -0.46416333 4291964160
2.8281484 0.78882217 -0.46914002 4291964160
2.8028193 0.7818523 -0.4720723 4291833600
2.7738633 0.77386892 -0.47371516 4291703040
2.7057424 0.75495577 -0.46790582 4291572480
2.7276864 0.76117092 -0.47702438 4291572480
2.740201 0.76475596 -0.48400384 4291703040
2.6603653 0.74256492 -0.47400647 4291441920
2.6740069 0.74646312 -0.48000646 4291441920
2.6867809 0.7501201 -0.48532286 4291441920
2.6863577 0.75009286 -0.4877021 4291441920
2.6993072 0.75380009 -0.49194741 4291572480
2.6952736 0.75276494 -0.49252883 4291572480
2.6903863 0.75149107 -0.49237421 4291441920
2.6723154 0.74653393 -0.48922771 4291441920
2.6533904 0.74133694 -0.48535359 4291311360
2.7373455 0.76488602 -0.49970165 4291703040
2.7195594 0.76000828 -0.49487126 4291572480
2.6923757 0.75250268 -0.48778361 4291441920
2.7513385 0.76907563 -0.49569514 4291703040
2.7977719 0.78214985 -0.50065416 4291833600
2.8092778 0.78546154 -0.49870554 4291964160
2.8390048 0.79386926 -0.49934524 4291964160
2.8573675 0.79910082 -0.49732241 4292094720
2.8682337 0.80223686 -0.49336073 4292094720
2.8881381 0.80790192 -0.49031439 4292225280
2.9171646 0.81612033 -0.48813337 4292225280
2.9465413 0.82443869 -0.4852986 4292355840
3.0445724 0.85197085 -0.49285764 4292747520
3.2434893 0.90774411 -0.51530617 4293400320
3.4049306 0.95304149 -0.53009611 4293922560
3.4582036 0.96806985 -0.52674425 4294183680
3.4699287 0.97146964 -0.51624095 4294183680
3.4497101 0.96592593 -0.50043035 4294053120
3.4362314 0.96226829 -0.48515579 4294053120
3.4579322 0.96846247 -0.47426277 4294183680
3.4592085 0.9689371 -0.4599393 4294183680
3.4608207 0.96950591 -0.44512948 4294183680
3.4237518 0.95923752 -0.42500332 4294053120
3.4464483 0.96571326 -0.41188079 4294053120
3.4612911 0.9699896 -0.39718348 4294053120
3.4761584 0.97427374 -0.38190278 4294183680
3.4617076 0.97034085 -0.36297607 4294053120
3.4355488 0.96312475 -0.34262553 4294053120
3.4609857 0.97037303 -0.32704246 4294053120
3.4664512 0.97202289 -0.30904889 4294053120
3.42327 0.9600305 -0.28658363 4293922560
3.4479988 0.96708238 -0.2695868 4294053120
3.4888952 0.97867113 -0.25319222 4294183680
3.5006156 0.98207736 -0.2341069 4294183680
3.456197 0.96973312 -0.21120112 4294053120
3.3404174 0.93736118 -0.18463616 4293661440
3.3982165 0.95369542 -0.16779937 4293792000
3.3676012 0.94521749 -0.14625584 4293661440
3.4231703 0.96093065 -0.12814552 4293922560
3.5226488 0.98897499 -0.1106063 4294314240
3.5637562 1.0006366 -0.090264417 4294444800
3.5720212 1.0030783 -0.068692937 4294444800
3.5323818 0.99206668 -0.046317849 4294314240
3.5684474 1.0023166 -0.02490646 4294444800
3.5791297 1.0054384 -0.0030038937 4294444800
3.5797486 1.0057336 0.018980138 4294444800
3.4708598 0.97525889 0.039699163 4294053120
3.606482 1.0134889 0.063334815 4294575360
3.6199439 1.0173947 0.08566989 4294575360
3.5664539 1.0024821 0.1060854 4294444800
3.3427949 0.93972784 0.11964726 4293661440
3.6182981 1.0173 0.15124924 4294575360
3.6064322 1.0140861 0.17226014 4294575360
3.5310073 0.99299723 0.1895321 4294314240
3.2881682 0.92481703 0.19574504 4293400320
3.6139612 1.0165707 0.23606065 4294575360
3.614738 1.0169119 0.25678009 4294575360
3.5346413 0.99449849 0.27102718 4294314240
3.3014088 0.9289887 0.27148825 4293530880
3.6378675 1.0237887 0.31904322 4294705920
3.645442 1.0260439 0.33928442 4294705920
3.5976596 1.0127171 0.35378897 4294575360
3.3653054 0.94742507 0.34830204 4293792000
3.2365632 0.91129035 0.35130501 4293269760
3.6351206 1.0236319 0.41246572 4294705920
3.611665 1.0171493 0.42713296 4294705920
3.5567014 1.0017906 0.43722829 4294444800
3.4496658 0.97175968 0.43969184 4294053120
3.271728 0.92174613 0.43135974 4293530880
3.6335275 1.0237994 0.49445617 4294705920
3.6307161 1.0231303 0.50889909 4294705920
3.5934658 1.012755 0.5177812 4294575360
3.5176082 0.99149525 0.5200811 4294314240
3.4618618 0.97589964 0.52427697 4294183680
3.3855903 0.95451343 0.52430493 4293922560
3.6289058 1.0232356 0.57375365 4294836480
3.6201196 1.0208808 0.5834474 4294705920
3.6129642 1.0189855 0.5926857 4294705920
3.6167028 1.0201626 0.60301751 4294705920
3.598474 1.0151429 0.60895485 4294705920
3.5935202 1.0138673 0.616377 4294705920
3.59092 1.0132555 0.62347132 4294705920
3.5945623 1.0144051 0.63092673 4294705920
3.5476677 1.0012915 0.6287052 4294575360
3.556277 1.003842 0.63552076 4294575360
3.5374959 0.99866056 0.63668883 4294444800
3.4821494 0.983154 0.630449 4294314240
3.4816327 0.98312622 0.63333958 4294314240
3.5539324 1.0036625 0.6487813 4294575360
3.5583894 1.0050418 0.6511271 4294575360
3.5582323 1.0051181 0.65186799 4294575360
3.5487235 1.0025525 0.65013206 4294575360
3.5393398 1.0000216 0.64765948 4294575360
3.5357664 0.99913186 0.64549518 4294444800
3.5810165 1.0120401 0.65146101 4294705920
3.5776923 1.011222 0.6478017 4294705920
3.5882077 1.0143158 0.64588249 4294705920
3.5925622 1.0156687 0.64208305 4294705920
3.614466 1.0219839 0.64063281 4294705920
3.6059027 1.0196849 0.63301784 4294705920
3.6169157 1.0229219 0.62809646 4294705920
3.6288433 1.0264183 0.62255812 4294836480
3.6312897 1.0272335 0.61464041 4294836480
3.612431 1.0220213 0.60244638 4294705920
3.6020243 1.0191993 0.59104061 4294705920
