# .PCD v0.7 - Point Cloud Data file format
VERSION 0.7
FIELDS x y z rgba
SIZE 4 4 4 4
TYPE F F F U
COUNT 1 1 1 1
WIDTH 1111
HEIGHT 1
VIEWPOINT 0 0 0 1 0 0 0
POINTS 1111
DATA ascii
2.701889 0.88843578 -0.47375506 4291703040
2.6837122 0.88255227 -0.47587964 4291572480
2.6636848 0.87605894 -0.4770512 4291572480
2.6428998 0.86931491 -0.47746336 4291441920
2.5885966 0.85154337 -0.47115737 4291311360
2.6012001 0.85578001 -0.47641999 4291311360
2.6007862 0.85573435 -0.47875559 4291311360
2.5343175 0.83395255 -0.4683241 4291050240
2.5247338 0.83088672 -0.46780425 4291050240
2.6047599 0.85731399 -0.48335791 4291311360
2.5916119 0.8530767 -0.48107684 4291311360
2.6406488 0.86931008 -0.48976707 4291441920
2.6682072 0.87847531 -0.49388206 4291572480
2.6765904 0.88132852 -0.49385422 4291572480
2.6979563 0.88845778 -0.49562174 4291703040
2.7044582 0.89069301 -0.49405515 4291703040
2.6983297 0.88876861 -0.48960486 4291703040
2.7055559 0.89124298 -0.48700333 4291703040
2.7146604 0.8943367 -0.48414662 4291703040
2.7204738 0.89634657 -0.4801133 4291703040
2.7158 0.89490128 -0.47366989 4291703040
2.706336 0.891877 -0.46587247 4291703040
2.6336648 0.86801982 -0.44685578 4291441920
2.6759508 0.88204986 -0.44689408 4291572480
2.7659023 0.91179615 -0.45400712 4291833600
2.8350308 0.9346835 -0.45671159 4292094720
2.8968425 0.95516312 -0.45730215 4292355840
2.9940851 0.98733085 -0.46243009 4292616960
3.0997453 1.0222814 -0.46761814 4293008640
3.3138137 1.0929955 -0.48744228 4293792000
3.3785009 1.114449 -0.48367941 4294053120
3.4084013 1.1244308 -0.47401133 4294183680
3.4148359 1.1266726 -0.46039408 4294183680
3.4180405 1.127849 -0.44578072 4294183680
3.3656371 1.1106746 -0.4236379 4293922560
3.3961151 1.1208508 -0.41154781 4294053120
3.4024625 1.1230643 -0.39589974 4294053120
3.4022386 1.1231089 -0.37901598 4294053120
3.3784595 1.1153768 -0.35920841 4293922560
3.3474331 1.1052504 -0.33851382 4293922560
3.363625 1.1107138 -0.32229492 4293922560
3.3773243 1.1153551 -0.30532128 4293922560
3.3518696 1.1070656 -0.28453797 4293922560
3.3678133 1.1124488 -0.26700732 4293922560
3.3760543 1.1152886 -0.24843688 4293922560
3.3817868 1.1173002 -0.22933005 4293922560
3.3747919 1.1151067 -0.20911747 4293922560
3.3231699 1.0981655 -0.18625797 4293792000
3.3751094 1.1154469 -0.1689951 4293922560
3.3707957 1.1141387 -0.14844742 4293922560
3.3697686 1.1139168 -0.12791555 4293922560
3.3687325 1.1136914 -0.10725709 4293922560
3.3815303 1.1180403 -0.086850353 4293922560
3.3859065 1.1196052 -0.066027276 4293922560
3.2503958 1.0749097 -0.043218341 4293530880
2.3007286 0.76093382 -0.016283577 4290136320
2.1548698 0.71276814 -0.0018339208 4289614080
2.5979939 0.85943127 0.013968124 4291180800
3.1303627 1.035651 0.036307197 4293008640
3.3837905 1.1196132 0.060258269 4293922560
3.387383 1.1209199 0.081291631 4293922560
3.357641 1.111195 0.1012766 4293922560
3.1371047 1.0383189 0.11386193 4293139200
3.3594968 1.1120434 0.14240339 4293922560
3.3743968 1.1170931 0.16344102 4293922560
3.3085961 1.0954251 0.1800887 4293661440
3.0966561 1.025363 0.18693428 4293008640
3.3431294 1.1070917 0.22143854 4293792000
3.3392274 1.1059159 0.24054211 4293792000
3.23631 1.0719436 0.25163954 4293400320
3.021301 1.0008328 0.25194612 4292747520
2.8270202 0.93657416 0.25141674 4291964160
2.7247894 0.90280068 0.25716388 4291703040
2.66627 0.88350451 0.2658841 4291441920
2.7214448 0.90188235 0.28562471 4291703040
2.8147795 0.9329114 0.30982038 4291964160
2.515599 0.83384079 0.28945196 4290919680
2.5170715 0.83441657 0.30186856 4290919680
2.5511093 0.84578919 0.3180221 4291050240
2.5822592 0.85620666 0.33376384 4291180800
2.6225917 0.86967123 0.3506403 4291311360
2.4584565 0.81532848 0.33925894 4290789120
2.4605992 0.81612492 0.34974411 4290789120
2.4851761 0.82436317 0.36312881 4290789120
2.4853287 0.82450044 0.37263095 4290919680
2.5150843 0.83445954 0.38625646 4290919680
2.5244565 0.83765709 0.39645168 4291050240
2.4056432 0.79831672 0.38570431 4290528000
2.4130659 0.8008641 0.39438662 4290658560
2.4114535 0.80041307 0.40115717 4290658560
2.4227378 0.80424303 0.40963691 4290658560
2.4274313 0.80588579 0.41657183 4290658560
2.4490223 0.8131392 0.42598665 4290789120
2.4706631 0.82041073 0.43501264 4290789120
2.4783225 0.82304054 0.44113246 4290919680
2.4869859 0.82600439 0.4469474 4290919680
2.5041387 0.83178872 0.45380804 4290919680
2.481616 0.82439393 0.45294574 4290919680
2.4905093 0.82743526 0.45726898 4290919680
2.4985487 0.8301934 0.4609175 4290919680
2.4898479 0.82738918 0.46093991 4290919680
2.4896464 0.82740915 0.46199051 4290919680
2.4848599 0.82590503 0.46164805 4290919680
2.4717505 0.82163399 0.45921752 4290919680
2.467139 0.82018721 0.45782888 4290789120
2.4668262 0.82016921 0.45670286 4290789120
2.4530394 0.81567097 0.45255673 4290789120
2.4355943 0.80995524 0.44723025 4290658560
2.4229009 0.80581862 0.44228214 4290658560
2.4009311 0.79859561 0.43516615 4290658560
2.3921094 0.79574478 0.42996714 4290528000
2.3804698 0.79195589 0.42379367 4290528000
2.3788321 0.79149407 0.41893077 4290528000
2.3687625 0.78822631 0.41212067 4290528000
2.3801198 0.79208857 0.40855539 4290528000
2.3751295 0.79051071 0.40169707 4290528000
2.3756564 0.79076898 0.3953189 4290528000
2.3878751 0.79491949 0.39039338 4290528000
2.4001739 0.79909748 0.38495803 4290528000
2.4028368 0.80006784 0.37748846 4290528000
2.4045718 0.80072951 0.36942613 4290528000
2.4531255 0.8174507 0.31215549 4290658560
2.4945674 0.83134741 0.30581376 4290919680
2.5471613 0.84896392 0.3000519 4291050240
2.5936999 0.86456567 0.29276049 4291180800
2.6292417 0.87650466 0.28349328 4291311360
2.7081206 0.90289491 0.27799675 4291572480
2.80529 0.9353894 0.27314872 4291964160
2.9245887 0.97527021 0.26899707 4292355840
3.0609305 1.0208433 0.26472449 4292878080
3.1346867 1.0455511 0.25358719 4293139200
3.2499561 1.0841117 0.24446352 4293530880
3.3173082 1.1066947 0.23042566 4293792000
3.2731667 1.0920827 0.20826118 4293530880
3.2967279 1.100059 0.19029571 4293661440
3.3352537 1.1130308 0.17261782 4293792000
3.3479621 1.1173887 0.15310957 4293792000
2.5989745 0.8675034 0.10307308 4291180800
2.1287861 0.71063507 0.071405992 4289483520
2.3301728 0.77794367 0.06382481 4290266880
3.2323837 1.0792657 0.068553753 4293400320
3.3575654 1.1211801 0.050374337 4293922560
3.3715472 1.1259667 0.029608034 4293922560
3.3668344 1.1245103 0.0085875783 4293922560
3.3438747 1.1169586 -0.012316619 4293792000
3.3524723 1.1199476 -0.033234648 4293792000
3.3672521 1.1250026 -0.054324061 4293922560
3.3747494 1.1276253 -0.07537625 4293922560
3.3567541 1.1217297 -0.095713474 4293922560
3.3752012 1.1280121 -0.11698908 4293922560
3.394366 1.1345356 -0.13839404 4294053120
3.3908544 1.1334803 -0.15882088 4294053120
3.3511534 1.1203263 -0.17712086 4293922560
3.3700557 1.1267632 -0.19820023 4293922560
3.3738616 1.1281534 -0.21831173 4293922560
3.3742695 1.1284078 -0.23799083 4293922560
3.3621907 1.1244859 -0.25646287 4293922560
3.3960154 1.1359172 -0.2782785 4294053120
3.4087234 1.1402869 -0.2983216 4294053120
3.4148114 1.1424427 -0.31756225 4294183680
3.3776703 1.1301349 -0.33226717 4294053120
3.3958406 1.1363332 -0.35194278 4294053120
3.4021678 1.1385692 -0.37013012 4294053120
3.4054182 1.139776 -0.38762134 4294053120
3.4011505 1.1384665 -0.40382126 4294053120
3.3283339 1.1142089 -0.41106352 4293792000
3.0893056 1.0342985 -0.3958627 4293008640
2.9893365 1.0009334 -0.39647993 4292616960
2.8983238 0.97056043 -0.39699495 4292355840
2.8247211 0.94601178 -0.39874342 4292094720
2.8460829 0.95326543 -0.41322416 4292094720
2.6643612 0.89249277 -0.39713436 4291441920
2.6852634 0.89958829 -0.41016993 4291572480
2.7190404 0.91099894 -0.42490053 4291703040
2.7265549 0.91361183 -0.43518531 4291703040
2.7332897 0.91596407 -0.44489324 4291833600
2.7180407 0.91094893 -0.4504877 4291703040
2.7150447 0.91003966 -0.45754048 4291703040
2.7092927 0.9082064 -0.46357754 4291703040
2.7064059 0.90733325 -0.46954688 4291703040
2.6975079 0.9044444 -0.47390276 4291703040
2.673389 0.896451 -0.47496718 4291572480
2.6777549 0.89800864 -0.48049992 4291572480
2.6485083 0.88829303 -0.47940347 4291441920
2.6418667 0.88615787 -0.48178479 4291441920
2.5737529 0.86340046 -0.47230625 4291180800
2.5910869 0.86930597 -0.47789437 4291311360
2.5954313 0.87085426 -0.48054695 4291311360
2.590528 0.86929959 -0.48092547 4291311360
2.6495574 0.88920057 -0.49262384 4291441920
2.6224287 0.88018775 -0.48774096 4291441920
2.6555848 0.89140904 -0.49349216 4291572480
2.6749172 0.89799196 -0.49608409 4291572480
2.6924121 0.90395921 -0.49773678 4291703040
2.6941392 0.90463328 -0.49588034 4291703040
2.7038233 0.90797949 -0.49489719 4291703040
2.7089989 0.90981221 -0.49249423 4291703040
2.7095916 0.910106 -0.48867595 4291703040
2.712126 0.91105211 -0.48463306 4291703040
2.7128849 0.91140187 -0.47970301 4291703040
2.7244592 0.91538554 -0.47610226 4291703040
2.7084336 0.91009581 -0.46713838 4291703040
2.6956596 0.90589774 -0.45826221 4291703040
2.7416337 0.92144352 -0.45875216 4291833600
2.747431 0.92348808 -0.45185068 4291833600
2.8117347 0.94520056 -0.45383811 4292094720
2.8973799 0.97409272 -0.45827514 4292355840
3.0028081 1.0096424 -0.46467796 4292747520
3.0895433 1.0389137 -0.4669843 4293008640
3.2919176 1.1070807 -0.48516202 4293792000
3.3681552 1.1328374 -0.48313501 4294053120
3.3797076 1.1368411 -0.470934 4294053120
3.3850613 1.1387603 -0.45726654 4294053120
3.3929393 1.1415292 -0.44336689 4294053120
3.3486233 1.1267365 -0.42231548 4293922560
3.3737786 1.1353186 -0.40963566 4294053120
3.3900254 1.1409045 -0.39521936 4294053120
3.3935771 1.1422185 -0.37878603 4294053120
3.3816628 1.1383266 -0.36024806 4294053120
3.3480682 1.1271352 -0.33923638 4293922560
3.3653364 1.1330663 -0.32308596 4293922560
3.3724816 1.13559 -0.30547643 4293922560
3.3552713 1.1299123 -0.28538075 4293922560
3.3484492 1.1277319 -0.2659885 4293922560
3.3708756 1.1354029 -0.24853837 4293922560
3.3758583 1.1371993 -0.22937344 4293922560
3.3724163 1.1361578 -0.2093769 4293922560
3.3482428 1.1281309 -0.18802847 4293922560
3.3656735 1.1341217 -0.16885062 4293922560
3.3745871 1.1372433 -0.14890365 4293922560
3.3640585 1.1338129 -0.12794738 4293922560
3.3602488 1.1326463 -0.10719527 4293922560
3.3816757 1.1399871 -0.087023199 4293922560
3.3745887 1.1377162 -0.065934725 4293922560
3.2620807 1.0998991 -0.043458175 4293530880
2.2640393 0.76346153 -0.016055116 4290005760
2.0821805 0.70220935 -0.0017755098 4289352960
2.5250063 0.85163945 0.013602153 4290919680
3.142278 1.059944 0.036516402 4293139200
2.9365869 0.99066371 0.052396398 4292355840
2.9197531 0.98508692 0.070205823 4292355840
2.9847181 1.0071098 0.090203576 4292616960
3.0328631 1.0234611 0.11029301 4292747520
2.5239344 0.85180777 0.10719386 4290919680
2.4989972 0.84347916 0.12127646 4290789120
2.5111554 0.84767079 0.13695006 4290919680
2.5746515 0.86919469 0.15572575 4291050240
2.3758001 0.8021462 0.15767252 4290397440
2.3775485 0.80281979 0.17160136 4290397440
2.368005 0.79968017 0.18448357 4290397440
2.3805285 0.80399263 0.19889937 4290397440
2.3673828 0.79963565 0.21095033 4290397440
2.3649623 0.7989009 0.22363915 4290397440
2.3441837 0.79196382 0.23422138 4290266880
2.2497873 0.76015145 0.23658347 4290005760
2.1383617 0.72257817 0.23582703 4289614080
2.3522897 0.79494935 0.27118945 4290397440
2.3294775 0.78732163 0.27991611 4290266880
2.2862723 0.77279907 0.28556389 4290136320
2.2214131 0.75095326 0.28768417 4289875200
2.1754127 0.73547888 0.29142049 4289744640
2.3422823 0.79197741 0.32385856 4290397440
2.3393214 0.79105812 0.33315539 4290397440
2.3273859 0.78710353 0.34073713 4290266880
2.2969327 0.77688491 0.3450571 4290136320
2.2776821 0.77045357 0.35048062 4290136320
2.2312505 0.75482565 0.35109004 4290005760
2.3216777 0.78549814 0.37296927 4290266880
2.3209455 0.78533167 0.380072 4290266880
2.320219 0.78516716 0.38673434 4290266880
2.3159733 0.78381145 0.39235064 4290266880
2.3189075 0.78488564 0.39872602 4290266880
2.3007827 0.77883154 0.40098414 4290266880
2.3000073 0.77864963 0.40575698 4290266880
2.2958257 0.77731431 0.40944788 4290266880
2.278522 0.77153552 0.41028431 4290136320
2.2919576 0.77616519 0.41616836 4290266880
2.2961273 0.77765769 0.41991013 4290266880
2.3041031 0.78043962 0.42387161 4290266880
2.3037572 0.78040308 0.42581505 4290266880
2.3128185 0.78355366 0.42900476 4290266880
2.3033035 0.78041071 0.42824826 4290266880
2.2948031 0.77761102 0.42717293 4290266880
2.2947786 0.77768308 0.42717311 4290266880
2.2901716 0.77620196 0.42582089 4290266880
2.2976267 0.77880925 0.42621049 4290266880
2.289448 0.77611715 0.42320314 4290266880
2.2922778 0.77715677 0.42173839 4290266880
2.2968559 0.77878934 0.42009476 4290266880
2.3074629 0.78246665 0.41904432 4290266880
2.3056705 0.78193951 0.41524205 4290266880
2.3048096 0.78172833 0.41112781 4290266880
2.3156726 0.78549391 0.40860695 4290266880
2.3160083 0.78568894 0.40373203 4290266880
2.3110776 0.78409714 0.3974815 4290266880
2.2989526 0.78006393 0.3895756 4290266880
2.2968235 0.77942199 0.38294995 4290266880
2.2965901 0.77942324 0.37620527 4290266880
2.3204412 0.78759921 0.37289959 4290266880
2.3271439 0.78995579 0.3663139 4290266880
2.3282242 0.79040402 0.3583979 4290266880
2.2851701 0.77630448 0.29135406 4290136320
2.3161135 0.7868976 0.28449401 4290266880
2.3320293 0.79238665 0.27524883 4290266880
2.3353705 0.7936039 0.26411936 4290266880
2.2928228 0.77922571 0.24770485 4290136320
2.3039949 0.78310323 0.23697637 4290136320
2.3217173 0.78920829 0.22650753 4290266880
2.3072329 0.78436548 0.21263078 4290136320
2.2946675 0.78017426 0.19884402 4290136320
2.3116627 0.78603357 0.1873742 4290136320
2.3214586 0.78944582 0.17496443 4290266880
2.3308413 0.79271823 0.16222212 4290266880
2.3534729 0.80049771 0.1500382 4290397440
2.3853993 0.81144059 0.137962 4290397440
2.4494123 0.83330172 0.12701975 4290658560
2.6235967 0.89265203 0.12021858 4291311360
2.2197063 0.7553103 0.08820466 4289875200
2.0472183 0.69668871 0.068804942 4289222400
2.3748112 0.80825508 0.065175362 4290397440
3.2582209 1.1090333 0.069237582 4293530880
3.3604417 1.1439451 0.050516628 4293922560
3.3743958 1.1488136 0.029691326 4293922560
3.3782115 1.150231 0.0086335437 4293922560
3.3420434 1.1380335 -0.012334087 4293792000
3.3544095 1.142362 -0.033319268 4293922560
3.3606405 1.1446018 -0.054324061 4293922560
3.3825257 1.1521742 -0.075698584 4293922560
3.3401699 1.137864 -0.095428005 4293792000
3.370461 1.1483011 -0.11705469 4293922560
3.3794961 1.1514978 -0.13805896 4293922560
3.3908949 1.1555007 -0.1591354 4294053120
3.3512385 1.1421046 -0.17747405 4293922560
3.3773849 1.1511338 -0.19902234 4293922560
3.3771098 1.1511583 -0.21895218 4293922560
3.3783603 1.1517031 -0.23874857 4294053120
3.3514845 1.1426586 -0.25614971 4293922560
3.3983569 1.1587584 -0.27901885 4294053120
3.4076498 1.1620466 -0.2988151 4294053120
3.4006767 1.159788 -0.31687081 4294053120
3.3919713 1.1569381 -0.33433142 4294053120
3.3914728 1.1568869 -0.35218269 4294053120
3.3926122 1.1573945 -0.36981791 4294053120
3.4031591 1.161112 -0.38812762 4294183680
3.394959 1.1584333 -0.40388063 4294053120
3.3446424 1.1413815 -0.41389197 4293922560
3.1527612 1.0760114 -0.40479034 4293269760
3.0332208 1.0353196 -0.40309355 4292878080
2.9376678 1.0028079 -0.4031775 4292486400
2.9048746 0.99171537 -0.41086674 4292355840
2.8451684 0.97143161 -0.4139061 4292225280
2.7759621 0.94789976 -0.41458508 4291964160
2.7108831 0.92577261 -0.41490021 4291703040
2.7102072 0.92563683 -0.42435578 4291703040
2.7156663 0.92759651 -0.43430263 4291703040
2.7158303 0.92774785 -0.44292372 4291703040
2.7126873 0.92676932 -0.4504877 4291703040
2.7050245 0.92424625 -0.45675159 4291703040
2.7170322 0.92844439 -0.46581951 4291703040
2.7029531 0.92372817 -0.46987358 4291703040
2.6880906 0.91874331 -0.47318074 4291703040
2.6858354 0.91806674 -0.47812068 4291703040
2.6687462 0.91231894 -0.47982904 4291572480
2.6645937 0.91099292 -0.48326761 4291572480
2.6473536 0.90519166 -0.48373896 4291572480
2.6361501 0.90145344 -0.4847123 4291441920
2.568269 0.87833107 -0.47462168 4291180800
2.585654 0.88436729 -0.47968251 4291311360
2.5770328 0.88150901 -0.47936544 4291311360
2.6350136 0.90143466 -0.49088794 4291441920
2.6503065 0.90675932 -0.49390012 4291572480
2.6483388 0.90617901 -0.49311838 4291572480
2.6659126 0.9122858 -0.49539146 4291572480
2.6777804 0.91644102 -0.49601057 4291572480
2.6934831 0.92190957 -0.49673977 4291703040
2.6984873 0.92371714 -0.49489719 4291703040
2.6989903 0.92398405 -0.49164504 4291703040
2.7042432 0.92587721 -0.48867595 4291703040
2.7030408 0.92556047 -0.48396501 4291703040
2.7094765 0.92785925 -0.48004806 4291703040
2.7042406 0.92616111 -0.47350401 4291703040
2.69576 0.92335129 -0.46587247 4291703040
2.6457872 0.90632749 -0.45067397 4291441920
2.7586429 0.94508356 -0.46251178 4291833600
2.8180702 0.96554172 -0.46438554 4292094720
2.8617918 0.98062229 -0.46283212 4292225280
2.927206 1.0031399 -0.46390924 4292486400
3.0277617 1.0377061 -0.46946713 4292878080
3.1555417 1.081611 -0.47790435 4293269760
3.309782 1.1345955 -0.48876086 4293792000
3.3495572 1.148348 -0.48141882 4293922560
3.3766618 1.157759 -0.47144151 4294053120
3.3680513 1.154925 -0.45587 4294053120
3.3857601 1.1611164 -0.44330522 4294053120
3.3373058 1.1446165 -0.42172205 4293922560
3.3666353 1.1547941 -0.40957832 4294053120
3.3918638 1.1635668 -0.39621732 4294053120
3.3896897 1.16294 -0.37910199 4294053120
3.3949816 1.1648748 -0.36238375 4294053120
3.3510661 1.1499243 -0.34021321 4293922560
3.3662953 1.1552684 -0.32381871 4293922560
3.3686385 1.1561909 -0.30573332 4293922560
3.36782 1.1560283 -0.28701606 4293922560
3.3566306 1.1523052 -0.26716715 4293922560
3.3628294 1.1545514 -0.24843688 4293922560
3.3734643 1.1583211 -0.22966541 4293922560
3.3836784 1.1619471 -0.21049286 4294053120
3.3557799 1.1524847 -0.18882561 4293922560
3.3637323 1.1553339 -0.16908807 4293922560
3.3721547 1.1583451 -0.1490916 4293922560
3.3753531 1.1595625 -0.12863173 4293922560
3.3630457 1.1554525 -0.10749743 4293922560
3.3796215 1.1612662 -0.087142974 4293922560
3.3820863 1.1622319 -0.066212393 4294053120
3.2461607 1.115636 -0.043331947 4293530880
2.2463133 0.77208877 -0.015961045 4290005760
2.0782511 0.71439648 -0.0017756782 4289352960
2.0688233 0.71122831 0.011166838 4289352960
2.0419793 0.70207149 0.023776967 4289222400
2.3343518 0.8026768 0.041733686 4290266880
2.3348715 0.80293751 0.056253809 4290266880
2.3180268 0.79722625 0.070194148 4290266880
2.2415714 0.77101004 0.08167889 4289875200
2.3172479 0.79712111 0.098611258 4290266880
2.3205497 0.79833847 0.11284021 4290266880
2.3017178 0.79194057 0.12577753 4290136320
2.1172788 0.72855604 0.12831651 4289483520
2.3229454 0.79940754 0.15447126 4290266880
2.3193724 0.79825944 0.16773528 4290266880
2.2890062 0.78788877 0.17868362 4290136320
2.0222745 0.69614923 0.16930233 4289222400
2.3365221 0.80440813 0.2086145 4290266880
2.3446941 0.80730402 0.22216354 4290397440
2.3163755 0.79763496 0.23190328 4290266880
2.2362678 0.77012879 0.23562965 4290005760
2.0485415 0.70555133 0.22637081 4289222400
2.3243601 0.80062944 0.26850271 4290266880
2.3110993 0.796143 0.27826038 4290266880
2.2969494 0.79134929 0.28746849 4290136320
2.2590868 0.77838421 0.29314545 4290005760
2.1082501 0.72648644 0.28298554 4289483520
2.3147869 0.79773879 0.32069406 4290266880
2.3181348 0.79897398 0.33079541 4290266880
2.3091044 0.79594272 0.33873385 4290266880
2.290705 0.78968096 0.34480685 4290136320
2.2771921 0.78510273 0.35110313 4290136320
2.2355843 0.77083623 0.35247263 4290005760
2.2979739 0.79242915 0.36989677 4290266880
2.2933872 0.79092813 0.3763074 4290266880
2.2954736 0.79172838 0.38337213 4290266880
2.2848639 0.7881493 0.38785174 4290136320
2.282572 0.78743893 0.39326051 4290136320
2.2864192 0.78884649 0.39927503 4290266880
2.2683928 0.78270692 0.40097734 4290136320
2.251178 0.77684611 0.40228558 4290136320
2.2645261 0.78153199 0.40857711 4290136320
2.2603803 0.78018063 0.41125301 4290136320
2.2645471 0.78169841 0.41496065 4290136320
2.2641304 0.78163415 0.41734877 4290136320
2.2307639 0.77019376 0.41314578 4290005760
2.268182 0.7831924 0.42156437 4290136320
2.2717214 0.7844944 0.42321891 4290136320
2.2585845 0.78003722 0.42126974 4290136320
2.2678683 0.78332335 0.42300615 4290136320
2.2659185 0.78272951 0.42215216 4290136320
2.2660532 0.78285581 0.42119256 4290136320
2.2697275 0.78420496 0.42039526 4290136320
2.2742159 0.78583574 0.41925058 4290136320
2.2876091 0.79054403 0.41923881 4290266880
2.2842355 0.78945857 0.41565439 4290266880
2.2852488 0.7898891 0.41238603 4290266880
2.2930036 0.79265016 0.40983871 4290266880
2.2844882 0.78978693 0.40390944 4290266880
2.2907643 0.79203725 0.40012908 4290266880
2.2860327 0.79048163 0.39395946 4290266880
2.287724 0.79114699 0.38844737 4290266880
2.2690535 0.78477007 0.37907574 4290136320
2.2657869 0.78371996 0.37190104 4290136320
2.2952189 0.79398108 0.36958343 4290266880
2.3123472 0.79998755 0.36471221 4290266880
2.2993927 0.79558665 0.35466722 4290266880
2.26529 0.78430164 0.28939712 4290136320
2.2923243 0.79374224 0.28213516 4290136320
2.3178983 0.802679 0.27412826 4290266880
2.2980814 0.79589736 0.26042211 4290136320
2.2660344 0.78487819 0.24530061 4290005760
2.2806311 0.79001433 0.23504275 4290136320
2.2996922 0.79669797 0.22480777 4290136320
2.2844858 0.79151034 0.21095589 4290136320
2.2570646 0.78208905 0.19597706 4290005760
2.2781994 0.78949261 0.1850315 4290136320
2.2950423 0.7954101 0.1733198 4290136320
2.3003109 0.79731703 0.16041784 4290136320
2.2697935 0.78681916 0.14499326 4290005760
2.2970839 0.79636019 0.13312028 4290136320
2.3034441 0.79864627 0.11968951 4290136320
2.3067825 0.79988492 0.10591325 4290136320
2.1520112 0.74629319 0.085685983 4289614080
2.0703127 0.71803391 0.069720544 4289352960
2.3341722 0.80962884 0.064188421 4290266880
3.2602053 1.1309466 0.069418594 4293530880
3.3574984 1.1648152 0.050573546 4293922560
3.3855951 1.1746819 0.029849581 4294053120
3.3809001 1.1731719 0.0086577367 4294053120
3.3448036 1.1607641 -0.012369023 4293922560
3.361867 1.1668041 -0.0334603 4293922560
3.369025 1.1694071 -0.054568805 4293922560
3.3798547 1.1732851 -0.07579051 4294053120
3.3390157 1.1592257 -0.095586367 4293792000
3.3829067 1.1745827 -0.11772259 4294053120
3.3999121 1.1806068 -0.13917163 4294053120
3.4033134 1.1819078 -0.16003865 4294053120
3.3441119 1.1614659 -0.177452 4293922560
3.3780811 1.1733829 -0.19946283 4294053120
3.3780019 1.1734743 -0.21944958 4294053120
3.3749592 1.1725361 -0.23898695 4294053120
3.3382504 1.1599002 -0.2556504 4293922560
3.3778403 1.173775 -0.27789113 4294053120
3.3904984 1.178293 -0.29790807 4294053120
3.3969657 1.1806601 -0.31716061 4294053120
3.3501651 1.1645119 -0.33087388 4293922560
3.3633628 1.1692178 -0.34996513 4294053120
3.3806851 1.1753587 -0.36925799 4294053120
3.3736501 1.1730316 -0.38553506 4294053120
3.359591 1.1682616 -0.40047604 4294053120
3.3188775 1.1542207 -0.4115288 4293922560
3.2580838 1.133193 -0.41915351 4293661440
3.1845715 1.1077368 -0.42405751 4293400320
3.0853801 1.0733422 -0.42430118 4293008640
3.0609965 1.0649675 -0.43381894 4293008640
3.0319178 1.0549574 -0.44196051 4292878080
2.7881603 0.97024 -0.41724405 4291964160
2.7194638 0.94643039 -0.41705033 4291703040
2.7021098 0.94048601 -0.42393866 4291703040
2.7055469 0.94177759 -0.43355444 4291703040
2.7014136 0.94043404 -0.44145861 4291703040
2.7072418 0.94255829 -0.4504877 4291703040
2.7089193 0.94323778 -0.45832941 4291703040
2.7078481 0.9429602 -0.46517894 4291703040
2.6863313 0.93556201 -0.46792373 4291703040
2.6873498 0.93601137 -0.47400224 4291703040
2.6757848 0.93207753 -0.47729015 4291572480
2.6633854 0.92785215 -0.47982904 4291572480
2.6545873 0.92488056 -0.4824219 4291572480
2.6373823 0.91897917 -0.48288712 4291441920
2.6308534 0.91679692 -0.4847123 4291441920
2.6304333 0.91674316 -0.48708856 4291441920
2.5627863 0.89325756 -0.47639757 4291180800
2.6252139 0.91510916 -0.48931131 4291441920
2.6120484 0.91061187 -0.48758975 4291441920
2.6403291 0.92056412 -0.49303192 4291572480
2.6476638 0.92321467 -0.49398589 4291572480
2.6512525 0.92455941 -0.49365985 4291572480
2.6770458 0.93364859 -0.49687368 4291703040
2.6834154 0.93596458 -0.49588034 4291703040
2.6818843 0.93552506 -0.49284351 4291703040
2.6935611 0.93969321 -0.49164504 4291703040
2.6876228 0.93771625 -0.48665157 4291703040
2.6855822 0.93709886 -0.48180848 4291703040
2.6950803 0.94050813 -0.47846016 4291703040
2.6857724 0.93735462 -0.47121853 4291703040
2.6703293 0.93205899 -0.46240824 4291572480
2.7250013 0.95123786 -0.46510315 4291833600
2.7801311 0.97058046 -0.46705469 4291964160
2.8748975 1.0037659 -0.47470567 4292355840
3.0154698 1.0529529 -0.48867005 4292878080
3.1178381 1.0888081 -0.49511796 4293139200
3.2056787 1.1195967 -0.49805689 4293530880
3.2641213 1.140123 -0.49534625 4293661440
3.2895293 1.1491138 -0.48675054 4293792000
3.3094947 1.1562048 -0.47662091 4293922560
3.338625 1.1664994 -0.46707186 4293922560
3.346175 1.1692553 -0.45382339 4293922560
3.3462908 1.1694138 -0.43902209 4293922560
3.324625 1.1619595 -0.42096797 4293922560
3.3402996 1.1675556 -0.40719503 4293922560
3.3571022 1.173547 -0.39294869 4294053120
3.3634481 1.175884 -0.37692693 4294053120
3.3625727 1.1756965 -0.35964948 4294053120
3.3383441 1.1673428 -0.33960634 4293922560
3.3505363 1.1717243 -0.32295403 4293922560
3.3473091 1.1707137 -0.30441138 4293922560
3.3465819 1.1705774 -0.28578249 4293922560
3.3456805 1.17038 -0.26683381 4293922560
3.3641214 1.1769497 -0.24903472 4293922560
3.3707466 1.1793864 -0.22994432 4294053120
3.3552656 1.174088 -0.20914733 4293922560
3.262583 1.1417712 -0.18395273 4293661440
3.3598123 1.175916 -0.16923255 4293922560
3.379024 1.1827592 -0.14969744 4294053120
3.3770292 1.1821799 -0.12895589 4294053120
3.3741813 1.1813021 -0.10807154 4294053120
3.3869514 1.1858923 -0.087508649 4294053120
3.381851 1.1842258 -0.066341743 4294053120
3.2383201 1.1340796 -0.043314751 4293530880
2.161895 0.75718522 -0.015392301 4289614080
1.9444609 0.6810993 -0.0016647289 4288830720
2.0285075 0.71061045 0.010971388 4289222400
2.0104871 0.70436853 0.023457656 4289091840
2.3063228 0.80809516 0.041316051 4290136320
2.308917 0.80908561 0.055741116 4290136320
2.31007 0.80957109 0.070094846 4290136320
2.2431436 0.7861957 0.081901707 4290005760
2.2961991 0.80487198 0.097913422 4290136320
2.2910438 0.80314571 0.11163108 4290136320
2.2800057 0.7993567 0.12484346 4290136320
2.080966 0.72964793 0.12637126 4289352960
2.301903 0.8071962 0.15338212 4290136320
2.2893481 0.80287433 0.16589943 4290136320
2.2673426 0.795237 0.17735119 4290005760
2.0824919 0.73047686 0.174697 4289352960
2.3114026 0.81085348 0.20679003 4290266880
2.3101466 0.81049442 0.21933381 4290266880
2.2975979 0.80617291 0.2304897 4290136320
2.2139032 0.7768845 0.2337461 4289875200
1.9363967 0.67957252 0.21441232 4288961280
2.2996063 0.80712104 0.26618198 4290266880
2.2961838 0.80600077 0.27702522 4290136320
2.2534218 0.79107004 0.28259292 4290005760
2.21193 0.7765823 0.28760847 4289875200
2.0768371 0.72922611 0.2793346 4289483520
2.2864299 0.80289972 0.31740814 4290136320
2.2867906 0.80310708 0.32698479 4290136320
2.2819986 0.80150473 0.33543691 4290136320
2.2636473 0.79513907 0.34142557 4290136320
2.2381799 0.78627229 0.34578857 4290005760
2.1681807 0.76175809 0.34253943 4289744640
2.2679143 0.79687804 0.36579931 4290136320
2.2764878 0.79997092 0.37429291 4290136320
2.2722223 0.79855222 0.38025945 4290136320
2.2611473 0.79473978 0.38460535 4290136320
2.2616582 0.79499912 0.39044869 4290136320
2.2454183 0.78936994 0.39291161 4290136320
2.2446609 0.78918284 0.39758837 4290136320
2.228646 0.78363097 0.39906821 4290005760
2.2410419 0.78806865 0.4051615 4290005760
2.1824899 0.76755583 0.39788854 4289875200
2.1820161 0.76746625 0.40065008 4289875200
2.1909075 0.77067089 0.40467238 4289875200
2.1989405 0.77357417 0.40807974 4289875200
2.1949685 0.77225429 0.40878621 4289875200
2.1985056 0.77357644 0.41041163 4289875200
2.190043 0.77067602 0.409316 4289875200
2.185374 0.76911014 0.40844807 4289875200
2.185427 0.76920593 0.40798423 4289875200
2.2351472 0.78678495 0.416293 4290005760
2.2260664 0.78366703 0.41314709 4290005760
2.2170599 0.78057468 0.4095453 4290005760
2.2493124 0.79200941 0.413059 4290136320
2.2227931 0.78275019 0.40529692 4290005760
2.2532587 0.79355812 0.40744066 4290136320
2.2630315 0.7970798 0.40530482 4290136320
2.2641752 0.7975626 0.40113276 4290136320
2.2668707 0.79859221 0.39676154 4290136320
2.2628016 0.79723859 0.39074981 4290136320
2.2486165 0.79232025 0.38258439 4290136320
2.242084 0.79009765 0.3753328 4290005760
2.2430069 0.79050213 0.36891171 4290005760
2.2580013 0.79586631 0.36433101 4290136320
2.2852592 0.80555457 0.36117396 4290136320
2.2769866 0.80271882 0.35192662 4290136320
2.2401276 0.79023552 0.28676587 4290005760
2.2676568 0.80002689 0.27966809 4290136320
2.2957089 0.81000471 0.27205753 4290136320
2.2833173 0.80571324 0.2592766 4290136320
2.2473514 0.79310131 0.24377424 4290005760
2.2631328 0.79875058 0.233715 4290005760
2.2788222 0.8043685 0.22322196 4290136320
2.2672446 0.80036205 0.20979081 4290136320
2.2346134 0.78892183 0.19442348 4290005760
2.2603984 0.798105 0.18396027 4290005760
2.2763271 0.80380952 0.1722572 4290136320
2.2683406 0.80106956 0.15851112 4290005760
2.2464201 0.79340768 0.14379305 4290005760
2.2723036 0.80262965 0.13195299 4290136320
2.2808585 0.80573201 0.11875784 4290136320
2.2728691 0.80299002 0.10456919 4290136320
2.0772986 0.73396969 0.082880035 4289352960
2.0114355 0.71076941 0.067876086 4289091840
2.0865035 0.73736948 0.057494834 4289352960
3.0775702 1.0877208 0.065663621 4292878080
3.3629856 1.1887155 0.050759658 4293922560
3.3739798 1.1927208 0.029807935 4294053120
3.3872068 1.1975163 0.0086916061 4294053120
3.3464692 1.1832321 -0.012400464 4293922560
3.3643658 1.1896789 -0.033553589 4293922560
3.3495483 1.1845577 -0.054364197 4293922560
3.2630186 1.154072 -0.073320091 4293661440
3.2875185 1.1628534 -0.094304509 4293661440
3.3112729 1.1713728 -0.11546533 4293792000
3.3258686 1.1766536 -0.13641906 4293792000
3.3305774 1.1784372 -0.15693849 4293792000
3.289633 1.1640666 -0.17491806 4293661440
3.3171854 1.1739334 -0.19626769 4293792000
3.3269424 1.1775039 -0.21657453 4293792000
3.3088875 1.1712308 -0.23478752 4293792000
3.3108847 1.1720548 -0.25407332 4293792000
3.3456271 1.1844718 -0.27580404 4293922560
3.3573303 1.1887338 -0.29559726 4293922560
3.352617 1.1871836 -0.31366044 4293922560
3.2572632 1.1535333 -0.32235685 4293661440
3.3230407 1.1769454 -0.34647715 4293922560
3.3397682 1.1829879 -0.36553541 4293922560
3.336658 1.1820043 -0.38208821 4293922560
3.3188119 1.1757997 -0.39642492 4293922560
3.1912577 1.1307223 -0.39651456 4293400320
3.326745 1.1788455 -0.42886314 4293922560
3.3025389 1.1703848 -0.44066659 4293792000
3.2750962 1.1607752 -0.45131335 4293792000
3.2200947 1.1413951 -0.4573018 4293530880
3.0932305 1.0965363 -0.45182166 4293139200
2.78246 0.98646796 -0.41724405 4291964160
2.7092397 0.96060485 -0.41633362 4291703040
2.6719058 0.94746202 -0.42005885 4291572480
2.7009599 0.95786017 -0.43370634 4291703040
2.6987772 0.95718151 -0.44193164 4291703040
2.6947045 0.95583242 -0.44932058 4291703040
2.6932101 0.95539755 -0.45660558 4291703040
2.6864817 0.95310569 -0.46245453 4291703040
2.6781266 0.9502362 -0.46745098 4291703040
2.6729214 0.94848394 -0.47242403 4291572480
2.6573126 0.94303912 -0.47496718 4291572480
2.6368294 0.9358632 -0.476019 4291441920
2.6372223 0.93609601 -0.48024917 4291572480
2.616689 0.92890018 -0.48008108 4291441920
2.616183 0.9288131 -0.48299825 4291441920
2.5717843 0.91314137 -0.4772054 4291311360
2.5575385 0.90817368 -0.47639757 4291180800
2.5665863 0.91147733 -0.47936544 4291311360
2.6336112 0.93537325 -0.49262384 4291441920
2.6149964 0.92885435 -0.48930377 4291441920
2.6303189 0.93439007 -0.49175715 4291441920
2.6377311 0.93711644 -0.49215046 4291572480
2.6632216 0.94626677 -0.4953227 4291572480
2.6690004 0.94841444 -0.49422926 4291572480
2.6783261 0.95182306 -0.49320036 4291703040
2.6788244 0.95209491 -0.48995936 4291703040
2.6877677 0.95536864 -0.48767743 4291703040
2.6934493 0.95748347 -0.48421252 4291703040
2.6840732 0.95424545 -0.477485 4291703040
2.672358 0.95017499 -0.46982831 4291572480
2.669503 0.94925427 -0.46321499 4291572480
2.7017393 0.96081287 -0.46208042 4291703040
2.7520959 0.97881848 -0.46329504 4291964160
2.8690004 1.0204986 -0.47470567 4292355840
3.0597191 1.0884452 -0.49686009 4293008640
3.2507441 1.1565143 -0.51728493 4293661440
3.2965226 1.1729176 -0.51322407 4293792000
3.3027463 1.1752489 -0.50223839 4293922560
3.2870793 1.1697903 -0.48738825 4293792000
3.2793679 1.1671621 -0.47325346 4293792000
3.3160269 1.1803267 -0.46486461 4293922560
3.3092921 1.1780467 -0.44974443 4293922560
3.2936826 1.1726066 -0.43300903 4293792000
3.2906756 1.1716524 -0.41752654 4293792000
3.3143208 1.1801888 -0.40485948 4293922560
3.3258116 1.1843982 -0.39008722 4293922560
3.3315647 1.1865649 -0.37412229 4293922560
3.3162 1.1812102 -0.35541967 4293922560
3.3067031 1.1779444 -0.33708 4293792000
3.3190045 1.1824441 -0.3205733 4293922560
3.3157723 1.1814098 -0.3021642 4293792000
3.2983954 1.1753353 -0.28224757 4293792000
3.3039386 1.1774275 -0.26404735 4293792000
3.3131011 1.1808101 -0.24576296 4293792000
3.3166113 1.1821786 -0.22671735 4293792000
3.2876592 1.1719751 -0.2053553 4293661440
3.2335858 1.1528138 -0.18269339 4293530880
3.3511662 1.1948514 -0.16914482 4293922560
3.3812802 1.2057081 -0.15010606 4294053120
3.3786509 1.2048903 -0.1292837 4294053120
3.3635924 1.1996392 -0.10795442 4293922560
3.3922656 1.2099857 -0.087826602 4294053120
3.2779536 1.169328 -0.064436138 4293661440
2.03076 0.72449481 -0.027218807 4289222400
2.0717409 0.73918843 -0.014780832 4289352960
1.98567 0.70854908 -0.001703515 4289091840
1.9793223 0.70635408 0.010727442 4289091840
2.0110579 0.71775067 0.02351271 4289091840
2.2752087 0.81210726 0.040842738 4290136320
2.2862747 0.81613803 0.055308346 4290136320
2.2780137 0.81326979 0.069264747 4290136320
2.2195556 0.79247838 0.081207663 4289875200
2.2594767 0.80681205 0.096546337 4290005760
2.2726321 0.81159008 0.1109625 4290136320
2.2189248 0.79248899 0.12174968 4289875200
1.9436973 0.69426036 0.11827896 4288961280
2.2716045 0.81146449 0.1516757 4290136320
2.2621729 0.8081755 0.1642686 4290005760
2.2477396 0.80309862 0.17618084 4290005760
2.0603645 0.73622411 0.17319766 4289352960
2.2841191 0.81625861 0.2047711 4290136320
2.2828753 0.81589508 0.21719223 4290136320
2.2723198 0.81220299 0.2284247 4290136320
2.0187166 0.72162831 0.21357839 4289222400
1.9524075 0.69799399 0.21663177 4288961280
2.238287 0.80027646 0.25961947 4290005760
2.1691129 0.77562088 0.2622354 4289744640
2.0971904 0.74997741 0.26354405 4289483520
2.0689785 0.73996192 0.26957709 4289352960
2.0678828 0.73964328 0.27870512 4289352960
2.2677093 0.81119788 0.31546006 4290136320
2.2550125 0.80673593 0.32310751 4290136320
2.2549074 0.80677819 0.33214 4290136320
2.2366047 0.800309 0.33804429 4290005760
2.1874704 0.78280514 0.33865306 4289875200
2.0708647 0.74115014 0.32784161 4289483520
2.2370603 0.8007099 0.36156911 4290005760
2.2080851 0.79041702 0.36379731 4290005760
2.2057598 0.78966284 0.36990052 4289875200
2.1645262 0.77497792 0.36893255 4289744640
2.176693 0.7794112 0.37655801 4289875200
2.1278794 0.76200789 0.37311473 4289614080
2.1364467 0.76515162 0.37920401 4289744640
2.14414 0.76798296 0.38473102 4289744640
2.14818 0.7695061 0.38917682 4289744640
2.1522837 0.77105242 0.39319399 4289744640
2.1518161 0.77096117 0.39592296 4289744640
2.1560564 0.77255678 0.39905977 4289744640
2.1594403 0.77384591 0.4015792 4289744640
2.1591887 0.77383232 0.40295553 4289744640
2.155304 0.77251649 0.40318024 4289744640
2.1552036 0.7725569 0.40363899 4289744640
2.1459091 0.76930118 0.40190291 4289744640
2.1459606 0.76939577 0.40144652 4289744640
2.1460874 0.76951736 0.40053397 4289744640
2.1416531 0.76800323 0.39830408 4289744640
2.1196718 0.76019591 0.39236686 4289614080
2.1153777 0.75873083 0.38926873 4289614080
2.169313 0.77815288 0.39636543 4289875200
2.1558867 0.77341324 0.39064175 4289744640
2.183708 0.78347141 0.391909 4289875200
2.2140727 0.79444426 0.39306974 4290005760
2.2286968 0.79977065 0.39088905 4290005760
2.2267225 0.79914111 0.38531703 4290005760
2.2366428 0.80278069 0.38133648 4290005760
2.2155964 0.79530525 0.3716681 4290005760
2.2165082 0.79571104 0.36530969 4290005760
2.2533259 0.80900836 0.36433101 4290136320
2.2628405 0.81250459 0.35837287 4290136320
2.2668252 0.81401575 0.35108316 4290136320
2.217586 0.79684168 0.28446972 4290005760
2.2405226 0.80516297 0.27689549 4290005760
2.2685046 0.81529921 0.26939201 4290136320
2.2608058 0.81261241 0.25725362 4290136320
2.234267 0.80315268 0.24285842 4290005760
2.2154405 0.79646373 0.22926512 4289875200
2.2263067 0.80044919 0.21853095 4290005760
2.2060006 0.79322654 0.20454802 4289875200
2.1928744 0.78858447 0.19118845 4289875200
2.2355778 0.80402052 0.18231843 4290005760
2.249079 0.80895591 0.17054901 4290005760
2.2435882 0.8070606 0.15710734 4290005760
2.2192173 0.79837269 0.14234713 4289875200
2.2544351 0.81112242 0.13118756 4290005760
2.2744725 0.81841236 0.1186716 4290136320
2.2422841 0.80690968 0.10337658 4290005760
2.0814495 0.74910551 0.083218366 4289352960
2.0216401 0.72765207 0.06836234 4289222400
2.0012822 0.72039568 0.055261228 4289091840
2.1003821 0.75614285 0.044907384 4289483520
2.3932552 0.86166292 0.036198068 4290528000
3.3497503 1.2061565 0.029655458 4293922560
3.372385 1.2144263 0.0086715827 4294053120
3.3238909 1.1970811 -0.012342435 4293792000
3.310822 1.1924919 -0.033088315 4293792000
3.2195818 1.1597432 -0.052363582 4293530880
3.2417743 1.1678524 -0.072994381 4293530880
3.2736113 1.1794379 -0.094101094 4293661440
3.3043294 1.1906226 -0.11546315 4293792000
3.3130088 1.1938674 -0.13617457 4293792000
3.248559 1.1707578 -0.15339255 4293530880
3.271935 1.1792985 -0.17433938 4293661440
3.2782912 1.1817058 -0.19437051 4293661440
3.2865744 1.1848083 -0.21439242 4293792000
3.217145 1.1598933 -0.22875342 4293530880
3.2387676 1.1678039 -0.24905704 4293530880
3.2753894 1.1811249 -0.27057657 4293661440
3.2585301 1.1751611 -0.28749633 4293661440
3.1585944 1.1392323 -0.29612425 4293269760
3.1464679 1.1349702 -0.31204107 4293269760
3.2361579 1.1674374 -0.33812174 4293530880
3.234545 1.1669704 -0.35475698 4293530880
3.2413146 1.1695279 -0.37194422 4293661440
3.2215226 1.1625009 -0.38560638 4293530880
3.1254206 1.127933 -0.38914421 4293269760
3.2813425 1.1843201 -0.42389244 4293792000
3.2796042 1.1838093 -0.43851921 4293792000
3.246794 1.1720814 -0.44834664 4293661440
3.1776111 1.1472194 -0.45221007 4293400320
3.0961072 1.1179038 -0.45318553 4293139200
2.7002988 0.97508615 -0.40576857 4291703040
2.6635711 0.96191829 -0.41016993 4291572480
2.6663404 0.96301299 -0.42005885 4291572480
2.6673708 0.96347994 -0.42920688 4291572480
2.6641459 0.96240973 -0.43717149 4291572480
2.6592588 0.96073872 -0.44433612 4291572480
2.6535025 0.95875323 -0.45081294 4291572480
2.6608071 0.96148705 -0.45899141 4291572480
2.6349063 0.95222139 -0.4608677 4291572480
2.6140795 0.94478768 -0.46298912 4291441920
2.5730214 0.93003976 -0.46086174 4291311360
2.5685713 0.92852247 -0.46466535 4291311360
2.5014546 0.90434909 -0.45647708 4291050240
2.5184956 0.91059935 -0.46303117 4291050240
2.5272729 0.91386271 -0.4675588 4291180800
2.5315001 0.91548109 -0.47071218 4291180800
2.5311811 0.9154557 -0.47247344 4291180800
2.5263193 0.91378707 -0.47283107 4291180800
2.5308075 0.9155004 -0.47438383 4291180800
2.512233 0.90887052 -0.4710581 4291050240
2.5039344 0.9059571 -0.46910748 4291050240
2.5741634 0.93145847 -0.48129436 4291311360
2.5614138 0.92693603 -0.47738418 4291311360
2.6148689 0.94637346 -0.48521832 4291441920
2.6106358 0.94493425 -0.48174116 4291441920
2.6486218 0.95877755 -0.48544878 4291572480
2.6399307 0.95572531 -0.47999993 4291572480
2.649859 0.95941371 -0.47737291 4291572480
2.6552348 0.96145445 -0.47334325 4291572480
2.6560514 0.96184456 -0.46793872 4291572480
2.6639271 0.96479124 -0.46321499 4291572480
2.6561809 0.96208018 -0.45523947 4291572480
2.7466979 0.99496347 -0.46335432 4291964160
2.7784686 1.0065708 -0.46068877 4291964160
2.9241421 1.0594487 -0.47583836 4292486400
3.1295562 1.1339836 -0.49904338 4293269760
3.2486391 1.1772484 -0.50682849 4293661440
3.2538989 1.17927 -0.49584672 4293661440
3.2271044 1.169674 -0.47949785 4293661440
3.2156558 1.1656388 -0.46503124 4293530880
3.2079451 1.1629578 -0.45065516 4293530880
3.151397 1.1425697 -0.42918333 4293269760
3.1131597 1.128817 -0.41013399 4293139200
3.1240721 1.1328849 -0.39721835 4293269760
3.1079025 1.1271318 -0.38044026 4293139200
3.1624312 1.1470199 -0.37170175 4293400320
3.1864226 1.1558349 -0.35857353 4293400320
3.1573772 1.1454113 -0.33910704 4293269760
3.1763575 1.1524098 -0.32447171 4293400320
3.2221601 1.1691419 -0.31187204 4293530880
3.2282603 1.17147 -0.29480627 4293530880
3.1677098 1.1496102 -0.27163321 4293269760
3.1371112 1.1386169 -0.25124058 4293269760
3.2092819 1.1649255 -0.23856115 4293530880
3.1666179 1.1495516 -0.21691823 4293269760
3.2020402 1.1625246 -0.20042701 4293400320
3.0715721 1.1152664 -0.173904 4293008640
3.1409805 1.1405797 -0.15886874 4293269760
3.1726625 1.1521972 -0.14114046 4293269760
3.0963612 1.1245974 -0.11873061 4293008640
3.2213023 1.1700906 -0.10360467 4293530880
2.5340762 0.92055589 -0.065745607 4291050240
2.1609063 0.78507102 -0.042567052 4289744640
2.0876436 0.75852847 -0.028039988 4289483520
2.0533013 0.74612349 -0.014680039 4289352960
1.962063 0.71303934 -0.0016867978 4288961280
1.9363482 0.70376307 0.010516576 4288830720
2.0068419 0.72945535 0.02351271 4289091840
2.2516448 0.81851739 0.040504657 4290005760
2.2651742 0.82351613 0.054913033 4290005760
2.2510929 0.81847692 0.068590038 4290005760
2.2055085 0.80198121 0.080863297 4289875200
2.2462866 0.81688917 0.096184455 4290005760
2.2376022 0.81381059 0.10948179 4290005760
2.0350251 0.74020618 0.11189406 4289222400
1.8816531 0.68448663 0.11474414 4288700160
2.1106594 0.76786697 0.14122567 4289483520
2.0708392 0.75345391 0.15069102 4289352960
2.1781621 0.79257977 0.17108633 4289744640
2.0288734 0.73832947 0.17090918 4289222400
2.2699609 0.82614464 0.20392987 4290136320
2.2649798 0.82441241 0.21594298 4290136320
2.2450972 0.81725532 0.22616297 4290005760
2.1101906 0.76822203 0.22372602 4289614080
1.9146463 0.69710153 0.21288897 4288830720
2.1301877 0.7756536 0.247601 4289614080
2.0761473 0.75605005 0.25152457 4289483520
1.9972695 0.72739697 0.25151578 4289222400
1.9784932 0.72062916 0.25832999 4289091840
1.9634631 0.7152245 0.26518878 4289091840
2.2393043 0.81578404 0.31216455 4290005760
2.2458811 0.81825989 0.32247674 4290136320
2.2292118 0.81226599 0.32904664 4290005760
2.197279 0.80070871 0.3328 4289875200
2.1155806 0.77101231 0.32821333 4289614080
2.0711577 0.75489634 0.32857874 4289483520
2.2193537 0.80898982 0.35946295 4290005760
2.1765184 0.79345316 0.35935205 4289875200
2.1658573 0.7896437 0.3639743 4289744640
2.1061718 0.76795816 0.35974285 4289614080
2.1322424 0.77754003 0.36964571 4289744640
2.0659342 0.75343364 0.36301646 4289483520
2.0689425 0.75460446 0.36799663 4289483520
2.0868285 0.76120228 0.37523681 4289483520
2.0899482 0.76241463 0.37942553 4289614080
2.0940561 0.76398778 0.38336328 4289614080
2.0982289 0.76558483 0.38687736 4289614080
2.102469 0.76720673 0.38996211 4289614080
2.1021514 0.76716572 0.39175007 4289614080
2.092654 0.76377416 0.3913624 4289614080
2.1063597 0.76885146 0.39485577 4289614080
2.0923848 0.76382488 0.3927007 4289614080
2.0969861 0.76557928 0.39356899 4289614080
2.0924106 0.76398331 0.39225492 4289614080
2.0703299 0.75599492 0.38721052 4289483520
2.0575705 0.75140893 0.38347411 4289483520
2.0532069 0.7498886 0.38086602 4289483520
2.128226 0.77736336 0.39245981 4289744640
2.1017947 0.76778382 0.38483968 4289614080
2.1516943 0.78608871 0.39070538 4289744640
2.1628709 0.79024899 0.38898912 4289875200
2.1834671 0.79785192 0.38845491 4289875200
2.206392 0.80630744 0.38779441 4290005760
2.2037654 0.805426 0.38214999 4290005760
2.1964688 0.80283749 0.37527815 4289875200
2.2100713 0.80788809 0.37152454 4290005760
2.1970587 0.8032096 0.36286929 4289875200
2.226249 0.81396037 0.36071369 4290005760
2.2319324 0.81611782 0.35422489 4290005760
2.2356706 0.81756437 0.34698984 4290005760
2.1905298 0.80156046 0.28159329 4289875200
2.2333267 0.81730026 0.27658999 4290005760
2.2400525 0.8198415 0.26657596 4290005760
2.2343318 0.81782734 0.25477907 4290005760
2.2085748 0.80847824 0.24057367 4289875200
2.1672795 0.79343873 0.22475576 4289744640
2.0594003 0.75401765 0.20257545 4289352960
2.1098955 0.77258086 0.19605087 4289483520
2.0811868 0.76214272 0.18183491 4289483520
2.2054639 0.80773228 0.18024327 4289875200
2.2171657 0.81209701 0.16848496 4289875200
2.221046 0.81359738 0.1558581 4289875200
2.1967201 0.80476481 0.14120245 4289875200
2.2256727 0.81545085 0.12978812 4290005760
2.2403669 0.82091439 0.1171397 4290005760
2.2062223 0.80848175 0.10192946 4289875200
2.0169837 0.73920614 0.080811784 4289222400
1.9770132 0.72462779 0.066994898 4289091840
1.9726306 0.72309172 0.054585483 4289091840
1.9480995 0.71416897 0.041739754 4288961280
2.0676246 0.75806034 0.031339165 4289352960
2.2039266 0.80811173 0.019552791 4289875200
2.1554346 0.79040807 0.0055541242 4289744640
2.1685469 0.79529363 -0.008069424 4289744640
2.1327648 0.78224695 -0.021360012 4289614080
2.1325848 0.78225696 -0.034758098 4289614080
2.208359 0.81013048 -0.049830612 4289875200
2.3882785 0.87621862 -0.068797477 4290528000
2.4473879 0.89799207 -0.085700415 4290789120
2.5331571 0.92955273 -0.10434117 4291050240
2.7149642 0.9963643 -0.12846886 4291703040
2.6066756 0.95671648 -0.13918684 4291311360
2.6330497 0.96649027 -0.15644524 4291441920
2.6960196 0.98970026 -0.17624205 4291572480
2.9442706 1.0809373 -0.20979507 4292486400
2.7422357 1.0068614 -0.21132189 4291833600
2.7542078 1.0113555 -0.22800519 4291833600
2.8424668 1.0438658 -0.25131986 4292225280
2.9616721 1.0877483 -0.27825183 4292616960
2.9156592 1.0709529 -0.28976524 4292486400
2.901408 1.0658216 -0.30378991 4292355840
2.9677684 1.0903047 -0.32618874 4292616960
3.0383973 1.1163609 -0.34939969 4292878080
3.0980463 1.1383876 -0.37161425 4293139200
3.0575266 1.1236074 -0.38149938 4293008640
3.0324132 1.1144867 -0.39256728 4292878080
3.0270813 1.1126349 -0.40561399 4292878080
3.0738797 1.1299459 -0.42537096 4293008640
2.9971914 1.1018624 -0.42744064 4292747520
3.0049295 1.1048144 -0.44077432 4292878080
2.6053567 0.95799738 -0.39233389 4291441920
2.5817552 0.94941115 -0.39841595 4291311360
2.5804904 0.94903803 -0.4073981 4291311360
2.5792639 0.94867897 -0.41591194 4291311360
2.5873568 0.95174789 -0.42547351 4291311360
2.4974957 0.91878194 -0.41819438 4291050240
2.5010834 0.92019105 -0.42582157 4291050240
2.5130622 0.92468786 -0.43442726 4291050240
2.5121286 0.92443395 -0.44032741 4291050240
2.5251467 0.92931455 -0.44818926 4291180800
2.5289719 0.93081248 -0.45393553 4291180800
2.5319431 0.93199641 -0.45901367 4291180800
2.4504876 0.90210044 -0.4481279 4290919680
2.4536316 0.90334541 -0.45206577 4290919680
2.4716465 0.91006607 -0.45824081 4290919680
2.4795697 0.91307181 -0.4620375 4290919680
2.4746356 0.91134316 -0.46290186 4290919680
2.4614706 0.90658271 -0.46167463 4290919680
2.4613316 0.90661931 -0.46234328 4290919680
2.4520385 0.90328372 -0.46075025 4290919680
2.5383503 0.93516994 -0.47656798 4291180800
2.5292339 0.93190151 -0.47390094 4291180800
2.5118864 0.9255994 -0.4691506 4291050240
2.4992435 0.92102981 -0.46475059 4291050240
2.504247 0.92296314 -0.46309367 4291050240
2.5047119 0.92322379 -0.46005052 4291050240
2.500633 0.92180955 -0.45564118 4291050240
2.49663 0.92042303 -0.45072708 4291050240
2.4973259 0.92076874 -0.44614193 4291050240
2.5644586 0.94561225 -0.45276502 4291311360
2.5560567 0.94260538 -0.44540542 4291180800
2.5569766 0.94303584 -0.4391712 4291180800
2.6250255 0.96822655 -0.44377291 4291441920
2.6529732 0.97862959 -0.4408187 4291572480
2.7352219 1.0090672 -0.44604498 4291833600
2.7948868 1.0311782 -0.44662702 4292094720
2.8537214 1.0529872 -0.44616595 4292355840
2.8234959 1.0419352 -0.43117735 4292225280
2.8072102 1.0360255 -0.41799784 4292094720
2.7593277 1.0184525 -0.39989075 4291964160
