# .PCD v0.7 - Point Cloud Data file format
VERSION 0.7
FIELDS x y z rgba
SIZE 4 4 4 4
TYPE F F F U
COUNT 1 1 1 1
WIDTH 1129
HEIGHT 1
VIEWPOINT 0 0 0 1 0 0 0
POINTS 1129
DATA ascii
1.8468732 1.5572025 0.32590953 4290136320
1.8403022 1.5517609 0.33384901 4290136320
1.8348261 1.547242 0.34155008 4290136320
1.8294319 1.5427916 0.34882757 4290136320
1.8079319 1.5247575 0.35251921 4290005760
1.8380537 1.5502602 0.36590368 4290136320
1.8375112 1.5499015 0.37288535 4290136320
1.8352082 1.5480576 0.37907076 4290136320
1.8275115 1.5416635 0.3836711 4290136320
1.8322878 1.5457913 0.39043605 4290136320
1.8338453 1.5472038 0.396083 4290136320
1.8305461 1.5445187 0.40021765 4290136320
1.8149559 1.5314622 0.40115434 4290005760
1.8144317 1.5311173 0.40491596 4290005760
1.8214836 1.5371662 0.40990877 4290136320
1.8108895 1.5283231 0.41044852 4290005760
1.8067635 1.5249382 0.41195241 4290005760
1.8102272 1.527959 0.41470337 4290005760
1.8167623 1.5335728 0.41768199 4290005760
1.8128234 1.5303454 0.41776684 4290005760
1.8127114 1.5303484 0.41824219 4290005760
1.8198171 1.5364451 0.41989297 4290136320
1.8160706 1.5333797 0.418549 4290005760
1.8229115 1.539254 0.41915226 4290136320
1.8274944 1.543222 0.41873822 4290136320
1.8281566 1.5438796 0.41693139 4290136320
1.8283684 1.5441569 0.41453332 4290136320
1.8222427 1.5390816 0.41022357 4290136320
1.8203088 1.5375462 0.40639207 4290136320
1.8263634 1.5427586 0.40386105 4290136320
1.8205907 1.5379802 0.39824536 4290136320
1.8283317 1.544618 0.39511615 4290136320
1.8309262 1.5469084 0.39038834 4290136320
1.8213904 1.5389498 0.38264436 4290136320
1.8134907 1.532373 0.37485832 4290005760
1.8157161 1.5343512 0.36875138 4290005760
1.8403178 1.5552396 0.36666155 4290136320
1.8395573 1.554696 0.3590059 4290136320
1.8434581 1.558092 0.35183495 4290136320
1.8109096 1.5312116 0.28629178 4290005760
1.8326018 1.5496522 0.27912441 4290136320
1.8531506 1.5671282 0.27122238 4290136320
1.8415257 1.5573968 0.25825721 4290136320
1.8057294 1.5272207 0.24191 4290005760
1.8184114 1.5380447 0.23193151 4290005760
1.838535 1.5551647 0.22243144 4290136320
1.8187171 1.5384994 0.2078537 4290005760
1.8031063 1.525391 0.19376658 4289875200
1.8239309 1.5431063 0.18334344 4290005760
1.8287375 1.5472715 0.17093018 4290005760
1.8239857 1.5433494 0.15743607 4290005760
1.80562 1.5279068 0.14276159 4289875200
1.8370879 1.5546339 0.13177337 4290005760
1.8492849 1.5650553 0.11893766 4290136320
1.8312181 1.5498641 0.10407051 4290005760
1.8003914 1.5238707 0.088732548 4289875200
1.5885918 1.3446869 0.06622085 4288961280
1.572305 1.3309854 0.053521097 4288830720
1.5525593 1.3143541 0.040921383 4288830720
1.5794609 1.3372134 0.029450623 4288961280
1.5688397 1.3283058 0.017122479 4288830720
1.5190065 1.286195 0.0048153 4288700160
1.5268145 1.2928885 -0.006989555 4288700160
1.5686996 1.328441 -0.019328333 4288830720
1.5723586 1.3316245 -0.031528547 4288830720
1.5185086 1.2861011 -0.042155381 4288700160
1.5642564 1.3249316 -0.05543847 4288830720
1.6353561 1.3852416 -0.070455477 4289222400
1.5770885 1.3359706 -0.079924241 4288961280
1.7267286 1.4628257 -0.10052944 4289614080
1.7222238 1.4591023 -0.11314692 4289614080
1.7314006 1.4669706 -0.12657541 4289614080
1.7295582 1.4655029 -0.13911588 4289614080
1.724798 1.4615625 -0.15122285 4289614080
1.7020913 1.4424132 -0.16139525 4289483520
1.7354771 1.4707991 -0.17678346 4289614080
1.7396079 1.474394 -0.18926229 4289614080
1.738794 1.4737979 -0.20101896 4289614080
1.715397 1.4540594 -0.20978217 4289483520
1.7226937 1.4603373 -0.2219594 4289614080
1.7256025 1.4628963 -0.23339267 4289614080
1.7247381 1.4622567 -0.24407041 4289614080
1.7131294 1.4525071 -0.25288042 4289614080
1.6986039 1.4402832 -0.26082119 4289483520
1.7219115 1.4601393 -0.27432808 4289614080
1.724 1.4620032 -0.28429314 4289614080
1.7274452 1.4650182 -0.29419282 4289614080
1.723611 1.4618596 -0.30251992 4289614080
1.7167115 1.4561006 -0.30991259 4289614080
1.7059522 1.4470668 -0.31617096 4289614080
1.6982771 1.4406482 -0.32255462 4289483520
1.7004367 1.442572 -0.33041281 4289483520
1.7071424 1.4483531 -0.33881414 4289614080
1.7099482 1.4508258 -0.34609225 4289614080
1.7093648 1.4504232 -0.35229585 4289614080
1.7032292 1.4453092 -0.3569262 4289614080
1.7030604 1.4452579 -0.36237338 4289614080
1.7095141 1.4508271 -0.36882937 4289614080
1.6979513 1.4411058 -0.37095872 4289483520
1.6975399 1.4408484 -0.3750613 4289483520
1.7002555 1.4432453 -0.37942377 4289614080
1.6919558 1.4362916 -0.38087606 4289483520
1.6967961 1.4404922 -0.38483417 4289483520
1.6904989 1.4352376 -0.38581634 4289483520
1.6902024 1.4350772 -0.38770777 4289483520
1.6827519 1.4288423 -0.38749775 4289483520
1.6788188 1.4255935 -0.38763517 4289483520
1.6859092 1.4317055 -0.389864 4289483520
1.6917874 1.4367889 -0.39135888 4289483520
1.6902939 1.435612 -0.3906908 4289483520
1.6953728 1.4400172 -0.3910822 4289483520
1.698988 1.4431798 -0.39067301 4289614080
1.7017561 1.4456232 -0.38960639 4289614080
1.7025003 1.4463474 -0.38761696 4289614080
1.7024498 1.4463967 -0.38499275 4289614080
1.7023174 1.4463761 -0.38190082 4289614080
1.7087965 1.4519736 -0.37983364 4289614080
1.7051311 1.4489514 -0.37506434 4289614080
1.6984296 1.4433485 -0.3692168 4289614080
1.6952118 1.4407058 -0.36372429 4289483520
1.6927872 1.4387368 -0.35799697 4289483520
1.6858855 1.4329621 -0.3509391 4289483520
1.6862253 1.4333421 -0.34500527 4289483520
1.6869172 1.4340216 -0.33874229 4289483520
1.695493 1.4414035 -0.33363599 4289483520
1.7013298 1.4464577 -0.32754883 4289483520
1.7051253 1.4497769 -0.32065228 4289614080
1.700837 1.4462228 -0.3118729 4289483520
1.6879091 1.4353216 -0.30123785 4289483520
1.6953601 1.4417493 -0.29392326 4289483520
1.7108661 1.4550284 -0.28755242 4289614080
1.7154874 1.4590515 -0.27892008 4289614080
1.7008839 1.4467231 -0.26690549 4289483520
1.696708 1.4432631 -0.25633472 4289483520
1.7139487 1.4580213 -0.24863327 4289614080
1.7163557 1.4601618 -0.23838377 4289614080
1.7259983 1.4684585 -0.22879782 4289614080
1.6987002 1.4453256 -0.21417661 4289483520
1.7174098 1.4613377 -0.20517185 4289614080
1.7139833 1.4585148 -0.19319503 4289483520
1.7188368 1.462738 -0.18192816 4289614080
1.7080053 1.4536129 -0.16884321 4289483520
1.5637268 1.3309082 -0.14348084 4288830720
1.6044735 1.3656751 -0.13566904 4289091840
1.5953679 1.3580111 -0.12326642 4288961280
1.4829768 1.2624218 -0.10364405 4288569600
1.5414766 1.3123047 -0.096244961 4288830720
1.5676948 1.33471 -0.086092167 4288830720
1.5365727 1.3082964 -0.072735317 4288700160
1.5751137 1.341197 -0.062538505 4288961280
1.5502053 1.3200718 -0.049651314 4288830720
1.5374048 1.3092548 -0.037387546 4288700160
1.4839159 1.2637842 -0.024605859 4288569600
1.5573583 1.326416 -0.013746037 4288830720
1.5959035 1.3593318 -0.0016938611 4288961280
1.8044659 1.5370754 0.012099498 4289875200
1.8232729 1.5531945 0.026373977 4290005760
1.8308967 1.5597882 0.040663991 4290005760
1.8392587 1.5670117 0.055050898 4290136320
1.8351661 1.5636245 0.069039464 4290005760
1.810024 1.5423007 0.081938528 4290005760
1.8332841 1.5622199 0.096925333 4290005760
1.8329954 1.5620731 0.11073752 4290005760
1.8175415 1.5490019 0.12339645 4290005760
1.7782521 1.515614 0.13389736 4289875200
1.8368331 1.5656425 0.15176079 4290136320
1.8304609 1.5603104 0.16447599 4290005760
1.8183041 1.5500463 0.1763597 4290005760
1.7591373 1.499704 0.18298884 4289744640
1.8557307 1.5821526 0.20587257 4290136320
1.8474188 1.5751663 0.21750428 4290136320
1.8453417 1.5734955 0.22956072 4290136320
1.8027284 1.5372577 0.23602943 4290005760
1.6685228 1.4229058 0.22911024 4289352960
1.8456558 1.5740638 0.26493517 4290136320
1.8389854 1.5684749 0.27514499 4290136320
1.8192397 1.5517324 0.28293473 4290005760
1.7903781 1.5272119 0.28870839 4289875200
1.7576785 1.4994141 0.29319254 4289744640
1.8356483 1.566027 0.31604409 4290136320
1.8339998 1.5647202 0.32524103 4290136320
1.8274624 1.559242 0.33316216 4290136320
1.8182492 1.5514797 0.34014121 4290136320
1.8166485 1.5502125 0.34810638 4290005760
1.7884847 1.5262764 0.35045528 4290005760
1.8222225 1.5551667 0.36454973 4290136320
1.8202473 1.5535799 0.37121254 4290136320
1.8156395 1.5497458 0.37688744 4290136320
1.8079848 1.5433103 0.38145292 4290005760
1.8052344 1.5410606 0.38657802 4290005760
1.8172959 1.5514557 0.39445424 4290136320
1.8035134 1.5397873 0.39626211 4290005760
1.8060025 1.5420105 0.40115434 4290005760
1.8054802 1.5416627 0.40491596 4290005760
1.801255 1.5381527 0.40736637 4290005760
1.798208 1.5356483 0.40959516 4290005760
1.790357 1.5290411 0.41023585 4290005760
1.7975492 1.5352812 0.41384119 4290005760
1.7935673 1.5319777 0.41439438 4290005760
1.7933929 1.5319262 0.41533887 4290005760
1.7895374 1.52873 0.41494334 4290005760
1.8033468 1.5406249 0.41815674 4290005760
1.803362 1.5407358 0.41768187 4290005760
1.7996851 1.5376923 0.41586465 4290005760
1.807988 1.5448847 0.41632402 4290136320
1.8116411 1.5481045 0.41521484 4290136320
1.808854 1.5458212 0.41214389 4290136320
1.8074466 1.5447168 0.40891179 4290005760
1.8113199 1.5481255 0.40639207 4290136320
1.8135964 1.5501698 0.40302819 4290136320
1.8106236 1.5477273 0.39803088 4290136320
1.8155515 1.5520384 0.39430177 4290136320
1.8181314 1.5543427 0.3895846 4290136320
1.8086408 1.5463275 0.38185212 4290005760
1.7947696 1.5345657 0.37283036 4290005760
1.7992355 1.5384818 0.36721852 4290005760
1.8207064 1.5569401 0.36455533 4290136320
1.8229512 1.5589589 0.35753164 4290136320
1.8230686 1.5591586 0.34967133 4290136320
1.7876248 1.5294733 0.28401461 4289875200
1.8122211 1.5506163 0.27739155 4290005760
1.8334173 1.5688524 0.26966751 4290136320
1.8286434 1.564867 0.25772485 4290136320
1.8005799 1.5409496 0.2424188 4290005760
1.8026141 1.5427885 0.23105918 4290005760
1.8188521 1.556785 0.22114374 4290005760
1.8059385 1.5458304 0.20741908 4290005760
1.7866172 1.5293891 0.19294891 4289875200
1.8118796 1.5511131 0.18303737 4290005760
1.8083261 1.5481694 0.16986257 4290005760
1.8137527 1.5529139 0.15733109 4290005760
1.7936546 1.5358039 0.14252061 4289875200
1.817381 1.5562185 0.13100795 4290005760
1.8249624 1.5628097 0.11795696 4290005760
1.8153279 1.5546581 0.10368046 4290005760
1.7732786 1.5187434 0.087830909 4289744640
1.6027446 1.372775 0.067143075 4289091840
1.5713567 1.3459764 0.053754844 4288961280
1.4808583 1.268539 0.039225675 4288569600
1.5572155 1.334033 0.029180266 4288830720
1.5390519 1.3185565 0.016880933 4288830720
1.5663836 1.3420578 0.0049901898 4288830720
1.5192559 1.3017622 -0.006989555 4288700160
1.5495434 1.3277982 -0.0191873 4288830720
1.5607774 1.3375096 -0.031452049 4288830720
1.5223768 1.3046852 -0.04247307 4288700160
1.5565106 1.3340228 -0.05543847 4288830720
1.5524027 1.3305868 -0.067214482 4288830720
1.5730715 1.348388 -0.080117442 4288961280
1.7113502 1.4670094 -0.10013004 4289483520
1.706111 1.4626112 -0.11264627 4289483520
1.7122122 1.4679351 -0.12579575 4289483520
1.7195461 1.4743164 -0.13899913 4289614080
1.7173752 1.4725486 -0.15132169 4289614080
1.7149744 1.4705837 -0.16342652 4289614080
1.7171029 1.4725025 -0.17578273 4289614080
1.7310659 1.4845707 -0.18927076 4289614080
1.7273756 1.4815001 -0.20069338 4289614080
1.7026945 1.460425 -0.20926577 4289483520
1.7103792 1.4671096 -0.22147034 4289614080
1.7095002 1.4664487 -0.23236644 4289614080
1.7086434 1.465807 -0.24299724 4289614080
1.7008668 1.4592283 -0.25232103 4289483520
1.6901836 1.4501551 -0.26082119 4289483520
1.7058415 1.4636824 -0.27312186 4289614080
1.7124408 1.4694383 -0.28379402 4289614080
1.7179632 1.4742707 -0.29403585 4289614080
1.7082952 1.4660673 -0.30132589 4289614080
1.7006813 1.4596258 -0.30854872 4289614080
1.6907302 1.4511774 -0.31491145 4289483520
1.6898547 1.4505183 -0.32255462 4289483520
1.6920031 1.4524547 -0.33041281 4289483520
1.6911728 1.4518342 -0.33731776 4289483520
1.6938037 1.4541851 -0.34453359 4289483520
1.6971377 1.4571402 -0.35151961 4289614080
1.6947796 1.4552079 -0.3569262 4289614080
1.6908666 1.4519404 -0.36157265 4289483520
1.6871164 1.4488122 -0.36581203 4289483520
1.6895263 1.450974 -0.37095872 4289483520
1.6823838 1.4449317 -0.37356633 4289483520
1.6852825 1.4475133 -0.377958 4289483520
1.6835589 1.4461249 -0.38087606 4289483520
1.6779102 1.4413644 -0.382449 4289483520
1.6753826 1.4392846 -0.38427368 4289483520
1.6746358 1.4387344 -0.38605326 4289483520
1.6639396 1.4296359 -0.3850773 4289483520
1.6742195 1.4385597 -0.38850185 4289483520
1.6745514 1.4389362 -0.38916963 4289483520
1.6766654 1.4408445 -0.38979611 4289483520
1.674432 1.4390166 -0.38895583 4289483520
1.679485 1.4434508 -0.38935062 4289483520
1.6800932 1.4440653 -0.38825631 4289483520
1.6895695 1.4523027 -0.38874695 4289614080
1.6903088 1.4530306 -0.38676217 4289614080
1.6939939 1.456291 -0.38499275 4289614080
1.6901243 1.4530567 -0.38105822 4289614080
1.6928318 1.4554769 -0.37816355 4289614080
1.6891822 1.4524312 -0.37341124 4289483520
1.6937317 1.4564357 -0.37003392 4289614080
1.6837962 1.4479841 -0.36307889 4289483520
1.6806334 1.4453561 -0.35720149 4289483520
1.6737641 1.43954 -0.35015586 4289483520
1.6741003 1.4399205 -0.34423512 4289483520
1.6710397 1.4373795 -0.33722994 4289483520
1.6870663 1.4512573 -0.33363599 4289483520
1.6928736 1.4563454 -0.32754883 4289483520
1.6966497 1.4596866 -0.32065228 4289614080
1.6818717 1.4470646 -0.30993602 4289483520
1.6786026 1.4443437 -0.30107367 4289483520
1.6831739 1.4483691 -0.29326859 4289483520
1.691834 1.4559135 -0.28577447 4289483520
1.6994354 1.4625479 -0.27769095 4289614080
1.6894158 1.4540174 -0.26643074 4289483520
1.6943647 1.4583694 -0.25726002 4289483520
1.7016046 1.464694 -0.2480763 4289483520
1.7170533 1.4780856 -0.23967268 4289614080
1.7109141 1.4728944 -0.22793196 4289614080
1.6917158 1.4564595 -0.21436228 4289483520
1.7018799 1.4653033 -0.20433299 4289483520
1.7016815 1.4652256 -0.19276738 4289483520
1.7072641 1.4701258 -0.18160677 4289614080
1.6953503 1.4599596 -0.16843022 4289483520
1.5521667 1.3367412 -0.14313233 4288830720
1.5964895 1.3749999 -0.13566904 4289091840
1.5132896 1.3034256 -0.11750939 4288700160
1.4385213 1.2391049 -0.10103993 4288308480
1.5375887 1.3245231 -0.096482396 4288830720
1.5598918 1.343821 -0.086092167 4288830720
1.4639701 1.2612661 -0.069645256 4288439040
1.5748452 1.3568755 -0.06284067 4288961280
1.542488 1.3290812 -0.049651314 4288830720
1.5229338 1.3123158 -0.037220944 4288700160
1.4282551 1.230809 -0.023801412 4288308480
1.5571787 1.3419951 -0.013813231 4288830720
1.5879567 1.3686069 -0.0016938611 4288961280
1.7814618 1.53548 0.012005032 4289875200
1.810107 1.5602691 0.026314579 4290005760
1.8187487 1.5678177 0.040596373 4290005760
1.8257371 1.5739418 0.054919727 4290005760
1.8224056 1.5711696 0.068902619 4290005760
1.79798 1.5502098 0.081800781 4290005760
1.8194128 1.5687888 0.096673556 4290005760
1.8228416 1.5718451 0.11067548 4290005760
1.8047043 1.556304 0.12313844 4290005760
1.7512467 1.5103003 0.13252427 4289744640
1.8170995 1.5671921 0.15088221 4290005760
1.8145398 1.565084 0.16386199 4290005760
1.802014 1.5543789 0.17565511 4290005760
1.7398021 1.5008116 0.18188405 4289744640
1.8321458 1.5805707 0.20427425 4290136320
1.8314229 1.5800475 0.21670119 4290136320
1.8248364 1.5744649 0.22814713 4290136320
1.7937415 1.5477346 0.23602943 4290005760
1.6564393 1.429354 0.22859067 4289352960
1.8289276 1.5782956 0.26384944 4290136320
1.8216072 1.5720782 0.27391067 4290136320
1.8011562 1.5545274 0.28152612 4290005760
1.777693 1.5343744 0.28809953 4289875200
1.7414031 1.503147 0.2919336 4289744640
1.8152348 1.5669767 0.314096 4290136320
1.8173506 1.5689029 0.32390401 4290136320
1.8087957 1.5616167 0.33141214 4290005760
1.8016855 1.5555768 0.33873236 4290005760
1.7933553 1.5484829 0.34536585 4290005760
1.7758189 1.5334384 0.34971815 4289875200
1.8019072 1.5560647 0.36229309 4290005760
1.8081734 1.5615752 0.37059939 4290136320
1.8021526 1.5564743 0.3759639 4290005760
1.7985444 1.5534567 0.38136426 4290005760
1.7935574 1.5492476 0.38600385 4290005760
1.7940397 1.5497627 0.3913596 4290005760
1.7877944 1.5444657 0.39477879 4290005760
1.7828113 1.5402586 0.3979896 4290005760
1.7927266 1.5489235 0.40407279 4290005760
1.7855513 1.5428219 0.4058409 4290005760
1.7750651 1.5338587 0.40635243 4290005760
1.7776911 1.5362253 0.4093776 4290005760
1.7773948 1.5360668 0.41125455 4290005760
1.7741789 1.5333849 0.41197193 4290005760
1.7769861 1.5359087 0.41360459 4290005760
1.7738949 1.5333343 0.41338071 4290005760
1.7876348 1.5453089 0.41659412 4290005760
1.7801991 1.5389788 0.41438675 4290005760
1.7869704 1.5449307 0.41499949 4290005760
1.7847991 1.5431516 0.41304764 4290005760
1.7809796 1.5399469 0.41023687 4290005760
1.7960904 1.5531113 0.41129053 4290005760
1.7946888 1.5519979 0.40806431 4290005760
1.7910852 1.54898 0.40387017 4290005760
1.7888749 1.5471666 0.39953089 4290005760
1.8015755 1.5582501 0.39803088 4290136320
1.7960312 1.5535532 0.39202148 4290005760
1.7985942 1.555869 0.38733405 4290005760
1.7915386 1.5498641 0.38014141 4290005760
1.7880421 1.5469373 0.37329876 4290005760
1.7902414 1.5489384 0.36721852 4290005760
1.8041283 1.5610527 0.36305091 4290005760
1.8071061 1.5637286 0.35620478 4290136320
1.803478 1.5606883 0.34765196 4290005760
1.7786834 1.5398624 0.28401461 4289875200
1.8031561 1.5611483 0.27739155 4290005760
1.8167325 1.5730025 0.26855686 4290136320
1.8052132 1.5631279 0.25570187 4290005760
1.7810429 1.5422968 0.24099419 4289875200
1.7898329 1.5500069 0.23057455 4290005760
1.7984604 1.5575771 0.21976407 4290005760
1.7893713 1.5498037 0.20654985 4290005760
1.7671294 1.530637 0.19180416 4289875200
1.7847245 1.5459754 0.181201 4289875200
1.7975702 1.5572016 0.16970159 4290005760
1.7978866 1.5575745 0.15673935 4290005760
1.777132 1.5396918 0.14191814 4289875200
1.8082833 1.5667804 0.13100795 4290005760
1.8090326 1.5675292 0.11751565 4290005760
1.8062392 1.5652081 0.10368046 4290005760
1.7606241 1.5257769 0.087642945 4289744640
1.5909427 1.3788166 0.066984072 4289091840
1.5566893 1.3492159 0.053521097 4288830720
1.5227842 1.3199135 0.040539242 4288700160
1.5456388 1.3398083 0.029109119 4288830720
1.5351216 1.3307761 0.016922578 4288830720
1.558538 1.3511611 0.0049901898 4288830720
1.5040901 1.3040409 -0.0069546192 4288700160
1.5349815 1.3309081 -0.01910268 4288830720
1.5529584 1.3465804 -0.031452049 4288830720
1.5071963 1.3069828 -0.04226128 4288700160
1.538139 1.3338997 -0.055059999 4288830720
1.5227275 1.3206185 -0.066261649 4288700160
1.5651888 1.3575301 -0.080117442 4288961280
1.6945488 1.4698209 -0.099646367 4289483520
1.6907704 1.4666365 -0.1121957 4289483520
1.6998596 1.4746145 -0.12551729 4289483520
1.7071575 1.4810393 -0.13869287 4289614080
1.7102 1.483773 -0.15144862 4289614080
1.6952308 1.4708791 -0.16235897 4289483520
1.7138916 1.4871646 -0.176338 4289614080
1.7182649 1.4910541 -0.1888178 4289614080
1.7099901 1.4839677 -0.19967462 4289614080
1.7018415 1.4769897 -0.21021497 4289614080
1.6925911 1.4690548 -0.22027159 4289483520
1.7009273 1.4763837 -0.23236644 4289614080
1.7000743 1.475737 -0.24299724 4289614080
1.6990899 1.4749761 -0.25332797 4289614080
1.678706 1.4573734 -0.26035592 4289483520
1.6972848 1.4735961 -0.27312186 4289614080
1.7001046 1.476138 -0.28317007 4289614080
1.7018569 1.477753 -0.29274783 4289614080
1.6959828 1.472746 -0.30066252 4289614080
1.6884085 1.4662617 -0.30786681 4289483520
1.6785088 1.457757 -0.31421173 4289483520
1.6789423 1.4582261 -0.32208791 4289483520
1.6805248 1.4596932 -0.3298265 4289483520
1.6864177 1.4649048 -0.33806595 4289614080
1.6862118 1.4648188 -0.3447195 4289614080
1.6856363 1.4644117 -0.35089865 4289614080
1.6788182 1.458581 -0.35534838 4289483520
1.6712018 1.4520559 -0.35917056 4289483520
1.6756674 1.4560283 -0.36516279 4289483520
1.6773212 1.4575578 -0.37013718 4289483520
1.6703783 1.4516168 -0.37277222 4289483520
1.6684413 1.4500254 -0.37606937 4289483520
1.6639466 1.4462109 -0.37833893 4289483520
1.6732025 1.4543478 -0.38330084 4289483520
1.6632508 1.4457896 -0.38341665 4289483520
1.6555238 1.439164 -0.38357386 4289483520
1.6622719 1.445122 -0.38663331 4289483520
1.6662598 1.4486809 -0.38860682 4289483520
1.6624235 1.4454372 -0.3883017 4289483520
1.6682423 1.4505886 -0.38979611 4289483520
1.6660196 1.4487478 -0.38895583 4289483520
1.6747625 1.4564428 -0.39021641 4289483520
1.6605028 1.4441336 -0.385667 4289483520
1.6736463 1.4556569 -0.38702807 4289483520
1.6751238 1.4570345 -0.38522354 4289483520
1.6825064 1.4635487 -0.3843134 4289614080
1.6816298 1.4628789 -0.38105822 4289614080
1.6739092 1.4562551 -0.37582541 4289483520
1.6806914 1.4622481 -0.37341124 4289483520
1.681496 1.4630411 -0.3692168 4289614080
1.6753312 1.4577696 -0.36307889 4289483520
1.6647363 1.4486425 -0.35561058 4289483520
1.6690738 1.4525092 -0.3509391 4289483520
1.6552479 1.4405686 -0.34207869 4289483520
1.6666803 1.4506102 -0.33805007 4289483520
1.6711228 1.4545691 -0.33215332 4289483520
1.6843599 1.4661838 -0.32754883 4289483520
1.6851299 1.4669471 -0.32008502 4289483520
1.677147 1.4600905 -0.31062776 4289483520
1.6701591 1.4540991 -0.30107367 4289483520
1.6747068 1.4581511 -0.29326859 4289483520
1.6795825 1.462489 -0.28513947 4289483520
1.6908854 1.4724244 -0.27769095 4289614080
1.6771717 1.4605751 -0.26583731 4289483520
1.6751578 1.4589138 -0.25563005 4289483520
1.6896116 1.471595 -0.24757363 4289483520
1.7067208 1.486591 -0.23943536 4289614080
1.7021395 1.4826946 -0.22791 4289614080
1.6815039 1.4648123 -0.21414609 4289483520
1.6933138 1.4751939 -0.20433299 4289483520
1.6931159 1.4751151 -0.19276738 4289483520
1.6911546 1.4734998 -0.18080331 4289483520
1.6830565 1.4665369 -0.16805488 4289483520
1.5375835 1.3398634 -0.14250499 4288830720
1.5703952 1.3685428 -0.13412687 4288961280
1.5576111 1.3574879 -0.12156312 4288961280
1.4357961 1.2514032 -0.10135891 4288308480
1.5185509 1.3236141 -0.095770076 4288700160
1.5445044 1.3463213 -0.085674383 4288830720
1.4993781 1.3070682 -0.07169079 4288700160
1.5525979 1.3535479 -0.062266562 4288830720
1.5234154 1.328191 -0.049285643 4288700160
1.5001901 1.3080251 -0.036850713 4288700160
1.3961895 1.2174233 -0.023384856 4288177920
1.5417968 1.3444726 -0.013746037 4288830720
1.5874926 1.384408 -0.0017019411 4289091840
1.751597 1.5276158 0.011863555 4289744640
1.7866677 1.5583007 0.026105376 4289875200
1.798281 1.568529 0.040342811 4290005760
1.8127691 1.5812664 0.054805841 4290005760
1.8094544 1.5784751 0.068759501 4290005760
1.7813866 1.5540887 0.081456415 4289875200
1.7989482 1.569509 0.096070431 4290005760
1.8061256 1.5758711 0.11021616 4290005760
1.7935451 1.5649936 0.12299708 4290005760
1.7386565 1.5171957 0.13223819 4289744640
1.804178 1.5744712 0.15056844 4290005760
1.8091488 1.5789093 0.16420311 4290005760
1.7929273 1.5648514 0.17565511 4290005760
1.7235183 1.5043672 0.18109493 4289614080
1.8191525 1.5879419 0.20385364 4290136320
1.8146828 1.5841408 0.21580887 4290136320
1.8013829 1.5726303 0.2263566 4290005760
1.7697018 1.5450703 0.23404674 4289875200
1.6405915 1.432439 0.22755152 4289352960
1.8054738 1.5765015 0.26178655 4290005760
1.8019395 1.5735152 0.27232718 4290005760
1.7920686 1.5649949 0.28152612 4290005760
1.7758305 1.5509126 0.2892572 4290005760
1.7486581 1.5272785 0.29463658 4289875200
1.8023405 1.5742646 0.31344667 4290005760
1.8007802 1.5730015 0.32257864 4290005760
1.7996666 1.5721285 0.33141214 4290005760
1.7930433 1.5664418 0.33881766 4290005760
1.7805771 1.5556498 0.34464467 4290005760
1.7527031 1.5313939 0.34691709 4289875200
1.7898328 1.5639346 0.36169136 4290005760
1.7841625 1.5590788 0.36753371 4290005760
1.7826409 1.5578479 0.37378055 4290005760
1.7820286 1.5574116 0.37977982 4290005760
1.7845007 1.559671 0.38600385 4290005760
1.7812657 1.5569422 0.39054522 4290005760
1.7784725 1.5545994 0.39471376 4290005760
1.7818981 1.5576925 0.39980498 4290005760
1.7762505 1.5528539 0.40239152 4290005760
1.7728225 1.5499554 0.40499341 4290005760
1.7724086 1.5496917 0.40780428 4290005760
1.762036 1.5407201 0.40783271 4290005760
1.7617416 1.5405605 0.4097026 4290005760
1.7615079 1.5404538 0.41110677 4290005760
1.7576288 1.5371588 0.41117662 4289875200
1.7675309 1.5459169 0.41398957 4290005760
1.7637759 1.5427306 0.41312164 4290005760
1.7674961 1.5460825 0.41351962 4290005760
1.7675607 1.546237 0.41257703 4290005760
1.7683645 1.5470383 0.41132322 4290005760
1.7756846 1.5535406 0.41109514 4290005760
1.7729217 1.5512217 0.40804777 4290005760
1.7781993 1.555938 0.40636936 4290005760
1.7749816 1.553221 0.4022727 4290005760
1.7731522 1.5517186 0.39803177 4290005760
1.7820752 1.559626 0.39572346 4290005760
1.779525 1.5574929 0.39039272 4290005760
1.7820721 1.559821 0.38572651 4290005760
1.775049 1.5537723 0.37855697 4290005760
1.7685938 1.54822 0.37111539 4290005760
1.7670597 1.5469751 0.36430606 4290005760
1.7902753 1.5673987 0.36209476 4290005760
1.797273 1.5736248 0.35606772 4290136320
1.7943546 1.5711691 0.34765196 4290005760
1.7622138 1.5436575 0.28281608 4289875200
1.7873055 1.5657367 0.27635184 4290005760
1.8002546 1.5771804 0.26747486 4290005760
1.7923361 1.5703427 0.25516951 4290005760
1.7645447 1.5460914 0.2399766 4289875200
1.777029 1.5571288 0.23008993 4289875200
1.7826149 1.5621225 0.21893626 4290005760
1.7735684 1.5542934 0.20576753 4289875200
1.754434 1.5376222 0.19139531 4289875200
1.771938 1.5530614 0.18081841 4289875200
1.7817163 1.5617309 0.16906102 4290005760
1.7812778 1.5614455 0.15608187 4289875200
1.7674459 1.5494188 0.14186314 4289875200
1.7841078 1.5641245 0.12991449 4290005760
1.7886038 1.5681654 0.11678012 4290005760
1.7895774 1.5691185 0.10324707 4290005760
1.7377995 1.5238158 0.086947232 4289744640
1.5716103 1.3781775 0.066507056 4288961280
1.5450441 1.354967 0.053391233 4288830720
1.4584599 1.2791158 0.039024547 4288439040
1.5272825 1.3395603 0.028909909 4288830720
1.5130588 1.3271689 0.016764322 4288700160
1.5220727 1.33516 0.004898258 4288700160
1.4784254 1.2969549 -0.0068707736 4288569600
1.5196844 1.3332341 -0.019008657 4288700160
1.5338124 1.3457139 -0.03122255 4288830720
1.4890349 1.3065104 -0.041964769 4288569600
1.5228275 1.3362454 -0.054789659 4288830720
1.5120026 1.3268309 -0.066130221 4288700160
1.5497425 1.3600351 -0.07973104 4288830720
1.6822025 1.4763738 -0.099424474 4289483520
1.6851993 1.4790977 -0.11239596 4289483520
1.6874875 1.4812 -0.12523884 4289483520
1.6879981 1.481742 -0.13783534 4289483520
1.697777 1.4904205 -0.15111493 4289614080
1.6896306 1.483363 -0.16264758 4289483520
1.7038913 1.4959776 -0.17620286 4289614080
1.7095486 1.5010397 -0.1888178 4289614080
1.6945785 1.4879898 -0.19888397 4289614080
1.686474 1.480967 -0.20937902 4289483520
1.6877422 1.4821748 -0.22076064 4289483520
1.6885598 1.4829866 -0.23185332 4289614080
1.6847245 1.479712 -0.2420314 4289483520
1.672549 1.4691112 -0.25064278 4289483520
1.6627245 1.4605743 -0.25919271 4289483520
1.6849415 1.480184 -0.27251875 4289614080
1.6877486 1.4827439 -0.28254616 4289614080
1.6865134 1.4817526 -0.2915886 4289614080
1.6836506 1.4793311 -0.29999918 4289614080
1.6731395 1.4701887 -0.30663931 4289483520
1.6737059 1.4707797 -0.31491145 4289483520
1.6654043 1.4635773 -0.32112122 4289483520
1.6682768 1.4661945 -0.32909364 4289483520
1.6711704 1.4688306 -0.33671924 4289483520
1.6693212 1.4672983 -0.34300834 4289483520
1.6659462 1.4644246 -0.34856999 4289483520
1.6739999 1.4715973 -0.35613728 4289483520
1.6664201 1.4650267 -0.35997126 4289483520
1.6698157 1.468105 -0.3657454 4289483520
1.6688006 1.4673055 -0.37013718 4289483520
1.6506221 1.4514139 -0.3702442 4289483520
1.6616385 1.4611932 -0.37644854 4289483520
1.6525321 1.4532773 -0.37766236 4289483520
1.6499022 1.4510566 -0.37989345 4289483520
1.6474013 1.4489489 -0.3817026 4289483520
1.6437044 1.4457889 -0.38278058 4289483520
1.6434705 1.4456748 -0.38421282 4289483520
1.643002 1.4453541 -0.38514006 4289483520
1.6428828 1.4453409 -0.38569787 4289483520
1.6523689 1.4537784 -0.38805968 4289483520
1.6508962 1.4525747 -0.38739431 4289483520
1.6558969 1.457067 -0.38779217 4289483520
1.6668497 1.4667976 -0.38911942 4289483520
1.6584811 1.4595258 -0.38548106 4289483520
1.669565 1.4693731 -0.38590738 4289483520
1.6611158 1.4620297 -0.38136667 4289483520
1.6664191 1.4667903 -0.37954155 4289483520
1.6653963 1.4659829 -0.37582541 4289483520
1.6721435 1.4720154 -0.37341124 4289483520
1.6662792 1.4669459 -0.367746 4289483520
1.6594024 1.4609842 -0.36146536 4289483520
1.6599729 1.4615791 -0.35640603 4289483520
1.6502055 1.4530711 -0.348746 4289483520
1.6468269 1.4501879 -0.34207869 4289483520
1.6515239 1.4544163 -0.33668894 4289483520
1.6589091 1.4610126 -0.33141199 4289483520
1.6707816 1.4715619 -0.32657009 4289483520
1.6765546 1.4767401 -0.32008502 4289483520
1.664896 1.4665639 -0.30993602 4289483520
1.6579412 1.4605302 -0.30040008 4289483520
1.6587441 1.4613299 -0.29195926 4289483520
1.667312 1.4689713 -0.2845045 4289483520
1.6755766 1.4763461 -0.27658474 4289483520
1.6649088 1.4670397 -0.26524386 4289483520
1.6630949 1.4655341 -0.25508791 4289483520
1.6739824 1.4752218 -0.24653876 4289483520
1.6929991 1.4920751 -0.23872587 4289614080
1.6906499 1.490099 -0.22753015 4289614080
1.6679093 1.470149 -0.21350199 4289483520
1.6772195 1.4784491 -0.20342688 4289483520
1.6777664 1.4790248 -0.19199763 4289483520
1.682541 1.4833277 -0.18080331 4289483520
1.6670622 1.4697747 -0.16731006 4289483520
1.5185273 1.3389028 -0.14145944 4288830720
1.5474252 1.3644688 -0.13284174 4288961280
1.5249672 1.3447514 -0.11962489 4288830720
1.4209913 1.2531424 -0.10082749 4288308480
1.4965796 1.3198857 -0.094867796 4288700160
1.5223973 1.3427402 -0.084880605 4288830720
1.4737502 1.2999163 -0.070826352 4288569600
1.5296937 1.3493465 -0.061662242 4288830720
1.5014071 1.3244787 -0.048822455 4288700160
1.4820472 1.307483 -0.036591552 4288569600
1.4188619 1.2518193 -0.023886353 4288308480
1.5159415 1.3375545 -0.01358477 4288700160
1.5681524 1.3837091 -0.0016898211 4288961280
1.7367845 1.5326039 0.011823507 4289744640
1.7738097 1.5653756 0.026050322 4289875200
1.7928602 1.5822875 0.040427335 4290005760
1.7930318 1.5825393 0.054486956 4290005760
1.7972295 1.5863446 0.068645008 4290005760
1.7648094 1.5578272 0.08111205 4289875200
1.7830316 1.574012 0.095708556 4290005760
1.7864295 1.5771115 0.10957309 4290005760
1.7731671 1.5655022 0.12222303 4289875200
1.7260456 1.5239958 0.13195214 4289744640
1.787493 1.5783502 0.14994089 4290005760
1.7887017 1.5795174 0.16317976 4290005760
1.777052 1.5693295 0.17499261 4290005760
1.7005274 1.5018451 0.17959557 4289614080
1.8096774 1.5983436 0.20383196 4290136320
1.8042306 1.5936338 0.21566638 4290136320
1.7856382 1.5773115 0.22552912 4290005760
1.753958 1.5494255 0.23315454 4289875200
1.614329 1.4261692 0.22505757 4289222400
1.7962581 1.5869938 0.26178655 4290005760
1.7927412 1.5839869 0.27232718 4290005760
1.7717576 1.5655458 0.27976352 4290005760
1.7593267 1.5546602 0.28803948 4289875200
1.7322965 1.5308713 0.29337764 4289744640
1.7889798 1.5810639 0.31271979 4290005760
1.7878722 1.5801851 0.32191014 4290005760
1.7830549 1.5760272 0.33003843 4290005760
1.7697927 1.5644038 0.33614081 4290005760
1.7640694 1.5594435 0.34320229 4290005760
1.743751 1.5415796 0.34691709 4289875200
1.7678362 1.5629712 0.35908037 4290005760
1.7720875 1.566829 0.36692056 4290005760
1.7735343 1.5682075 0.37378055 4290005760
1.7625693 1.5586106 0.37756163 4290005760
1.7642932 1.5602338 0.38359261 4290005760
1.7618173 1.558143 0.38826495 4290005760
1.7656909 1.5616676 0.3938897 4290005760
1.7654067 1.5615151 0.39813933 4290005760
1.7671731 1.5631764 0.40239152 4290005760
1.7534279 1.551116 0.40262049 4290005760
1.7530179 1.5508516 0.40541488 4290005760
1.7353214 1.5352931 0.40371302 4289875200
1.7453589 1.5442715 0.40797821 4289875200
1.7451268 1.5441638 0.40937644 4289875200
1.7346299 1.5349727 0.40788153 4289875200
1.758494 1.5561887 0.41398957 4290005760
1.7518078 1.5503699 0.41242716 4290005760
1.7621346 1.5596077 0.41438413 4290005760
1.7548344 1.5532451 0.41171187 4290005760
1.7489952 1.5481745 0.40890905 4289875200
1.7621127 1.5598847 0.41005021 4290005760
1.7535251 1.5523809 0.40565833 4290005760
1.7550839 1.5538592 0.40314892 4290005760
1.7659022 1.563536 0.4022727 4290005760
1.7640815 1.5620229 0.39803177 4290005760
1.7692661 1.5667129 0.39489937 4290005760
1.7686843 1.5662968 0.39000985 4290005760
1.7655652 1.5636334 0.384119 4290005760
1.7622706 1.5608145 0.37776476 4290005760
1.7521493 1.5519487 0.36955586 4289875200
1.7439623 1.5447947 0.3613936 4289875200
1.7737128 1.5712471 0.36059034 4290005760
1.7843726 1.5807902 0.35533059 4290005760
1.7777635 1.5750347 0.34620953 4290005760
1.7453105 1.5472063 0.28156835 4289875200
1.7631922 1.5631571 0.27405003 4289875200
1.7877201 1.5850027 0.26700315 4290005760
1.7755686 1.5743287 0.25410658 4290005760
1.7486621 1.5505699 0.23906319 4289875200
1.7664701 1.5664597 0.22992259 4289875200
1.7733359 1.5726477 0.21894012 4290005760
1.7568827 1.5581549 0.20490284 4289875200
1.7378442 1.5413677 0.19058287 4289744640
1.7552536 1.5569072 0.1800593 4289875200
1.7649776 1.5656315 0.16835615 4289875200
1.7652847 1.566003 0.15549779 4289875200
1.7515221 1.5538924 0.14132932 4289875200
1.7683601 1.5689298 0.12945119 4289875200
1.7792888 1.5787259 0.11679031 4290005760
1.7738382 1.5739892 0.1028858 4289875200
1.715506 1.5223253 0.086292639 4289614080
1.5492202 1.3748517 0.065913878 4288961280
1.529519 1.3574538 0.053143118 4288830720
1.4403934 1.2784356 0.03875456 4288439040
1.5081086 1.3386215 0.028709283 4288700160
1.4976972 1.3294643 0.016694425 4288700160
1.514142 1.344147 0.0049124579 4288700160
1.5260736 1.3548247 -0.0071143992 4288830720
1.4900802 1.3229541 -0.018720767 4288700160
1.5078747 1.3388374 -0.030839343 4288700160
1.4700608 1.3053452 -0.041630901 4288569600
1.4864873 1.3200146 -0.053745471 4288700160
1.5524293 1.378659 -0.068235904 4288961280
1.5199977 1.349943 -0.078592151 4288830720
1.6703705 1.4835862 -0.099221811 4289483520
1.6659606 1.479763 -0.11167397 4289483520
1.6757045 1.4885122 -0.12499441 4289483520
1.6808856 1.4932089 -0.13795173 4289483520
1.6847962 1.4967775 -0.15072291 4289483520
1.676265 1.4892926 -0.16218393 4289483520
1.6852881 1.4974041 -0.17516938 4289614080
1.6926724 1.5040603 -0.18791029 4289614080
1.6768805 1.4901223 -0.19781505 4289483520
1.659326 1.4746162 -0.20706515 4289483520
1.6715014 1.4855303 -0.21975893 4289483520
1.6730615 1.4870108 -0.23090607 4289483520
1.6796528 1.4929637 -0.24254428 4289614080
1.6675383 1.4822894 -0.25117874 4289483520
1.6396294 1.4575732 -0.25690988 4289352960
1.6694746 1.4841985 -0.27141002 4289483520
1.6685625 1.4834814 -0.28077632 4289483520
1.6786175 1.4925156 -0.29172292 4289614080
1.6681997 1.4833465 -0.298783 4289483520
1.6533047 1.4701951 -0.30457205 4289483520
1.6538736 1.470794 -0.31279132 4289483520
1.6513473 1.4686403 -0.32006079 4289483520
1.6595701 1.4760467 -0.32907382 4289483520
1.662448 1.4786998 -0.33670008 4289483520
1.6615078 1.4779571 -0.34317586 4289483520
1.6535594 1.4709799 -0.34777632 4289483520
1.6512433 1.4690124 -0.35312286 4289483520
1.6540328 1.4715871 -0.35915494 4289483520
1.6537255 1.4714068 -0.36410764 4289483520
1.6527177 1.4706031 -0.36848062 4289483520
1.645686 1.4644389 -0.3710624 4289483520
1.6409856 1.4603486 -0.37371016 4289483520
1.6468462 1.4656568 -0.37832901 4289483520
1.6412845 1.4607992 -0.37988487 4289483520
1.6387959 1.4586767 -0.38169539 4289483520
1.6385061 1.458511 -0.38356808 4289483520
1.6312058 1.4521044 -0.38334408 4289352960
1.6383855 1.4585881 -0.38607231 4289483520
1.6379757 1.4583156 -0.38656455 4289483520
1.6371142 1.4576406 -0.38649723 4289483520
1.6385905 1.4590474 -0.38652885 4289483520
1.6435641 1.4635687 -0.38693014 4289483520
1.6507808 1.4700881 -0.38739875 4289483520
1.6461327 1.4660414 -0.38462895 4289483520
1.6505355 1.4700555 -0.38352314 4289483520
1.6524303 1.4718362 -0.38137776 4289483520
1.654025 1.4733498 -0.37871194 4289483520
1.6566869 1.4758143 -0.3758404 4289483520
1.656034 1.4753261 -0.37177509 4289483520
1.6575636 1.4767822 -0.36776498 4289483520
1.6470377 1.4674971 -0.36067951 4289483520
1.6409693 1.4621826 -0.35420159 4289483520
1.6415716 1.4628119 -0.34877089 4289483520
1.6382099 1.4599086 -0.3421056 4289483520
1.6355022 1.4575877 -0.33520553 4289352960
1.6435831 1.4648823 -0.33010876 4289483520
1.6596324 1.4792801 -0.32613117 4289483520
1.6640847 1.4833424 -0.31941172 4289483520
1.6458311 1.4671642 -0.30803663 4289483520
1.6426053 1.4643812 -0.29922712 4289483520
1.6434002 1.4651824 -0.29082248 4289483520
1.6548808 1.4755113 -0.28391349 4289483520
1.6668031 1.4862355 -0.27663115 4289483520
1.6524853 1.4735619 -0.26469848 4289483520
1.649074 1.470613 -0.25431883 4289483520
1.6588169 1.479395 -0.24564366 4289483520
1.6763101 1.4950907 -0.23767185 4289483520
1.6766872 1.4955217 -0.22689593 4289483520
1.6503017 1.4720802 -0.21241823 4289483520
1.661937 1.4825528 -0.20269479 4289483520
1.6689774 1.4889274 -0.19205977 4289483520
1.6633137 1.4839686 -0.17974217 4289483520
1.6590145 1.4802264 -0.16744451 4289483520
1.5038724 1.3418885 -0.14089276 4288700160
1.5184692 1.3549987 -0.13110527 4288830720
1.5020807 1.3404593 -0.11851366 4288700160
1.436873 1.2823489 -0.1025534 4288439040
1.4708524 1.3127571 -0.093792796 4288569600
1.4928033 1.332433 -0.083735943 4288700160
1.4660273 1.3086162 -0.070893168 4288569600
1.5112382 1.349058 -0.061309189 4288830720
1.4756407 1.317364 -0.0483067 4288569600
1.470551 1.3129033 -0.036568992 4288569600
1.4076965 1.2568663 -0.023891049 4288308480
1.4900949 1.3305203 -0.013496057 4288700160
1.542032 1.3769825 -0.0017462281 4288961280
1.7127643 1.5295373 0.011636528 4289614080
1.7645127 1.5758494 0.025962247 4289875200
1.7730228 1.5835497 0.040101659 4290005760
1.7761773 1.5864675 0.054169599 4290005760
1.7766267 1.5869693 0.06812574 4290005760
1.745124 1.5589281 0.080541439 4289875200
1.7662337 1.5778853 0.095216826 4289875200
1.765891 1.5776788 0.10879451 4289875200
1.7638719 1.5759747 0.12213369 4289875200
1.713275 1.5308642 0.13157956 4289744640
1.7744013 1.5855829 0.14953792 4290005760
1.7689096 1.5807755 0.16213623 4290005760
1.753607 1.5671996 0.17350698 4289875200
1.6878955 1.5085685 0.17911798 4289614080
1.7823586 1.5930963 0.20172624 4290005760
1.7843745 1.5949988 0.21433125 4290005760
1.7799866 1.5911773 0.22591577 4290005760
1.7306659 1.547186 0.23119001 4289744640
1.6058638 1.4357059 0.22498369 4289222400
1.7757224 1.5876666 0.26007774 4290005760
1.7729701 1.5853059 0.27066526 4290005760
1.7624655 1.5760128 0.27968732 4290005760
1.7397411 1.5557909 0.28626129 4289875200
1.7128577 1.5318469 0.29154477 4289744640
1.7722051 1.5850228 0.31135044 4290005760
1.7711067 1.5841405 0.32050478 4290005760
1.763365 1.5773158 0.32804948 4290005760
1.7634588 1.5774995 0.33664107 4290005760
1.748176 1.5639271 0.34184396 4289875200
1.7402892 1.55697 0.34799749 4289875200
1.7519281 1.5674819 0.35767153 4290005760
1.7517408 1.5674134 0.36456931 4290005760
1.7539202 1.5694628 0.37154815 4290005760
1.756996 1.5723145 0.37830779 4290005760
1.7484119 1.5647315 0.3821032 4290005760
1.7488915 1.5652597 0.38741121 4290005760
1.742456 1.5595984 0.39072236 4289875200
1.7458503 1.5627354 0.39577496 4290005760
1.7476094 1.5644089 0.4000088 4290005760
1.7332038 1.5516115 0.40005293 4289875200
1.7401386 1.5579182 0.40454 4289875200
1.7434577 1.5609884 0.40773025 4290005760
1.7259147 1.5453792 0.40555021 4289875200
1.7293527 1.5485555 0.4078092 4289875200
1.7291818 1.5485003 0.40874264 4289875200
1.7389804 1.5573735 0.41155681 4289875200
1.727927 1.5475723 0.40895671 4289875200
1.7418661 1.5601552 0.41178888 4289875200
1.7316684 1.5511192 0.40843454 4289875200
1.7431767 1.5615263 0.40971777 4290005760
1.7455075 1.5637131 0.40835249 4290005760
1.7472372 1.5653615 0.40636414 4290005760
1.738511 1.5576422 0.40148124 4289875200
1.746333 1.5647494 0.39995068 4290005760
1.7437841 1.5625641 0.39556929 4289875200
1.7512901 1.5693893 0.3929956 4290005760
1.7490889 1.567516 0.38777441 4290005760
1.7459818 1.5648303 0.38191757 4290005760
1.7463762 1.5652827 0.37639219 4289875200
1.7326273 1.5530577 0.36742979 4289875200
1.7406687 1.5603642 0.36268228 4289875200
1.7570114 1.5751137 0.35915264 4290005760
1.7646652 1.5820751 0.35333794 4290005760
1.7617693 1.5795786 0.3449868 4290005760
1.7328628 1.5537091 0.28096908 4289875200
1.7506524 1.5697588 0.27347127 4289875200
1.7750551 1.5917405 0.26644549 4290005760
1.7600013 1.5783411 0.25314474 4290005760
1.7361885 1.5570847 0.23854958 4289875200
1.7398273 1.5604466 0.22759017 4289875200
1.7607343 1.579298 0.21847254 4290005760
1.7413951 1.5620503 0.20411146 4289875200
1.7176931 1.5408866 0.18931234 4289744640
1.7353669 1.5568397 0.17890488 4289875200
1.7457279 1.5662338 0.16734602 4289875200
1.7490001 1.5692687 0.154825 4289875200
1.731589 1.553745 0.14040886 4289744640
1.763202 1.5822111 0.12970592 4289875200
1.7562356 1.5760595 0.11583835 4289875200
1.7534771 1.5736834 0.10219602 4289875200
1.6936238 1.5200633 0.08559902 4289614080
1.5377246 1.3802277 0.065732822 4288961280
1.5002673 1.3466918 0.052366879 4288700160
1.4601772 1.3107885 0.039461464 4288569600
1.4826796 1.3310728 0.028342299 4288700160
1.4760396 1.3251956 0.016509509 4288569600
1.5028185 1.3493229 0.0048719947 4288700160
1.5042727 1.3507141 -0.0070778071 4288700160
1.4684604 1.3186409 -0.018572429 4288569600
1.479471 1.3286121 -0.030442748 4288700160
1.4269726 1.2815478 -0.040646255 4288439040
1.5233757 1.3682128 -0.055392131 4288830720
1.4985294 1.3459823 -0.066234678 4288700160
1.5706137 1.4108177 -0.081657439 4289091840
1.6590044 1.4903096 -0.099085599 4289483520
1.650159 1.4824573 -0.11121543 4289483520
1.6598556 1.4912628 -0.12448075 4289483520
1.6687248 1.4993259 -0.13768972 4289483520
1.6527467 1.4850634 -0.1486472 4289483520
1.6116005 1.4481834 -0.15675928 4289222400
1.6613864 1.4930153 -0.17360353 4289483520
1.6736424 1.5041243 -0.18678334 4289483520
1.6681682 1.4992993 -0.19782875 4289483520
1.6500479 1.483107 -0.20699474 4289483520
1.6581033 1.4904417 -0.2191464 4289483520
1.6609477 1.4930928 -0.23044018 4289483520
1.6601135 1.4924371 -0.24098179 4289483520
1.6591498 1.491665 -0.25122562 4289483520
1.6353897 1.4703964 -0.25758716 4289352960
1.6536932 1.4869473 -0.2702499 4289483520
1.663118 1.4955162 -0.28132117 4289483520
1.6655852 1.4978293 -0.29096717 4289483520
1.6561198 1.4894115 -0.29816383 4289483520
1.648667 1.4828025 -0.30529696 4289483520
1.6389239 1.4741328 -0.31157365 4289483520
1.6393565 1.4746151 -0.31938475 4289483520
1.6438621 1.4787613 -0.32764763 4289483520
1.6430534 1.4781272 -0.33449373 4289483520
1.6493093 1.4838488 -0.34241655 4289483520
1.6422973 1.4776337 -0.34719023 4289483520
1.6466001 1.4815987 -0.35394493 4289483520
1.6391011 1.4749444 -0.35774487 4289483520
1.6427662 1.4783357 -0.36355421 4289483520
1.637797 1.4739572 -0.36702889 4289483520
1.6346282 1.4711982 -0.37045905 4289483520
1.6253949 1.4629806 -0.37205517 4289352960
1.6282977 1.4656858 -0.37598082 4289483520
1.626428 1.4640954 -0.37836865 4289483520
1.6202922 1.4586641 -0.37931007 4289352960
1.6195623 1.4580991 -0.38106388 4289352960
1.619331 1.457983 -0.38248822 4289352960
1.626186 1.4642476 -0.38514286 4289483520
1.6260673 1.464233 -0.38569909 4289483520
1.6288691 1.4668487 -0.38649651 4289483520
1.630338 1.4682642 -0.3865248 4289483520
1.6279681 1.4662226 -0.38519105 4289483520
1.6322204 1.4701453 -0.38497099 4289483520
1.6341822 1.4720052 -0.38375488 4289483520
1.6385621 1.4760438 -0.38264999 4289483520
1.637518 1.4751965 -0.37982711 4289483520
1.638371 1.4760581 -0.37700078 4289483520
1.6481539 1.4849656 -0.37576735 4289483520
1.6447623 1.4820035 -0.37107992 4289483520
1.6382214 1.4762031 -0.36527577 4289483520
1.6400206 1.4779178 -0.36091915 4289483520
1.63765 1.4758747 -0.35522878 4289483520
1.6222984 1.4621319 -0.34637147 4289352960
1.6189492 1.4592055 -0.33974147 4289352960
1.6272639 1.4667926 -0.33514765 4289352960
1.6279584 1.4675113 -0.3285639 4289352960
1.6409839 1.4793464 -0.32403243 4289483520
1.6520257 1.4893947 -0.31863108 4289483520
1.6375399 1.4764282 -0.30796161 4289483520
1.626971 1.4669918 -0.29780108 4289352960
1.6314392 1.4711136 -0.29008466 4289352960
1.6428598 1.4815054 -0.28319064 4289483520
1.6473501 1.4856485 -0.27469498 4289483520
1.6404718 1.4795389 -0.26400909 4289483520
1.6358622 1.4754747 -0.25345945 4289352960
1.6314937 1.4716274 -0.24271792 4289352960
1.5993034 1.4426825 -0.22779714 4289222400
1.5253772 1.3760828 -0.20736189 4288961280
1.6442318 1.4833984 -0.21259341 4289483520
1.6535591 1.4919076 -0.20257467 4289483520
1.6457688 1.4849726 -0.19022547 4289483520
1.6549274 1.4933307 -0.17961475 4289483520
1.6396021 1.4795953 -0.16619426 4289352960
1.5291421 1.3800021 -0.14386231 4288961280
1.5427256 1.3923488 -0.13374667 4288961280
1.5253628 1.3767655 -0.12083121 4288830720
1.4435539 1.3030084 -0.10342744 4288439040
1.5046874 1.3582758 -0.09630385 4288830720
1.4637634 1.3214172 -0.082391553 4288569600
1.4089298 1.2719964 -0.068348572 4288308480
1.4717089 1.3287579 -0.059871428 4288569600
1.4540937 1.3129367 -0.047705531 4288569600
1.5002433 1.3546917 -0.037353121 4288700160
1.4154323 1.2781898 -0.024007188 4288308480
1.5490956 1.3989813 -0.013950027 4288961280
1.527564 1.3796233 -0.0015876796 4288830720
1.6815 1.5187469 0.011649661 4289614080
1.748919 1.5797402 0.026038973 4289875200
1.7549655 1.5853019 0.040071968 4289875200
1.7634913 1.593104 0.054234698 4290005760
1.7643075 1.5939419 0.068176545 4290005760
1.7288859 1.5620394 0.080373704 4289744640
1.7535962 1.5844651 0.095194891 4289875200
1.7569607 1.5876054 0.10897369 4289875200
1.7445774 1.5765153 0.12158939 4289875200
1.6942384 1.5311224 0.13095108 4289614080
1.751356 1.5828408 0.14852327 4289875200
1.7582192 1.589144 0.16215259 4290005760
1.7373344 1.5703666 0.17294452 4289875200
1.6689993 1.5086943 0.17817874 4289483520
1.7807283 1.6097935 0.2027414 4290005760
1.767392 1.5978383 0.21354258 4290005760
1.756205 1.5878247 0.22419935 4290005760
1.7182119 1.5535724 0.23085609 4289744640
1.5940428 1.4413923 0.2246117 4289222400
1.7734166 1.6036899 0.2612232 4290005760
1.7566204 1.5886016 0.26969072 4290005760
1.7432262 1.576588 0.27819419 4289875200
1.7309275 1.5655639 0.28640807 4289875200
1.6968225 1.534814 0.29042619 4289744640
1.756608 1.5889916 0.31032261 4290005760
1.7555182 1.5881062 0.31943798 4290005760
1.7470843 1.5805763 0.32680693 4290005760
1.7442446 1.5781069 0.33479485 4290005760
1.7283102 1.5637891 0.33980036 4289875200
1.7212023 1.557456 0.3460477 4289875200
1.7430494 1.5773243 0.35778126 4290005760
1.7418293 1.5763198 0.36445698 4290005760
1.7340459 1.5693749 0.36930665 4289875200
1.7341826 1.5695978 0.37538907 4289875200
1.7322333 1.5679326 0.38058075 4289875200
1.7297875 1.5658176 0.38520944 4289875200
1.7336253 1.5693908 0.39079407 4289875200
1.7260381 1.562621 0.39334121 4289875200
1.721215 1.5583529 0.39603138 4289875200
1.7178458 1.5554007 0.3985776 4289875200
1.7276689 1.5643938 0.40372965 4289875200
1.7065042 1.5453267 0.40115571 4289875200
1.7135192 1.5517771 0.40471557 4289875200
1.723151 1.5605983 0.40843591 4289875200
1.7229811 1.5605429 0.40936285 4289875200
1.7228718 1.5605425 0.40982464 4289875200
1.7191738 1.5572913 0.40895265 4289875200
1.7228245 1.5606967 0.40934861 4289875200
1.7308526 1.5680684 0.41029978 4289875200
1.727336 1.5649813 0.40803233 4289875200
1.7330171 1.5702275 0.40745658 4289875200
1.7281665 1.5659314 0.40392861 4289875200
1.7297074 1.5674267 0.40142664 4289875200
1.733838 1.5712689 0.3990466 4289875200
1.7349546 1.5723802 0.39549723 4289875200
1.7358457 1.573287 0.3914313 4289875200
1.732923 1.5707372 0.3860561 4289875200
1.7359748 1.5736027 0.38156268 4289875200
1.7265621 1.5651693 0.37390894 4289875200
1.716538 1.5561804 0.36575583 4289875200
1.7208755 1.5602112 0.36025959 4289875200
1.7378634 1.5757127 0.3569133 4289875200
1.7447414 1.5820488 0.35098431 4290005760
1.7455205 1.5828551 0.3433938 4290005760
1.7123841 1.5537329 0.27913523 4289744640
1.7376505 1.5767579 0.2728942 4289875200
1.7544003 1.5920572 0.26475641 4290005760
1.7452794 1.5838804 0.25237334 4289875200
1.7119848 1.5537628 0.23648617 4289744640
1.7342434 1.5740637 0.22807789 4289875200
1.7437904 1.5828288 0.21753289 4289875200
1.7286909 1.5692221 0.20371225 4289875200
1.7085404 1.5510284 0.18931754 4289744640
1.7224284 1.5637348 0.17852831 4289744640
