# .PCD v0.7 - Point Cloud Data file format
VERSION 0.7
FIELDS x y z rgba
SIZE 4 4 4 4
TYPE F F F U
COUNT 1 1 1 1
WIDTH 1103
HEIGHT 1
VIEWPOINT 0 0 0 1 0 0 0
POINTS 1103
DATA ascii
3.6246314 0.19056191 -0.39174286 4294183680
3.6220331 0.1905394 -0.40833235 4294183680
3.5839241 0.18864755 -0.42027816 4294053120
3.6226068 0.19079784 -0.44075653 4294183680
3.6243877 0.19100581 -0.45642847 4294183680
3.6376586 0.19181979 -0.47309616 4294183680
3.6301596 0.19153871 -0.48655376 4294183680
3.633873 0.19184911 -0.50094807 4294183680
3.5859878 0.18943401 -0.50749952 4294053120
3.5941484 0.18997833 -0.52125841 4294053120
3.6097982 0.19091927 -0.53558975 4294183680
3.6081183 0.19094409 -0.5467844 4294183680
3.6128263 0.19130705 -0.55832899 4294183680
3.604279 0.19096802 -0.56717354 4294183680
3.5905259 0.19035244 -0.57448512 4294053120
3.6032746 0.19114183 -0.58536887 4294183680
3.6042485 0.19130705 -0.59369612 4294183680
3.5981879 0.19109872 -0.60016614 4294183680
3.5955992 0.19107451 -0.60650098 4294183680
3.5808299 0.19040246 -0.61004615 4294053120
3.571569 0.19002254 -0.6137805 4294053120
3.5572982 0.18937536 -0.615906 4294053120
3.5440059 0.1887794 -0.61744905 4293922560
3.5434725 0.18886261 -0.62047833 4293922560
3.5430598 0.18895225 -0.62280238 4293922560
3.5565388 0.18978313 -0.62684542 4294053120
3.5650718 0.19035079 -0.62929142 4294053120
3.5463462 0.18946269 -0.62618995 4294053120
3.5687711 0.19077317 -0.6296168 4294053120
3.5822656 0.1916074 -0.63072258 4294053120
3.5816038 0.19168484 -0.62859309 4294053120
3.5933807 0.19242835 -0.62790245 4294183680
3.5938902 0.19256885 -0.62449926 4294183680
3.5873978 0.19233401 -0.6191569 4294183680
3.6164231 0.1940041 -0.6191898 4294183680
3.6020515 0.19334663 -0.61105329 4294183680
3.6002252 0.19336203 -0.60435963 4294183680
3.5999773 0.19346213 -0.59723222 4294183680
3.5923469 0.19316527 -0.58820415 4294183680
3.5901363 0.19315951 -0.57940394 4294053120
3.5717802 0.19228444 -0.56738019 4294053120
3.5732634 0.19247687 -0.55789602 4294053120
3.5856345 0.19325623 -0.54942989 4294053120
3.6172552 0.19507447 -0.54314941 4294183680
3.6270566 0.19571732 -0.5328415 4294183680
3.603205 0.19454379 -0.51703066 4294183680
3.5667791 0.19268949 -0.49903825 4294053120
3.5685747 0.19289891 -0.48595002 4294053120
3.5888417 0.19410753 -0.47474083 4294053120
3.5943522 0.19451882 -0.46094191 4294053120
3.6136756 0.19567841 -0.44829169 4294183680
3.5674989 0.1932904 -0.427131 4293922560
3.5717652 0.19363408 -0.41171175 4293922560
3.6098895 0.19581464 -0.39954117 4294053120
3.6147761 0.19619361 -0.38304862 4294053120
3.6022961 0.19562975 -0.36432731 4294053120
3.5659742 0.19376957 -0.3430306 4293922560
3.5861652 0.19497971 -0.3268685 4294053120
3.582803 0.19490981 -0.30811456 4293922560
3.5755978 0.19463049 -0.28874627 4293922560
3.5812855 0.19505294 -0.27010974 4293922560
3.5909002 0.19568974 -0.25139123 4294053120
3.6088634 0.19678238 -0.23283179 4294053120
3.6032188 0.19658811 -0.21242812 4294053120
3.5794947 0.19540654 -0.19089222 4293922560
3.5883029 0.19600046 -0.17096722 4293922560
3.5981481 0.19665159 -0.15079963 4294053120
3.6111512 0.19747606 -0.13046937 4294053120
3.5866199 0.19624756 -0.10870939 4293922560
3.5948489 0.19681111 -0.087919451 4293922560
3.6199031 0.19829684 -0.06725058 4294053120
3.5665469 0.1954864 -0.045219827 4293922560
3.6144903 0.19822811 -0.024455884 4294053120
3.6271713 0.19903786 -0.0030683686 4294053120
3.6187968 0.19869237 0.018365828 4294053120
3.5562935 0.19537264 0.039086264 4293792000
3.6619544 0.20129274 0.061866928 4294183680
3.6631866 0.20147589 0.083447717 4294183680
3.6359131 0.20009042 0.10413656 4294183680
3.3713262 0.185636 0.11621366 4293269760
3.6458268 0.20086576 0.14679572 4294183680
3.651113 0.20127206 0.1679998 4294183680
3.5920882 0.19813143 0.18575667 4293922560
3.3098841 0.18267 0.18984175 4293008640
3.6668856 0.20248818 0.23078254 4294183680
3.6591229 0.20217483 0.25046444 4294183680
3.6010408 0.19907914 0.26607001 4294053120
3.3198857 0.18364044 0.26308042 4293139200
3.6750107 0.20340008 0.3105891 4294314240
3.6825519 0.20393351 0.33029142 4294314240
3.6499755 0.20224451 0.3459053 4294183680
3.4871628 0.19333297 0.34781963 4293661440
3.3360488 0.18506013 0.34897098 4293139200
3.6850657 0.20453723 0.4029735 4294314240
3.6665463 0.20362486 0.41790733 4294314240
3.6095662 0.20057416 0.42764893 4294053120
3.473362 0.1931151 0.42667466 4293661440
3.3939362 0.18880607 0.43126577 4293400320
3.6847427 0.20509988 0.48326856 4294444800
3.6758647 0.20472156 0.49657378 4294314240
3.6641085 0.20418228 0.50884849 4294314240
3.6207263 0.20187892 0.51595169 4294183680
3.5760958 0.19950317 0.52197778 4294053120
3.5045757 0.19562365 0.52309287 4293792000
3.6731899 0.20515136 0.55974305 4294444800
3.6681645 0.20498629 0.56980318 4294314240
3.6828625 0.20592371 0.58229774 4294444800
3.6469884 0.20403278 0.5860731 4294314240
3.6559434 0.20464899 0.59630418 4294314240
3.6509845 0.20448646 0.60358626 4294314240
3.6420596 0.20410135 0.60948366 4294314240
3.6208136 0.20302483 0.61255431 4294183680
3.6434548 0.2044092 0.62233502 4294314240
3.5762813 0.20075326 0.6159901 4294053120
3.5893102 0.20159775 0.62266058 4294183680
3.5935993 0.20195191 0.62710822 4294183680
3.5930905 0.20203654 0.62998956 4294183680
3.5976219 0.20240472 0.63301992 4294183680
3.5826118 0.20167315 0.63186747 4294183680
3.5824778 0.20177852 0.63259262 4294183680
3.577554 0.20161393 0.63173103 4294053120
3.6350753 0.20497014 0.64114445 4294314240
3.6254902 0.20454392 0.63796324 4294314240
3.6469791 0.20587121 0.63949388 4294314240
3.6278086 0.20490338 0.63314927 4294314240
3.6371312 0.20554456 0.63104355 4294314240
3.6597402 0.2069376 0.63046861 4294314240
3.6596043 0.20704526 0.62521219 4294314240
3.6758435 0.20807986 0.62199855 4294444800
3.6542096 0.20697039 0.61166561 4294314240
3.6762087 0.20833226 0.60792077 4294444800
3.6727884 0.20825417 0.59923047 4294444800
3.6690245 0.20815639 0.58980721 4294444800
3.6461301 0.20697242 0.5766955 4294314240
3.6492021 0.20726183 0.5670768 4294314240
3.6643324 0.20823666 0.55862665 4294314240
3.6760399 0.20901784 0.54893255 4294444800
3.6757572 0.20911761 0.53678411 4294444800
3.6321957 0.20716996 0.43919832 4294183680
3.6441393 0.20796604 0.42451519 4294183680
3.6684561 0.20946941 0.41063499 4294314240
3.6578062 0.20897658 0.39232174 4294314240
3.6250899 0.2072217 0.37141222 4294183680
3.6369963 0.20801693 0.35476109 4294183680
3.6477835 0.20874888 0.33749557 4294183680
3.64587 0.20875429 0.31863815 4294183680
3.6034782 0.20644061 0.29612336 4294053120
3.6295261 0.20804729 0.27899051 4294183680
3.644037 0.20899391 0.26044852 4294183680
3.6377435 0.20874763 0.24009098 4294183680
3.6127181 0.20742543 0.21840836 4294053120
3.6371722 0.20894411 0.19948076 4294183680
3.6438954 0.20944521 0.17918849 4294183680
3.6403058 0.20935363 0.15817702 4294183680
3.5990105 0.20709217 0.13561454 4294053120
3.6174817 0.20826906 0.11528827 4294053120
3.6280649 0.20899272 0.094416708 4294053120
3.6147821 0.20834151 0.07283818 4294053120
3.5813587 0.20652799 0.051050209 4293922560
3.6101758 0.2083036 0.030121025 4294053120
3.6047375 0.20810345 0.008735342 4294053120
3.5580018 0.20551752 -0.012450913 4293792000
3.5755014 0.20664103 -0.033675388 4293922560
3.591296 0.20766707 -0.05504448 4293922560
3.6003435 0.20830372 -0.076397501 4294053120
3.5758774 0.20700091 -0.096866727 4293922560
3.6083059 0.20899187 -0.1188184 4294053120
3.6165307 0.20958224 -0.14008182 4294053120
3.6262813 0.21026161 -0.16135673 4294053120
3.5721729 0.20723687 -0.17936234 4293922560
3.599642 0.20894393 -0.20111571 4294053120
3.6048491 0.20935981 -0.22159132 4294053120
3.6117768 0.209876 -0.24199893 4294053120
3.5863066 0.208509 -0.25987104 4293922560
3.621943 0.21069509 -0.28193963 4294053120
3.6253827 0.21100946 -0.30140299 4294183680
3.6254344 0.21112676 -0.32027218 4294183680
3.6164315 0.21071647 -0.33794314 4294053120
3.6167095 0.21084668 -0.35606381 4294053120
3.6267602 0.21154694 -0.37480319 4294183680
3.618505 0.21117948 -0.39124456 4294183680
3.6260471 0.21173395 -0.40895441 4294183680
3.596638 0.21013005 -0.42194235 4294053120
3.6214411 0.21169332 -0.44079405 4294183680
3.6362984 0.21267644 -0.45811313 4294183680
3.6463864 0.21338139 -0.47442091 4294314240
3.6438313 0.21334675 -0.48857984 4294314240
3.6228111 0.21223022 -0.49961951 4294183680
3.5888615 0.21035452 -0.50810426 4294053120
3.6068196 0.21152081 -0.52329832 4294183680
3.6086321 0.21174085 -0.535622 4294183680
3.6106026 0.21197031 -0.54736894 4294183680
3.6116579 0.21214612 -0.55835891 4294183680
3.6119885 0.21227939 -0.56859922 4294183680
3.6080933 0.21216422 -0.57750988 4294183680
3.6109765 0.21244758 -0.58683562 4294183680
3.6080062 0.21238658 -0.59453154 4294183680
3.5920985 0.21156339 -0.59936666 4294183680
3.5845895 0.21123415 -0.60486013 4294053120
3.5845895 0.21134716 -0.61090291 4294053120
3.5792654 0.21114609 -0.61531889 4294053120
3.5610623 0.21018453 -0.61677176 4294053120
3.5477734 0.20951201 -0.61831772 4294053120
3.5423222 0.20930177 -0.62048775 4293922560
3.5556748 0.21020281 -0.6252299 4294053120
3.5553839 0.2102977 -0.62685001 4294053120
3.5589983 0.2106237 -0.62842548 4294053120
3.5451941 0.20991853 -0.62618935 4294053120
3.5626962 0.21106718 -0.62874597 4294053120
3.5811017 0.21227048 -0.6307165 4294053120
3.5853562 0.2126357 -0.62944722 4294183680
3.5971296 0.21344735 -0.62874997 4294183680
3.5927219 0.21329908 -0.6244843 4294183680
3.6009877 0.21390334 -0.62168646 4294183680
3.6108181 0.21460111 -0.61840993 4294183680
3.6008801 0.21412401 -0.61102891 4294183680
3.603977 0.21442178 -0.60515863 4294183680
3.6037304 0.21452072 -0.59801853 4294183680
3.6098962 0.21500157 -0.59123576 4294183680
3.5849404 0.21362825 -0.5787164 4294053120
3.5794909 0.21341637 -0.56874955 4294053120
3.5770321 0.21338253 -0.5586223 4294053120
3.5982816 0.2147636 -0.55149972 4294183680
3.6210134 0.21623449 -0.54383945 4294183680
3.6209369 0.21634409 -0.53206104 4294183680
3.602031 0.21532805 -0.51697272 4294183680
3.580446 0.21415061 -0.50105274 4294053120
3.581336 0.21431676 -0.48778242 4294053120
3.6012275 0.21562067 -0.47646651 4294053120
3.6062522 0.2160352 -0.46254724 4294053120
3.6075425 0.21622625 -0.44760194 4294053120
3.5663338 0.21386875 -0.42705348 4293922560
3.5874596 0.21524875 -0.41357476 4294053120
3.6087091 0.21663751 -0.3994562 4294053120
3.6135936 0.21704467 -0.38296032 4294053120
3.6110482 0.21700564 -0.36524066 4294053120
3.5697742 0.21463783 -0.34341526 4293922560
3.5999007 0.21656273 -0.32813084 4294053120
3.5929759 0.21625943 -0.30899084 4294053120
3.5893481 0.21615425 -0.28984913 4294053120
3.5801086 0.21571071 -0.27000445 4293922560
3.6009724 0.21708135 -0.25207072 4294053120
3.6036043 0.21735363 -0.23245777 4294053120
3.6000257 0.2172513 -0.21219616 4294053120
3.5845768 0.21643203 -0.19111073 4293922560
3.5871179 0.21669856 -0.17084926 4293922560
3.6119184 0.21831064 -0.15130582 4294053120
3.6053624 0.21802807 -0.13018051 4294053120
3.5954089 0.21753952 -0.10888748 4294053120
3.6190133 0.2190818 -0.088412762 4294053120
3.6332319 0.2200571 -0.067391373 4294053120
3.5843251 0.21720795 -0.045331314 4293922560
3.6235695 0.2197004 -0.024393629 4294053120
3.636939 0.22062568 -0.0029440641 4294183680
3.6306665 0.22035965 0.018566683 4294053120
3.5078175 0.21301405 0.038697187 4293661440
3.6570385 0.2221909 0.061941735 4294183680
3.6662333 0.22286515 0.08368326 4294183680
3.6259971 0.22053359 0.10402448 4294053120
3.3941362 0.20653881 0.11716783 4293269760
3.6608822 0.22288617 0.14759028 4294183680
3.6675725 0.22340915 0.16895296 4294183680
3.5983841 0.21930803 0.1862811 4294053120
3.3476319 0.20413119 0.19219784 4293139200
3.6805038 0.22454503 0.23185608 4294314240
3.6714013 0.22410545 0.25152692 4294314240
3.5933819 0.21945639 0.26572716 4294053120
3.3426421 0.20424852 0.26509628 4293139200
3.6895919 0.22556485 0.31206137 4294314240
3.6895525 0.22567879 0.33116427 4294314240
3.6351054 0.22246306 0.34474209 4294183680
3.3982146 0.20807286 0.33918166 4293400320
3.264786 0.20000596 0.34174487 4292878080
3.6932385 0.2263701 0.40412936 4294444800
3.6746137 0.2253444 0.41909102 4294314240
3.6281593 0.22261001 0.43011561 4294183680
3.4820836 0.21375717 0.42800176 4293661440
3.4165416 0.20984143 0.43439129 4293530880
3.6889858 0.22669108 0.48410025 4294444800
3.6894455 0.22683568 0.49868521 4294444800
3.6677988 0.22562045 0.5096373 4294314240
3.6293693 0.22337095 0.5174576 4294183680
3.5188737 0.21668144 0.51389182 4293792000
3.4299655 0.2113149 0.51221609 4293530880
3.6808128 0.2268853 0.56118292 4294444800
3.6827755 0.22712241 0.57235038 4294444800
3.6757853 0.22680724 0.58145469 4294444800
3.6792459 0.22713679 0.59153152 4294444800
3.6734085 0.22689226 0.59942502 4294444800
3.6370838 0.22476333 0.60155535 4294314240
3.6595166 0.22626503 0.61267108 4294314240
3.6333516 0.22476184 0.61493647 4294314240
3.6422071 0.22542451 0.62238008 4294314240
3.5986645 0.22284305 0.62009668 4294183680
3.5979161 0.22291018 0.62440044 4294183680
3.6061354 0.22353314 0.62953877 4294183680
3.6154566 0.22422494 0.63414961 4294183680
3.6101539 0.22400993 0.63545787 4294183680
3.6098926 0.22410756 0.63690621 4294183680
3.5910828 0.22305307 0.634332 4294183680
3.5999219 0.22371563 0.63589489 4294183680
3.6525102 0.2270989 0.64442998 4294314240
3.638998 0.22637352 0.64054269 4294314240
3.6197114 0.2252879 0.63490659 4294314240
3.64132 0.22674765 0.63569492 4294314240
3.6545761 0.22768837 0.6342504 4294314240
3.658978 0.22807801 0.63050932 4294314240
3.668196 0.22876829 0.62684381 4294444800
3.6700592 0.22900024 0.62117475 4294444800
3.6815133 0.22983105 0.61638218 4294444800
3.6794474 0.22981812 0.60859317 4294444800
3.6713223 0.22942643 0.59911823 4294444800
3.6732547 0.22966303 0.59060431 4294444800
3.6533399 0.22853312 0.57794237 4294314240
3.6578233 0.22892894 0.56851298 4294314240
3.6717088 0.22991377 0.55983758 4294444800
3.6886094 0.2310884 0.55088574 4294444800
3.6805546 0.23069985 0.53755003 4294444800
3.6296778 0.22824982 0.43904722 4294183680
3.6473281 0.22947478 0.42503521 4294183680
3.6694782 0.23098412 0.41089305 4294314240
3.666364 0.23090371 0.39337721 4294314240
3.6382763 0.22924954 0.37289378 4294183680
3.6261275 0.2285984 0.35382482 4294183680
3.6627276 0.23102129 0.33899701 4294314240
3.6494765 0.23030059 0.31906521 4294183680
3.619859 0.22854574 0.29757383 4294053120
3.6320148 0.22942777 0.2792798 4294183680
3.6441619 0.23031004 0.26054892 4294183680
3.6523957 0.23094562 0.24114273 4294183680
3.6199872 0.22901057 0.21892478 4294053120
3.6419957 0.23051776 0.19981557 4294183680
3.6525815 0.23130298 0.17967884 4294183680
3.6588876 0.23181774 0.15904041 4294183680
3.6050341 0.22851942 0.13588938 4294053120
3.6284997 0.23012133 0.11568017 4294053120
3.6241157 0.22995761 0.094347201 4294053120
3.6257908 0.23017827 0.073085785 4294053120
3.6045442 0.22894315 0.051398847 4294053120
3.6143005 0.22967683 0.030166091 4294053120
3.6233456 0.2303659 0.0087835379 4294053120
3.5852458 0.22805668 -0.012550688 4293922560
3.5893295 0.22842966 -0.033817589 4293922560
3.6059043 0.22959824 -0.05528795 4294053120
3.6090462 0.22991215 -0.076609299 4294053120
3.5799382 0.22817075 -0.097011089 4293922560
3.6183217 0.23073129 -0.11919045 4294053120
3.6166549 0.23073909 -0.14013633 4294053120
3.6295407 0.23167568 -0.16155909 4294053120
3.5863554 0.22903228 -0.18013841 4293922560
3.6033459 0.23023097 -0.20139416 4294053120
3.618423 0.23130845 -0.22250476 4294053120
3.6160285 0.23126946 -0.24236996 4294053120
3.5899298 0.22971351 -0.26022616 4294053120
3.6219487 0.2318766 -0.28204045 4294053120
3.6442821 0.23342133 -0.30308217 4294183680
3.6380601 0.23313758 -0.32150206 4294183680
3.6092808 0.23140717 -0.33739522 4294053120
3.606889 0.23136759 -0.35522369 4294053120
3.6312206 0.23304293 -0.37539807 4294183680
3.627135 0.23289514 -0.39231774 4294183680
3.619576 0.23252396 -0.40837047 4294183680
3.6052792 0.23171926 -0.42310733 4294053120
3.6300528 0.23342602 -0.4420003 4294183680
3.6367767 0.23397312 -0.45833737 4294183680
3.6401331 0.23430389 -0.47377688 4294183680
3.6386929 0.23432596 -0.4880656 4294183680
3.6313992 0.23397082 -0.50098336 4294183680
3.6023195 0.23221086 -0.51019245 4294183680
3.605526 0.23253129 -0.52329832 4294183680
3.6122727 0.23308037 -0.5363549 4294183680
3.6105905 0.23308572 -0.54756367 4294183680
3.6054294 0.23286629 -0.55759627 4294183680
3.6068695 0.23307309 -0.56799746 4294183680
3.6018689 0.23286358 -0.57672101 4294183680
3.594645 0.23250994 -0.58439177 4294183680
3.5948789 0.23263849 -0.59258169 4294183680
3.5862713 0.2321946 -0.59860998 4294183680
3.5793767 0.23186113 -0.60419822 4294053120
3.5700097 0.23136698 -0.60863757 4294053120
3.5556319 0.23054735 -0.61147654 4294053120
3.5422294 0.22979009 -0.61373138 4293922560
3.5514081 0.23049757 -0.61917472 4294053120
3.5248528 0.22888523 -0.61765081 4293922560
3.5244415 0.22896972 -0.61996186 4293922560
3.5241525 0.22906214 -0.62156838 4293922560
3.5401731 0.23021512 -0.62532765 4293922560
3.5450454 0.23064381 -0.6263898 4294053120
3.5528395 0.231263 -0.62723362 4294053120
3.5665295 0.23226662 -0.62837762 4294053120
3.5752251 0.23294573 -0.62789625 4294053120
3.5814674 0.23346542 -0.62623942 4294183680
3.5894394 0.23409835 -0.62414026 4294183680
3.5935235 0.23447807 -0.62062317 4294183680
3.5952456 0.23470387 -0.61596662 4294183680
3.5946524 0.23477855 -0.61019391 4294183680
3.5986445 0.23515283 -0.60448301 4294183680
3.5988858 0.23528214 -0.59743196 4294183680
3.5938103 0.23506372 -0.58881551 4294183680
3.5925014 0.23509145 -0.58014822 4294183680
3.5781868 0.23426759 -0.56874955 4294053120
3.5752366 0.23418725 -0.55854553 4294053120
3.6068332 0.2363707 -0.55301213 4294183680
3.6209762 0.2374118 -0.54403239 4294183680
3.635211 0.23845981 -0.53435355 4294314240
3.6069615 0.23672053 -0.51786953 4294183680
3.5885274 0.23562393 -0.50236726 4294053120
3.5947804 0.23614794 -0.48979267 4294053120
3.6101007 0.23726827 -0.4778153 4294183680
3.6079986 0.23724395 -0.46294069 4294183680
3.6230528 0.23834814 -0.44969106 4294183680
3.578681 0.23554198 -0.42868906 4294053120
3.5941947 0.23667647 -0.4145031 4294053120
3.6154175 0.23818806 -0.40034556 4294183680
3.6325212 0.23942949 -0.38510752 4294183680
3.6129978 0.23825665 -0.36557204 4294053120
3.5739274 0.23579295 -0.34394112 4293922560
3.5998933 0.23761965 -0.3282508 4294053120
3.5965393 0.23751175 -0.30941105 4294053120
3.6056712 0.23822857 -0.2912744 4294053120
3.5891623 0.23725107 -0.27078694 4294053120
3.6100092 0.23874301 -0.25279638 4294053120
3.6053841 0.23855089 -0.2326583 4294053120
3.6047626 0.2386235 -0.21255369 4294053120
3.5794232 0.23705907 -0.19090636 4293922560
3.6056416 0.23890924 -0.17179489 4294053120
3.6200576 0.23997867 -0.15170278 4294053120
3.6071231 0.23923504 -0.13029221 4294053120
3.6111557 0.23961644 -0.10940479 4294053120
3.6285615 0.24088588 -0.0886788 4294053120
3.6356184 0.2414691 -0.067460589 4294183680
3.5801597 0.23789862 -0.045295391 4293922560
3.6286244 0.24123357 -0.024436707 4294053120
3.6417024 0.24221793 -0.0029490124 4294183680
3.6243472 0.24117795 0.018541239 4294053120
3.5344532 0.23530759 0.039005488 4293792000
3.6619906 0.24391401 0.062048633 4294183680
3.6754062 0.24492355 0.083923779 4294314240
3.6267993 0.24179891 0.10408615 4294053120
3.4078331 0.22730796 0.11768438 4293400320
3.6784642 0.24547555 0.14835425 4294314240
3.6697686 0.24501108 0.16911703 4294314240
3.6119921 0.24126762 0.18705514 4294053120
3.3653126 0.22489654 0.1932849 4293269760
3.6861005 0.24645042 0.23229514 4294314240
3.6769888 0.24595726 0.25200361 4294314240
3.544898 0.23723345 0.26223958 4293792000
3.3692458 0.22558467 0.26730585 4293269760
3.6941772 0.24745673 0.3125658 4294314240
3.7066314 0.24840795 0.33282149 4294444800
3.6448274 0.24438106 0.34579325 4294183680
3.4307013 0.23013243 0.34255224 4293530880
3.2923436 0.22095525 0.34475839 4293008640
3.6971538 0.24823947 0.40470919 4294444800
3.6812694 0.24728912 0.42000729 4294314240
3.6293075 0.24391311 0.43041286 4294183680
3.5184112 0.23657119 0.43262908 4293792000
3.3251092 0.22367889 0.42292479 4293139200
3.7051518 0.24936113 0.48640409 4294444800
3.6973505 0.24895278 0.49994123 4294444800
3.6676903 0.24707142 0.50981361 4294314240
3.6418352 0.24544464 0.51942998 4294314240
3.5274246 0.23784515 0.51533419 4293922560
3.4385443 0.2319607 0.51369035 4293530880
3.6938019 0.24929669 0.56337512 4294444800
3.6863194 0.24890803 0.57311684 4294444800
3.6832712 0.24881846 0.58285826 4294444800
3.6645544 0.24766971 0.58939141 4294314240
3.6644251 0.24777663 0.59818453 4294444800
3.6593382 0.24754815 0.60546434 4294314240
3.6429124 0.24655193 0.61012137 4294314240
3.655591 0.24752541 0.61893404 4294314240
3.5981688 0.24375081 0.61508703 4294183680
3.6061547 0.24440561 0.62162215 4294183680
3.6103194 0.24480182 0.62678987 4294183680
3.6096864 0.24487282 0.63039702 4294183680
3.6278474 0.24621932 0.63656378 4294314240
3.6225448 0.24597377 0.63788027 4294314240
3.6085258 0.24513575 0.63690621 4294183680
3.5848095 0.24363779 0.63346392 4294183680
3.6083829 0.24535382 0.63763118 4294183680
3.6085024 0.24547583 0.63690704 4294183680
3.6513743 0.24850751 0.64296514 4294314240
3.6379921 0.24771157 0.63835543 4294314240
3.6536973 0.24889626 0.63809806 4294314240
3.663018 0.24964681 0.63595712 4294444800
3.6713524 0.25033069 0.63288224 4294444800
3.6668158 0.25013709 0.62684637 4294444800
3.6834188 0.25138596 0.62367326 4294444800
3.6820672 0.25140995 0.61670977 4294444800
3.69157 0.2521753 0.61083096 4294444800
3.6842601 0.25179222 0.60145873 4294444800
3.6807199 0.25166646 0.59203035 4294444800
3.6805248 0.25176927 0.58246505 4294444800
3.6673582 0.25098437 0.57021254 4294314240
3.6886244 0.2525562 0.56263161 4294444800
3.6965761 0.25321731 0.55228651 4294444800
3.6840072 0.25247261 0.53825998 4294444800
3.6377814 0.24983342 0.4401944 4294183680
3.6601548 0.2514855 0.426691 4294314240
3.678988 0.25289562 0.41211256 4294314240
3.6808395 0.25313908 0.39507762 4294314240
3.6505296 0.25116986 0.37428808 4294183680
3.6485796 0.25115085 0.35614616 4294183680
3.6653085 0.25241807 0.33935893 4294314240
3.6689558 0.25278506 0.32088318 4294314240
3.6333954 0.25044972 0.29879215 4294183680
3.6455522 0.25140274 0.2804181 4294183680
3.6576135 0.25234997 0.26159966 4294183680
3.6620772 0.25277352 0.24186221 4294183680
3.6215818 0.25009266 0.21909171 4294053120
3.6559699 0.25258276 0.20064437 4294183680
3.6574883 0.25280312 0.17997321 4294183680
3.6769271 0.25426278 0.15986851 4294314240
3.6086411 0.24965467 0.13605933 4294053120
3.6380773 0.25180596 0.11601044 4294183680
3.6436689 0.25230801 0.094871797 4294183680
3.6363595 0.25191665 0.073304944 4294183680
3.6074936 0.25003079 0.051437624 4294053120
3.6208062 0.25106776 0.030207697 4294053120
3.6324327 0.25198862 0.0087834038 4294053120
3.5925889 0.24933797 -0.012607625 4293922560
3.6083255 0.25054404 -0.034037251 4294053120
3.6166096 0.25123343 -0.05550218 4294053120
3.6219621 0.25171956 -0.076942891 4294053120
3.5912657 0.24969961 -0.097386099 4293922560
3.6249483 0.25215599 -0.11948656 4294053120
3.6282551 0.25250053 -0.14067274 4294053120
3.6364253 0.25318393 -0.16196163 4294183680
3.5880413 0.24992849 -0.18032664 4293922560
3.6113627 0.25166696 -0.20195512 4294053120
3.6200557 0.25238705 -0.22272688 4294053120
3.6219091 0.25263059 -0.24289428 4294053120
3.5943549 0.25082216 -0.26068425 4294053120
3.633796 0.25368914 -0.28310993 4294183680
3.6461728 0.25466833 -0.30339473 4294183680
3.6464314 0.25480151 -0.32240492 4294183680
3.6044145 0.25197926 -0.33710891 4294053120
3.6045315 0.25210124 -0.3551673 4294053120
3.6284478 0.25388849 -0.3752954 4294183680
3.628736 0.25402322 -0.39268166 4294183680
3.6363099 0.25466824 -0.41045612 4294183680
3.5954499 0.25192013 -0.42215544 4294053120
3.6319296 0.25459078 -0.44243848 4294183680
3.6519027 0.25610614 -0.46046019 4294314240
3.6499183 0.25608221 -0.4752723 4294314240
3.6520295 0.25634563 -0.49008158 4294314240
3.6483374 0.25620165 -0.50355178 4294314240
3.6014106 0.25301996 -0.51029682 4294183680
3.6069925 0.253526 -0.5237487 4294183680
3.6032889 0.25337943 -0.53526199 4294183680
3.6035793 0.25351363 -0.54674488 4294183680
3.5882812 0.25255069 -0.55519068 4294053120
3.5970089 0.25327852 -0.56669444 4294183680
3.5798542 0.25218362 -0.57344699 4294053120
3.5760667 0.25202972 -0.58162409 4294053120
3.5673718 0.25152954 -0.588301 4294053120
3.5505445 0.25045517 -0.59290016 4294053120
3.5275898 0.24894732 -0.59570944 4293922560
3.528724 0.24913879 -0.60185236 4293922560
3.5116544 0.24804449 -0.60416585 4293922560
3.5108926 0.24810153 -0.60855395 4293922560
3.4489434 0.24383271 -0.60155725 4293661440
3.4484229 0.24390478 -0.60450411 4293661440
3.4617751 0.24495849 -0.60918409 4293661440
3.4565792 0.24469994 -0.60989356 4293661440
3.4475753 0.2441714 -0.6092121 4293661440
3.4989886 0.24792318 -0.61849362 4293792000
3.4902298 0.24741276 -0.6164186 4293792000
3.5154576 0.24931209 -0.61961627 4293922560
3.5284081 0.25034192 -0.61990815 4293922560
3.545785 0.25168675 -0.62023151 4294053120
3.56197 0.25294808 -0.61959189 4294053120
3.560225 0.25293657 -0.61509567 4294053120
3.5693336 0.25369638 -0.61174607 4294053120
3.5859129 0.25498801 -0.60892493 4294183680
3.5855465 0.25507519 -0.60249174 4294183680
3.5855763 0.25519052 -0.59542531 4294183680
3.5966532 0.25609246 -0.58947843 4294183680
3.6030276 0.25666007 -0.58203894 4294183680
3.5819862 0.25527433 -0.56953633 4294053120
3.5923429 0.25612581 -0.56139416 4294183680
3.6034868 0.25703415 -0.55266833 4294183680
3.6356566 0.25944358 -0.54640102 4294314240
3.6373608 0.25968006 -0.53482455 4294314240
3.6125753 0.25802463 -0.51882118 4294183680
3.6000381 0.25724283 -0.50411534 4294183680
3.5892575 0.25658587 -0.48916784 4294053120
3.6091206 0.25811976 -0.47780505 4294183680
3.6237156 0.25927803 -0.46506822 4294183680
3.6130428 0.25862846 -0.4485499 4294183680
3.5751631 0.25602984 -0.42835855 4294053120
3.6078448 0.25848421 -0.41615948 4294053120
3.6233561 0.25970995 -0.40129739 4294183680
3.6449316 0.26137149 -0.38648647 4294183680
3.6280057 0.26027235 -0.36714351 4294183680
3.5894747 0.2576215 -0.3454797 4294053120
3.6064606 0.25895447 -0.32888201 4294053120
3.6135466 0.25957739 -0.31089643 4294053120
3.6122398 0.25959757 -0.29181695 4294053120
3.6057241 0.25924319 -0.27203801 4294053120
3.6224656 0.26056123 -0.25365978 4294053120
3.633024 0.26143542 -0.23442256 4294183680
3.6217489 0.26073843 -0.21352555 4294053120
3.571558 0.25723785 -0.19044724 4293922560
3.6221848 0.26099858 -0.17253247 4294053120
3.6316526 0.26179546 -0.15212747 4294183680
3.6022072 0.25978658 -0.13004361 4294053120
3.6201088 0.26119196 -0.10959436 4294053120
3.6441858 0.26304421 -0.088968121 4294183680
3.6556668 0.26398838 -0.067729525 4294183680
3.5862391 0.25908798 -0.045261223 4293922560
3.6491492 0.2637482 -0.024451865 4294183680
3.6554093 0.26431608 -0.0028269079 4294183680
3.6333609 0.26283655 0.018729484 4294183680
3.4764898 0.2515983 0.038510986 4293530880
3.6814594 0.26654848 0.062541783 4294314240
3.7005916 0.26805058 0.084672414 4294314240
3.613905 0.26188561 0.10389459 4294053120
3.4254 0.24833357 0.11846857 4293400320
3.683954 0.26719448 0.14877538 4294314240
3.6832328 0.2672585 0.16994575 4294314240
3.6294582 0.26347119 0.18817304 4294183680
3.3778925 0.2453161 0.19421339 4293269760
3.7046404 0.26916283 0.23369725 4294444800
3.6954005 0.26860821 0.25350615 4294314240
3.5573862 0.25868869 0.2634021 4293922560
3.3877637 0.24646096 0.2690087 4293269760
3.7126768 0.27021575 0.31439382 4294444800
3.7150586 0.27050644 0.33384746 4294444800
3.6671751 0.26713568 0.34818515 4294314240
3.4481614 0.2512905 0.34455636 4293530880
3.3009219 0.24066445 0.34591103 4293008640
3.7045698 0.27021071 0.40581137 4294444800
3.6896925 0.26924208 0.42126206 4294444800
3.6327784 0.26520374 0.43111783 4294183680
3.420594 0.24982166 0.42088097 4293530880
3.3474965 0.24458875 0.42604899 4293269760
3.7174819 0.27173957 0.48833308 4294575360
3.7038455 0.27085978 0.50113118 4294444800
3.6810081 0.26930594 0.51197672 4294444800
3.6024511 0.26367241 0.51411957 4294183680
3.5397973 0.25919843 0.51744455 4293922560
3.4657431 0.25388533 0.51805085 4293661440
3.7041085 0.27146396 0.56526518 4294444800
3.7088513 0.2719287 0.57693833 4294575360
3.6827626 0.27013221 0.58309352 4294444800
3.6916101 0.27089778 0.59405851 4294444800
3.6914701 0.27100411 0.60291356 4294444800
3.6863751 0.2707465 0.6102497 4294444800
3.6650283 0.26929444 0.61413324 4294444800
3.6727781 0.26997986 0.62214977 4294444800
3.62029 0.26623592 0.61916685 4294314240
3.628267 0.26693714 0.62572926 4294314240
3.6324255 0.26735783 0.63091952 4294314240
3.6268766 0.26706395 0.63368613 4294314240
3.5608425 0.26231405 0.62508368 4294053120
3.6446369 0.26860198 0.64204872 4294314240
3.6404443 0.26840797 0.64281213 4294314240
3.6255763 0.26742628 0.64093286 4294314240
3.6206582 0.26717788 0.6400587 4294314240
3.6404221 0.26875132 0.64279389 4294314240
3.6072748 0.26641819 0.63544327 4294183680
3.6640124 0.27072433 0.64316088 4294444800
3.6669433 0.27105671 0.6406433 4294444800
3.6577444 0.27049229 0.63526458 4294444800
3.6662018 0.2712335 0.63220924 4294444800
3.6889143 0.27303034 0.6308313 4294444800
3.6898832 0.27321863 0.62496567 4294444800
3.7041736 0.27439377 0.62060124 4294575360
3.7038412 0.27448615 0.61304027 4294575360
3.7063823 0.27479154 0.60523885 4294575360
3.6890671 0.27362433 0.59353042 4294444800
3.6859086 0.27350649 0.58346367 4294444800
3.6707919 0.27250075 0.57088149 4294444800
3.6959953 0.27448845 0.56388068 4294444800
3.7047181 0.2752533 0.55361664 4294444800
3.7012563 0.27511302 0.54088217 4294444800
3.6639535 0.27351686 0.44355026 4294314240
3.6734536 0.27434209 0.42842561 4294314240
3.6972406 0.27623537 0.41433746 4294444800
3.6941428 0.27612063 0.39668033 4294444800
3.6678205 0.27426901 0.37622908 4294314240
3.650733 0.2731066 0.3565183 4294183680
3.6756549 0.27508709 0.34047431 4294314240
3.6773217 0.27532801 0.32176667 4294314240
3.6507251 0.27345201 0.3003622 4294183680
3.6479695 0.27336085 0.28074303 4294183680
3.6749465 0.27549848 0.26297337 4294314240
3.6694641 0.27520341 0.24247783 4294314240
3.6450016 0.27348393 0.2206293 4294183680
3.6686814 0.27537653 0.20145731 4294314240
3.6829317 0.27656251 0.1813346 4294314240
3.6796737 0.27643412 0.16009079 4294314240
3.6400509 0.27357247 0.13733888 4294183680
3.6579914 0.27503636 0.11673465 4294183680
3.6585991 0.27519768 0.09534312 4294183680
3.6512294 0.27475867 0.073680408 4294183680
3.6281891 0.27313951 0.051801201 4294053120
3.6307642 0.27344805 0.030352505 4294053120
3.6389277 0.27417788 0.0088540846 4294183680
3.5946798 0.27095756 -0.012567529 4294053120
3.6148295 0.27259058 -0.034057882 4294053120
3.634201 0.2741662 -0.055738274 4294183680
3.6346579 0.27431551 -0.077185854 4294183680
3.6073098 0.27236545 -0.097801767 4294053120
3.647588 0.27552184 -0.12022045 4294183680
3.6557922 0.27625707 -0.14173535 4294183680
3.6532578 0.27618098 -0.16271365 4294183680
3.6029873 0.27249444 -0.18108739 4294053120
3.6339049 0.27494755 -0.20323282 4294183680
3.6476402 0.27610204 -0.22444868 4294183680
3.6337495 0.27516541 -0.24372037 4294183680
3.6289191 0.27491429 -0.26323056 4294183680
3.652657 0.27682802 -0.28462675 4294183680
3.6660132 0.2779561 -0.30510083 4294314240
3.6620543 0.27777162 -0.32384902 4294314240
3.6279621 0.27530032 -0.33938104 4294183680
3.6458507 0.27677295 -0.35931644 4294183680
3.6537051 0.27748469 -0.37799346 4294314240
3.6472003 0.2771059 -0.39477295 4294183680
3.6383541 0.27654874 -0.41078746 4294183680
3.6040821 0.27405763 -0.42327622 4294053120
3.6467407 0.27741665 -0.44435894 4294314240
3.6632202 0.27878603 -0.46201161 4294314240
3.6572828 0.27844974 -0.47636315 4294314240
3.6552362 0.27840942 -0.4906514 4294314240
3.655724 0.2785621 -0.50471842 4294314240
3.614011 0.27549782 -0.51223516 4294183680
3.6069586 0.27507418 -0.52390391 4294183680
3.5815525 0.27324983 -0.53219938 4294053120
3.5611513 0.27180588 -0.54048026 4294053120
3.545105 0.27069315 -0.54868942 4293922560
3.5202327 0.26890522 -0.55478352 4293922560
3.4926808 0.26691094 -0.55967331 4293792000
3.4437022 0.26327682 -0.5602904 4293661440
3.4025459 0.26023787 -0.56131822 4293530880
3.399956 0.26014721 -0.56795889 4293530880
3.3513398 0.25653327 -0.56615454 4293269760
3.3504035 0.25656748 -0.57165331 4293269760
3.3780684 0.25879273 -0.58140588 4293400320
3.3068917 0.2534444 -0.57341808 4293139200
3.3210156 0.25463182 -0.57947558 4293269760
3.4046824 0.26115438 -0.5970794 4293530880
3.3240523 0.25507474 -0.58519125 4293269760
3.3198504 0.25485721 -0.58601665 4293269760
3.3098736 0.25419593 -0.58513188 4293269760
3.3049238 0.2539202 -0.58444756 4293139200
3.3655829 0.25868708 -0.59467185 4293400320
3.3471215 0.25737384 -0.59021717 4293269760
3.3336842 0.25644594 -0.58597165 4293269760
3.3806453 0.2601653 -0.59162837 4293400320
3.3924594 0.26118168 -0.59039485 4293530880
3.428062 0.26403102 -0.59255809 4293661440
3.4607718 0.26665971 -0.5934428 4293661440
3.4945145 0.26937011 -0.59371459 4293792000
3.532593 0.27241698 -0.59391105 4293922560
3.5429964 0.2733312 -0.58867627 4293922560
3.577884 0.27613574 -0.5867306 4294053120
3.5927684 0.27739805 -0.58071458 4294183680
3.5984123 0.27794755 -0.57248443 4294183680
3.5999041 0.27817652 -0.56291497 4294183680
3.6208849 0.2799122 -0.55568022 4294183680
3.6468952 0.28203818 -0.54843819 4294314240
3.6565719 0.28290212 -0.53800017 4294314240
3.6360526 0.2814295 -0.52254343 4294314240
3.6118298 0.27966881 -0.50611603 4294183680
3.6190078 0.28033897 -0.49357355 4294183680
3.627692 0.28112632 -0.48061633 4294183680
3.6527948 0.28318712 -0.46915573 4294314240
3.6594706 0.2838203 -0.45466998 4294314240
3.6190853 0.28080252 -0.43397313 4294183680
3.6493702 0.28326765 -0.42130384 4294314240
3.6503904 0.2834622 -0.4046452 4294314240
3.6670902 0.28487489 -0.38919017 4294314240
3.6562216 0.2841461 -0.37035045 4294314240
3.6265669 0.28195611 -0.34939668 4294183680
3.6385984 0.28300652 -0.33215871 4294183680
3.6456962 0.28367379 -0.31400663 4294183680
3.6440125 0.28365797 -0.29472497 4294183680
3.639159 0.28339517 -0.27489826 4294183680
3.6537359 0.2846458 -0.25618511 4294183680
3.6552696 0.28488085 -0.23619004 4294183680
3.6440079 0.28411832 -0.21516486 4294183680
3.6038032 0.2810975 -0.19248572 4294053120
3.6444588 0.28438383 -0.17391141 4294183680
3.6551845 0.28533632 -0.15342712 4294183680
3.6339743 0.28379545 -0.13149723 4294183680
3.6379156 0.28421822 -0.11043496 4294183680
3.6614885 0.28617564 -0.089688055 4294183680
3.6679838 0.28679922 -0.068249479 4294183680
3.5946014 0.28117508 -0.045646228 4294053120
3.6643434 0.2867462 -0.024831673 4294183680
3.682404 0.28827593 -0.0031199292 4294314240
3.6641433 0.28696221 0.018624855 4294183680
3.5653508 0.27933782 0.039246712 4293922560
3.706732 0.29053193 0.062720805 4294314240
3.7101629 0.29091811 0.084649332 4294444800
3.6615911 0.28722528 0.10503524 4294183680
3.4378214 0.26978084 0.11869036 4293530880
3.6992497 0.2904132 0.14917879 4294314240
3.7005141 0.29062942 0.17053831 4294314240
3.6278424 0.28503665 0.18789817 4294183680
3.381366 0.26577806 0.19424424 4293269760
3.7257535 0.29296497 0.23485352 4294444800
3.7126551 0.29205239 0.25452551 4294444800
3.5746956 0.28131291 0.26453608 4293922560
3.3120794 0.26075086 0.26287207 4293139200
3.7337527 0.29406607 0.31604707 4294444800
3.7327003 0.29410118 0.33531308 4294575360
3.675472 0.28970832 0.34886682 4294314240
3.4565508 0.27256179 0.34530622 4293530880
3.3282111 0.2625469 0.34869656 4293139200
3.7267101 0.29410043 0.40816626 4294575360
3.7068596 0.29265106 0.42316476 4294444800
3.6499758 0.28827557 0.43311501 4294314240
3.5352027 0.27932253 0.434953 4293922560
3.369745 0.26635596 0.42886427 4293269760
3.739553 0.29570502 0.49122778 4294575360
3.7209702 0.29435322 0.50345725 4294575360
3.6931951 0.29227278 0.51369447 4294444800
3.6057825 0.28546911 0.51463068 4294183680
3.5520313 0.28132591 0.51928145 4293922560
3.4730723 0.27518204 0.51920706 4293661440
3.7211812 0.29495811 0.56794971 4294575360
3.7209866 0.29506031 0.57891959 4294575360
3.6949019 0.2931087 0.58512264 4294444800
3.7135808 0.29470786 0.59771615 4294575360
3.6937518 0.29325101 0.60342199 4294444800
3.694557 0.29343173 0.6117543 4294444800
3.6771472 0.29216525 0.6163277 4294444800
3.6898017 0.29328737 0.62521219 4294444800
3.6324165 0.28884089 0.62143081 4294314240
3.6364543 0.28927693 0.62734556 4294314240
3.6406064 0.28972232 0.632559 4294314240
3.6488042 0.29049006 0.63775033 4294314240
3.573957 0.28464428 0.62762767 4294053120
3.5824072 0.28543055 0.63134205 4294183680
3.6427152 0.29035079 0.64348686 4294314240
3.6474848 0.29084629 0.64509344 4294314240
3.6523829 0.29135233 0.64596826 4294444800
3.6289401 0.289597 0.64107883 4294314240
3.6242764 0.28933942 0.63876295 4294314240
3.6721499 0.29327744 0.64493108 4294444800
3.6677418 0.29304135 0.64113671 4294444800
3.6845434 0.29450026 0.64028674 4294444800
3.6792462 0.29419318 0.63483787 4294444800
3.7058794 0.29643995 0.63412613 4294575360
3.7068501 0.29663476 0.62824464 4294575360
3.7172039 0.29758087 0.62320185 4294575360
3.7158902 0.29759318 0.61546266 4294575360
3.7144969 0.29759902 0.60700232 4294575360
3.7158909 0.2978282 0.59829462 4294575360
3.7147245 0.29785216 0.58848315 4294575360
3.6927178 0.29620442 0.57475591 4294444800
3.7090487 0.29763162 0.56634748 4294575360
3.7219317 0.29878309 0.55667424 4294575360
3.7231944 0.29900217 0.54458141 4294575360
3.6825306 0.29627159 0.44599861 4294444800
3.6900682 0.29699469 0.43055508 4294444800
3.7262983 0.3000285 0.417779 4294575360
3.7142968 0.29917961 0.39902028 4294444800
3.6862683 0.29703856 0.37828696 4294314240
3.6791184 0.29657874 0.35944647 4294314240
3.695847 0.29804412 0.34249216 4294444800
3.6975224 0.29829612 0.32367218 4294444800
3.6741824 0.29652935 0.30241948 4294314240
3.6701849 0.29632279 0.28256997 4294314240
3.6873028 0.29782146 0.26396528 4294314240
3.6865907 0.2978805 0.24370696 4294314240
3.6542344 0.29538164 0.22127439 4294183680
3.6851051 0.29799351 0.2024356 4294314240
3.6971712 0.29908615 0.18210168 4294314240
3.6921177 0.29879409 0.1606873 4294314240
3.6532793 0.2957665 0.13788177 4294183680
3.6777165 0.29786125 0.11739732 4294314240
3.6763375 0.29786581 0.095827609 4294314240
3.665488 0.29710266 0.073979355 4294183680
3.652595 0.29617313 0.052149884 4294183680
3.6625588 0.29709688 0.03060754 4294183680
3.671592 0.29794574 0.0089117587 4294314240
3.6223142 0.29406145 -0.012696506 4294053120
3.642518 0.29581678 -0.034362186 4294183680
3.6501706 0.2965537 -0.05603759 4294183680
3.6520896 0.29682508 -0.077621259 4294183680
3.6359208 0.29562595 -0.098653108 4294183680
3.6535797 0.29717728 -0.1205046 4294183680
3.6797085 0.29941893 -0.14276049 4294314240
3.692646 0.30058843 -0.1645768 4294314240
3.6289296 0.29551658 -0.18250844 4294183680
3.6677589 0.29879457 -0.20525484 4294314240
3.6675446 0.29889306 -0.22581215 4294314240
3.6718376 0.29935905 -0.24642375 4294314240
3.6388903 0.29678801 -0.26411089 4294183680
3.6762922 0.29995477 -0.28663668 4294314240
3.6856542 0.30083519 -0.30691341 4294314240
3.6958208 0.30178192 -0.32702273 4294444800
3.6711891 0.2998867 -0.34361991 4294314240
3.6687074 0.29980001 -0.36177272 4294314240
3.6837196 0.30114329 -0.38131142 4294314240
3.6789486 0.30086961 -0.39842999 4294314240
3.6752462 0.30068305 -0.41518089 4294314240
3.6212451 0.2963796 -0.42552406 4294183680
3.6782186 0.30115888 -0.44843751 4294314240
3.6841679 0.30176252 -0.46490377 4294444800
3.6832852 0.30180669 -0.48000661 4294444800
3.691103 0.30256402 -0.49572921 4294444800
3.6771502 0.30153659 -0.5079447 4294444800
3.6101263 0.29615462 -0.51195312 4294183680
3.5346253 0.29007274 -0.51366544 4293922560
3.4619417 0.28421739 -0.5146926 4293661440
3.413027 0.28030956 -0.51826614 4293530880
3.3812649 0.27780789 -0.52359921 4293400320
3.3458114 0.27500081 -0.52756333 4293269760
3.2968163 0.27107805 -0.52855486 4293139200
3.260555 0.26819962 -0.53075892 4293008640
3.2343252 0.26614437 -0.53383315 4292878080
3.2043557 0.26377961 -0.53554958 4292878080
3.2181087 0.26501352 -0.54391509 4292878080
3.2643697 0.26892638 -0.55724645 4293008640
3.18822 0.26275384 -0.54899722 4292747520
3.2022576 0.26401204 -0.55554217 4292878080
3.2105026 0.26479334 -0.56046051 4292878080
3.233578 0.26679879 -0.56734204 4293008640
3.2194564 0.26573548 -0.56704438 4292878080
3.1809113 0.26265457 -0.56175357 4292747520
3.2141304 0.2654992 -0.56846923 4292878080
3.2003508 0.26446217 -0.5662145 4292878080
3.1857023 0.26335245 -0.56314433 4292747520
3.2376125 0.26774612 -0.57116395 4293008640
3.2045386 0.26511231 -0.56352246 4292878080
3.1862941 0.26370373 -0.55786198 4292747520
3.2195835 0.26656067 -0.56055337 4292878080
3.2412961 0.26846087 -0.56051624 4293008640
3.2769651 0.27151883 -0.56216353 4293139200
3.3204451 0.27522644 -0.56437755 4293269760
3.3504255 0.27781746 -0.56351805 4293269760
3.3629775 0.27896467 -0.55899417 4293400320
3.4107907 0.28303874 -0.5595544 4293530880
3.4834387 0.28917748 -0.5632661 4293792000
3.5632908 0.29591912 -0.56711739 4294053120
3.6120319 0.30008116 -0.56502712 4294183680
3.6529269 0.3035942 -0.56080735 4294314240
3.6679599 0.30495963 -0.55180812 4294444800
3.6823733 0.30627447 -0.54199028 4294444800
3.6575582 0.30432621 -0.52581739 4294314240
3.6303272 0.30217528 -0.50888062 4294183680
3.6422837 0.30328572 -0.49691144 4294314240
3.6620331 0.30504608 -0.48532042 4294314240
3.6757798 0.30630746 -0.47225255 4294314240
3.6772251 0.30654421 -0.45701018 4294314240
3.6346726 0.30311188 -0.43596441 4294183680
3.6567519 0.30506885 -0.42226806 4294314240
3.6744153 0.30665869 -0.40740991 4294314240
3.6772423 0.30701095 -0.39035803 4294314240
3.6707456 0.30658466 -0.37190056 4294314240
3.6255848 0.30292749 -0.34936866 4294183680
3.652751 0.30531287 -0.33350626 4294183680
3.6603434 0.30606326 -0.31531224 4294314240
3.6571493 0.3059119 -0.29581973 4294314240
3.6421022 0.30476844 -0.27514094 4294183680
3.6489387 0.30545595 -0.25585729 4294183680
3.6672924 0.30710837 -0.23696351 4294314240
3.6627131 0.30684075 -0.21625397 4294314240
3.6274734 0.30400336 -0.19372292 4294183680
3.6536703 0.30631441 -0.17431177 4294183680
3.6581223 0.30680338 -0.15349923 4294183680
3.6551709 0.3066715 -0.13220116 4294183680
3.6492457 0.30628982 -0.11070409 4294183680
3.6666334 0.3078652 -0.089727059 4294183680
3.6786661 0.30899188 -0.068349145 4294314240
3.6322501 0.30520806 -0.046014898 4294183680
3.6766665 0.30905658 -0.024792837 4294314240
3.6897264 0.31027111 -0.0029918365 4294314240
3.6674087 0.30851045 0.01878625 4294183680
3.5826108 0.3014904 0.039589059 4293922560
3.7140458 0.31266868 0.063013636 4294444800
3.7267907 0.31385952 0.085209347 4294444800
3.66485 0.308759 0.10531698 4294183680
3.4511418 0.29086354 0.11933733 4293530880
3.7174208 0.31342325 0.15012342 4294444800
3.7176826 0.31356296 0.17155147 4294444800
3.6500142 0.30797103 0.18927409 4294183680
3.2955658 0.27816862 0.18952936 4293008640
3.7190206 0.3140288 0.23467983 4294444800
3.7198465 0.31421626 0.25527832 4294444800
3.5918849 0.30352095 0.26606736 4294053120
3.3105106 0.27984905 0.26299393 4293139200
3.7369475 0.31601548 0.31660366 4294575360
3.7358923 0.31604445 0.3358936 4294575360
3.6737275 0.31090176 0.34899735 4294314240
3.459867 0.29291254 0.34592283 4293661440
3.3355486 0.28249329 0.34974629 4293139200
3.7441947 0.31722069 0.4104028 4294575360
3.7199464 0.31528401 0.42498395 4294444800
3.6630814 0.31058031 0.43499565 4294314240
3.5523105 0.30130082 0.43737817 4293922560
3.3720934 0.28612185 0.42947131 4293400320
3.7328308 0.31684849 0.49068987 4294575360
3.7290707 0.31664732 0.50490165 4294575360
3.7052512 0.31474197 0.51572061 4294444800
3.6228054 0.30785325 0.51740426 4294183680
3.5601962 0.30264559 0.52081525 4294053120
3.4861972 0.2964654 0.52150387 4293792000
3.7292554 0.31725302 0.56954128 4294575360
3.7339795 0.31777304 0.58130139 4294575360
3.7079008 0.31567103 0.58753926 4294575360
3.7206619 0.31687516 0.59921491 4294575360
3.6941066 0.31473044 0.60383564 4294444800
3.6967251 0.31507051 0.612468 4294575360
3.685219 0.31420648 0.61803246 4294444800
3.6218433 0.30891758 0.61404061 4294314240
3.6444333 0.31095967 0.62382954 4294314240
3.6484661 0.31141922 0.62975788 4294314240
3.662431 0.31272712 0.63668883 4294444800
3.5815942 0.30593798 0.6263293 4294183680
3.5771592 0.30567235 0.62851125 4294183680
3.5856051 0.30650753 0.63222265 4294183680
3.6645286 0.31337008 0.64765859 4294444800
3.6604645 0.31313837 0.64770103 4294444800
3.6457362 0.31199381 0.64509696 4294314240
3.6458549 0.31211933 0.64436436 4294314240
3.63727 0.31149948 0.6413424 4294314240
3.6939554 0.31647098 0.64904678 4294575360
3.6807189 0.31545347 0.64368194 4294444800
3.7063513 0.31776756 0.64434642 4294575360
3.6912427 0.31658903 0.63716763 4294444800
3.7237597 0.3194958 0.63743836 4294575360
3.7188408 0.31919146 0.63051933 4294575360
3.712574 0.31877106 0.62265754 4294575360
3.733784 0.32071036 0.61864907 4294705920
3.7363322 0.32104748 0.61078238 4294705920
3.7229786 0.32001787 0.59963566 4294575360
3.7129593 0.31927416 0.58839136 4294575360
3.7047467 0.31868523 0.57680386 4294575360
3.721076 0.32020766 0.56834841 4294575360
3.7388864 0.32185861 0.55936301 4294575360
3.7263546 0.32089776 0.54518354 4294575360
3.6842749 0.31802672 0.44642669 4294444800
3.7021298 0.31968513 0.43217242 4294444800
3.7244871 0.32173359 0.417779 4294575360
3.7233841 0.32175615 0.4001911 4294444800
3.6894307 0.31893885 0.37879574 4294444800
3.6812944 0.31835201 0.35983416 4294314240
3.7079365 0.32077333 0.34377986 4294444800
3.7056468 0.32069254 0.32454142 4294444800
3.6661758 0.31739271 0.30190754 4294314240
3.6832964 0.31899145 0.28371772 4294314240
3.6994174 0.3205047 0.26496172 4294444800
3.69871 0.32056049 0.24462743 4294444800
3.6663737 0.31787401 0.22211784 4294314240
3.7032018 0.32118422 0.20352904 4294444800
3.7092967 0.32183024 0.18278818 4294444800
3.7092252 0.32194144 0.16151074 4294444800
3.6564717 0.31747845 0.13806973 4294183680
3.6759188 0.31928334 0.11739732 4294314240
3.6844988 0.32014522 0.096087337 4294314240
3.6722326 0.31919563 0.074151754 4294314240
3.6458268 0.3170158 0.052078735 4294183680
3.6666563 0.31894305 0.030656792 4294183680
3.6697938 0.31933212 0.0089117587 4294314240
3.636739 0.31657094 -0.012753315 4294183680
3.6556756 0.31833506 -0.034503218 4294183680
3.6633224 0.31911689 -0.056267086 4294183680
3.6742022 0.32018095 -0.078129567 4294314240
3.6403716 0.31734806 -0.098822355 4294183680
3.6697118 0.32002199 -0.12109612 4294314240
3.682879 0.3212868 -0.14295369 4294314240
3.679625 0.32111943 -0.16407706 4294314240
3.6464889 0.31834307 -0.18348171 4294183680
3.6609826 0.31972429 -0.20497638 4294183680
3.6707125 0.32069024 -0.22611842 4294314240
3.6750011 0.32118124 -0.24675746 4294314240
3.6504538 0.31915146 -0.26508066 4294183680
3.6883869 0.32258463 -0.28772137 4294314240
3.6967485 0.32343295 -0.30798894 4294444800
3.7033679 0.32412934 -0.32785207 4294444800
3.6792984 0.32213917 -0.34454876 4294314240
3.6749072 0.32187104 -0.36256284 4294314240
3.694788 0.32372928 -0.38264588 4294444800
3.6910768 0.32352096 -0.39994079 4294444800
3.6926644 0.32377702 -0.41735458 4294444800
3.6567745 0.32074592 -0.42991132 4294314240
3.6893344 0.32371864 -0.45001504 4294444800
3.7040951 0.32513106 -0.46764946 4294444800
3.7052503 0.32534975 -0.48310792 4294444800
3.6892776 0.32406405 -0.49572921 4294444800
3.661515 0.32174128 -0.50603527 4294314240
3.3524508 0.29468963 -0.47564751 4293269760
3.2814786 0.28855488 -0.4771134 4293008640
3.2375278 0.28479257 -0.48156711 4292878080
3.2160621 0.28300613 -0.48859921 4292878080
3.2072902 0.28233579 -0.49690503 4292878080
3.1779442 0.27985308 -0.50134289 4292747520
3.1311877 0.27583477 -0.5022499 4292616960
3.1109822 0.27415332 -0.50666255 4292486400
3.0623014 0.26996028 -0.50569123 4292355840
3.0848532 0.27204603 -0.51583302 4292486400
3.1123869 0.27457273 -0.52630776 4292486400
3.0607491 0.27011415 -0.52274704 4292355840
3.087476 0.27257058 -0.531914 4292486400
3.1064353 0.27434275 -0.53918666 4292486400
3.1058607 0.27439031 -0.54246294 4292486400
