# .PCD v0.7 - Point Cloud Data file format
VERSION 0.7
FIELDS x y z rgba
SIZE 4 4 4 4
TYPE F F F U
COUNT 1 1 1 1
WIDTH 1124
HEIGHT 1
VIEWPOINT 0 0 0 1 0 0 0
POINTS 1124
DATA ascii
2.4235046 1.092562 -0.44509158 4290919680
2.380132 1.073121 -0.44201714 4290789120
2.3920128 1.0785662 -0.44865793 4290789120
2.3314624 1.0513809 -0.44107199 4290658560
2.3354139 1.053252 -0.44512281 4290658560
2.3439305 1.0571799 -0.4495444 4290658560
2.3516254 1.0607378 -0.45330194 4290658560
2.3558085 1.0627131 -0.45586249 4290658560
2.3466079 1.0586566 -0.45529184 4290658560
2.3383899 1.0550416 -0.45437393 4290658560
2.3293581 1.0510589 -0.45276406 4290658560
2.3293855 1.0511591 -0.45239148 4290658560
2.3803892 1.0742419 -0.46140251 4290789120
2.3769951 1.0728005 -0.45928049 4290789120
2.4198115 1.0921962 -0.46554562 4290919680
2.4384215 1.1006783 -0.46654108 4291050240
2.462425 1.111594 -0.46797782 4291050240
2.4768753 1.1182021 -0.46699652 4291180800
2.4832015 1.1211462 -0.46390361 4291180800
2.4847226 1.1219229 -0.45935833 4291180800
2.480613 1.1201588 -0.45324272 4291180800
2.4786394 1.1193579 -0.44700819 4291180800
2.4714384 1.1161978 -0.43933532 4291050240
2.4732885 1.1171212 -0.43278429 4291050240
2.4459772 1.104884 -0.42069212 4291050240
2.4423232 1.1033217 -0.41229385 4291050240
2.4611833 1.1119207 -0.40718651 4291050240
2.4713781 1.1166093 -0.40007597 4291050240
2.4836404 1.1222317 -0.392764 4291180800
2.4566164 1.110118 -0.37882981 4291050240
2.4442551 1.1046225 -0.36689383 4290919680
2.4418373 1.1036155 -0.3561036 4290919680
2.4610429 1.1123726 -0.34800512 4291050240
2.4683115 1.1157401 -0.33770239 4291050240
2.4530232 1.10892 -0.32396069 4291050240
2.4314375 1.0992543 -0.30920008 4290919680
2.4555116 1.1102117 -0.29991642 4291050240
2.4688427 1.1163176 -0.28879136 4291050240
2.468493 1.1162434 -0.27567098 4291050240
2.4199376 1.0943891 -0.25709659 4290789120
2.4373486 1.1023378 -0.24545945 4290919680
2.44695 1.1067586 -0.23261124 4290919680
2.4504604 1.1084273 -0.21885149 4290919680
2.4153326 1.0926335 -0.20156126 4290789120
2.4486911 1.1077918 -0.18982278 4290919680
2.4462814 1.1067843 -0.1748976 4290919680
2.4385743 1.103382 -0.1594626 4290919680
2.4336598 1.1012414 -0.1441178 4290919680
2.434557 1.101728 -0.12899132 4290919680
2.4297855 1.0996515 -0.11344675 4290789120
2.4387321 1.1037774 -0.098404981 4290919680
2.4036734 1.0880044 -0.081617497 4290789120
2.4298708 1.0999316 -0.066925332 4290789120
2.4405615 1.1048472 -0.051487062 4290919680
2.4381409 1.103833 -0.035655368 4290919680
2.4280701 1.0993582 -0.019750288 4290789120
2.4512334 1.109917 -0.0040366906 4290919680
2.3367641 1.0582111 0.011419532 4290528000
1.6013775 0.72556806 0.018822685 4287786240
1.5539416 0.70415741 0.028391985 4287655680
1.5029992 0.68115699 0.037234988 4287394560
1.5443329 0.69991201 0.048140652 4287525120
2.0339882 0.92156893 0.075792804 4289352960
2.4508593 1.1103156 0.1064958 4290919680
2.460577 1.1147957 0.12242921 4290919680
2.4583421 1.1138657 0.13769032 4290919680
2.4055746 1.0900593 0.14967105 4290789120
2.4585528 1.1141249 0.16797452 4290919680
2.4701138 1.1194415 0.18369184 4291050240
2.4594359 1.1146891 0.19757774 4290919680
2.4101303 1.0924439 0.20782207 4290789120
2.4713299 1.1202407 0.22733323 4291050240
2.4901276 1.1288376 0.2431885 4291050240
2.4724705 1.120924 0.25525314 4291050240
2.4420273 1.1072177 0.26546076 4290919680
2.2862213 1.0367187 0.26085898 4290397440
2.4635231 1.1171221 0.29375044 4291050240
2.4647675 1.11777 0.30640405 4291050240
2.4518983 1.1120231 0.31691456 4290919680
2.4190347 1.0972154 0.32428128 4290919680
2.3797755 1.0795071 0.33009133 4290789120
2.4563289 1.1142846 0.35164458 4291050240
2.4637349 1.1177266 0.36333734 4291050240
2.4596572 1.1159639 0.37294865 4291050240
2.4392722 1.106809 0.37957907 4290919680
2.4205818 1.0984212 0.3858856 4290919680
2.4044881 1.0912098 0.39203218 4290789120
2.4432464 1.1088686 0.40669405 4291050240
2.4439399 1.10927 0.41472206 4291050240
2.4438241 1.1093044 0.42213649 4291050240
2.4435756 1.1092793 0.42903864 4291050240
2.4366126 1.1062089 0.43425164 4290919680
2.4330184 1.1046666 0.43953022 4290919680
2.429935 1.103356 0.4443734 4290919680
2.4417567 1.1088077 0.4514268 4291050240
2.4357753 1.1061832 0.45469165 4291050240
2.4271009 1.1023366 0.45690027 4290919680
2.4220834 1.1001494 0.45923838 4290919680
2.4175892 1.0981996 0.46112502 4290919680
2.4217062 1.1001582 0.46410346 4290919680
2.4214191 1.1001185 0.46570075 4290919680
2.4212155 1.1001171 0.46676663 4290919680
2.4332113 1.1056542 0.46962655 4291050240
2.4331765 1.1057307 0.46962681 4291050240
2.4287286 1.1038038 0.46822846 4290919680
2.4288633 1.1039579 0.46715978 4290919680
2.4343736 1.1065537 0.46656713 4291050240
2.4352188 1.1070313 0.46453241 4291050240
2.4355347 1.1072693 0.461851 4291050240
2.428304 1.1040796 0.45721355 4290919680
2.4386451 1.1088723 0.45532569 4291050240
2.4388793 1.1090745 0.45101112 4291050240
2.4367621 1.1082087 0.44574079 4291050240
2.437515 1.1086473 0.44047531 4291050240
2.4311395 1.1058468 0.43342915 4290919680
2.4163232 1.0992101 0.42443681 4290919680
2.4215488 1.1016821 0.41847733 4290919680
2.43944 1.1099119 0.41414085 4291050240
2.458076 1.1184824 0.40933704 4291050240
2.4473627 1.1137112 0.39917752 4291050240
2.4309158 1.1063327 0.38772503 4290919680
2.4186108 1.1013799 0.31922781 4290919680
2.4495368 1.1155514 0.31138778 4290919680
2.4552619 1.1182586 0.29983738 4291050240
2.4249637 1.1045734 0.2837097 4290919680
2.4124904 1.0989981 0.2695545 4290789120
2.4427619 1.1128776 0.25973818 4290919680
2.4426348 1.1129225 0.24626394 4290919680
2.4075375 1.0970478 0.22921807 4290789120
2.4203691 1.1029916 0.21656212 4290789120
2.4296575 1.1073232 0.20322432 4290919680
2.4252563 1.105422 0.18849994 4290919680
2.1793845 0.99355298 0.15650727 4290005760
1.6278208 0.74243563 0.1075078 4287916800
1.4995165 0.6840632 0.089954451 4287394560
1.5333005 0.69951701 0.082385495 4287525120
1.5372326 0.70137382 0.072926752 4287525120
2.3682666 1.080076 0.096263073 4290658560
2.4186134 1.1031185 0.08283481 4290789120
2.4130831 1.1007017 0.067160703 4290789120
2.3797684 1.0856218 0.050910763 4290658560
2.4157774 1.1021364 0.036011472 4290789120
2.4203498 1.1043241 0.020364549 4290789120
2.4178157 1.1032726 0.0046255775 4290789120
2.4057815 1.0978895 -0.011037155 4290789120
2.4156795 1.1025057 -0.026794536 4290789120
2.4262791 1.1074427 -0.042667072 4290789120
2.4298468 1.1091735 -0.058459088 4290789120
2.418364 1.1040405 -0.073766395 4290789120
2.4426956 1.1152424 -0.090198107 4290919680
2.4472826 1.1174393 -0.10597655 4290919680
2.4218626 1.1059468 -0.12019014 4290789120
2.4316862 1.1105323 -0.13595186 4290919680
2.4436176 1.1160804 -0.15182383 4290919680
2.4492705 1.1187642 -0.16724776 4290919680
2.4231493 1.1069469 -0.18017624 4290789120
2.4485698 1.1186526 -0.19677338 4290919680
2.4783638 1.1323568 -0.2138409 4291050240
2.4720154 1.1295635 -0.22767276 4291050240
2.4618924 1.1250463 -0.24081232 4291050240
2.3973658 1.0956873 -0.24791154 4290789120
2.4595656 1.1241915 -0.26791137 4291050240
2.4745476 1.1311369 -0.2828649 4291050240
2.4641242 1.12648 -0.29461223 4291050240
2.4471352 1.1188231 -0.30510348 4290919680
2.2835984 1.0442199 -0.29598883 4290397440
2.4856815 1.1366371 -0.33435148 4291180800
2.477762 1.133122 -0.34490097 4291050240
2.4845014 1.1363041 -0.35710809 4291180800
2.4680521 1.1288898 -0.36552593 4291050240
2.43277 1.1128668 -0.37051153 4290919680
2.4571061 1.1240896 -0.3841463 4291050240
2.464848 1.1277291 -0.39486971 4291050240
2.4601321 1.1256737 -0.40315419 4291050240
2.459322 1.1254033 -0.41160226 4291050240
2.4584799 1.1251178 -0.41956973 4291050240
2.4576473 1.1248363 -0.42705357 4291050240
2.4624188 1.1271172 -0.43503615 4291050240
2.435946 1.1151086 -0.43692255 4291050240
2.4361749 1.1153107 -0.44304025 4291050240
2.3955743 1.0968359 -0.44110483 4290789120
2.3648741 1.0828865 -0.44033203 4290789120
2.3731403 1.0867616 -0.44628027 4290789120
2.3127527 1.059225 -0.43867469 4290528000
2.3202794 1.0627595 -0.44339526 4290528000
2.3198185 1.0626389 -0.44607872 4290528000
2.3194363 1.0625539 -0.44825685 4290528000
2.319134 1.0625051 -0.44992742 4290528000
2.3233895 1.0645422 -0.4519622 4290658560
2.3187745 1.0625185 -0.45173937 4290528000
2.3187187 1.0625812 -0.45187888 4290528000
2.3017361 1.0548937 -0.44818449 4290528000
2.3705089 1.0864707 -0.46069404 4290789120
2.3572743 1.0804993 -0.4566603 4290789120
2.3963935 1.0985026 -0.4622432 4290919680
2.4140556 1.106681 -0.46308389 4290919680
2.4267888 1.1126028 -0.46240175 4290919680
2.4446895 1.1208922 -0.46212599 4291050240
2.4475548 1.1222947 -0.45843038 4291050240
2.4378765 1.1179502 -0.45186007 4291050240
2.4493167 1.1232806 -0.4486874 4291050240
2.4488621 1.1231611 -0.44278628 4291050240
2.4316895 1.1153802 -0.43338683 4290919680
2.4416034 1.1200111 -0.42834887 4291050240
2.431416 1.1154294 -0.41928282 4290919680
2.4187837 1.109726 -0.40938365 4290919680
2.4322631 1.1159908 -0.40344647 4290919680
2.4554689 1.1267151 -0.39854005 4291050240
2.4635649 1.1305133 -0.39060527 4291050240
2.448837 1.1238471 -0.37862203 4291050240
2.4161649 1.1089513 -0.36361688 4290919680
2.4200459 1.1108153 -0.35384321 4290919680
2.4350042 1.1177592 -0.34521514 4290919680
2.447659 1.1236476 -0.33574715 4291050240
2.4322202 1.1166506 -0.32204723 4290919680
2.4051709 1.1043264 -0.30664933 4290789120
2.428103 1.1149288 -0.29733288 4290919680
2.4547377 1.1272312 -0.28788915 4291050240
2.4542646 1.1270977 -0.27479491 4291050240
2.4047296 1.1044523 -0.25614372 4290789120
2.4110155 1.1074182 -0.24342915 4290789120
2.4244351 1.1136582 -0.23106232 4290919680
2.4230483 1.1131035 -0.21695389 4290919680
2.3865416 1.0964291 -0.19966221 4290789120
2.4150376 1.1095895 -0.18768241 4290789120
2.4204862 1.1121715 -0.17348951 4290789120
2.4208076 1.1124002 -0.15870331 4290789120
2.3841062 1.0956309 -0.14151743 4290658560
2.3835142 1.0954386 -0.12658009 4290658560
2.3956788 1.1011039 -0.11212115 4290789120
2.3595634 1.0845989 -0.095399842 4290658560
2.3059068 1.0600357 -0.078427061 4290397440
2.2704084 1.0438086 -0.062574491 4290266880
2.2312732 1.0259086 -0.047033902 4290136320
2.1469119 0.98723149 -0.031253122 4289875200
2.1961477 1.0099208 -0.017727375 4290005760
2.4079313 1.10729 -0.0039370023 4290789120
2.3214583 1.0676402 0.011392512 4290528000
1.606209 0.73907435 0.018925868 4287786240
1.5452696 0.71112525 0.028321188 4287655680
1.4990048 0.68991578 0.037241541 4287394560
1.5665692 0.72101682 0.048937172 4287655680
1.993167 0.91713881 0.074512832 4289222400
2.4156175 1.1113828 0.10527805 4290789120
2.4495015 1.1270391 0.12221721 4290919680
2.4436436 1.1244278 0.1372491 4290919680
2.390111 1.0998981 0.14912328 4290789120
2.4347894 1.1205204 0.16681926 4290919680
2.441793 1.1238222 0.18209855 4290919680
2.4356821 1.1210942 0.1962162 4290919680
2.3865139 1.0985647 0.20635955 4290789120
2.4602337 1.13255 0.22693032 4291050240
2.4617884 1.1333481 0.241091 4291050240
2.4568517 1.1311609 0.25433537 4291050240
2.4273975 1.1176949 0.26459163 4290919680
2.2503202 1.0363133 0.25748539 4290266880
2.4569724 1.1314673 0.29376119 4291050240
2.4365466 1.1221533 0.30373341 4290919680
2.431843 1.1200727 0.31518334 4290919680
2.3999753 1.1054914 0.32260633 4290789120
2.3644319 1.0892166 0.32885656 4290658560
2.4452903 1.1265143 0.35101283 4291050240
2.4472795 1.127515 0.361893 4291050240
2.4360144 1.1224149 0.37037548 4290919680
2.4279296 1.1187786 0.37883714 4290919680
2.4217887 1.1160369 0.38711146 4290919680
2.4006464 1.106388 0.39245829 4290919680
2.431433 1.1206493 0.40582326 4290919680
2.4329464 1.121433 0.41397318 4290919680
2.4247558 1.117748 0.41998303 4290919680
2.4236157 1.11731 0.42669326 4290919680
2.4166758 1.1142011 0.43187159 4290919680
2.4184737 1.115117 0.43808731 4290919680
2.4186313 1.1152776 0.44350231 4290919680
2.422714 1.1172471 0.44912475 4290919680
2.4122739 1.1125258 0.45153391 4290919680
2.4036264 1.1086302 0.45371649 4290919680
2.4111567 1.1121895 0.45840245 4290919680
2.403095 1.108564 0.45960301 4290919680
2.39378 1.1043607 0.46000832 4290919680
2.3934958 1.1043197 0.46159142 4290919680
2.3932941 1.1043171 0.46264783 4290919680
2.4142039 1.1140478 0.46722561 4290919680
2.4016452 1.1083494 0.46481431 4290919680
2.417783 1.1158825 0.46737877 4290919680
2.4143381 1.114387 0.46562541 4290919680
2.4064121 1.1108251 0.46247202 4290919680
2.4153051 1.1150199 0.46198875 4290919680
2.407563 1.1115431 0.45779836 4290919680
2.4184825 1.1166744 0.45659551 4290919680
2.410655 1.1131585 0.45133418 4290919680
2.4189427 1.1170772 0.44854382 4290919680
2.4213057 1.1182635 0.44411698 4290919680
2.4139888 1.1149836 0.43741733 4290919680
2.4076238 1.1121427 0.43041152 4290919680
2.4018075 1.1095549 0.42303371 4290919680
2.3935599 1.1058449 0.41477793 4290789120
2.4194705 1.1179023 0.4118728 4290919680
2.4425397 1.1286503 0.40785712 4291050240
2.4282577 1.1221559 0.39714351 4290919680
2.4109499 1.1142638 0.38559267 4290919680
2.3905189 1.1054688 0.31639504 4290789120
2.4258602 1.1218978 0.30922973 4290919680
2.4427526 1.1298052 0.29912457 4290919680
2.4049459 1.1124367 0.28214395 4290789120
2.4006977 1.1105747 0.26897067 4290789120
2.4190683 1.1191672 0.25793356 4290919680
2.4225492 1.1208787 0.24491571 4290919680
2.3929653 1.107305 0.22845875 4290789120
2.3885686 1.1053741 0.21432199 4290789120
2.4104929 1.1156131 0.20218313 4290789120
2.3891675 1.1058547 0.18622856 4290789120
2.1210246 0.98195124 0.15278375 4289744640
1.6234673 0.75191998 0.10751493 4287916800
1.4819103 0.68651295 0.089161731 4287394560
1.5739489 0.72915256 0.08474423 4287655680
1.568557 0.72672576 0.07457298 4287655680
2.3447008 1.0858957 0.09558557 4290528000
2.3381751 1.0829769 0.080365434 4290528000
2.2754145 1.0540345 0.063615754 4290266880
2.2535882 1.0440313 0.048448693 4290266880
2.2575788 1.0459754 0.033874851 4290266880
2.2635748 1.0488483 0.019225582 4290266880
2.260694 1.0476122 0.0044650421 4290266880
2.2352223 1.035917 -0.010143661 4290136320
2.2523224 1.0439311 -0.024918212 4290266880
2.2526455 1.0441778 -0.039582241 4290266880
2.1843834 1.0126624 -0.052504044 4290005760
2.286428 1.0600184 -0.069824487 4290397440
2.3172629 1.0743995 -0.08569786 4290528000
2.3335087 1.0820248 -0.10123213 4290528000
2.2649884 1.0503812 -0.11258629 4290266880
2.3531446 1.0913231 -0.13185136 4290658560
2.3690891 1.0988123 -0.1475295 4290658560
2.3663979 1.0976667 -0.16195834 4290658560
2.3229356 1.0776255 -0.1731119 4290528000
2.3914528 1.109482 -0.19265379 4290789120
2.4103377 1.1183381 -0.20847756 4290789120
2.4249251 1.1252033 -0.22389761 4290919680
2.4079442 1.1174337 -0.23612554 4290789120
2.2490728 1.0438733 -0.23309396 4290266880
2.4127128 1.1198493 -0.26347667 4290919680
2.4144769 1.1207696 -0.27669427 4290919680
2.4092751 1.1184589 -0.2887865 4290919680
2.3691821 1.099964 -0.29612133 4290658560
2.1465263 0.99677956 -0.27886975 4289875200
2.4247358 1.1259351 -0.32698536 4290919680
2.4296424 1.1283128 -0.33907521 4290919680
2.4340224 1.1304464 -0.35075513 4290919680
2.4312248 1.1292493 -0.36101037 4290919680
2.3805635 1.1058391 -0.36349624 4290789120
2.4084222 1.1188673 -0.37751102 4290919680
2.4196429 1.1241747 -0.38863617 4290919680
2.4185464 1.123765 -0.3973735 4290919680
2.4139719 1.1217402 -0.405065 4290919680
2.4109361 1.120429 -0.41252744 4290919680
2.4013186 1.1160613 -0.41834784 4290919680
2.3874083 1.1096989 -0.4228676 4290789120
2.3716202 1.102463 -0.42648438 4290789120
2.3649328 1.0994523 -0.43119258 4290789120
2.3253019 1.0811387 -0.42926881 4290658560
2.3370657 1.086696 -0.43630224 4290658560
2.2687149 1.0550352 -0.42772144 4290397440
2.2850952 1.0627351 -0.43457231 4290528000
2.2926061 1.0663149 -0.43926334 4290528000
2.2966163 1.0682682 -0.44278583 4290528000
2.3051682 1.0723319 -0.44668412 4290528000
2.3093321 1.0743567 -0.44922018 4290528000
2.3001831 1.0701934 -0.4486326 4290528000
2.2875452 1.0644073 -0.44683042 4290528000
2.2830255 1.0623939 -0.44609335 4290528000
2.2785873 1.0604175 -0.44485191 4290397440
2.2483368 1.0464389 -0.43804815 4290397440
2.3214719 1.0805311 -0.4509083 4290658560
2.3038831 1.072439 -0.44553465 4290528000
2.3608394 1.0990138 -0.45405787 4290789120
2.3625891 1.0999155 -0.45133775 4290789120
2.3899703 1.1127393 -0.45296109 4290919680
2.4038675 1.1192923 -0.45142886 4290919680
2.4014366 1.1182498 -0.44627753 4290919680
2.3987148 1.1170714 -0.44056565 4290919680
2.4001613 1.1178318 -0.43511498 4290919680
2.4002032 1.1179385 -0.42890313 4290919680
2.3921757 1.1142894 -0.42077267 4290919680
2.3807948 1.1090789 -0.41162333 4290789120
2.3778346 1.1077865 -0.40350673 4290789120
2.3792901 1.1085489 -0.39568514 4290789120
2.3962383 1.1165228 -0.38993275 4290919680
2.4000742 1.1183933 -0.38151965 4290919680
2.3816049 1.1098791 -0.36917222 4290789120
2.3538375 1.0970341 -0.35514694 4290658560
2.3415463 1.0913932 -0.34323305 4290658560
2.3636289 1.1017581 -0.33594853 4290658560
2.3773191 1.108216 -0.32692733 4290789120
2.3752306 1.1073257 -0.31530693 4290789120
2.3403745 1.0911723 -0.29914457 4290658560
2.3504958 1.0959675 -0.28854915 4290658560
2.357693 1.099401 -0.27718434 4290658560
2.3573196 1.0993078 -0.26458257 4290658560
2.3048258 1.0749302 -0.24609119 4290528000
2.2850397 1.0657893 -0.23124079 4290397440
2.2991796 1.0724559 -0.21962459 4290397440
2.2902143 1.0683557 -0.20551619 4290397440
2.2437761 1.0467904 -0.18811834 4290266880
2.2721522 1.0600919 -0.17694846 4290266880
2.2701225 1.0592222 -0.16303906 4290266880
2.2666173 1.0576645 -0.14888012 4290266880
2.2378657 1.0443369 -0.13308284 4290136320
2.2576993 1.0536587 -0.1201238 4290266880
2.2609851 1.0552664 -0.10599766 4290266880
2.245357 1.0480546 -0.090935431 4290266880
2.2146044 1.0337889 -0.075448498 4290136320
2.2366912 1.0441632 -0.06177967 4290136320
2.1636431 1.0101689 -0.045671005 4289875200
2.1066885 0.98367614 -0.030711288 4289744640
2.1732821 1.0148093 -0.017566117 4289875200
2.3796892 1.1111681 -0.0038736986 4290658560
2.3369479 1.0913076 0.011492005 4290528000
1.5928137 0.74420583 0.018836724 4287786240
1.5066681 0.70406437 0.027738336 4287525120
1.4768397 0.69019598 0.036820337 4287394560
1.5532831 0.72591799 0.048671719 4287655680
1.9579021 0.91480094 0.073430955 4289091840
2.3828421 1.1131952 0.10416286 4290658560
2.416641 1.1290506 0.12093614 4290789120
2.4234757 1.132322 0.13650662 4290919680
2.3709958 1.1079044 0.14835225 4290658560
2.4186356 1.1302251 0.16617969 4290919680
2.4270668 1.1342429 0.18150778 4290919680
2.4200714 1.1310583 0.19550468 4290919680
2.3538754 1.1002294 0.20412171 4290658560
2.4319222 1.1367562 0.22495542 4290919680
2.4379945 1.1396747 0.23943271 4290919680
2.4375894 1.1395684 0.25304621 4290919680
2.3992033 1.1217216 0.26225626 4290789120
2.2352314 1.0452081 0.25646999 4290266880
2.428719 1.1356747 0.29119936 4290919680
2.4254653 1.134238 0.30318555 4290919680
2.4175622 1.1306292 0.31419867 4290919680
2.3719082 1.1093804 0.31972745 4290789120
2.340966 1.0950036 0.32650113 4290658560
2.4261072 1.1348745 0.34922469 4290919680
2.4146271 1.129594 0.35806638 4290919680
2.4253409 1.1346865 0.36976618 4290919680
2.4088111 1.1270453 0.37689468 4290919680
2.4026926 1.1242702 0.38512203 4290919680
2.381613 1.1145006 0.39042416 4290789120
2.4078429 1.1268493 0.4030017 4290919680
2.4048827 1.1255513 0.41033798 4290919680
2.4011977 1.1239147 0.41705668 4290919680
2.4040396 1.1253304 0.42441705 4290919680
2.3980062 1.122596 0.42971918 4290919680
2.4029961 1.1250173 0.43648294 4290919680
2.4040494 1.125598 0.44204199 4290919680
2.3947229 1.1213235 0.4451707 4290919680
2.3968198 1.122393 0.44987702 4290919680
2.3926618 1.1205364 0.45288649 4290919680
2.3921382 1.1203806 0.45604286 4290919680
2.3916924 1.1202617 0.45867825 4290919680
2.3868647 1.1180924 0.45993456 4290919680
2.3825595 1.1161677 0.4607437 4290789120
2.3787894 1.1144935 0.46110988 4290789120
2.3951819 1.1222576 0.46482468 4290919680
2.390686 1.1202446 0.46396366 4290919680
2.3898287 1.1199354 0.46326002 4290919680
2.3996842 1.1246423 0.46407375 4290919680
2.3918686 1.1210759 0.46094298 4290919680
2.3873501 1.1190531 0.4579125 4290919680
2.3974757 1.123889 0.4571318 4290919680
2.3994374 1.1249022 0.45425239 4290919680
2.3960922 1.1234301 0.44984403 4290919680
2.3988853 1.1248337 0.44605607 4290919680
2.4022419 1.1265019 0.44183946 4290919680
2.3941243 1.1227949 0.43501943 4290919680
2.3885877 1.1202968 0.42819083 4290919680
2.3783107 1.1155773 0.42005992 4290789120
2.3826029 1.1176853 0.41401562 4290789120
2.4003866 1.1261173 0.40975669 4290919680
2.4189105 1.1348982 0.40503556 4290919680
2.4127207 1.1320957 0.39569372 4290919680
2.3918705 1.1224201 0.38360319 4290789120
2.3867371 1.1206552 0.31676149 4290789120
2.4052544 1.1294427 0.30746016 4290919680
2.4190311 1.1360078 0.29705137 4290919680
2.3768165 1.1163027 0.27963233 4290789120
2.3680654 1.1122971 0.26607031 4290658560
2.3932669 1.1242247 0.25590435 4290789120
2.3974087 1.1262707 0.24306042 4290789120
2.3648269 1.1110798 0.22641632 4290658560
2.3767443 1.1167753 0.21385656 4290789120
2.3868015 1.1215987 0.20076627 4290789120
2.345129 1.1021357 0.18333653 4290658560
2.0592625 0.96800745 0.1488024 4289483520
1.5060369 0.70830435 0.10015941 4287525120
1.4697504 0.69132787 0.088688716 4287394560
1.5114833 0.71099252 0.081684239 4287525120
1.5895447 0.74772525 0.075751364 4287786240
2.3477666 1.1039821 0.095973589 4290658560
2.3596222 1.1096537 0.081310436 4290658560
2.0575879 0.96784389 0.057874337 4289483520
1.9832394 0.93299705 0.042990074 4289222400
2.0639825 0.97102761 0.031224051 4289483520
2.0731189 0.97541112 0.017821312 4289614080
2.0164251 0.94885361 0.0042027947 4289352960
2.1383064 1.006234 -0.0096440744 4289875200
2.0775414 0.97776031 -0.022897808 4289614080
2.0818622 0.97988206 -0.036536112 4289614080
2.0380876 0.95938963 -0.048993863 4289483520
2.218653 1.0443879 -0.067880377 4290136320
2.245851 1.0572749 -0.083222419 4290266880
2.2028039 1.0371259 -0.095716983 4290005760
2.1461105 1.0105542 -0.10686995 4289875200
2.2444317 1.0568992 -0.12601615 4290266880
2.2563541 1.0626051 -0.14080378 4290266880
2.2149663 1.0432295 -0.1518915 4290136320
2.1396139 1.0078682 -0.15974455 4289875200
2.2804523 1.0742375 -0.18412808 4290397440
2.2885029 1.0781244 -0.19838853 4290397440
2.2816985 1.07502 -0.2111433 4290397440
2.2041116 1.038596 -0.21658109 4290136320
2.0326838 0.95798886 -0.21107899 4289483520
2.2775941 1.0733802 -0.24930255 4290397440
2.2524154 1.061622 -0.25871214 4290266880
2.2364647 1.0542068 -0.26868317 4290266880
2.1427827 1.0101838 -0.268397 4289875200
2.0544362 0.96866554 -0.26756141 4289614080
2.3059814 1.0872339 -0.31173661 4290528000
2.319525 1.0937108 -0.3245143 4290528000
2.3040257 1.0865064 -0.33283946 4290528000
2.2655509 1.0684756 -0.33721715 4290397440
2.1702018 1.0236433 -0.33213949 4290005760
2.272079 1.0717404 -0.35702023 4290397440
2.2623479 1.0672487 -0.36426002 4290397440
2.2527835 1.0628343 -0.3710402 4290397440
2.2489982 1.0611428 -0.37830511 4290266880
2.2456965 1.0596787 -0.38519567 4290266880
2.2305002 1.0526063 -0.38953903 4290266880
2.2186322 1.0471019 -0.39393705 4290266880
2.1879976 1.0327471 -0.39441973 4290136320
2.1484623 1.0141926 -0.39265528 4290005760
2.151273 1.0156045 -0.39811262 4290005760
2.1719754 1.0254546 -0.40648201 4290005760
2.1207938 1.0014004 -0.40082708 4289875200
2.1371663 1.0092077 -0.4074519 4289875200
2.1455801 1.0132614 -0.41211927 4290005760
2.1540608 1.0173471 -0.41634205 4290005760
2.1403451 1.0109601 -0.41577157 4290005760
2.1658909 1.0230979 -0.42237499 4290005760
2.1487651 1.0151002 -0.42014614 4290005760
2.1352797 1.008819 -0.41812816 4289875200
2.1352272 1.0088764 -0.41825733 4289875200
2.1138816 0.99888271 -0.41371635 4289875200
2.1059663 0.99522698 -0.41133636 4289875200
2.1610806 1.0213263 -0.42079869 4290005760
2.1310525 1.0072306 -0.41312647 4289875200
2.1744668 1.0278101 -0.41923827 4290136320
2.1806326 1.030803 -0.41760105 4290136320
2.1800773 1.0306221 -0.41417924 4290136320
2.2004278 1.0403142 -0.41422701 4290136320
2.2098534 1.0448475 -0.4116765 4290266880
2.213671 1.0467321 -0.40757385 4290266880
2.2121301 1.0460852 -0.40200499 4290266880
2.2093587 1.0448567 -0.39575851 4290136320
2.2089343 1.0447364 -0.3894864 4290136320
2.205435 1.0431628 -0.38223398 4290136320
2.210305 1.0455434 -0.37599412 4290136320
2.2413321 1.0602853 -0.37367022 4290266880
2.2628598 1.0705396 -0.36914718 4290397440
2.2567902 1.0677513 -0.35962918 4290397440
2.2453578 1.0624273 -0.34891292 4290266880
2.1901143 1.036392 -0.33123729 4290136320
2.1920481 1.0373831 -0.3220951 4290136320
2.1980307 1.0402883 -0.31315303 4290136320
2.2391255 1.0597957 -0.30866995 4290266880
2.2497821 1.0649127 -0.29938322 4290266880
2.2239263 1.0527637 -0.28495461 4290266880
2.236588 1.0588286 -0.27523497 4290266880
2.2376993 1.0594312 -0.2637105 4290266880
2.2353318 1.0583882 -0.25148875 4290266880
2.2053819 1.0442977 -0.23604274 4290136320
2.1538527 1.0199964 -0.21846247 4289875200
2.2028811 1.043265 -0.21092767 4290136320
2.1647427 1.0252955 -0.19469222 4290005760
2.1226363 1.0054456 -0.17835356 4289744640
2.1622238 1.0242503 -0.16876161 4289875200
2.0968366 0.99337989 -0.15087043 4289744640
2.0884464 0.98947978 -0.13741207 4289614080
2.0584507 0.97535312 -0.12260395 4289483520
2.0222926 0.95830745 -0.10770509 4289352960
2.0354414 0.96459967 -0.09550339 4289483520
1.9868369 0.9416585 -0.080475047 4289222400
2.0172837 0.95613962 -0.068748772 4289352960
2.0411036 0.96748519 -0.056367766 4289483520
2.0802066 0.9860689 -0.043954808 4289614080
1.9543999 0.92656451 -0.028431123 4289091840
2.1262641 1.0080193 -0.017188212 4289744640
2.3675163 1.1223481 -0.0038493192 4290658560
2.3124747 1.0963576 0.011428038 4290528000
1.4929657 0.70825875 0.017826516 4287394560
1.4500577 0.6879831 0.026843576 4287264000
1.4818282 0.7030825 0.037040919 4287394560
1.5445101 0.73282892 0.048542477 4287655680
1.8088572 0.85812902 0.068181328 4288569600
2.3546436 1.1168031 0.10324168 4290658560
2.4018965 1.139274 0.12054601 4290789120
2.3951766 1.13617 0.13531214 4290789120
2.3428466 1.1114496 0.1470229 4290658560
2.4029899 1.1400348 0.16557679 4290789120
2.4032865 1.1402565 0.18024863 4290789120
2.3963165 1.1370338 0.1941431 4290789120
2.3393171 1.1100932 0.20343445 4290658560
2.4146688 1.1458975 0.22399336 4290919680
2.4142113 1.1457628 0.23777439 4290919680
2.4183133 1.1477903 0.25175709 4290919680
2.3881307 1.1335603 0.26177824 4290789120
2.2165208 1.0522575 0.25504446 4290136320
2.4049928 1.1417218 0.28917348 4290919680
2.401756 1.1402698 0.30107352 4290919680
2.3974726 1.1383212 0.31246752 4290919680
2.3734765 1.1270211 0.3208217 4290789120
2.321996 1.1026808 0.32476833 4290528000
2.40082 1.1401602 0.34656313 4290919680
2.4080045 1.1436535 0.35807723 4290919680
2.4007876 1.1403139 0.367057 4290919680
2.3977306 1.1389482 0.37620789 4290919680
2.3826888 1.1318947 0.38298976 4290789120
2.3580983 1.1203084 0.38765976 4290789120
2.379797 1.1306925 0.39943472 4290789120
2.3795359 1.1306542 0.407159 4290789120
2.3901458 1.1357771 0.41629452 4290919680
2.3849518 1.1333979 0.42222875 4290919680
2.3825068 1.132324 0.42813608 4290919680
2.3705478 1.1267325 0.43180987 4290789120
2.3760622 1.1294384 0.43812996 4290789120
2.37924 1.1310354 0.44352946 4290789120
2.3777704 1.1304259 0.4475531 4290789120
2.3771746 1.1302315 0.45121336 4290789120
2.3722162 1.1279652 0.45351395 4290789120
2.376224 1.1299585 0.45698607 4290789120
2.37586 1.1298754 0.45908988 4290789120
2.3711276 1.1277173 0.45981139 4290789120
2.3629191 1.1239072 0.45931506 4290789120
2.375257 1.129861 0.46225151 4290789120
2.3707728 1.1278214 0.46139047 4290789120
2.3752553 1.1300439 0.46172217 4290789120
2.3761854 1.1305783 0.46082279 4290789120
2.3719485 1.128657 0.45838755 4290789120
2.3664725 1.1261467 0.45518368 4290789120
2.3775353 1.1314999 0.45460293 4290789120
2.380379 1.1329463 0.4519093 4290919680
2.3806014 1.1331466 0.44818717 4290919680
2.3798213 1.1328708 0.44375399 4290919680
2.3778965 1.1320509 0.43859538 4290789120
2.3786297 1.1324954 0.43341506 4290789120
2.371325 1.1291168 0.42628944 4290789120
2.3668642 1.1270911 0.41920644 4290789120
2.3637557 1.1257086 0.41189596 4290789120
2.3847485 1.1357942 0.40822944 4290919680
2.3985946 1.1424809 0.40276536 4290919680
2.3891113 1.1380668 0.3929294 4290919680
2.3727787 1.1303923 0.3816137 4290789120
2.3551524 1.1224161 0.31345466 4290658560
2.3942368 1.1411264 0.30689946 4290789120
2.3998969 1.1439234 0.29552516 4290919680
2.3690934 1.1293558 0.27949265 4290789120
2.3535476 1.1220528 0.26517466 4290658560
2.3786764 1.1341231 0.25505155 4290789120
2.382803 1.1361909 0.24225137 4290789120
2.366574 1.1285617 0.22719912 4290658560
2.3486888 1.1201421 0.21193185 4290658560
2.3803146 1.1353132 0.20077008 4290789120
2.300854 1.0975497 0.18040198 4290528000
1.9658579 0.93799478 0.1425302 4289222400
1.4893242 0.71095008 0.099336028 4287394560
1.4522308 0.69333339 0.0878895 4287264000
1.5073711 0.71968287 0.081683807 4287525120
1.6203928 0.77363271 0.077386551 4287916800
2.3413815 1.1174732 0.095971107 4290658560
2.3400273 1.1169295 0.08086279 4290658560
2.0844581 0.99515319 0.058755253 4289614080
-5.4773769 -2.6112533 -0.111717 4278190335
2.06952 0.98821014 0.03137745 4289614080
2.0073135 0.95862687 0.017352439 4289352960
1.9302533 0.92195183 0.0041038804 4289091840
2.0289304 0.96911603 -0.009091828 4289483520
1.9854834 0.94847387 -0.021873074 4289222400
2.0367243 0.97301269 -0.035815202 4289483520
1.9244618 0.91952556 -0.046300124 4289091840
2.0550759 0.98194963 -0.062928043 4289483520
2.0249016 0.96763629 -0.075077429 4289483520
2.0135944 0.96232688 -0.08759632 4289352960
1.9550141 0.93444771 -0.097477667 4289222400
2.0473115 0.97860104 -0.11512494 4289483520
2.0421448 0.97622299 -0.12763616 4289483520
2.093663 1.000914 -0.14388871 4289744640
1.9623774 0.93830448 -0.14678772 4289222400
2.0750039 0.99218357 -0.16786285 4289614080
2.1751945 1.0401318 -0.18901731 4290005760
2.0902786 0.99965996 -0.19383714 4289744640
2.0460949 0.97864091 -0.20150362 4289483520
1.9151621 0.91616887 -0.199342 4289091840
2.1764812 1.0411216 -0.2388339 4290005760
2.1706145 1.0384113 -0.2499595 4290005760
2.1609077 1.0338651 -0.26028159 4290005760
2.1395531 1.0237503 -0.26874286 4289875200
1.9153347 0.91666102 -0.25003842 4289091840
2.169347 1.0381755 -0.29399407 4290005760
2.1650932 1.0362334 -0.30365226 4290005760
2.1644447 1.0360149 -0.31345591 4290005760
2.1309116 1.0200709 -0.3179712 4289875200
2.0692921 0.9906922 -0.31750849 4289614080
2.1393716 1.0242956 -0.33701572 4289875200
2.1458611 1.0274889 -0.34638885 4290005760
2.1492498 1.029199 -0.35490361 4290005760
2.1395423 1.024644 -0.36082095 4290005760
2.1459389 1.0277927 -0.36904052 4290005760
2.1357524 1.0230069 -0.37396377 4289875200
2.1254854 1.0181813 -0.37838185 4289875200
2.1126165 1.0121095 -0.38183466 4289875200
2.0926278 1.0026288 -0.38347036 4289744640
2.0736809 0.99364465 -0.38476089 4289744640
2.0379906 0.97664404 -0.38236976 4289614080
2.050724 0.98282158 -0.38860425 4289614080
2.054626 0.98477167 -0.39273795 4289614080
1.9859998 0.95199525 -0.38240913 4289352960
2.0069251 0.96209365 -0.38887024 4289483520
2.002152 0.95988709 -0.38990083 4289483520
1.9983375 0.95813894 -0.39065644 4289483520
1.993706 0.95599872 -0.39079037 4289483520
1.9935857 0.95601869 -0.39135292 4289483520
1.984657 0.95181876 -0.38972223 4289352960
2.0439031 0.98027843 -0.40106207 4289614080
2.0351183 0.97614801 -0.39853048 4289614080
2.0702558 0.99306184 -0.40414703 4289744640
2.0975604 1.0062245 -0.40771231 4289875200
2.0924103 1.0038358 -0.40445399 4289744640
2.1160951 1.0152659 -0.40629256 4289875200
2.1217833 1.0180715 -0.40415108 4289875200
2.1352267 1.0245947 -0.40299016 4290005760
2.1382127 1.0261054 -0.39935139 4290005760
2.147016 1.0304048 -0.39631513 4290005760
2.1344595 1.0244637 -0.38887393 4290005760
2.1342294 1.0244316 -0.38326854 4289875200
2.1316001 1.0232487 -0.37679684 4289875200
2.1159215 1.0158073 -0.36763081 4289875200
2.1160061 1.0159243 -0.36083969 4289875200
2.1169496 1.016453 -0.35377911 4289875200
2.1399589 1.0275658 -0.34993178 4290005760
2.1579318 1.0362639 -0.34470806 4290005760
2.1335933 1.0246646 -0.33233285 4289875200
2.109144 1.0130101 -0.31976175 4289875200
2.1260002 1.0211723 -0.31315026 4289875200
2.1316636 1.0239646 -0.30443129 4289875200
2.1502004 1.0329347 -0.29710701 4290005760
2.1208088 1.0189044 -0.28284764 4289875200
2.0702231 0.99469984 -0.26582104 4289614080
2.0840807 1.0014231 -0.25700217 4289744640
2.1009262 1.0095812 -0.2481104 4289744640
2.0669019 0.99332041 -0.23299177 4289614080
2.072371 0.9960171 -0.22225113 4289614080
2.0472951 0.98404884 -0.20807643 4289483520
2.0266535 0.97420782 -0.19438574 4289483520
2.0580666 0.98936111 -0.18545315 4289614080
2.0759819 0.99803448 -0.17480259 4289614080
2.0857728 1.0028071 -0.16310658 4289614080
2.0820286 1.0010797 -0.15012816 4289614080
2.0632548 0.99213272 -0.13602959 4289614080
1.9213105 0.9240185 -0.11456054 4289091840
2.059968 0.99069321 -0.10996642 4289614080
2.0604837 0.99101037 -0.096885011 4289614080
1.9338421 0.93023378 -0.078418911 4289091840
1.9853679 0.95505655 -0.067738146 4289222400
1.9904414 0.95756125 -0.054992855 4289352960
2.0123096 0.96813703 -0.042493362 4289352960
1.9177432 0.92275673 -0.027859552 4289091840
2.1294472 1.0245717 -0.017173735 4289875200
2.3516264 1.1314355 -0.003720128 4290658560
2.3204627 1.1165344 0.011592941 4290528000
1.5150043 0.72940683 0.01817525 4287525120
1.5416714 0.74227822 0.028561251 4287655680
1.4606408 0.70337105 0.036702048 4287394560
1.506036 0.72524738 0.047577228 4287525120
1.717422 0.8269453 0.065087952 4288308480
2.3146784 1.1142205 0.10190493 4290528000
2.3781977 1.1448467 0.11981016 4290789120
2.3715 1.1417056 0.13446806 4290789120
2.3193178 1.1166863 0.14606951 4290528000
2.3793011 1.1456187 0.16452043 4290789120
2.3831987 1.1475743 0.17935535 4290789120
2.3766479 1.1445037 0.1931998 4290789120
2.3194139 1.1170475 0.20237637 4290528000
2.3864815 1.1493974 0.22211447 4290789120
2.3986008 1.1553108 0.23700222 4290919680
2.393723 1.1530457 0.25000474 4290789120
2.3681149 1.1408037 0.26041424 4290789120
2.1969824 1.0585186 0.25359997 4290136320
2.3792536 1.1463287 0.28698438 4290789120
2.3809037 1.1472056 0.29939345 4290789120
2.3738763 1.1439053 0.31035665 4290789120
2.3539855 1.1344119 0.31916955 4290658560
2.3021996 1.1095608 0.32298911 4290528000
2.3683045 1.141472 0.34292543 4290789120
2.3754823 1.145012 0.35432631 4290789120
2.3861499 1.1502335 0.36591735 4290919680
2.3741837 1.1445552 0.37363827 4290789120
2.3547328 1.1352714 0.37963858 4290789120
2.334676 1.1256948 0.3849588 4290658560
2.3652315 1.1404982 0.39816502 4290789120
2.3640842 1.140031 0.40570852 4290789120
2.366658 1.1413568 0.41342279 4290789120
2.3614852 1.1389508 0.41930613 4290789120
2.3590531 1.1378654 0.42516595 4290789120
2.3515782 1.1343499 0.4296031 4290789120
2.3650801 1.1409441 0.43736365 4290789120
2.3558123 1.1365651 0.44043747 4290789120
2.3579047 1.1376615 0.44509459 4290789120
2.344882 1.1314723 0.4463762 4290789120
2.3488209 1.1334594 0.45033169 4290789120
2.357259 1.1376166 0.45463252 4290789120
2.3524606 1.1353927 0.45586553 4290789120
2.3610542 1.1396264 0.45914659 4290789120
2.3519812 1.1353418 0.4584721 4290789120
2.3474276 1.1332364 0.45813003 4290789120
2.3518155 1.1354437 0.45898446 4290789120
2.3518629 1.135558 0.45845661 4290789120
2.3527896 1.1360971 0.45756006 4290789120
2.3526497 1.1361221 0.45591924 4290789120
2.3564124 1.1380304 0.45449206 4290789120
2.3630064 1.1413057 0.45306388 4290789120
2.3480849 1.1341993 0.44701344 4290789120
2.3567359 1.1384681 0.44491014 4290789120
2.3643932 1.1422586 0.44207215 4290789120
2.3589175 1.139711 0.43627244 4290789120
2.3463137 1.1337225 0.42869189 4290789120
2.352356 1.1367351 0.42401379 4290789120
2.3434563 1.1325344 0.41617307 4290789120
2.3528056 1.1371449 0.41106918 4290789120
2.3568277 1.1391841 0.40452456 4290789120
2.3830929 1.1519656 0.40121037 4290919680
2.36797 1.1447606 0.39047197 4290789120
2.3605382 1.1412698 0.38062474 4290789120
2.3349867 1.1300123 0.31168842 4290658560
2.3614302 1.1428977 0.30360138 4290789120
2.3795881 1.1517792 0.29389361 4290789120
2.3542373 1.1396217 0.2785618 4290658560
2.3333576 1.1296245 0.26368526 4290658560
2.3673685 1.1461757 0.25459191 4290789120
2.3625154 1.1439304 0.24091201 4290789120
2.3292856 1.1279571 0.22431155 4290658560
2.3374591 1.1320126 0.21155263 4290658560
2.3555274 1.1408567 0.19929194 4290658560
2.2735903 1.1013097 0.17882191 4290397440
1.886553 0.91410327 0.13727453 4288961280
1.5282465 0.74076873 0.10218566 4287655680
1.4354731 0.69593012 0.087162778 4287264000
1.4382337 0.69732934 0.078269564 4287264000
1.6714904 0.81031716 0.080012888 4288177920
2.3312907 1.1298432 0.095872536 4290528000
2.3234982 1.1261724 0.080569789 4290528000
2.0442767 0.99106055 0.057856411 4289483520
-5.461658 -2.6439545 -0.11181571 4278190335
1.9924612 0.96614403 0.030400207 4289352960
2.0186422 0.97891343 0.017523898 4289352960
1.938203 0.94003528 0.0041587474 4289091840
2.009598 0.97470963 -0.0089763505 4289352960
2.0418823 0.99044043 -0.022573439 4289483520
2.0137718 0.9769091 -0.035453055 4289352960
1.9024897 0.92306983 -0.045843985 4288961280
2.0695329 1.0041108 -0.063522637 4289614080
2.0817819 1.0101389 -0.077414572 4289614080
2.0471308 0.99343383 -0.089296408 4289483520
2.0681641 1.0037203 -0.10347252 4289614080
2.1551161 1.0459675 -0.12157892 4289875200
2.1154501 1.0268292 -0.13261151 4289744640
2.1104887 1.0245159 -0.14542617 4289744640
1.9893259 0.96584952 -0.14920761 4289352960
2.0214045 0.98149455 -0.1639042 4289483520
2.0783458 1.0092015 -0.18099476 4289614080
2.0762494 1.0082752 -0.19302748 4289614080
2.0501904 0.99572331 -0.20244025 4289614080
1.9013568 0.92360216 -0.19841553 4288961280
2.1547217 1.0466212 -0.23705599 4290005760
2.1571994 1.0479165 -0.24906528 4290005760
2.1585813 1.0486802 -0.26069373 4290005760
2.1346605 1.037163 -0.26884308 4289875200
2.0522594 0.99725801 -0.26874715 4289614080
2.1541419 1.0468026 -0.2927098 4290005760
2.1573746 1.0484638 -0.30338278 4290005760
2.1516225 1.0457629 -0.31243536 4290005760
2.143486 1.0419033 -0.32072708 4290005760
2.1148343 1.0280806 -0.32541579 4289875200
2.1317856 1.0364019 -0.33673438 4289875200
2.1262424 1.0337992 -0.34415001 4289875200
2.1376338 1.0394212 -0.35394856 4290005760
2.1326618 1.0370951 -0.36064801 4289875200
2.1322916 1.0370038 -0.36769834 4290005760
2.1321025 1.0370002 -0.3743574 4290005760
2.1222718 1.0323113 -0.37885794 4289875200
2.121273 1.031913 -0.38447401 4289875200
2.1127467 1.0278563 -0.38825324 4289875200
2.1053326 1.024339 -0.3917506 4289875200
2.0949979 1.0194011 -0.39421052 4289875200
2.0868382 1.0155193 -0.39658731 4289744640
2.0696993 1.0072714 -0.39674744 4289744640
2.0578368 1.0015869 -0.39741603 4289744640
2.0437222 0.99480617 -0.39715153 4289614080
2.0433831 0.99472249 -0.39909345 4289614080
2.0466571 0.99639523 -0.40128022 4289614080
2.0464599 0.99637985 -0.40231812 4289614080
2.0383668 0.99252367 -0.40132597 4289614080
2.0608664 1.0035472 -0.40590888 4289744640
2.0678346 1.0070168 -0.40694824 4289744640
2.0845025 1.0152053 -0.40942025 4289744640
2.0833499 1.0147246 -0.40789619 4289744640
2.102087 1.023921 -0.40978873 4289875200
2.1108453 1.0282627 -0.40922597 4289875200
2.1086905 1.0272942 -0.40605682 4289875200
2.1159451 1.0309043 -0.40422514 4289875200
2.1259356 1.0358461 -0.4024196 4289875200
2.1249275 1.035435 -0.39804217 4289875200
2.1306484 1.0382988 -0.394458 4290005760
2.1281283 1.0371507 -0.38887975 4290005760
2.1224511 1.0344651 -0.38229427 4289875200
2.1252751 1.035918 -0.37681225 4289875200
2.1044459 1.025853 -0.36674178 4289875200
2.0970869 1.0223458 -0.35869411 4289875200
2.107846 1.0276616 -0.35333467 4289875200
2.126966 1.0370499 -0.34887362 4289875200
2.1404343 1.0436864 -0.34296423 4290005760
2.1265769 1.0370128 -0.33227178 4289875200
2.0984921 1.0234069 -0.31914151 4289744640
2.1031137 1.0257329 -0.31074539 4289875200
2.1342456 1.0409755 -0.30577606 4289875200
2.1433642 1.0454937 -0.29711139 4290005760
2.1345797 1.0412883 -0.28561923 4289875200
2.1210856 1.0347869 -0.27328375 4289875200
2.1018186 1.0254709 -0.26006114 4289744640
2.0325966 0.99180514 -0.24079156 4289483520
2.061878 1.0061483 -0.23320802 4289614080
2.1067493 1.0280929 -0.22673932 4289744640
2.1917839 1.06962 -0.22365178 4290136320
2.2078421 1.0775243 -0.21266 4290136320
2.2143939 1.0807945 -0.20038293 4290136320
2.1985345 1.073137 -0.18589827 4290136320
2.1962268 1.0720868 -0.17247564 4290136320
2.1782277 1.0633839 -0.15774523 4290005760
2.0552311 1.0034716 -0.13602729 4289614080
1.9912217 0.97232139 -0.11927649 4289352960
2.0109084 0.98199165 -0.10776 4289352960
2.0284727 0.99062771 -0.095775947 4289483520
1.988225 0.97106177 -0.081055552 4289352960
1.9409882 0.94808322 -0.066521272 4289091840
1.9846741 0.96946353 -0.055138398 4289352960
2.0235515 0.98850042 -0.043021075 4289483520
1.8735464 0.91536957 -0.027400171 4288830720
2.0391264 0.99623758 -0.016574193 4289483520
2.3295267 1.1380346 -0.0038627838 4290528000
2.3097935 1.1284817 0.011397132 4290528000
1.5582416 0.76171803 0.018565845 4287655680
1.4329026 0.70058686 0.026641827 4287264000
1.4393392 0.70377743 0.036180876 4287264000
1.4711317 0.71934754 0.046532784 4287394560
1.6136552 0.78898394 0.061318919 4287916800
2.2750258 1.1119729 0.10029741 4290397440
2.3578491 1.1524937 0.1189537 4290658560
2.3520725 1.1497526 0.13357762 4290658560
2.3036344 1.1261761 0.14532846 4290528000
2.3508918 1.1493356 0.16286126 4290658560
2.3571572 1.1524761 0.17774245 4290658560
2.3613114 1.1545857 0.19233407 4290789120
2.2956829 1.1226058 0.20072573 4290528000
2.3795774 1.1636714 0.22193329 4290789120
2.3725526 1.1603209 0.2349472 4290789120
2.3698008 1.159058 0.24806394 4290789120
2.3487461 1.1488514 0.25887373 4290658560
2.1781142 1.0655465 0.25200775 4290005760
2.3679047 1.1583775 0.28628185 4290789120
2.3570528 1.1531562 0.29710785 4290789120
2.354516 1.1519985 0.30857232 4290789120
2.3302295 1.1402092 0.31672907 4290658560
2.3146772 1.1326883 0.32551655 4290658560
2.3614519 1.1556381 0.34278029 4290789120
2.3605943 1.1553025 0.35299489 4290789120
2.3623343 1.1562374 0.36319765 4290789120
2.3584166 1.1544061 0.37211347 4290789120
2.3399148 1.1454425 0.37822983 4290658560
2.3145869 1.1331395 0.38265204 4290658560
2.3482475 1.1496872 0.39635271 4290789120
2.3403687 1.1459185 0.40271738 4290789120
2.3465605 1.1490328 0.41101786 4290789120
2.3457732 1.1487337 0.4176442 4290789120
2.3398032 1.1458993 0.42285064 4290789120
2.3421152 1.147117 0.42904416 4290789120
2.3325264 1.142512 0.43255439 4290658560
2.3321507 1.1424152 0.43723738 4290789120
2.3394642 1.1460819 0.44285637 4290789120
2.3380802 1.1454928 0.44633105 4290789120
2.325187 1.1392703 0.44707787 4290658560
2.333602 1.1434782 0.4513683 4290789120
2.3367825 1.1451244 0.45413473 4290789120
2.3365021 1.145077 0.4557018 4290789120
2.3327634 1.1433367 0.45606071 4290789120
2.3326452 1.1433692 0.45658621 4290789120
2.3272872 1.1408362 0.45555475 4290658560
2.3361788 1.145282 0.45676082 4290789120
2.3247142 1.1397587 0.45347396 4290658560
2.342267 1.1484486 0.45527858 4290789120
2.3362823 1.1456099 0.45199072 4290789120
2.3476574 1.1512759 0.45150614 4290789120
2.3412488 1.14823 0.44708568 4290789120
2.3454456 1.1503807 0.44415835 4290789120
2.3406787 1.1481396 0.43902498 4290789120
2.3476145 1.1516337 0.43555671 4290789120
2.3426559 1.1492993 0.4293825 4290789120
2.3322012 1.1442708 0.42174327 4290658560
2.31534 1.1361014 0.41253233 4290658560
2.3246524 1.1407623 0.40749827 4290658560
2.3410773 1.1489115 0.40315491 4290789120
2.3548307 1.1557525 0.39779288 4290789120
2.3441823 1.1506294 0.38786581 4290789120
2.3367634 1.1470894 0.37808797 4290658560
2.3160605 1.1371226 0.31004012 4290658560
2.3459923 1.1519045 0.30246919 4290658560
2.3634183 1.1605543 0.29272151 4290789120
2.3263106 1.1424508 0.27604589 4290658560
2.3099439 1.134521 0.26178297 4290528000
2.3393846 1.1490679 0.25230226 4290658560
2.3515215 1.1551257 0.24046108 4290658560
2.3139088 1.1367683 0.22345649 4290528000
2.3095286 1.1347194 0.20962192 4290528000
2.3299096 1.1448251 0.19768468 4290658560
2.2127972 1.0874344 0.17456816 4290136320
1.8428214 0.90588683 0.13450123 4288830720
1.4200056 0.69836217 0.095346369 4287264000
1.4225409 0.69966972 0.086623698 4287264000
1.434257 0.70548618 0.078262344 4287264000
1.7924925 0.88149327 0.085881472 4288569600
2.3203628 1.1408539 0.095676154 4290528000
2.300941 1.131416 0.080005564 4290528000
2.0206795 0.99383307 0.057347938 4289483520
-5.4465804 -2.6748662 -0.11176734 4278190335
1.974387 0.97126585 0.030201122 4289222400
1.9915198 0.97977251 0.017336171 4289352960
1.9238667 0.94661278 0.004126858 4289091840
1.9825 0.9755159 -0.0088831009 4289352960
2.0227721 0.99539918 -0.022437196 4289483520
2.0270591 0.99759626 -0.035830103 4289483520
2.0165987 0.99254352 -0.048871819 4289483520
2.2174842 1.0914024 -0.068420246 4290136320
2.2148378 1.0901994 -0.082744971 4290136320
2.2286057 1.0970677 -0.097680889 4290266880
2.2276616 1.096702 -0.11193968 4290266880
2.2122724 1.0892314 -0.12523822 4290136320
2.2216449 1.0939391 -0.13978572 4290266880
2.2304759 1.0983814 -0.15426317 4290266880
2.1966035 1.081815 -0.16543487 4290136320
2.1463022 1.0571622 -0.17466387 4289875200
2.139327 1.0538241 -0.18691668 4289875200
2.1521521 1.0602292 -0.20074615 4290005760
2.1431057 1.0558711 -0.21232331 4289875200
2.0861204 1.0279164 -0.21850586 4289744640
2.1483469 1.0586379 -0.23705229 4290005760
2.1465857 1.0578642 -0.24856633 4290005760
2.1441641 1.0567651 -0.25970712 4290005760
2.1261811 1.0480036 -0.2685582 4289875200
2.055757 1.0134174 -0.26999968 4289614080
2.149606 1.0597225 -0.29294693 4290005760
2.140856 1.0555053 -0.30192894 4290005760
2.1422207 1.056269 -0.31197163 4290005760
2.1291308 1.0499126 -0.31949699 4289875200
2.1222563 1.0466166 -0.32751253 4289875200
2.1191912 1.0451964 -0.33570707 4289875200
2.1134722 1.0424681 -0.34306416 4289875200
2.1134963 1.0425689 -0.35094571 4289875200
2.1226854 1.0471859 -0.35998848 4289875200
2.1213145 1.0465989 -0.36684978 4289875200
2.1142154 1.0431883 -0.37226963 4289875200
2.1084487 1.0404334 -0.37745848 4289875200
2.1066711 1.0396442 -0.38290825 4289875200
2.1021919 1.0375227 -0.38740751 4289875200
2.1017134 1.0373728 -0.39218688 4289875200
2.0855403 1.0294838 -0.39353782 4289744640
2.0841293 1.0288728 -0.39719173 4289744640
2.0756376 1.0247692 -0.39901337 4289744640
2.0667551 1.0204718 -0.40026876 4289744640
2.0595255 1.0169888 -0.40135801 4289744640
2.0547681 1.0147241 -0.40244943 4289744640
2.0589137 1.0168508 -0.40481982 4289744640
2.0543003 1.0146563 -0.4049902 4289744640
2.0541756 1.0146755 -0.40557313 4289744640
2.065352 1.0202709 -0.40792209 4289744640
2.0817142 1.0284259 -0.41082036 4289744640
2.0773821 1.0263686 -0.40913966 4289744640
2.086827 1.0311106 -0.40969992 4289875200
2.0940578 1.03476 -0.40933368 4289875200
2.1029425 1.0392258 -0.40879866 4289875200
2.1061888 1.0409085 -0.40667352 4289875200
2.099546 1.0377086 -0.40216482 4289875200
2.1072578 1.0415955 -0.39994463 4289875200
2.1125247 1.0442754 -0.39677051 4289875200
2.1150877 1.04562 -0.39261076 4289875200
2.1155674 1.0459355 -0.38760182 4289875200
2.1039402 1.0402712 -0.37994805 4289875200
2.1091762 1.0429349 -0.37492895 4289875200
2.0925488 1.0347989 -0.3656126 4289875200
2.0907013 1.0339626 -0.35852587 4289744640
2.0875154 1.0324646 -0.35081509 4289744640
2.1073353 1.0423329 -0.34652558 4289875200
2.125196 1.0512341 -0.34137815 4289875200
2.1148853 1.0462154 -0.33127084 4289875200
2.1000946 1.0389816 -0.32018608 4289875200
2.0975356 1.0377917 -0.31068617 4289875200
2.1180782 1.0480196 -0.30419368 4289875200
2.1305294 1.054249 -0.29604098 4289875200
2.1195822 1.0489126 -0.28428313 4289875200
2.0991981 1.0389099 -0.27108935 4289744640
2.1082423 1.0434549 -0.26147148 4289875200
2.1423383 1.0603867 -0.25446409 4290005760
2.1817262 1.0799375 -0.24741675 4290136320
2.1742845 1.0763332 -0.23458001 4290005760
2.2042658 1.0912354 -0.22542328 4290136320
2.208672 1.0934906 -0.21319082 4290136320
2.2053783 1.0919375 -0.19997022 4290136320
2.1791012 1.0790155 -0.18460551 4290136320
