# .PCD v0.7 - Point Cloud Data file format
VERSION 0.7
FIELDS x y z rgba
SIZE 4 4 4 4
TYPE F F F U
COUNT 1 1 1 1
WIDTH 1103
HEIGHT 1
VIEWPOINT 0 0 0 1 0 0 0
POINTS 1103
DATA ascii
2.564852 -2.4651659 -0.18932013 4293792000
2.6259272 -2.5237086 -0.17315039 4294183680
2.6285872 -2.5261061 -0.15244022 4294183680
2.6086206 -2.5067601 -0.13039275 4294053120
2.6274555 -2.5247009 -0.11015306 4294183680
2.6385214 -2.5351748 -0.089228377 4294183680
2.6368573 -2.5334165 -0.067702003 4294183680
2.5543981 -2.4540377 -0.044716649 4293792000
2.6256256 -2.5223081 -0.024465181 4294183680
2.6463597 -2.5420666 -0.0029649816 4294183680
2.6272149 -2.5235176 0.0185948 4294183680
2.5102608 -2.4110279 0.038326155 4293530880
2.653188 -2.5481448 0.062193058 4294183680
2.6656866 -2.5599878 0.084204197 4294314240
2.628247 -2.523874 0.10434376 4294183680
2.4700382 -2.3717988 0.1179943 4293400320
2.6517413 -2.5461149 0.14793383 4294183680
2.6480234 -2.5423853 0.16879492 4294183680
2.6225359 -2.5177565 0.18785346 4294053120
2.4086385 -2.3122594 0.19133966 4293139200
2.6588981 -2.5523446 0.23175094 4294314240
2.6557605 -2.5491724 0.25173071 4294314240
2.6228237 -2.5173993 0.26833817 4294183680
2.4751797 -2.3755403 0.27157348 4293400320
2.6762779 -2.5683818 0.31314522 4294444800
2.6717856 -2.5639093 0.33174956 4294314240
2.6584828 -2.5509832 0.34876767 4294314240
2.5308449 -2.428354 0.34942845 4293792000
2.42817 -2.3296905 0.35157949 4293269760
2.6569073 -2.5489907 0.40213582 4294314240
2.6496122 -2.541832 0.4179731 4294314240
2.6332302 -2.5259576 0.4317607 4294183680
2.5926588 -2.4868822 0.4407509 4294053120
2.4703536 -2.3694181 0.43439129 4293530880
2.6655612 -2.5564888 0.48376074 4294444800
2.6567709 -2.5478983 0.49661431 4294314240
2.6404412 -2.5320783 0.50736207 4294314240
2.5864334 -2.4801311 0.50993729 4294053120
2.5447536 -2.4400108 0.51389182 4293792000
2.5607569 -2.4552011 0.52878106 4293922560
2.6549273 -2.5453293 0.55968469 4294444800
2.6560566 -2.546252 0.57074255 4294444800
2.6363151 -2.5271678 0.57658762 4294314240
2.6461387 -2.5364254 0.58819324 4294314240
2.6559064 -2.5456278 0.59917384 4294444800
2.6369061 -2.5272574 0.60294461 4294314240
2.6425338 -2.5324919 0.61160469 4294314240
2.6009767 -2.4925086 0.60854399 4294183680
2.6174381 -2.5081258 0.61828142 4294183680
2.6133361 -2.5040376 0.6224696 4294183680
2.6164339 -2.5068481 0.62764323 4294183680
2.6125026 -2.5029242 0.63039702 4294183680
2.6193295 -2.5093069 0.63501179 4294314240
2.6191328 -2.5089607 0.6371882 4294314240
2.6218719 -2.5114267 0.63933414 4294314240
2.6190135 -2.5085309 0.6393671 4294314240
2.6190922 -2.5084486 0.6393674 4294314240
2.6157072 -2.5050488 0.63777417 4294183680
2.6024544 -2.4921999 0.63303685 4294183680
2.5956919 -2.4855678 0.62915081 4294183680
2.6369605 -2.5249269 0.6361292 4294314240
2.6310914 -2.5191483 0.63095373 4294314240
2.6363184 -2.5239944 0.62770206 4294314240
2.6326427 -2.5203168 0.62159681 4294314240
2.6325154 -2.5200365 0.61561304 4294314240
2.6529682 -2.5394554 0.61367434 4294444800
2.65855 -2.5446386 0.60751581 4294444800
2.654515 -2.5406168 0.59845239 4294444800
2.6555986 -2.5414939 0.58985937 4294444800
2.6549473 -2.5407107 0.58019888 4294444800
2.6412284 -2.5274231 0.56706947 4294314240
2.6602609 -2.5454757 0.5602951 4294444800
2.6519377 -2.5373518 0.54707521 4294314240
2.660733 -2.5456071 0.53675717 4294444800
2.6345766 -2.5195591 0.4400835 4294183680
2.6503208 -2.5344567 0.42649674 4294314240
2.6637449 -2.5471339 0.41187978 4294314240
2.6498921 -2.5337281 0.39259183 4294314240
2.6301806 -2.5147226 0.37222072 4294183680
2.6386759 -2.5226862 0.35550269 4294183680
2.64801 -2.5314507 0.33838302 4294183680
2.6343894 -2.5182712 0.31798938 4294183680
2.6176407 -2.5021036 0.2970866 4294053120
2.6368043 -2.5202627 0.27991477 4294183680
2.6393144 -2.5225031 0.26051027 4294183680
2.6462073 -2.5289319 0.24118397 4294183680
2.6328044 -2.5159647 0.21979649 4294183680
2.6490483 -2.5313287 0.20062274 4294183680
2.6568801 -2.5386527 0.18040788 4294183680
2.6480088 -2.5300171 0.15887313 4294183680
2.6215968 -2.5046244 0.13639572 4294053120
2.6342435 -2.5165484 0.11591311 4294183680
2.6383808 -2.5203424 0.094797157 4294183680
2.6297364 -2.5119269 0.073157594 4294053120
2.6224289 -2.5047891 0.051607147 4294053120
2.6329088 -2.5146408 0.030326327 4294183680
2.635457 -2.5169163 0.008816394 4294183680
2.617192 -2.4993155 -0.012642868 4294053120
2.6262934 -2.5078492 -0.034144446 4294053120
2.6331666 -2.5142541 -0.055709366 4294183680
2.6399329 -2.5205564 -0.077321738 4294183680
2.6222866 -2.5035505 -0.098046444 4294053120
2.6424108 -2.5226049 -0.12009545 4294183680
2.6490123 -2.5287483 -0.14161384 4294183680
2.6429243 -2.5227778 -0.16230376 4294183680
2.6253366 -2.505832 -0.18192326 4294053120
2.6469123 -2.5262666 -0.2040877 4294183680
2.6427217 -2.5221083 -0.22417846 4294183680
2.6504912 -2.5293643 -0.24506535 4294183680
2.633229 -2.5127327 -0.26329842 4294183680
2.6570797 -2.5353327 -0.28540033 4294314240
2.6632488 -2.541059 -0.30551109 4294314240
2.6673086 -2.5447726 -0.32511735 4294314240
2.6518133 -2.52983 -0.34190091 4294314240
2.6529906 -2.5307941 -0.36035457 4294314240
2.6579511 -2.5353668 -0.3789638 4294314240
2.6642063 -2.5411735 -0.39741063 4294314240
2.6633956 -2.5402405 -0.41439629 4294314240
2.6228476 -2.50141 -0.42447719 4294183680
2.6671784 -2.5435283 -0.44783437 4294314240
2.6679969 -2.5441487 -0.46365592 4294314240
2.6746795 -2.5503607 -0.48001668 4294444800
2.6735299 -2.5491042 -0.49446094 4294444800
2.6728647 -2.5483096 -0.50842452 4294444800
2.6405749 -2.5173662 -0.51562816 4294314240
2.6426957 -2.5192297 -0.5288108 4294314240
2.6511757 -2.5271547 -0.5427112 4294314240
2.6500258 -2.5258994 -0.55405283 4294314240
2.6528566 -2.5284386 -0.56559741 4294314240
2.648068 -2.5237157 -0.57485986 4294314240
2.6494269 -2.5248523 -0.58478045 4294314240
2.6410892 -2.516748 -0.59186172 4294314240
2.6469285 -2.5221539 -0.60142493 4294314240
2.6319244 -2.5076993 -0.60552984 4294314240
2.6315498 -2.5071847 -0.61225325 4294314240
2.6182542 -2.4943604 -0.61522615 4294183680
2.6085205 -2.484931 -0.61826825 4294183680
2.6215944 -2.4972284 -0.62599808 4294183680
2.5994585 -2.4759867 -0.62457913 4294183680
2.6062822 -2.4823303 -0.62936354 4294183680
2.5989292 -2.4751713 -0.6299895 4294183680
2.6059313 -2.4816837 -0.63335538 4294183680
2.6023262 -2.4780948 -0.63340473 4294183680
2.6134124 -2.4884951 -0.63628745 4294183680
2.6135576 -2.4884768 -0.63576186 4294183680
2.6236711 -2.4979491 -0.63691145 4294183680
2.6295059 -2.5033469 -0.63626719 4294314240
2.6260076 -2.4998591 -0.63261926 4294314240
2.640707 -2.5136943 -0.63259965 4294314240
2.6381698 -2.5111213 -0.62769628 4294314240
2.6495104 -2.5217569 -0.62534493 4294314240
2.6410875 -2.513582 -0.61759716 4294314240
2.6456621 -2.5177774 -0.61217725 4294314240
2.6462266 -2.5181563 -0.60510558 4294314240
2.6443615 -2.5162232 -0.59678072 4294314240
2.6422052 -2.5140133 -0.58771205 4294314240
2.6292613 -2.5015397 -0.57561743 4294183680
2.6375949 -2.509311 -0.56753176 4294314240
2.6457448 -2.516906 -0.55869007 4294314240
2.6531734 -2.523814 -0.54899108 4294314240
2.6673174 -2.5371087 -0.53995854 4294444800
2.6529424 -2.5232768 -0.52454102 4294314240
2.6396842 -2.5105085 -0.50888062 4294183680
2.6375062 -2.5082796 -0.49485555 4294183680
2.6431887 -2.5135255 -0.48172596 4294183680
2.6478662 -2.5178151 -0.46781307 4294314240
2.6563969 -2.5257676 -0.45397919 4294314240
2.6271248 -2.4977779 -0.43330097 4294183680
2.6447151 -2.514344 -0.41993374 4294183680
2.6536498 -2.5226798 -0.40455914 4294314240
2.6626334 -2.5310607 -0.3886272 4294314240
2.6551759 -2.5238128 -0.369856 4294314240
2.6240027 -2.494025 -0.34763449 4294053120
2.6347947 -2.5041249 -0.33072671 4294183680
2.6360624 -2.505172 -0.31217572 4294183680
2.6357975 -2.5047629 -0.29309395 4294183680
2.6253347 -2.4946632 -0.27263653 4294053120
2.6332083 -2.5019875 -0.25380409 4294183680
2.6406047 -2.5088575 -0.23453486 4294183680
2.6353893 -2.5037448 -0.21387497 4294183680
2.5646915 -2.4364252 -0.18825728 4293792000
2.6369653 -2.5049267 -0.17291296 4294183680
2.6432602 -2.5107486 -0.15244022 4294183680
2.6130369 -2.481884 -0.12988849 4294053120
2.6247261 -2.4928298 -0.10942787 4294053120
2.6320662 -2.4996438 -0.088516071 4294053120
2.6377976 -2.5049293 -0.067350283 4294053120
2.5621266 -2.4329169 -0.044603042 4293792000
2.6366508 -2.5035253 -0.024431584 4294053120
2.6391804 -2.5057695 -0.0029405307 4294053120
2.6217723 -2.4890847 0.018453322 4294053120
2.5177386 -2.3901656 0.038227059 4293530880
2.6643631 -2.5292017 0.062108539 4294183680
2.6645951 -2.5292628 0.083702803 4294183680
2.6208158 -2.4875505 0.10347159 4294053120
2.4772909 -2.3511755 0.11768438 4293400320
2.6627476 -2.5270321 0.14772396 4294183680
2.6606805 -2.5249114 0.16866113 4294183680
2.615087 -2.4814885 0.1862811 4294053120
2.4220693 -2.298187 0.19133966 4293139200
2.6672072 -2.5306275 0.23118615 4294314240
2.6648407 -2.5282228 0.2511909 4294314240
2.6338286 -2.4986436 0.26797011 4294053120
2.4954872 -2.3672538 0.27228367 4293530880
2.6810751 -2.5431449 0.31196752 4294314240
2.6744561 -2.5367069 0.3302404 4294314240
2.6568911 -2.5198882 0.34662685 4294183680
2.54495 -2.4135675 0.34942845 4293792000
2.4344852 -2.30866 0.35054037 4293269760
2.6644998 -2.5266275 0.40105006 4294314240
2.6571665 -2.519515 0.41684204 4294314240
2.6187377 -2.4829206 0.42700517 4294053120
2.5316908 -2.4002373 0.42800176 4293661440
2.4776371 -2.3488424 0.43325824 4293400320
2.6667383 -2.5279546 0.48129317 4294314240
2.6582594 -2.5197587 0.49413994 4294314240
2.6296492 -2.4924822 0.50248945 4294183680
2.6008391 -2.4650199 0.50993729 4294053120
2.555335 -2.4217396 0.5131706 4293792000
2.5678389 -2.4334364 0.5273068 4293922560
2.6553595 -2.5162179 0.55667585 4294314240
2.660804 -2.5212185 0.56859654 4294314240
2.6509943 -2.5117652 0.57658762 4294314240
2.6436691 -2.5046673 0.58439058 4294314240
2.6416953 -2.5026398 0.59266824 4294314240
2.6480043 -2.5084589 0.60213023 4294314240
2.6089962 -2.4713509 0.60049975 4294183680
2.6190338 -2.4807029 0.60937679 4294183680
2.628428 -2.4894443 0.61744082 4294183680
2.6314585 -2.4921577 0.62331706 4294183680
2.6274176 -2.488174 0.62678987 4294183680
2.5728922 -2.4363852 0.61740333 4293922560
2.579047 -2.4420598 0.62178606 4294053120
2.5724156 -2.4356272 0.62235981 4293922560
2.5787475 -2.4414687 0.62533915 4294053120
2.6300085 -2.4898441 0.63849896 4294183680
2.5652213 -2.4283569 0.62275207 4293922560
2.6266816 -2.4863815 0.63690704 4294183680
2.6169302 -2.4769952 0.63303685 4294183680
2.6172833 -2.4771736 0.63087523 4294183680
2.6069937 -2.4672794 0.62542164 4294183680
2.6457236 -2.5037763 0.63095373 4294314240
2.6473999 -2.5052049 0.62685454 4294314240
2.6537263 -2.5110335 0.62311 4294314240
2.6507342 -2.5080445 0.61644584 4294314240
2.6541054 -2.5110762 0.61054283 4294314240
2.6589959 -2.5155449 0.6042583 4294314240
2.6656873 -2.5217164 0.59764862 4294314240
2.6646852 -2.5206099 0.58860564 4294314240
2.6488943 -2.5055153 0.5756762 4294314240
2.6422791 -2.4991007 0.56415933 4294314240
2.668582 -2.5238194 0.55894107 4294314240
2.6616364 -2.5170922 0.54604131 4294314240
2.6579556 -2.5134532 0.53323358 4294314240
2.6391106 -2.4946191 0.43840557 4294183680
2.6542139 -2.5087376 0.42476389 4294183680
2.6640947 -2.5179183 0.40965852 4294314240
2.6544919 -2.5086849 0.39110121 4294183680
2.6411722 -2.4959395 0.37171194 4294183680
2.6395841 -2.4942818 0.35366112 4294183680
2.6554761 -2.5091412 0.33746323 4294183680
2.6490166 -2.5028801 0.31798938 4294183680
2.632174 -2.48681 0.2970866 4294053120
2.6475089 -2.5011406 0.27949944 4294183680
2.6465564 -2.5000834 0.25978291 4294183680
2.6431766 -2.4967337 0.23957783 4294183680
2.6322527 -2.4862585 0.21853742 4294053120
2.6490438 -2.5019608 0.19951503 4294183680
2.6613004 -2.5133786 0.17971064 4294183680
2.6627042 -2.5145462 0.15887313 4294183680
2.6216872 -2.4756556 0.13564767 4294053120
2.6390932 -2.4919353 0.11548569 4294053120
2.6396163 -2.4922724 0.094318219 4294053120
2.6443269 -2.4965627 0.073157594 4294053120
2.6231635 -2.4764261 0.051336788 4294053120
2.6264277 -2.4793518 0.030084779 4294053120
2.6359484 -2.4881828 0.008769392 4294053120
2.614543 -2.4678221 -0.012560401 4293922560
2.6250877 -2.4776192 -0.03394052 4294053120
2.6371102 -2.4888093 -0.055485077 4294053120
2.6243846 -2.4766438 -0.076442413 4294053120
2.6208971 -2.4731967 -0.097454064 4294053120
2.6434987 -2.4943676 -0.11948236 4294053120
2.6495712 -2.4999402 -0.14086266 4294183680
2.6431181 -2.4936945 -0.16142069 4294053120
2.6290486 -2.4802644 -0.18117604 4294053120
2.6375036 -2.4880843 -0.20224111 4294053120
2.6459711 -2.4959149 -0.22321673 4294183680
2.6401386 -2.4902565 -0.24276249 4294053120
2.638797 -2.4888346 -0.26240081 4294053120
2.6546032 -2.5035849 -0.28356275 4294183680
2.6677432 -2.5158188 -0.30434003 4294183680
2.6683738 -2.5162554 -0.32345477 4294314240
2.6399093 -2.4892566 -0.33849046 4294183680
2.6570754 -2.5052857 -0.35892069 4294183680
2.6626928 -2.5104239 -0.37754801 4294183680
2.6683612 -2.51561 -0.39583743 4294314240
2.6724291 -2.5192864 -0.41351101 4294314240
2.6280928 -2.477335 -0.42298296 4294053120
2.6749322 -2.5213287 -0.44666219 4294314240
2.6806414 -2.526551 -0.46328729 4294314240
2.6833034 -2.5289009 -0.47891197 4294314240
2.6851332 -2.5304661 -0.49387181 4294444800
2.6819613 -2.5273178 -0.50734532 4294444800
2.6506851 -2.4976876 -0.51475203 4294183680
2.653569 -2.5002477 -0.5280627 4294314240
2.6597357 -2.5059006 -0.54146552 4294314240
2.6549828 -2.501265 -0.55203295 4294314240
2.6601913 -2.5060141 -0.56403869 4294314240
2.6559381 -2.5018501 -0.5733943 4294314240
2.6573153 -2.5029898 -0.58329284 4294314240
2.6557074 -2.5013177 -0.59186172 4294314240
2.6501577 -2.4959338 -0.59884429 4294314240
2.6464901 -2.4923227 -0.60552984 4294314240
2.6425231 -2.48843 -0.61142272 4294314240
2.6327424 -2.4790637 -0.61522615 4294183680
2.6229539 -2.469691 -0.61826825 4294183680
2.6260552 -2.4724555 -0.62361288 4294183680
2.6138399 -2.4607997 -0.62457913 4294183680
2.6135283 -2.4603515 -0.62764108 4294183680
2.6168919 -2.4633629 -0.63085395 4294183680
2.61676 -2.4630837 -0.63248867 4294183680
2.6095486 -2.4561412 -0.63166881 4294053120
2.6278665 -2.4732265 -0.63628745 4294183680
2.621557 -2.467133 -0.63420039 4294183680
2.63818 -2.4826207 -0.63691145 4294183680
2.6404595 -2.4846094 -0.63540411 4294314240
2.6369405 -2.4811418 -0.63175982 4294183680
2.6474864 -2.4909079 -0.63073635 4294314240
2.6599329 -2.5024607 -0.62939459 4294314240
2.6569784 -2.4995236 -0.62365979 4294314240
2.6560893 -2.4985299 -0.61769062 4294314240
2.652945 -2.4954152 -0.61048794 4294314240
2.6511526 -2.4935722 -0.60289961 4294314240
2.6521482 -2.4943516 -0.59524816 4294314240
2.6494579 -2.4916646 -0.58608627 4294314240
2.6392865 -2.4819427 -0.57463664 4294183680
2.6466353 -2.4886968 -0.56634742 4294183680
2.6562881 -2.4976163 -0.55783415 4294314240
2.6753426 -2.5153742 -0.55053651 4294314240
2.6802857 -2.5198631 -0.53960258 4294314240
2.6573873 -2.498178 -0.52253318 4294314240
2.6452885 -2.4866474 -0.50715941 4294183680
2.639483 -2.4810338 -0.49250594 4294183680
2.654422 -2.4949191 -0.48111585 4294183680
2.6590807 -2.4991405 -0.46721393 4294183680
2.6626141 -2.5023038 -0.45254245 4294314240
2.6293952 -2.4709294 -0.43129367 4294053120
2.6481497 -2.4883969 -0.41816995 4294183680
2.6544251 -2.4941368 -0.40245509 4294183680
2.6594629 -2.498713 -0.386033 4294183680
2.651993 -2.4915378 -0.36738431 4294183680
2.6291211 -2.4698942 -0.34640023 4294053120
2.6359544 -2.4761579 -0.32905582 4294053120
2.6335907 -2.4737816 -0.31017089 4294053120
2.6433673 -2.4828088 -0.29232219 4294053120
2.6238973 -2.4643662 -0.27099156 4294053120
2.6370807 -2.4765921 -0.25278226 4294053120
2.6417625 -2.4808326 -0.23334993 4294053120
2.6368439 -2.476058 -0.21281864 4294053120
2.5686514 -2.4118717 -0.18751328 4293792000
2.6338782 -2.4729617 -0.17176282 4294053120
2.6316116 -2.4706779 -0.15093568 4294053120
2.6071641 -2.4475715 -0.12888554 4293922560
2.6290026 -2.4679177 -0.10900485 4294053120
2.6363804 -2.4746878 -0.088174775 4294053120
2.6384959 -2.4765174 -0.066998564 4294053120
2.5689669 -2.4111052 -0.044476811 4293661440
2.6402547 -2.4778564 -0.024330793 4294053120
2.647172 -2.4841917 -0.0029332587 4294053120
2.6362298 -2.4737675 0.018453322 4294053120
2.5316215 -2.3754561 0.038227059 4293530880
2.6650398 -2.5004871 0.061783656 4294183680
2.6756403 -2.5102751 0.083588913 4294183680
2.6316192 -2.4688194 0.10332847 4294053120
2.4873028 -2.3332837 0.1175122 4293400320
2.6672227 -2.5019052 0.14716104 4294183680
2.6717031 -2.50595 0.16843146 4294183680
2.6229446 -2.4600616 0.18581666 4293922560
2.4252229 -2.2744751 0.19053867 4293139200
2.6709862 -2.5048044 0.23024482 4294183680
2.6686089 -2.5024176 0.25016755 4294183680
2.6381567 -2.473706 0.26693955 4294053120
2.4284568 -2.2769346 0.26351804 4293139200
2.6784 -2.5111246 0.30994859 4294314240
2.6949396 -2.5264721 0.33094648 4294314240
2.6504643 -2.4846206 0.34389395 4294183680
2.548079 -2.3884914 0.34794143 4293661440
2.4442663 -2.2910361 0.3500208 4293139200
2.6791754 -2.5110607 0.40105006 4294314240
2.6718006 -2.5039911 0.41684204 4294314240
2.6302607 -2.464905 0.42653513 4294053120
2.5383894 -2.3786597 0.42678407 4293661440
2.4912798 -2.3343673 0.43325824 4293400320
2.6672356 -2.4990835 0.47874698 4294314240
2.6620469 -2.4940648 0.49213445 4294314240
2.6412349 -2.4744101 0.50194001 4294183680
2.6151569 -2.449825 0.50993729 4294053120
2.5629017 -2.4007223 0.51187247 4293792000
2.5015841 -2.3431373 0.51088929 4293530880
2.6735823 -2.5040836 0.55742806 4294314240
2.6718419 -2.502296 0.56783015 4294314240
2.6619785 -2.4929016 0.57580787 4294314240
2.6654241 -2.4959712 0.58597499 4294314240
2.6598337 -2.4905791 0.59347194 4294314240
2.6176476 -2.4509234 0.59197032 4294053120
2.6233504 -2.4561083 0.60049975 4294183680
2.6363218 -2.4680972 0.61004305 4294183680
2.5740194 -2.4096186 0.60135162 4293922560
2.584275 -2.4190671 0.60879183 4293922560
2.5874155 -2.4218543 0.6138705 4293922560
2.5870435 -2.4213536 0.61740333 4293922560
2.5932312 -2.4269922 0.62178606 4294053120
2.5865624 -2.4205985 0.62235981 4293922560
2.5893328 -2.4230382 0.62447202 4293922560
2.5828454 -2.4168155 0.62361991 4293922560
2.5829215 -2.4167345 0.62362021 4293922560
2.5723011 -2.4066458 0.6203106 4293922560
2.6341944 -2.4643979 0.63372898 4294183680
2.6244781 -2.4551535 0.62915081 4294183680
2.6213243 -2.4520485 0.62542164 4294183680
2.6494722 -2.4782228 0.62839365 4294314240
2.6436181 -2.4725914 0.62253743 4294183680
2.6489832 -2.4774535 0.61859649 4294183680
2.6508982 -2.4790883 0.61311454 4294314240
2.6650884 -2.4922018 0.60971874 4294314240
2.6736069 -2.5000103 0.6042583 4294314240
2.6738455 -2.5000761 0.59620184 4294314240
2.6612315 -2.4881251 0.58463067 4294314240
2.6598394 -2.4866669 0.57489645 4294314240
2.6531851 -2.4802897 0.56339288 4294183680
2.6645362 -2.4907444 0.55504477 4294314240
2.6661403 -2.4920869 0.54397738 4294314240
2.6764786 -2.5015926 0.53401655 4294314240
2.6499727 -2.475812 0.43780634 4294183680
2.6658819 -2.4905186 0.42430177 4294183680
2.6855752 -2.5087585 0.410707 4294314240
2.6690631 -2.4931765 0.39110121 4294183680
2.6483991 -2.4737186 0.37069437 4294183680
2.6504345 -2.4754639 0.3531765 4294183680
2.6672986 -2.4910576 0.3371155 4294183680
2.6533606 -2.4778845 0.31677246 4294183680
2.6291356 -2.455107 0.29512417 4294053120
2.6481898 -2.4727442 0.27804562 4294053120
2.6472251 -2.4716878 0.2584306 4294053120
2.6576781 -2.4812915 0.23957783 4294183680
2.6364787 -2.4613438 0.21769397 4294053120
2.6562767 -2.4796708 0.19896831 4294053120
2.6649468 -2.4876075 0.17897512 4294183680
2.6540022 -2.4772353 0.15749006 4294053120
2.6440284 -2.4677703 0.13605739 4294053120
2.6426065 -2.4662879 0.11500867 4294053120
2.6504378 -2.4734409 0.094188362 4294053120
2.644208 -2.4674718 0.072755337 4294053120
2.6338916 -2.4576902 0.051265642 4294053120
2.6336772 -2.4573352 0.030003313 4294053120
2.6434016 -2.4662533 0.0087462356 4294053120
2.6220074 -2.4461386 -0.01252758 4293922560
2.6304767 -2.4538853 -0.033824768 4293922560
2.6374249 -2.4602122 -0.055189174 4294053120
2.6449971 -2.4671202 -0.076622821 4294053120
2.6213725 -2.4449303 -0.096940421 4293922560
2.6436901 -2.4655905 -0.1188397 4294053120
2.6538603 -2.4749196 -0.1403217 4294053120
2.6466424 -2.4680331 -0.16075501 4294053120
2.6251292 -2.4478173 -0.17992006 4293922560
2.6413229 -2.4627621 -0.20143028 4294053120
2.6392965 -2.4607177 -0.22144043 4294053120
2.6436553 -2.4646266 -0.24176139 4294053120
2.6365368 -2.4578352 -0.26074761 4294053120
2.6659064 -2.4850576 -0.28321874 4294183680
2.6714206 -2.4900408 -0.30309936 4294183680
2.6720583 -2.4904785 -0.322137 4294183680
2.6377268 -2.4583251 -0.33636844 4294053120
2.6568756 -2.4760156 -0.35693896 4294183680
2.6704037 -2.488466 -0.3765792 4294183680
2.6715605 -2.4893873 -0.39415374 4294183680
2.6547053 -2.4735253 -0.40853167 4294183680
2.6203394 -2.4413512 -0.41943863 4294053120
2.6745408 -2.4916933 -0.44416514 4294314240
2.6814077 -2.4979334 -0.46089661 4294314240
2.6909826 -2.506695 -0.47766778 4294314240
2.6862669 -2.5021448 -0.49139062 4294314240
2.6745272 -2.4910529 -0.50318497 4294314240
2.6525548 -2.4704323 -0.51231128 4294183680
2.6603405 -2.4775274 -0.52652878 4294183680
2.6672976 -2.48385 -0.54004967 4294314240
2.6661389 -2.4826143 -0.55133569 4294314240
2.6679184 -2.4841149 -0.56259876 4294314240
2.6692483 -2.4851966 -0.5731321 4294314240
2.6667848 -2.4827466 -0.58218634 4294314240
2.6632957 -2.4793422 -0.59032351 4294314240
2.6617656 -2.4777617 -0.59819502 4294314240
2.6476035 -2.4644234 -0.60248911 4294183680
2.6376913 -2.4550424 -0.60698485 4294183680
2.6306548 -2.4483387 -0.61139446 4294183680
2.6336908 -2.45101 -0.61742258 4294183680
2.6148288 -2.4333031 -0.6175698 4294053120
2.6209202 -2.4388177 -0.62286508 4294053120
2.6278183 -2.4450829 -0.62764108 4294183680
2.620383 -2.4380109 -0.62826061 4294053120
2.6274607 -2.444442 -0.63162196 4294183680
2.6310248 -2.4476037 -0.63340473 4294183680
2.6173761 -2.4347529 -0.63030195 4294053120
2.6358864 -2.4518175 -0.63420039 4294183680
2.641782 -2.4571464 -0.63431412 4294183680
2.6356208 -2.4512615 -0.6307922 4294183680
2.6452148 -2.4600294 -0.6302976 4294183680
2.6619542 -2.4754407 -0.63073635 4294314240
2.6603189 -2.4737642 -0.6260649 4294314240
2.6664338 -2.4792941 -0.62247801 4294314240
2.6624701 -2.4754527 -0.61580992 4294314240
2.6642315 -2.4769344 -0.60975385 4294314240
2.665159 -2.4776406 -0.60279179 4294314240
2.6632676 -2.4757264 -0.59449631 4294314240
2.6561918 -2.4689932 -0.58438379 4294183680
2.648319 -2.4615202 -0.57347101 4294183680
2.6458824 -2.4591005 -0.56311083 4294183680
2.6659513 -2.4775968 -0.55682254 4294314240
2.6757102 -2.4865093 -0.54762161 4294314240
2.6770482 -2.487596 -0.53602386 4294314240
2.6525431 -2.4646697 -0.51874816 4294183680
2.6431072 -2.4557474 -0.50398952 4294183680
2.6401002 -2.4527993 -0.48994628 4294053120
2.6478493 -2.4598436 -0.47731879 4294183680
2.6529279 -2.464406 -0.4636021 4294183680
2.6560612 -2.4671614 -0.44897801 4294183680
2.6258457 -2.4389412 -0.42837334 4294053120
2.6451325 -2.4567003 -0.41542622 4294053120
2.6655905 -2.4755452 -0.40195432 4294183680
2.6601305 -2.4703186 -0.38403422 4294183680
2.6410201 -2.4524174 -0.36387864 4294053120
2.6244369 -2.4368649 -0.34390658 4293922560
2.6397104 -2.4508924 -0.32773656 4294053120
2.6409786 -2.4519155 -0.30935329 4294053120
2.6439083 -2.4544806 -0.29079562 4294053120
2.6315787 -2.4428804 -0.27031034 4293922560
2.6409802 -2.4514534 -0.25178269 4294053120
2.648448 -2.4582303 -0.23267141 4294053120
2.6402388 -2.4504564 -0.21193673 4294053120
2.568753 -2.3839588 -0.18650357 4293661440
2.6344907 -2.4448135 -0.17087096 4293922560
2.6437738 -2.4532735 -0.15081087 4294053120
2.6241972 -2.4349542 -0.12902406 4293922560
2.6355994 -2.44538 -0.10868578 4293922560
2.6509144 -2.4594347 -0.088180117 4294053120
2.649215 -2.4577031 -0.066906005 4294053120
2.5763733 -2.3899765 -0.044363204 4293661440
2.6482089 -2.4564602 -0.024271792 4294053120
2.6579347 -2.4653263 -0.0029292186 4294053120
2.6366673 -2.445446 0.018356338 4293922560
2.5278223 -2.3443472 0.037962802 4293530880
2.6731253 -2.4789476 0.061635226 4294183680
2.6726267 -2.4783292 0.083042257 4294183680
2.6356969 -2.4439299 0.10292774 4293922560
2.4832659 -2.3024445 0.11668572 4293269760
2.6782513 -2.4830754 0.14696881 4294183680
2.6686761 -2.4740422 0.16732907 4294183680
2.6335709 -2.4413433 0.18555865 4293922560
2.448684 -2.2698085 0.19133966 4293139200
2.6752868 -2.4797018 0.22936626 4294183680
2.6831434 -2.4868271 0.25016755 4294183680
2.6302364 -2.4376378 0.2646966 4293922560
2.4387567 -2.2600367 0.26320237 4293139200
2.6962304 -2.4984844 0.31032214 4294314240
2.6957326 -2.4978657 0.32925105 4294314240
2.6648951 -2.4691362 0.34389395 4294183680
2.5619516 -2.373605 0.34794143 4293661440
2.4575729 -2.2767565 0.3500208 4293139200
2.6835501 -2.4859507 0.39953005 4294314240
2.679055 -2.4816303 0.41571099 4294183680
2.6409342 -2.4461646 0.42594761 4294053120
2.5456512 -2.35776 0.42568812 4293661440
2.5011988 -2.3164425 0.43262875 4293400320
2.6817505 -2.4835012 0.47874698 4294314240
2.6765327 -2.4785128 0.49213445 4294314240
2.6519725 -2.4556148 0.50125313 4294183680
2.6192153 -2.4251304 0.50796485 4294053120
2.5732145 -2.3823881 0.51115125 4293792000
2.5079353 -2.3218036 0.50941503 4293530880
2.6815968 -2.48242 0.55607408 4294314240
2.6693285 -2.4709072 0.56422687 4294314240
2.6692083 -2.4706402 0.57424831 4294314240
2.6542182 -2.4566104 0.58035505 4294183680
2.6605361 -2.4623027 0.59041768 4294183680
2.6318829 -2.4356308 0.59197032 4294053120
2.6274807 -2.4314039 0.59819233 4294053120
2.6477618 -2.450017 0.60937679 4294183680
2.5880146 -2.3945811 0.60135162 4293922560
2.5947082 -2.4006231 0.60794431 4293922560
2.6014819 -2.4067383 0.6138705 4293922560
2.5938752 -2.3995497 0.61568677 4293922560
2.597204 -2.402478 0.61937189 4293922560
2.6006215 -2.4054875 0.62235981 4293922560
2.5932839 -2.3985493 0.62204403 4293922560
2.5968826 -2.4017265 0.62361991 4293922560
2.6005731 -2.4049881 0.62448829 4293922560
2.5862789 -2.3916183 0.6203106 4293922560
2.5865362 -2.3917053 0.6189006 4293922560
2.6387379 -2.439821 0.62915081 4294183680
2.6290555 -2.4307156 0.62387675 4294053120
2.663866 -2.4627445 0.62839365 4294314240
2.6507423 -2.4504573 0.62084246 4294183680
2.6597531 -2.4586322 0.61775583 4294183680
2.6652968 -2.4636016 0.61311454 4294314240
2.6759417 -2.473285 0.60889465 4294314240
2.6816058 -2.478364 0.60279238 4294314240
2.6774933 -2.474407 0.59379053 4294314240
2.6785834 -2.4752584 0.5852645 4294314240
2.6742821 -2.4711277 0.57489645 4294314240
2.6646876 -2.4621072 0.56277972 4294183680
2.6803815 -2.4764519 0.55533046 4294314240
2.6784444 -2.4745061 0.54353696 4294314240
2.6764708 -2.472527 0.53113174 4294314240
2.6570585 -2.4535954 0.43660781 4294183680
2.6843083 -2.4786022 0.42492887 4294183680
2.6864331 -2.4804077 0.40862116 4294183680
2.6771588 -2.4716892 0.39017072 4294183680
2.656188 -2.4521732 0.36977854 4294053120
2.6651254 -2.460269 0.35321799 4294183680
2.6707911 -2.465344 0.33573583 4294183680
2.6686752 -2.4632354 0.31688204 4294183680
2.6467679 -2.4428606 0.29550076 4294053120
2.6562707 -2.4514768 0.27738973 4294053120
2.6654065 -2.4597533 0.25880209 4294053120
2.6667283 -2.4608178 0.23909713 4294053120
2.6551015 -2.4499345 0.21804936 4294053120
2.6716039 -2.4650064 0.19903722 4294053120
2.6762514 -2.4691386 0.17876513 4294183680
2.6720066 -2.4650669 0.15770352 4294053120
2.6407332 -2.4360621 0.13515517 4293922560
2.6638663 -2.4572473 0.11530889 4294053120
2.6542661 -2.4482374 0.093815908 4294053120
2.6445756 -2.4391453 0.072373196 4293922560
2.6378756 -2.4328125 0.051066432 4293922560
2.6479495 -2.4419491 0.030003313 4294053120
2.6474338 -2.4413197 0.0087123662 4293922560
2.6325388 -2.4274313 -0.012510112 4293922560
2.6344366 -2.4290283 -0.033693135 4293922560
2.6553895 -2.4481931 -0.055265673 4294053120
2.6416848 -2.4354041 -0.07611452 4293922560
2.6303635 -2.424814 -0.096748821 4293922560
2.6581714 -2.4502945 -0.11884691 4294053120
2.6613719 -2.45309 -0.13996078 4294053120
2.6586988 -2.4504716 -0.1606174 4294053120
2.6371522 -2.4304593 -0.1797705 4293922560
2.6521163 -2.4440966 -0.20116402 4294053120
2.6511669 -2.4430676 -0.22123837 4294053120
2.6520257 -2.4437048 -0.24122071 4294053120
2.6426792 -2.4349391 -0.25994766 4294053120
2.6659977 -2.4562697 -0.28170329 4294053120
2.6752114 -2.4646032 -0.30189511 4294183680
2.6747367 -2.4640105 -0.32072374 4294183680
2.6380906 -2.4300983 -0.33460364 4294053120
2.6536884 -2.4443121 -0.35459149 4294053120
2.6742039 -2.4630537 -0.37508503 4294183680
2.6687803 -2.4579034 -0.39162409 4294183680
2.6668046 -2.455929 -0.40818471 4294183680
2.639246 -2.4303963 -0.42019126 4294053120
2.6787889 -2.4666545 -0.44247642 4294183680
2.6893463 -2.4762199 -0.45977354 4294314240
2.6900306 -2.4766936 -0.47492933 4294314240
2.6905906 -2.4770532 -0.48953322 4294314240
2.6758871 -2.4633613 -0.50073206 4294183680
2.6596179 -2.44823 -0.51091182 4294183680
2.6598549 -2.4482937 -0.52360058 4294183680
2.6626103 -2.4506755 -0.53620058 4294183680
2.6687276 -2.456151 -0.54890251 4294183680
2.6748843 -2.4616621 -0.56103373 4294183680
2.6749499 -2.4615672 -0.57126725 4294314240
2.6718216 -2.4585333 -0.58014899 4294183680
2.6661468 -2.4531569 -0.58777744 4294183680
2.668906 -2.4555407 -0.59657431 4294183680
2.6619167 -2.448956 -0.60248911 4294183680
2.6519501 -2.4396329 -0.60698485 4294183680
2.634717 -2.4236264 -0.6090464 4294053120
2.6294503 -2.4186294 -0.61311454 4294053120
2.6354887 -2.4240308 -0.61910313 4294053120
2.5862255 -2.3785703 -0.61131603 4293922560
2.5895407 -2.3814692 -0.61517417 4293922560
2.5856938 -2.3777814 -0.61661154 4293922560
2.5790372 -2.3715105 -0.61664927 4293792000
2.637991 -2.4255674 -0.63166881 4294053120
2.6278923 -2.4161296 -0.62943375 4294053120
2.6244106 -2.4127765 -0.62804633 4294053120
2.6394885 -2.4264853 -0.63035816 4294053120
2.6498578 -2.4358642 -0.6307922 4294183680
2.6522498 -2.4379094 -0.62857872 4294183680
2.659658 -2.4445646 -0.62680686 4294183680
2.6667783 -2.4509547 -0.62421387 4294183680
2.6750908 -2.4584394 -0.62114459 4294314240
2.6714454 -2.4549344 -0.61456722 4294314240
2.663904 -2.4478498 -0.60640454 4294183680
2.6611981 -2.4452093 -0.59866357 4294183680
2.6658294 -2.4493101 -0.59187263 4294183680
2.6593149 -2.4431708 -0.58192933 4294183680
2.6430411 -2.4280665 -0.56925511 4294053120
2.6580453 -2.4416964 -0.56266218 4294183680
2.6628692 -2.4459734 -0.55319285 4294183680
2.6835966 -2.4648571 -0.54628724 4294314240
2.6812942 -2.4625871 -0.53399211 4294183680
2.660296 -2.4431477 -0.51747179 4294183680
2.6398628 -2.4242294 -0.50066918 4294053120
2.6470475 -2.4306738 -0.48859909 4294053120
2.6584847 -2.4410224 -0.47666413 4294053120
2.6566029 -2.4391406 -0.46175307 4294053120
2.6674662 -2.4489601 -0.44848636 4294183680
2.6367965 -2.4206502 -0.42785177 4294053120
2.6567869 -2.438848 -0.4150179 4294053120
2.6625552 -2.443989 -0.3993426 4294053120
2.6704047 -2.4510398 -0.38344935 4294183680
2.6566556 -2.438266 -0.36406937 4294053120
2.6371326 -2.4201953 -0.34371662 4293922560
2.6430998 -2.4255188 -0.32639724 4294053120
2.6517096 -2.4332664 -0.3089444 4294053120
2.6439195 -2.4259651 -0.28923735 4293922560
2.6310713 -2.4140239 -0.26880896 4293922560
2.6511743 -2.4323149 -0.25139919 4294053120
2.6487532 -2.4299405 -0.23145053 4294053120
2.6544709 -2.4350321 -0.21193673 4294053120
2.5789194 -2.3655772 -0.18623786 4293661440
2.6413288 -2.4226711 -0.17039607 4293922560
2.6513951 -2.4317508 -0.15043487 4293922560
2.6309741 -2.4128692 -0.12866387 4293922560
2.6468551 -2.4272807 -0.10856491 4293922560
2.6578305 -2.4371917 -0.087936334 4294053120
2.653172 -2.4327664 -0.066646844 4293922560
2.5725656 -2.3587074 -0.044060256 4293661440
2.6551049 -2.4342318 -0.024204597 4294053120
2.6658111 -2.4438932 -0.0029221573 4294053120
2.6508701 -2.4300427 0.018356338 4293922560
2.5414379 -2.3295798 0.037962802 4293530880
2.6834679 -2.4596148 0.061542228 4294053120
2.6921892 -2.4674528 0.08320199 4294183680
2.6395741 -2.4190772 0.102527 4293922560
2.4929543 -2.2845614 0.11651354 4293269760
2.6856732 -2.4610152 0.14658678 4294183680
2.696238 -2.4705405 0.16815186 4294183680
2.6440685 -2.422585 0.18530063 4293922560
2.4478803 -2.2426894 0.19025262 4293008640
2.6972091 -2.4709625 0.23000756 4294183680
2.6967866 -2.4704196 0.25009337 4294183680
2.6594477 -2.4360614 0.26620343 4294053120
2.440856 -2.2356899 0.26201868 4293008640
2.7070673 -2.4793682 0.30990151 4294314240
2.7028947 -2.4753904 0.32835871 4294314240
2.6829066 -2.4569297 0.34436512 4294183680
2.5654631 -2.3492301 0.34655353 4293661440
2.4707959 -2.2623994 0.3500208 4293139200
2.6979883 -2.4702737 0.39953005 4294314240
2.6905367 -2.4632957 0.41525856 4294183680
2.651479 -2.4273837 0.42536008 4294053120
2.5593448 -2.3428886 0.42568812 4293661440
2.5146523 -2.3018308 0.43262875 4293400320
2.7032001 -2.4742651 0.47999445 4294314240
2.6806929 -2.4535093 0.49026266 4294183680
2.6523511 -2.4274163 0.49864307 4294053120
2.5634069 -2.3458672 0.49448243 4293661440
2.5907013 -2.3706958 0.51187247 4293792000
2.52142 -2.3071523 0.50941503 4293530880
2.6887207 -2.4600806 0.55456966 4294314240
2.6869652 -2.4583194 0.56491774 4294314240
2.6769984 -2.4490464 0.57284474 4294183680
2.6582866 -2.4317744 0.5781368 4294183680
2.6675539 -2.4400983 0.58881021 4294183680
2.6351082 -2.4102669 0.58952719 4294053120
2.6481524 -2.4220452 0.59967571 4294053120
2.6510768 -2.4245672 0.60687834 4294183680
2.5815537 -2.3608351 0.5966441 4293792000
2.5984685 -2.3761539 0.60557139 4293922560
2.6009166 -2.3782425 0.61045706 4293922560
2.6078115 -2.3843966 0.61568677 4293922560
2.6002526 -2.3773355 0.61678529 4293922560
2.6073229 -2.3836493 0.62062949 4293922560
2.6035798 -2.3800771 0.6211769 4293922560
2.6108315 -2.3865557 0.62361991 4293922560
2.5970953 -2.3738496 0.62032133 4293922560
2.5972614 -2.3738518 0.61961693 4293922560
2.5902486 -2.3672926 0.61647815 4293792000
2.6492724 -2.4210835 0.62828857 4294183680
2.6395366 -2.412034 0.6230185 4294053120
2.6189752 -2.3930938 0.61450458 4293922560
2.658426 -2.4289889 0.619317 4294183680
2.6703935 -2.4397695 0.61691523 4294183680
2.679605 -2.4480312 0.61311454 4294314240
2.6837523 -2.4516652 0.60741132 4294314240
2.6923575 -2.4593711 0.601978 4294314240
2.6889491 -2.4561028 0.59314752 4294314240
2.690043 -2.4569468 0.58463067 4294314240
2.6849871 -2.4521744 0.57411665 4294314240
2.6818948 -2.4491956 0.56339055 4294183680
2.6947644 -2.4607933 0.55533046 4294314240
2.6928158 -2.458859 0.54353696 4294314240
2.6944847 -2.4602275 0.53185296 4294314240
2.6676421 -2.4347267 0.43600854 4294053120
2.6810949 -2.4468508 0.42215627 4294183680
2.7008388 -2.4647141 0.40862116 4294183680
2.6885762 -2.4533687 0.38974482 4294183680
2.6630812 -2.4299507 0.36876094 4294053120
2.6830904 -2.4480538 0.35370263 4294183680
2.6851096 -2.4497416 0.33573583 4294183680
2.6759458 -2.441227 0.3160511 4294053120
2.6609557 -2.4273984 0.29550076 4294053120
2.6668253 -2.4325995 0.27700716 4294053120
2.6690054 -2.4344347 0.25776994 4294053120
2.6773341 -2.4418771 0.2387684 4294053120
2.6516297 -2.4182806 0.21660344 4293922560
2.6792803 -2.4433439 0.19854517 4294053120
2.6832113 -2.4467745 0.17827478 4294053120
2.6826322 -2.4460919 0.15748683 4294053120
2.6511893 -2.417269 0.13496721 4293922560
2.6716518 -2.4357724 0.11502966 4294053120
2.6647913 -2.4293642 0.093686052 4294053120
2.6601446 -2.4249749 0.072411388 4293922560
2.6497974 -2.41539 0.051023923 4293922560
2.6551099 -2.4200799 0.029924175 4293922560
2.6505263 -2.4157495 0.0086760772 4293922560
2.6325941 -2.3992543 -0.012443735 4293792000
2.6448486 -2.4102705 -0.033646125 4293922560
2.6518707 -2.4165173 -0.054898474 4293922560
2.6573164 -2.4213271 -0.076157145 4293922560
2.6444464 -2.4094479 -0.096748821 4293922560
2.6613202 -2.424669 -0.11835407 4294053120
2.6719255 -2.4341779 -0.13976759 4294053120
2.6837173 -2.444766 -0.16126555 4294053120
2.6438844 -2.4083278 -0.17926987 4293922560
2.6622503 -2.4249043 -0.20085765 4294053120
2.6655176 -2.4277272 -0.2212518 4294053120
2.6592879 -2.4219005 -0.24059372 4294053120
2.6479809 -2.4114506 -0.25908276 4293922560
2.6763694 -2.4371495 -0.28129405 4294053120
2.6830549 -2.4430833 -0.30116883 4294183680
2.6875834 -2.4470522 -0.32054916 4294183680
2.6550355 -2.4172647 -0.33496082 4294053120
2.6688123 -2.4296544 -0.35471481 4294053120
2.6746941 -2.4348555 -0.37315768 4294053120
2.6766298 -2.4364638 -0.39068624 4294053120
2.6807783 -2.4400861 -0.40814057 4294183680
2.6460159 -2.408293 -0.41902804 4294053120
2.6764202 -2.4358118 -0.43973354 4294183680
2.6893747 -2.4474473 -0.45733279 4294183680
2.6914039 -2.4491394 -0.47264445 4294183680
2.6925235 -2.4500036 -0.4872795 4294183680
2.6828551 -2.441052 -0.4993661 4294183680
2.6562593 -2.4167006 -0.50755316 4294053120
2.6674857 -2.4267614 -0.5223105 4294183680
2.6739163 -2.4324582 -0.53561431 4294183680
2.6727529 -2.4312463 -0.54680759 4294183680
2.6742458 -2.432451 -0.55791783 4294183680
2.6753607 -2.4333115 -0.56831759 4294183680
2.6754303 -2.4332211 -0.5778445 4294183680
2.6701703 -2.4282839 -0.58553547 4294183680
2.659436 -2.4183695 -0.59129798 4294183680
2.6522627 -2.4116943 -0.59711355 4294053120
2.6458025 -2.4056683 -0.60235947 4294053120
2.6302142 -2.3913436 -0.60477453 4294053120
2.6434972 -2.4032686 -0.61311454 4294053120
2.6430049 -2.4026694 -0.6175698 4294053120
2.5934784 -2.3574979 -0.6097734 4293792000
2.5968115 -2.3603785 -0.61362398 4293792000
2.5965879 -2.3600264 -0.61591995 4293792000
2.5964544 -2.3597562 -0.61751598 4293792000
2.5964119 -2.3595686 -0.61841035 4293792000
2.6419246 -2.4007781 -0.62943375 4294053120
2.6311347 -2.3908222 -0.6263113 4294053120
2.6284542 -2.3882356 -0.62438929 4294053120
2.6437042 -2.4019403 -0.62598544 4294053120
2.6498446 -2.4073672 -0.62467396 4294053120
2.6530657 -2.4101415 -0.6219334 4294053120
2.6708004 -2.4260993 -0.62183619 4294183680
2.6619303 -2.4178891 -0.61480731 4294183680
2.6681867 -2.423419 -0.61055899 4294183680
2.6741574 -2.4286885 -0.60550719 4294183680
2.6688263 -2.4236939 -0.59719276 4294183680
2.6588666 -2.4144967 -0.58719349 4294053120
2.6559627 -2.4117072 -0.57811111 4294053120
2.6483042 -2.4046013 -0.56736165 4294053120
2.6567998 -2.4121628 -0.55941403 4294053120
2.6634827 -2.4180777 -0.55038416 4294053120
2.6799285 -2.4328547 -0.54264587 4294183680
2.6849298 -2.4372411 -0.53187913 4294183680
2.6654615 -2.419416 -0.51572585 4294053120
2.6560781 -2.4107466 -0.50107211 4294053120
2.6560373 -2.4105573 -0.48765776 4294053120
2.6694751 -2.4226003 -0.47609583 4294053120
2.6746025 -2.4271004 -0.4624159 4294183680
2.6680398 -2.4209919 -0.44620365 4294053120
2.6427019 -2.3978488 -0.42653584 4293922560
2.6578994 -2.4114861 -0.41298991 4294053120
2.666074 -2.41875 -0.39774999 4294053120
2.6781723 -2.4295728 -0.38252559 4294053120
2.6668408 -2.4191403 -0.36352748 4294053120
2.6441312 -2.3983886 -0.34280169 4293922560
2.6575541 -2.4104118 -0.32644242 4294053120
2.6584611 -2.4110823 -0.30808911 4294053120
2.6543171 -2.407172 -0.28883561 4293922560
2.6421366 -2.3959742 -0.26850867 4293922560
2.6623445 -2.4141469 -0.25112039 4294053120
2.6628656 -2.4144671 -0.23145053 4294053120
2.6612172 -2.4128201 -0.21134938 4293922560
2.588959 -2.3471582 -0.18597215 4293661440
2.6590991 -2.4105954 -0.17063352 4293922560
2.6618168 -2.4129066 -0.15022598 4293922560
2.637583 -2.3907881 -0.12830369 4293792000
2.6537085 -2.4052527 -0.10826938 4293922560
2.6686506 -2.4186432 -0.087826602 4294053120
2.6635964 -2.4139104 -0.066554286 4293922560
2.5966375 -2.3530793 -0.044236977 4293661440
2.6659067 -2.4156988 -0.024174349 4293922560
2.6733351 -2.422277 -0.0029148853 4294053120
2.650903 -2.4017999 0.018259356 4293922560
2.5438519 -2.3046627 0.037797637 4293400320
2.6940475 -2.440582 0.061457708 4294053120
2.7035556 -2.4490409 0.083110876 4294183680
2.6565866 -2.4063418 0.1026415 4293922560
2.5099258 -2.2733526 0.11668572 4293269760
2.7103343 -2.4547164 0.1471497 4294183680
2.6965179 -2.442049 0.16727912 4294183680
2.6544368 -2.4037871 0.18504262 4293922560
2.4572048 -2.2250388 0.18996656 4293008640
2.7041614 -2.4485073 0.22938001 4294183680
2.705282 -2.4493673 0.24955353 4294183680
2.6510687 -2.4001307 0.26396048 4293922560
2.4612305 -2.2281213 0.26280782 4293139200
2.7140791 -2.4568667 0.30906031 4294183680
2.7135787 -2.4562588 0.32791257 4294183680
2.6861041 -2.4312358 0.34295157 4294053120
2.5827954 -2.3375819 0.34704921 4293661440
2.4876225 -2.2513027 0.35054037 4293269760
2.7020156 -2.4451745 0.39801002 4294183680
2.6974754 -2.4409115 0.4141275 4294183680
2.6618946 -2.4085629 0.42477253 4294053120
2.5619113 -2.3179486 0.42386153 4293530880
2.5169859 -2.2771575 0.43074036 4293400320
2.7002127 -2.4427714 0.47692877 4294183680
2.6912675 -2.4345253 0.48959416 4294183680
2.6693871 -2.4145799 0.49919254 4294053120
2.5770309 -2.3308923 0.49448243 4293661440
2.6008 -2.3522427 0.51115125 4293792000
2.5348191 -2.2924228 0.50941503 4293530880
2.7030079 -2.4443738 0.55456966 4294314240
2.6913424 -2.4336708 0.56284732 4294183680
2.6912217 -2.433408 0.57284474 4294183680
2.6614237 -2.4063127 0.57576019 4294053120
2.6890466 -2.4311342 0.59041768 4294183680
2.6454465 -2.3915651 0.58871281 4294053120
2.6483169 -2.3940086 0.59654421 4294053120
2.6615005 -2.4057744 0.60604548 4294053120
2.6091592 -2.3583133 0.5998385 4293922560
2.6122684 -2.3609746 0.60557139 4293922560
2.6359282 -2.3822079 0.61540651 4294053120
2.6143498 -2.3625572 0.61397028 4293922560
2.6177137 -2.3654475 0.61764747 4293922560
2.6175125 -2.3651164 0.61976433 4293922560
2.6210561 -2.3681688 0.62204403 4293922560
2.6137304 -2.3614008 0.62101555 4293922560
2.6138046 -2.3613188 0.62101585 4293922560
2.6110477 -2.3586793 0.61961693 4293922560
2.6003425 -2.3488603 0.61561298 4293792000
2.6457896 -2.3897612 0.62414998 4294053120
2.6425781 -2.3867099 0.62044364 4294053120
2.6784878 -2.4189897 0.62515086 4294183680
2.6688757 -2.4101565 0.61846954 4294183680
2.6779783 -2.4182241 0.6154021 4294183680
2.6835766 -2.4231262 0.61078262 4294183680
2.6979907 -2.4359875 0.60741132 4294314240
2.6993172 -2.4370313 0.60034925 4294314240
2.7032132 -2.4403946 0.59314752 4294314240
2.7006476 -2.4379244 0.58383846 4294314240
2.6889632 -2.4272234 0.57193327 4294183680
2.692451 -2.4302182 0.56262416 4294183680
2.6980472 -2.4351156 0.55307382 4294183680
2.7070959 -2.4431281 0.54353696 4294314240
2.6948147 -2.431891 0.5291124 4294183680
2.6677756 -2.4065084 0.43373138 4294053120
2.7056315 -2.4405029 0.42377362 4294183680
2.7149911 -2.4487906 0.40859681 4294183680
2.6917489 -2.4276738 0.38814774 4294183680
2.6771934 -2.4143939 0.36876094 4294053120
2.6932955 -2.428762 0.3531765 4294183680
2.6963787 -2.4313886 0.33536789 4294183680
2.6971962 -2.4319723 0.31688204 4294183680
2.6720922 -2.4091845 0.29517367 4294053120
2.680953 -2.4170208 0.27700716 4294053120
2.6898115 -2.424854 0.25841051 4294053120
2.6948066 -2.4292035 0.23906034 4294053120
2.6760542 -2.412147 0.21744689 4294053120
2.6860533 -2.4210072 0.19799845 4294053120
2.6937115 -2.4277565 0.17802961 4294053120
2.6904764 -2.4246876 0.15711533 4294053120
2.6652279 -2.4017816 0.13496721 4293922560
2.6783729 -2.4134746 0.11471164 4294053120
2.6826134 -2.4171431 0.093815908 4294053120
2.6630862 -2.3993969 0.072109699 4293922560
2.6571391 -2.3938873 0.050895859 4293922560
2.6580787 -2.3945825 0.029799886 4293922560
2.6695347 -2.4047511 0.0086922888 4293922560
2.646528 -2.3838756 -0.012443735 4293792000
2.6514163 -2.388128 -0.033552103 4293922560
2.6655321 -2.4006906 -0.054890804 4293922560
2.6639495 -2.3991134 -0.075945355 4293922560
2.6480398 -2.3846347 -0.096370347 4293922560
2.6683447 -2.4027681 -0.11804188 4293922560
2.6786363 -2.4118831 -0.13938119 4294053120
2.6763849 -2.4097035 -0.15997858 4294053120
2.6511908 -2.386869 -0.1788193 4293922560
2.6659443 -2.4000001 -0.20007798 4293922560
2.6721985 -2.4054782 -0.22063929 4294053120
2.6792212 -2.4116478 -0.24112181 4294053120
2.651607 -2.3866405 -0.25807264 4293922560
2.6801486 -2.4121778 -0.28020936 4294053120
2.6865013 -2.4177425 -0.2999694 4294053120
2.6947074 -2.4249744 -0.31970826 4294053120
2.6681242 -2.4009004 -0.33484164 4294053120
2.6610541 -2.3943872 -0.35182354 4293922560
2.6781113 -2.4095826 -0.3716695 4294053120
2.683876 -2.4146171 -0.38968387 4294053120
2.6793704 -2.4104109 -0.40578124 4294053120
2.6517658 -2.3854265 -0.41773057 4293922560
2.6835108 -2.4138308 -0.43858042 4294053120
2.6963732 -2.4252474 -0.4561123 4294183680
2.7061138 -2.4338546 -0.47272941 4294183680
2.7033827 -2.4312446 -0.48667294 4294183680
2.6976938 -2.4259751 -0.49948871 4294183680
2.6599867 -2.3919148 -0.5055939 4294053120
2.6715913 -2.4021981 -0.52036506 4294053120
2.674994 -2.4051058 -0.53301418 4294053120
2.6804466 -2.4098558 -0.54549986 4294183680
2.6820726 -2.4111655 -0.55661041 4294183680
2.6836243 -2.4124079 -0.56707764 4294183680
2.682662 -2.4113905 -0.57636219 4294183680
2.6703241 -2.4001486 -0.58249283 4294053120
2.6558676 -2.3870039 -0.5874024 4294053120
2.6523292 -2.383673 -0.59399176 4294053120
2.6495051 -2.3809845 -0.600034 4294053120
2.6294365 -2.3628004 -0.60142016 4293922560
2.6361938 -2.3687229 -0.60820943 4293922560
2.6002414 -2.3362708 -0.60438681 4293792000
2.6071699 -2.3423476 -0.6097734 4293792000
2.6105194 -2.3452089 -0.61362398 4293792000
2.6066303 -2.341567 -0.6150555 4293792000
2.6064954 -2.3412979 -0.61664927 4293792000
2.5991254 -2.3345301 -0.61580652 4293792000
2.5925794 -2.3285036 -0.61443472 4293792000
2.6347613 -2.3662393 -0.62388229 4293922560
2.6349962 -2.3663006 -0.62265772 4293922560
2.6400647 -2.3707025 -0.6218425 4294053120
2.6498988 -2.3793828 -0.6214081 4294053120
2.6703668 -2.3976099 -0.62270385 4294183680
2.6702242 -2.3973303 -0.61843944 4294183680
2.6720154 -2.3987868 -0.61389822 4294183680
2.677134 -2.4032302 -0.60939205 4294183680
2.6709619 -2.3975382 -0.60161048 4294053120
2.6764855 -2.4023445 -0.59576458 4294183680
2.6672046 -2.393863 -0.58594477 4294053120
2.6599967 -2.3872428 -0.57595193 4294053120
2.6571329 -2.3845217 -0.56626707 4294053120
2.6583161 -2.3854327 -0.55679744 4294053120
2.6718316 -2.3974094 -0.54921371 4294053120
2.6905384 -2.4140422 -0.54193705 4294183680
2.6918812 -2.4150944 -0.5304597 4294183680
2.6717315 -2.3968651 -0.51422828 4294053120
2.6546061 -2.381351 -0.49816856 4293922560
2.6563377 -2.3827538 -0.48515579 4293922560
2.672842 -2.3974068 -0.47419712 4294053120
2.683955 -2.4072223 -0.46160015 4294053120
2.679337 -2.4029288 -0.44574404 4294053120
2.6529312 -2.3790965 -0.42594242 4293922560
2.6751883 -2.3989048 -0.41349754 4294053120
2.6831388 -2.4058819 -0.39819786 4294053120
2.6819162 -2.4046338 -0.38105279 4294053120
2.6808901 -2.4035618 -0.36352748 4294053120
2.6513891 -2.3769624 -0.34194139 4293922560
2.6604295 -2.3849163 -0.32508326 4293922560
2.662077 -2.3862422 -0.30689171 4293922560
2.6645856 -2.38834 -0.28843391 4293922560
2.6526563 -2.3774972 -0.2681655 4293922560
2.6756797 -2.3979809 -0.25105613 4293922560
2.666646 -2.3897336 -0.23056501 4293922560
2.6685386 -2.3912785 -0.21082078 4293922560
2.5810225 -2.3127091 -0.18443102 4293530880
2.6623106 -2.385396 -0.16994487 4293922560
2.6687069 -2.390976 -0.14982609 4293922560
2.6447682 -2.3693788 -0.12797952 4293792000
2.6676769 -2.389751 -0.10826938 4293922560
2.6826968 -2.4030542 -0.087826602 4294053120
2.6738915 -2.3950152 -0.066461727 4293922560
2.599875 -2.3285713 -0.044060256 4293661440
2.6762111 -2.39679 -0.024140751 4293922560
2.6911271 -2.4099963 -0.0029189254 4294053120
2.6685762 -2.3896501 0.018284878 4293922560
2.557236 -2.2898026 0.037797637 4293400320
2.7044966 -2.4215097 0.061373185 4294053120
2.7140541 -2.4299135 0.082996994 4294183680
2.6705613 -2.3908231 0.1026415 4293922560
2.5268514 -2.2620237 0.1168579 4293269760
2.7070956 -2.423224 0.14620486 4294053120
2.7077878 -2.4236903 0.1670994 4294053120
2.6683967 -2.3882811 0.18504262 4293922560
2.4812858 -2.2206719 0.19082475 4293139200
2.7256551 -2.4392204 0.22999381 4294183680
2.7157893 -2.4302378 0.24921241 4294183680
2.6546025 -2.3753343 0.26292992 4293922560
