# .PCD v0.7 - Point Cloud Data file format
VERSION 0.7
FIELDS x y z rgba
SIZE 4 4 4 4
TYPE F F F U
COUNT 1 1 1 1
WIDTH 1129
HEIGHT 1
VIEWPOINT 0 0 0 1 0 0 0
POINTS 1129
DATA ascii
2.0235736 1.2926066 0.22139572 4290005760
1.9982841 1.2765604 0.20648992 4289875200
1.9852417 1.2683308 0.19285768 4289875200
2.0041113 1.2804755 0.18208115 4289875200
2.0169907 1.288797 0.17035756 4290005760
2.0095253 1.2841283 0.15669 4289875200
1.9956923 1.2753924 0.14249159 4289875200
2.0178218 1.2896237 0.13065663 4290005760
2.022578 1.2927605 0.11737046 4290005760
2.019202 1.2907033 0.10347282 4290005760
1.889828 1.2081554 0.083881199 4289483520
1.7881335 1.1432786 0.067017905 4289091840
1.749947 1.1189684 0.053444292 4288830720
1.6529118 1.057052 0.038936004 4288439040
1.7216357 1.1010492 0.028539829 4288700160
1.7174991 1.0984904 0.016428893 4288700160
1.6591157 1.0612611 0.0042002792 4288569600
1.6753274 1.0717047 -0.007522692 4288569600
1.70136 1.0884278 -0.019575557 4288700160
1.7096226 1.0937935 -0.031650938 4288700160
1.6543887 1.0585659 -0.042213678 4288439040
1.7677741 1.1311417 -0.057371143 4288961280
1.7312182 1.1078544 -0.068193659 4288830720
1.8575345 1.1887139 -0.085911304 4289352960
1.9134002 1.2245319 -0.10155553 4289483520
1.9037787 1.2184722 -0.11395566 4289483520
1.9149436 1.2257068 -0.12747942 4289483520
1.91663 1.2268794 -0.14032452 4289614080
1.8642105 1.1934401 -0.14874519 4289352960
1.8936716 1.2123791 -0.16335151 4289483520
1.9242253 1.2320199 -0.17825972 4289614080
1.9252361 1.2327604 -0.19045016 4289614080
1.924724 1.2325264 -0.20228575 4289614080
1.8881607 1.2092214 -0.20990151 4289483520
1.9077137 1.2218268 -0.22339517 4289483520
1.9147656 1.2264327 -0.23534125 4289614080
1.9160624 1.2273552 -0.24637075 4289614080
1.9009421 1.2177685 -0.25494745 4289483520
1.8733104 1.2001705 -0.26133645 4289483520
1.9068763 1.2217507 -0.27596945 4289614080
1.9096701 1.2236308 -0.28604415 4289614080
1.9171733 1.2285267 -0.29655209 4289614080
1.8993279 1.2171901 -0.30277002 4289483520
1.8947527 1.2143503 -0.31065044 4289483520
1.8859464 1.2088 -0.31742865 4289483520
1.8808124 1.2056007 -0.32440332 4289483520
1.8923659 1.2130903 -0.33390322 4289483520
1.8869323 1.2096983 -0.3400588 4289483520
1.8987124 1.2173339 -0.34894037 4289614080
1.8916364 1.2128888 -0.35398436 4289483520
1.8960907 1.2158312 -0.36076349 4289614080
1.8880926 1.210794 -0.36475486 4289483520
1.8835691 1.2079824 -0.36895907 4289483520
1.8812746 1.2065986 -0.3731541 4289483520
1.8808932 1.2064407 -0.37728867 4289483520
1.8789208 1.2052624 -0.38066211 4289483520
1.8647764 1.1962812 -0.38110459 4289483520
1.8693866 1.1993214 -0.38490811 4289483520
1.8610404 1.1940551 -0.38559854 4289483520
1.864871 1.1965952 -0.38834867 4289483520
1.8687644 1.1991755 -0.39066544 4289483520
1.8644314 1.1964805 -0.39081112 4289483520
1.8601646 1.1938274 -0.39050996 4289483520
1.8680716 1.1989812 -0.39230031 4289483520
1.8663514 1.1979605 -0.39161626 4289483520
1.8692799 1.1999213 -0.39144617 4289483520
1.8782935 1.2057855 -0.39208221 4289483520
1.8775024 1.2053601 -0.39021343 4289483520
1.8910139 1.2141105 -0.39083901 4289614080
1.880145 1.2072189 -0.38598222 4289483520
1.8802882 1.2073922 -0.38294515 4289483520
1.8788055 1.2065216 -0.37913451 4289483520
1.8813735 1.2082503 -0.37569568 4289483520
1.8850768 1.2107074 -0.37203279 4289483520
1.8868746 1.2119416 -0.36755043 4289483520
1.8833853 1.209782 -0.3616209 4289483520
1.8754309 1.2047557 -0.35445249 4289483520
1.8607758 1.1954268 -0.34568396 4289352960
1.8654989 1.1985371 -0.34013888 4289483520
1.8736206 1.2038296 -0.33477578 4289483520
1.8873086 1.2126964 -0.32993907 4289483520
1.8956848 1.2181534 -0.32371321 4289483520
1.8762373 1.2057434 -0.31243008 4289483520
1.8783817 1.207198 -0.30445004 4289483520
1.879094 1.2077328 -0.29588106 4289483520
1.8918847 1.2160252 -0.28880945 4289483520
1.9003464 1.2215378 -0.28065053 4289483520
1.8902659 1.21514 -0.26945657 4289483520
1.8770756 1.2067434 -0.25764057 4289483520
1.8887531 1.2143216 -0.24894483 4289483520
1.9118485 1.2292367 -0.24127899 4289614080
1.8106201 1.1642718 -0.2181617 4289222400
1.874186 1.2051903 -0.21478981 4289352960
1.9016303 1.2229015 -0.20651984 4289483520
1.8965087 1.2196864 -0.19436659 4289483520
1.9092516 1.227952 -0.18377505 4289483520
1.8825885 1.2108911 -0.16929482 4289483520
1.8516072 1.1910526 -0.15461071 4289352960
1.70995 1.100068 -0.13168444 4288700160
1.7082846 1.0990654 -0.12026813 4288700160
1.6541079 1.0643039 -0.10541972 4288569600
1.7551579 1.1293372 -0.099961735 4288961280
1.7012503 1.094746 -0.085318543 4288700160
1.6677196 1.073253 -0.072193742 4288569600
1.7178731 1.10557 -0.062462799 4288700160
1.6937323 1.0901133 -0.04981352 4288700160
1.6720361 1.0762269 -0.037500747 4288569600
1.6297778 1.049114 -0.025141835 4288439040
1.710928 1.1013744 -0.014338326 4288700160
1.785486 1.1494008 -0.0023730199 4289091840
1.8999256 1.2230884 0.010883642 4289483520
1.9989517 1.286869 0.025535364 4289875200
2.0207624 1.3009803 0.039999269 4290005760
2.030019 1.3070158 0.054385513 4290005760
2.0255158 1.3041985 0.068373963 4290005760
1.9977562 1.2864161 0.081273764 4289875200
2.0192714 1.3003405 0.096058801 4290005760
2.017837 1.2994975 0.10978046 4290005760
2.0038149 1.290553 0.12259039 4289875200
1.9501312 1.2560797 0.13237649 4289744640
2.0190735 1.3005339 0.15046881 4290005760
2.0226655 1.3029265 0.16399276 4290005760
2.0042522 1.2911537 0.17545325 4289875200
1.9299378 1.2433904 0.18122441 4289614080
2.0398223 1.3142154 0.20434761 4290136320
2.0372777 1.312659 0.21663319 4290005760
2.0166478 1.299457 0.22661328 4290005760
1.992839 1.2842063 0.23571995 4289875200
1.8290887 1.1788319 0.22690032 4289222400
2.0365946 1.3125479 0.2641789 4290136320
2.0239005 1.3044547 0.27366334 4290005760
2.0186031 1.3011248 0.28374526 4290005760
1.9834397 1.2785563 0.28909573 4289875200
1.9531263 1.2591097 0.29449433 4289744640
2.016731 1.3001667 0.3138929 4290005760
2.0226557 1.3040671 0.32428738 4290005760
2.0148196 1.2991017 0.33209875 4290005760
2.0101466 1.296174 0.33999914 4290005760
2.0012941 1.290553 0.34674805 4290005760
1.9890882 1.2827705 0.35243517 4289875200
2.0119002 1.2975559 0.36396444 4290005760
2.0080667 1.2951696 0.37032366 4290005760
2.0052063 1.2934108 0.3764134 4290005760
2.0035675 1.2924391 0.38228381 4290005760
1.9988567 1.2894874 0.38710725 4290005760
2.0008466 1.2908556 0.39277244 4290005760
1.9956537 1.2875932 0.39656371 4290005760
1.9974941 1.2888656 0.40128362 4290005760
1.9945041 1.2870238 0.40456355 4290005760
1.9934877 1.2864548 0.40776455 4290005760
1.9930366 1.2862505 0.41060263 4290005760
1.9919066 1.2856088 0.41281864 4290005760
1.9915881 1.2854906 0.41471803 4290005760
1.9871995 1.2827474 0.41528022 4290005760
1.9870188 1.2827187 0.41623211 4290005760
1.9827701 1.2800658 0.41584232 4290005760
1.9917485 1.2859467 0.41773912 4290005760
1.9876399 1.2833848 0.41640109 4290005760
1.9882398 1.2838612 0.41556233 4290005760
1.98668 1.2829442 0.41378573 4290005760
2.0013525 1.2925032 0.41489351 4290005760
1.9985619 1.2907929 0.41188282 4290005760
1.9953381 1.2888032 0.4083091 4290005760
1.9944897 1.2883469 0.40475067 4290005760
1.9955469 1.2891209 0.40110618 4290005760
1.9957244 1.2893275 0.39681482 4290005760
2.0013511 1.2930526 0.39313182 4290005760
1.9986989 1.291433 0.38735849 4290005760
1.9928594 1.2877554 0.38054144 4290005760
1.9767104 1.2774198 0.37138045 4289875200
1.9816548 1.2807058 0.36578918 4289875200
2.0106184 1.2995057 0.36409515 4290005760
2.0120938 1.3005536 0.35689461 4290005760
2.0096815 1.2990906 0.3485986 4290005760
1.9729462 1.2754943 0.28327298 4289875200
2.0133581 1.301699 0.27848557 4290005760
2.0247636 1.309166 0.26909459 4290005760
2.0024967 1.2948759 0.25498372 4290005760
1.9726076 1.275658 0.23991057 4289875200
1.9976298 1.2919253 0.23128283 4289875200
2.0120463 1.3013405 0.22093603 4290005760
1.9826629 1.2824463 0.20561936 4289875200
1.9730846 1.2763517 0.19237141 4289875200
1.9842746 1.2836826 0.18092898 4289875200
2.0012901 1.294781 0.16963981 4289875200
2.0064178 1.2981948 0.15701129 4289875200
1.9767096 1.2790837 0.14163896 4289875200
2.0029471 1.2961482 0.13015367 4289875200
2.0110383 1.3014797 0.11711273 4290005760
2.000123 1.2945194 0.10285179 4289875200
1.8871577 1.2215507 0.084054366 4289483520
1.7614951 1.1403574 0.066238999 4288961280
1.7074962 1.1055119 0.052310586 4288700160
1.6496835 1.0681938 0.038985565 4288439040
1.6910328 1.0950291 0.028107869 4288700160
1.7462161 1.13082 0.016755527 4288830720
1.6860704 1.0919857 0.0042745085 4288700160
1.7078698 1.1061771 -0.0077057336 4288700160
1.7376863 1.1255593 -0.020075569 4288830720
1.658918 1.0746619 -0.030865729 4288569600
1.6570086 1.0735081 -0.042457335 4288569600
1.761412 1.1411771 -0.057401989 4288961280
1.7747923 1.1499268 -0.070175663 4288961280
1.8931572 1.2266511 -0.087895788 4289483520
1.9120491 1.2389774 -0.10188679 4289614080
1.8884692 1.2238027 -0.1134903 4289483520
1.8995956 1.2311015 -0.12695891 4289483520
1.901278 1.2322849 -0.13974927 4289483520
1.7788323 1.1530697 -0.14251885 4289091840
1.739029 1.1273746 -0.15065549 4288830720
1.90792 1.2368684 -0.17743789 4289614080
1.9133366 1.2404712 -0.19000635 4289614080
1.9105358 1.2387505 -0.20157139 4289614080
1.8812854 1.2198912 -0.20994119 4289483520
1.8974259 1.230442 -0.22304419 4289483520
1.8994446 1.2318429 -0.23435548 4289483520
1.897403 1.2306122 -0.24490875 4289483520
1.8845025 1.222343 -0.25371072 4289483520
1.8623188 1.2080549 -0.26079386 4289352960
1.8924322 1.2276658 -0.27492315 4289483520
1.8943866 1.2290242 -0.28483513 4289483520
1.8943776 1.2291095 -0.29414317 4289483520
1.8924063 1.2279224 -0.30280718 4289483520
1.8762105 1.2175111 -0.30877721 4289483520
1.8704135 1.2138414 -0.31600502 4289483520
1.8781085 1.2189209 -0.32515368 4289483520
1.8813182 1.2210919 -0.33320296 4289483520
1.8833716 1.2225128 -0.34068841 4289483520
1.8793534 1.2199953 -0.34668228 4289483520
1.8805959 1.2208898 -0.35323608 4289483520
1.8734379 1.2163341 -0.35779193 4289483520
1.877068 1.2187769 -0.36397836 4289483520
1.8718065 1.2154504 -0.36802137 4289483520
1.8702774 1.2145451 -0.37235248 4289483520
1.8698986 1.2143859 -0.37647572 4289483520
1.8563571 1.2056837 -0.37749073 4289483520
1.8538425 1.2041368 -0.3802714 4289483520
1.8625693 1.2098863 -0.384918 4289483520
1.8459898 1.1992089 -0.3838917 4289352960
1.8456768 1.1990895 -0.3857694 4289352960
1.8536882 1.2043743 -0.38893795 4289483520
1.8535019 1.204337 -0.38994274 4289483520
1.8492509 1.20166 -0.38963717 4289352960
1.8496956 1.2020316 -0.38986129 4289483520
1.8562412 1.2063648 -0.39091074 4289483520
1.858333 1.2078058 -0.39056543 4289483520
1.8631834 1.2110382 -0.39033747 4289483520
1.8632203 1.2111443 -0.38864425 4289483520
1.8725504 1.2172867 -0.3884196 4289483520
1.865851 1.2130166 -0.38442394 4289483520
1.8734316 1.2180227 -0.38291138 4289483520
1.8678203 1.2144582 -0.37826186 4289483520
1.8786479 1.2215743 -0.3764804 4289483520
1.8748937 1.2192158 -0.3713333 4289483520
1.8758564 1.2199218 -0.36669376 4289483520
1.8641002 1.2123618 -0.35918078 4289483520
1.8614891 1.2107441 -0.35305104 4289483520
1.857919 1.2085028 -0.34635255 4289483520
1.8586961 1.2090864 -0.34007278 4289483520
1.8593258 1.2095741 -0.33337101 4289483520
1.8804262 1.2233695 -0.32986367 4289483520
1.8813025 1.2240179 -0.32235709 4289483520
1.8776979 1.2217528 -0.31372982 4289483520
1.8590704 1.2097188 -0.30234194 4289352960
1.868085 1.2156577 -0.29513454 4289483520
1.8849845 1.2267247 -0.28871256 4289483520
1.8859274 1.2274157 -0.27944309 4289483520
1.879209 1.2231237 -0.26875815 4289483520
1.8660643 1.214651 -0.25696066 4289483520
1.871282 1.2181213 -0.24743746 4289483520
1.8826255 1.2255765 -0.23835368 4289483520
1.7767439 1.156772 -0.21476233 4289091840
1.8598503 1.2109122 -0.21380731 4289352960
1.8905168 1.23094 -0.20593736 4289483520
1.8929274 1.232585 -0.19457556 4289483520
1.8897506 1.2305942 -0.18243301 4289483520
1.8787093 1.2234851 -0.16942447 4289483520
1.9132029 1.2460088 -0.16016573 4289614080
1.9166073 1.2483013 -0.14789715 4289614080
1.7941487 1.1686734 -0.12659383 4289091840
1.6807735 1.0949482 -0.10736147 4288700160
1.7211201 1.1212789 -0.098251998 4288830720
1.733251 1.1292448 -0.087080993 4288830720
1.6088616 1.0483327 -0.069785938 4288308480
1.6839513 1.0972854 -0.061319143 4288700160
1.7383438 1.132768 -0.0511408 4288830720
1.7120196 1.1156962 -0.038368452 4288700160
1.6120882 1.0506902 -0.024819894 4288308480
1.7387254 1.1332241 -0.014454579 4288830720
1.7429218 1.1360264 -0.0021774669 4288830720
1.8253554 1.1897854 0.010642411 4289222400
1.9832581 1.2927077 0.02560989 4289875200
2.0016377 1.3047588 0.039950099 4289875200
2.0135756 1.3126152 0.054329801 4290005760
2.009908 1.310306 0.06828358 4290005760
1.9829042 1.292793 0.081151232 4289875200
1.9959693 1.3013847 0.095483884 4289875200
2.0104449 1.3108965 0.10997028 4290005760
1.9922893 1.2991462 0.1225203 4289875200
1.9354565 1.2621899 0.13204372 4289614080
2.011673 1.3119383 0.15065707 4290005760
2.0035489 1.3067243 0.16322447 4290005760
1.9893841 1.2975723 0.17497484 4289875200
1.9103333 1.246125 0.18021621 4289614080
2.032341 1.325735 0.20453209 4290136320
2.021461 1.3187244 0.21592255 4290005760
2.0175889 1.3162819 0.22773422 4290005760
1.9780246 1.2905684 0.23500074 4289875200
1.877943 1.2253927 0.23399106 4289483520
2.0166297 1.3159028 0.26272094 4290005760
2.0089815 1.3109978 0.27281198 4290005760
1.9912294 1.2995032 0.28108701 4289875200
1.9728323 1.2875867 0.28876492 4289875200
1.9343222 1.2625504 0.29288134 4289744640
2.000391 1.3057256 0.31264591 4290005760
2.003608 1.3079071 0.32256168 4290005760
2.0074208 1.3104779 0.3322401 4290005760
1.994473 1.3021145 0.33872592 4290005760
1.9856569 1.296446 0.34543556 4290005760
1.9734997 1.2885972 0.35108465 4289875200
1.9887804 1.2986515 0.36122525 4290005760
1.9882783 1.298408 0.36813763 4290005760
1.9862614 1.2971764 0.37433714 4290005760
1.9804993 1.2935003 0.37937394 4290005760
1.9873832 1.2980783 0.38639784 4290005760
1.9819319 1.2946055 0.39057967 4290005760
1.9808921 1.2940121 0.39516094 4290005760
1.9860311 1.2974527 0.40052459 4290005760
1.9789265 1.2929008 0.40294865 4290005760
1.9746157 1.2901726 0.40545052 4289875200
1.9782945 1.2926611 0.40911809 4290005760
1.968922 1.286628 0.40960082 4289875200
1.9719067 1.288664 0.41216734 4289875200
1.9757826 1.2912828 0.41444322 4290005760
1.9756037 1.2912538 0.4153851 4290005760
1.975494 1.2912705 0.41585436 4290005760
1.9770197 1.2923558 0.41618019 4290005760
1.9770494 1.2924641 0.41570279 4290005760
1.9850684 1.2977926 0.41641453 4290005760
1.9678479 1.2866315 0.41134989 4289875200
1.9783425 1.2935784 0.41160163 4290005760
1.9833472 1.2969393 0.41021222 4290005760
1.9797711 1.2946934 0.40656644 4290005760
1.9830505 1.2969278 0.40385363 4290005760
1.9841036 1.2977078 0.40020815 4290005760
1.9851054 1.2984548 0.39608154 4290005760
1.990711 1.3022115 0.39239725 4290005760
1.976169 1.292798 0.3843084 4289875200
1.9683678 1.2877907 0.37714615 4289875200
1.9735991 1.2913036 0.37205201 4289875200
1.9702567 1.2892114 0.36490569 4289875200
1.9916661 1.3033047 0.36186159 4290005760
2.0091531 1.3148353 0.35754779 4290005760
1.9940352 1.3050438 0.34701166 4290005760
1.961215 1.2844279 0.28268188 4289875200
1.9898336 1.3032539 0.2762993 4289875200
2.0045133 1.3129594 0.26743805 4290005760
1.9914763 1.3045236 0.25456795 4289875200
1.9533765 1.2796795 0.23849642 4289744640
1.9733005 1.2928194 0.22935553 4289875200
1.9926521 1.3055866 0.21966043 4289875200
1.9717102 1.2919724 0.20528448 4289875200
1.9538288 1.2803603 0.19124 4289744640
1.9766484 1.2954011 0.18094337 4289875200
1.9894259 1.3038675 0.16929917 4289875200
1.978672 1.2969224 0.15544909 4289875200
1.9607608 1.2852882 0.14105307 4289744640
1.9994233 1.3107127 0.13044488 4289875200
1.9916099 1.3056934 0.1164447 4289875200
1.9924326 1.3063316 0.1028712 4289875200
1.8040918 1.1830239 0.080662519 4289091840
1.7262967 1.1321361 0.065175794 4288830720
1.7591572 1.1537569 0.05413913 4288961280
1.6031994 1.0516328 0.038038138 4288308480
1.6485677 1.0814487 0.027515214 4288569600
1.7110637 1.1224961 0.016493024 4288830720
1.6310769 1.0701478 0.0041544251 4288439040
1.6686831 1.0948832 -0.0075480277 4288569600
1.6866791 1.1067654 -0.019554989 4288700160
1.6865176 1.1067437 -0.031464238 4288700160
1.6947255 1.1122103 -0.04355029 4288700160
1.9091733 1.2529258 -0.062371612 4289614080
1.9227923 1.2619529 -0.076233581 4289614080
1.9225655 1.2619001 -0.089563683 4289614080
1.9120347 1.2550884 -0.10224772 4289614080
1.8853763 1.2376964 -0.11371131 4289483520
1.892284 1.2423218 -0.12692906 4289483520
1.8939596 1.2435153 -0.13971896 4289483520
1.8335911 1.2039999 -0.14741768 4289222400
1.8211821 1.1959482 -0.15831284 4289222400
1.8923713 1.2427549 -0.17664415 4289483520
1.8928087 1.2431356 -0.18866831 4289483520
1.902005 1.249265 -0.20141564 4289614080
1.8665501 1.226087 -0.20907389 4289483520
1.8817997 1.2361891 -0.22203441 4289483520
1.8879722 1.2403338 -0.23381056 4289483520
1.8900958 1.2418206 -0.24487694 4289483520
1.8772446 1.2334753 -0.25367922 4289483520
1.8468434 1.2136049 -0.25959983 4289352960
1.880994 1.2361206 -0.27428883 4289483520
1.8841226 1.2382668 -0.28435776 4289483520
1.8870798 1.2403004 -0.29411247 4289483520
1.8776597 1.2342044 -0.30158299 4289483520
1.8689816 1.2285948 -0.30874765 4289483520
1.8561084 1.2202281 -0.31477585 4289483520
1.8626 1.2245818 -0.32369193 4289483520
1.8658009 1.226774 -0.3317095 4289483520
1.8686762 1.2287524 -0.33931461 4289483520
1.8688061 1.2289265 -0.34604582 4289483520
1.873347 1.2319993 -0.35321051 4289483520
1.8579637 1.2219779 -0.3561897 4289483520
1.8556409 1.2205389 -0.36120006 4289483520
1.8570969 1.221583 -0.36652401 4289483520
1.8556473 1.2207171 -0.37085241 4289483520
1.8507887 1.2176096 -0.37405697 4289483520
1.8450791 1.2139419 -0.37663323 4289483520
1.8508099 1.2177953 -0.38109934 4289483520
1.843858 1.2133096 -0.38251659 4289483520
1.8355758 1.2079482 -0.38319117 4289352960
1.8426712 1.2126983 -0.386617 4289352960
1.8424212 1.212618 -0.38806146 4289352960
1.8422353 1.2125795 -0.38906553 4289352960
1.8380003 1.2098773 -0.3887603 4289352960
1.8425565 1.2129573 -0.38985392 4289483520
1.8367345 1.2092102 -0.38830277 4289352960
1.842931 1.213369 -0.38883001 4289483520
1.8518757 1.219336 -0.38947222 4289483520
1.85267 1.2199409 -0.38794294 4289483520
1.8570886 1.2229304 -0.38671163 4289483520
1.8586451 1.2240366 -0.38442728 4289483520
1.8579617 1.2236683 -0.38123164 4289483520
1.8606052 1.2254895 -0.37826911 4289483520
1.859857 1.2250781 -0.37417555 4289483520
1.8511686 1.2194399 -0.36807644 4289483520
1.8529459 1.2206898 -0.3636418 4289483520
1.8453519 1.2157704 -0.35696906 4289352960
1.8415722 1.213361 -0.35065266 4289352960
1.8391843 1.2118676 -0.34421575 4289352960
1.8399529 1.2124521 -0.33797726 4289352960
1.8521378 1.2205539 -0.33339468 4289483520
1.8607612 1.2263111 -0.3277131 4289483520
1.8698947 1.2324047 -0.32167628 4289483520
1.8580304 1.2246693 -0.31168512 4289483520
1.8444333 1.2157912 -0.30116171 4289352960
1.8567204 1.2239619 -0.29451433 4289483520
1.8694104 1.2323987 -0.28747955 4289483520
1.870345 1.2330921 -0.27825302 4289483520
1.8520397 1.2211095 -0.26595092 4289352960
1.8430833 1.2152848 -0.25483143 4289352960
1.8658646 1.2303717 -0.24772328 4289483520
1.8743488 1.236039 -0.23827493 4289483520
1.8600067 1.2266645 -0.22570565 4289352960
1.8496732 1.2199305 -0.21351489 4289352960
1.8824277 1.2415937 -0.20590611 4289483520
1.8781148 1.2388277 -0.19386084 4289483520
1.882437 1.241753 -0.1824896 4289483520
1.8730519 1.2356428 -0.16962796 4289483520
1.9109681 1.2607144 -0.16065909 4289614080
1.9203174 1.2669555 -0.14881775 4289614080
1.9184034 1.2657712 -0.13589717 4289614080
1.8828613 1.2424135 -0.12071154 4289483520
1.7070187 1.1265389 -0.09788885 4288830720
1.6990157 1.1213301 -0.08576487 4288700160
1.6387482 1.0816532 -0.071403056 4288439040
1.6248635 1.0725619 -0.05947908 4288439040
1.6999015 1.1221192 -0.050280597 4288700160
1.6653292 1.0993835 -0.037546206 4288569600
1.5960891 1.0537767 -0.024735009 4288308480
1.7119603 1.1302787 -0.014361904 4288830720
1.7278264 1.1408145 -0.0022386168 4288830720
1.8141148 1.1978134 0.010543822 4289222400
1.9638953 1.2967114 0.02537559 4289744640
1.9855431 1.3110743 0.039699722 4289875200
1.9974358 1.3190017 0.054019794 4289875200
1.9987895 1.3199753 0.068086803 4290005760
1.9593788 1.294046 0.080415308 4289744640
1.9924115 1.3159264 0.095603116 4289875200
1.9901558 1.3145177 0.10919856 4289875200
1.984576 1.3109149 0.12243874 4289875200
1.915465 1.2653732 0.1311063 4289614080
1.9963883 1.3188732 0.15001045 4290005760
1.9874659 1.3130633 0.16246125 4289875200
1.9816815 1.3093246 0.17489524 4289875200
1.8996086 1.2552139 0.17982477 4289614080
2.016988 1.3327996 0.20369518 4290005760
2.0061533 1.3257269 0.21504112 4290005760
1.9973152 1.319972 0.22624348 4290005760
1.9620616 1.2967707 0.23393509 4289875200
1.8036991 1.1922549 0.22553492 4289222400
2.0013547 1.322886 0.26167098 4290005760
1.9854493 1.312462 0.27059188 4290005760
1.9793743 1.3085308 0.28043103 4289875200
1.9651909 1.2992426 0.28869906 4289875200
1.9226907 1.2712448 0.29218912 4289744640
1.9926419 1.3175441 0.31258327 4290005760
1.991712 1.3170129 0.3218326 4290005760
1.9872477 1.3141464 0.33012104 4290005760
1.9826152 1.3111687 0.33796602 4290005760
1.9705327 1.303267 0.34408471 4289875200
1.9695704 1.3027145 0.35169959 4289875200
1.9687015 1.3022239 0.35892123 4289875200
1.9731524 1.3052502 0.3667137 4289875200
1.9703218 1.3034635 0.37273628 4289875200
1.972821 1.3052003 0.37933603 4290005760
1.9640346 1.2994763 0.38330841 4289875200
1.9742465 1.3063134 0.39054826 4290005760
1.9649824 1.3002734 0.39348465 4289875200
1.9701031 1.3037455 0.3988342 4290005760
1.9671386 1.3018713 0.40208703 4289875200
1.9587345 1.2963995 0.4037382 4289875200
1.9616611 1.2984217 0.40724427 4289875200
1.9612811 1.2982572 0.4095912 4289875200
1.9609668 1.2981367 0.41147175 4289875200
1.9607199 1.298061 0.41288394 4289875200
1.9605412 1.2980307 0.41382629 4289875200
1.9563248 1.2953292 0.41342962 4289875200
1.9570223 1.2958792 0.41358593 4289875200
1.9570506 1.2959868 0.41311568 4289875200
1.9576447 1.2964692 0.41228017 4289875200
1.9602021 1.2982513 0.41137281 4289875200
1.9579804 1.2968708 0.40898034 4289875200
1.9637742 1.300796 0.40777913 4289875200
1.9646795 1.3014863 0.40507683 4289875200
1.9671215 1.3031942 0.40221265 4289875200
1.9722781 1.3066999 0.39942008 4290005760
1.969162 1.3047289 0.39448249 4289875200
1.9665157 1.3030691 0.38919318 4289875200
1.9684821 1.304464 0.38436624 4289875200
1.9663055 1.3031156 0.37828514 4289875200
1.9494497 1.2920455 0.36899897 4289875200
1.950232 1.2926564 0.36267677 4289875200
1.9872118 1.3172445 0.3625392 4290005760
1.9771278 1.3106598 0.35330021 4290005760
1.9747242 1.3091624 0.34507647 4289875200
1.9495577 1.2931012 0.28209063 4289875200
1.9739244 1.3093482 0.27515209 4289875200
1.9935132 1.3224306 0.26700202 4290005760
1.9717026 1.3080696 0.25301668 4289875200
1.9458847 1.2910498 0.2385045 4289744640
1.9691082 1.3065442 0.22975828 4289875200
1.9767097 1.3116823 0.2187487 4289875200
1.955844 1.2979436 0.2044232 4289744640
1.9380273 1.2862248 0.19043021 4289744640
1.965741 1.3047024 0.18064541 4289875200
1.9701556 1.3077285 0.16831069 4289875200
1.9627644 1.302924 0.1547996 4289875200
1.9490775 1.2939426 0.14075986 4289744640
1.9751093 1.3113108 0.12935932 4289875200
1.9756436 1.3117642 0.11596239 4289875200
1.968136 1.3068817 0.10201228 4289875200
1.7938355 1.1913161 0.080519542 4289091840
1.6880229 1.1211845 0.06397377 4288700160
1.7124231 1.1374637 0.052898817 4288830720
1.6285232 1.081862 0.038805589 4288439040
1.6802592 1.1162859 0.028172368 4288700160
1.668669 1.1086764 0.016141117 4288569600
1.6664827 1.1073091 0.0042831507 4288569600
1.5981255 1.0620077 -0.0072736107 4288308480
1.7052579 1.1332235 -0.019830246 4288830720
1.8774014 1.2476203 -0.035077821 4289483520
1.8916667 1.2571883 -0.048712287 4289483520
1.8874718 1.2544975 -0.061897621 4289483520
1.9068975 1.2674952 -0.075890072 4289614080
1.9026934 1.2647983 -0.08897642 4289614080
1.8975403 1.2614708 -0.1018588 4289614080
1.8623253 1.2381711 -0.11275267 4289352960
1.8650528 1.2400767 -0.12558512 4289483520
1.873682 1.2459038 -0.13875373 4289483520
1.8671246 1.2416402 -0.15066825 4289483520
1.8647505 1.2401559 -0.16269636 4289483520
1.8781536 1.2491567 -0.17598863 4289483520
1.8874943 1.2554586 -0.18885598 4289483520
1.8703846 1.2441798 -0.19883424 4289483520
1.8469355 1.2286851 -0.20767318 4289352960
1.8546731 1.2339208 -0.21967961 4289352960
1.8649734 1.2408607 -0.23185326 4289483520
1.8704082 1.2445664 -0.24325967 4289483520
1.8554697 1.2347255 -0.25170383 4289483520
1.8119466 1.2058743 -0.25568381 4289222400
1.8456544 1.2283803 -0.27018052 4289352960
1.8487858 1.2305534 -0.28010792 4289352960
1.8403993 1.2250657 -0.28795627 4289352960
1.8465031 1.2292156 -0.29772833 4289352960
1.8312693 1.2191713 -0.30369386 4289352960
1.8123444 1.2066698 -0.30855229 4289222400
1.8158818 1.209111 -0.3168048 4289352960
1.8190898 1.211333 -0.32466722 4289352960
1.8137412 1.2078614 -0.33062914 4289352960
1.8254113 1.2157146 -0.33932775 4289352960
1.8222567 1.2137023 -0.34492072 4289352960
1.8126658 1.2074057 -0.34886131 4289352960
1.8164504 1.2100109 -0.35494769 4289352960
1.8121598 1.2072407 -0.35905018 4289352960
1.8209966 1.213209 -0.36534142 4289352960
1.8155396 1.2096615 -0.36835906 4289352960
1.8105429 1.2064197 -0.37101969 4289352960
1.8134001 1.2084067 -0.37484896 4289352960
1.8050932 1.2029594 -0.37593248 4289352960
1.8031682 1.2017611 -0.37788793 4289222400
1.7954825 1.1967256 -0.37818772 4289222400
1.7993371 1.1993756 -0.380465 4289222400
1.7950568 1.1966069 -0.38058281 4289222400
1.7990364 1.1993397 -0.38200104 4289222400
1.8079141 1.2053356 -0.3840116 4289352960
1.792027 1.1948332 -0.38033026 4289222400
1.8043321 1.2031125 -0.38216892 4289352960
1.8140491 1.2096682 -0.38300225 4289352960
1.8024921 1.2020482 -0.37891245 4289222400
1.8072245 1.2052823 -0.37780023 4289352960
1.8053916 1.204141 -0.3748754 4289352960
1.8045365 1.203651 -0.37172005 4289222400
1.7984645 1.1996833 -0.36707303 4289222400
1.7977039 1.1992552 -0.36309335 4289222400
1.7931365 1.1962892 -0.35793775 4289222400
1.7899629 1.1942515 -0.3526637 4289222400
1.7873068 1.1925584 -0.34709901 4289222400
1.7835219 1.1901121 -0.34093392 4289222400
1.7770121 1.1858484 -0.33388939 4289222400
1.7812561 1.1887547 -0.32848209 4289222400
1.785934 1.1919506 -0.32274577 4289222400
1.8066641 1.2058522 -0.31943437 4289222400
1.8149166 1.2114331 -0.31344426 4289352960
1.8113141 1.209107 -0.30503768 4289222400
1.8029114 1.2035786 -0.29553202 4289222400
1.8101822 1.2085048 -0.28825656 4289222400
1.8308418 1.2223635 -0.28264672 4289352960
1.8515698 1.2362694 -0.27652478 4289483520
1.8366327 1.2263803 -0.26475659 4289352960
1.8310698 1.2227448 -0.25414604 4289352960
1.8541577 1.2382275 -0.24711721 4289483520
1.8705915 1.2492712 -0.23870935 4289483520
1.8685639 1.2479953 -0.22760776 4289483520
1.8372972 1.2272042 -0.21290293 4289352960
1.8619848 1.2437578 -0.20445734 4289483520
1.8615668 1.2435553 -0.19289377 4289483520
1.8677074 1.2477306 -0.18175887 4289483520
1.8484539 1.2349536 -0.16804881 4289352960
1.8804172 1.2563688 -0.15870501 4289483520
1.9013268 1.270406 -0.14791393 4289614080
1.8993713 1.2691778 -0.13506724 4289614080
1.8895144 1.262673 -0.1215945 4289483520
1.8766893 1.2541853 -0.10795403 4289483520
1.7418411 1.1642054 -0.088239953 4288961280
1.6340935 1.0923145 -0.071468912 4288439040
1.6565218 1.1073608 -0.060850494 4288569600
1.6451168 1.0998098 -0.048860833 4288569600
1.6031898 1.0718694 -0.036300439 4288439040
1.589747 1.0629539 -0.024725765 4288308480
1.6571174 1.1080266 -0.013966302 4288569600
1.6695955 1.1164304 -0.0021826662 4288700160
1.8029456 1.2055964 0.010525715 4289222400
1.9405205 1.2975961 0.02517429 4289744640
1.9745431 1.3204097 0.039640252 4289875200
1.9897147 1.3306284 0.054028071 4289875200
1.9785966 1.3232784 0.067665413 4289875200
1.9551274 1.3076727 0.080561258 4289744640
1.975353 1.3212707 0.095158324 4289875200
1.9852872 1.3279912 0.10936321 4289875200
1.968135 1.316606 0.12190184 4289875200
1.9039075 1.2737488 0.13082808 4289614080
1.9762224 1.3221731 0.14907709 4289875200
1.9792843 1.3243009 0.16242877 4289875200
1.9652623 1.315006 0.17412592 4289875200
1.9050803 1.2748438 0.18105377 4289614080
1.9967611 1.3362309 0.20244139 4290005760
1.9942528 1.3346355 0.21460316 4290005760
1.9821402 1.3266165 0.22540343 4290005760
1.9503345 1.3054253 0.23344745 4289875200
1.7925858 1.1999898 0.22502272 4289222400
1.9936103 1.3345351 0.26167926 4290005760
1.9777658 1.3240185 0.27060011 4290005760
1.9675869 1.317291 0.27985159 4289875200
1.937786 1.2974349 0.28578418 4289744640
1.907828 1.2774713 0.29106385 4289614080
1.974017 1.321841 0.3108716 4290005760
1.972471 1.3208897 0.31996876 4290005760
1.9721456 1.3207552 0.32889274 4290005760
1.9634205 1.3149996 0.33600152 4289875200
1.958791 1.3119847 0.34337157 4289875200
1.9311155 1.2935437 0.34617752 4289744640
1.958901 1.3122258 0.35853076 4289875200
1.9655108 1.3167349 0.3667219 4289875200
1.9528383 1.3083358 0.37087223 4289875200
1.952873 1.3084435 0.37696725 4289875200
1.9486845 1.305724 0.38179877 4289875200
1.9469229 1.3046296 0.38664693 4289875200
1.9475251 1.3051181 0.39151266 4289875200
1.9486142 1.3059331 0.39602494 4289875200
1.9442782 1.3031151 0.39896673 4289875200
1.9511447 1.3078004 0.40374631 4289875200
1.9417799 1.3016144 0.40469199 4289875200
1.9454955 1.3041902 0.4078826 4289875200
1.9492751 1.3068094 0.41061756 4289875200
1.9408467 1.3012505 0.41029626 4289875200
1.9447601 1.3039603 0.41209993 4289875200
1.94056 1.3012341 0.41170129 4289875200
1.9420725 1.3023362 0.41203126 4289875200
1.9453726 1.3046365 0.41225654 4289875200
1.9459637 1.305122 0.41142303 4289875200
1.9485103 1.3069186 0.41051862 4289875200
1.9430228 1.3033307 0.40744337 4289875200
1.9487926 1.3072885 0.40625101 4289875200
1.95706 1.3129218 0.405085 4289875200
1.9522245 1.3097715 0.40072832 4289875200
1.9502227 1.3085212 0.39649808 4289875200
1.951165 1.3092449 0.39240637 4289875200
1.9560981 1.3126452 0.38864693 4289875200
1.9567466 1.3131729 0.38357052 4289875200
1.9504763 1.3090609 0.37670866 4289875200
1.9386042 1.3011916 0.36838317 4289875200
1.9426643 1.3040079 0.36268488 4289875200
1.961726 1.316888 0.35928997 4289875200
1.9694548 1.3221676 0.35330844 4290005760
1.9596064 1.3156558 0.34377617 4289875200
1.9344568 1.299636 0.28101999 4289744640
1.9576055 1.3152734 0.27396443 4289875200
1.9774058 1.328665 0.26590073 4290005760
1.9562085 1.3145294 0.25203046 4289875200
1.9299557 1.2969971 0.2374973 4289744640
1.9546777 1.3136964 0.22898731 4289875200
1.9656104 1.3211367 0.21839288 4289875200
1.9365551 1.3017191 0.20321871 4289744640
1.926249 1.294893 0.19003466 4289744640
1.945575 1.3079728 0.17951165 4289744640
1.9541067 1.3138025 0.16761388 4289875200
1.9572179 1.3159913 0.15498979 4289875200
1.9413902 1.3054547 0.14077647 4289744640
1.9640038 1.3207488 0.12915818 4289875200
1.9562446 1.3156337 0.11529402 4289875200
1.9570551 1.3162773 0.10185806 4289875200
1.7668532 1.1885338 0.079634957 4289091840
1.6373979 1.1016043 0.06230475 4288569600
1.6500803 1.110213 0.051175669 4288569600
1.5424427 1.0379326 0.036890645 4288177920
1.613883 1.0860434 0.027165668 4288439040
1.5981863 1.0755709 0.015517935 4288308480
1.5719427 1.0580047 0.0040446101 4288308480
1.666268 1.1215179 -0.0075635291 4288700160
1.8562467 1.2493722 -0.021588784 4289352960
1.8710505 1.2594234 -0.035071507 4289483520
1.8688446 1.2580346 -0.048294187 4289483520
1.8509086 1.2460638 -0.060922645 4289352960
1.8657168 1.25612 -0.074529901 4289483520
1.8746228 1.2622064 -0.08799044 4289483520
1.8620636 1.2538509 -0.1003325 4289483520
1.8383989 1.2380211 -0.111723 4289352960
1.8334843 1.2348068 -0.12392933 4289352960
1.83097 1.2332073 -0.13611299 4289352960
1.8179098 1.2245096 -0.147266 4289222400
1.7834283 1.2013916 -0.15621962 4289091840
1.7912923 1.206775 -0.16851874 4289222400
1.7872319 1.2041315 -0.17954282 4289222400
1.8004448 1.2131169 -0.19215523 4289222400
1.7777673 1.1979382 -0.20068629 4289091840
1.759842 1.1859571 -0.2092838 4289091840
1.7585946 1.185205 -0.21951091 4289091840
1.7563441 1.183777 -0.22935046 4289091840
1.7558531 1.1835335 -0.23914911 4289091840
1.7373321 1.1711459 -0.24613138 4288961280
1.7350955 1.1697253 -0.25502506 4288961280
1.7464988 1.177493 -0.26567817 4289091840
1.7478062 1.1784598 -0.27456784 4289091840
1.7553169 1.183606 -0.2841624 4289091840
1.743145 1.1754906 -0.29024035 4288961280
1.7230662 1.1620458 -0.29453281 4288961280
1.7139735 1.1560023 -0.3002359 4288961280
1.7172157 1.1582707 -0.30772588 4288961280
1.7206588 1.1606746 -0.31492698 4288961280
1.7260129 1.1643666 -0.32214913 4288961280
1.7289817 1.166451 -0.3285875 4288961280
1.7340204 1.1699308 -0.33506659 4288961280
1.7377521 1.1725297 -0.34093499 4289091840
1.7477582 1.179359 -0.34767562 4289091840
1.7429169 1.1761777 -0.35108429 4289091840
1.7483221 1.1799052 -0.35614437 4289091840
1.7437736 1.1769202 -0.3587721 4289091840
1.7436277 1.1769038 -0.36187649 4289091840
1.745748 1.1784158 -0.36503166 4289091840
1.7298853 1.1677977 -0.36399412 4288961280
1.7377566 1.1731877 -0.36749941 4289091840
1.7264911 1.1656685 -0.36653894 4288961280
1.7295815 1.1678332 -0.368182 4288961280
1.7372279 1.1730717 -0.37036598 4289091840
1.7363453 1.1725558 -0.37030593 4289091840
1.741985 1.1764406 -0.37119886 4289091840
1.741732 1.1763492 -0.37040463 4289091840
1.7385354 1.1742706 -0.36855531 4289091840
1.7363814 1.1728953 -0.36649984 4289091840
1.7363997 1.1729857 -0.36447558 4289091840
1.7293912 1.1683326 -0.3605651 4288961280
1.7249613 1.1654192 -0.35678765 4288961280
1.7147951 1.1586326 -0.35143828 4288961280
1.717438 1.1604929 -0.34831157 4288961280
1.7044441 1.1517951 -0.34164348 4288961280
1.699913 1.1488105 -0.3363134 4288830720
1.6972376 1.1470783 -0.33097965 4288830720
1.6865946 1.1399648 -0.3237547 4288830720
1.6770453 1.1335888 -0.31642985 4288830720
1.6692624 1.1284047 -0.30913192 4288700160
1.6889149 1.1417512 -0.30649874 4288830720
1.7009442 1.1499494 -0.30201596 4288830720
1.7130395 1.1581932 -0.29710346 4288961280
1.6986545 1.1485482 -0.287287 4288830720
1.6753364 1.1328661 -0.27580547 4288700160
1.6862754 1.1403284 -0.26968604 4288830720
1.7081678 1.1551927 -0.26485011 4288830720
1.721355 1.1641761 -0.25819781 4288961280
1.7110888 1.1573106 -0.24773695 4288830720
1.7005726 1.1502753 -0.23707266 4288830720
1.721015 1.1641631 -0.23038703 4288961280
1.7247515 1.1667604 -0.22108275 4288961280
1.7300844 1.1704371 -0.2116846 4288961280
1.7016439 1.1512831 -0.1980745 4288830720
1.7450782 1.1807173 -0.19248199 4288961280
1.7643882 1.1938447 -0.18364386 4289091840
1.7861915 1.2086593 -0.17460474 4289222400
1.7845362 1.2076138 -0.1629644 4289091840
1.8158033 1.2288302 -0.15394445 4289222400
1.8096263 1.2247277 -0.14143468 4289222400
1.7799356 1.2047224 -0.12718281 4289091840
1.8013744 1.2192951 -0.11647836 4289222400
1.855737 1.2561382 -0.1072453 4289483520
1.8456792 1.2494109 -0.093895078 4289352960
1.6422719 1.1118903 -0.072167382 4288569600
1.539004 1.042097 -0.056862097 4288177920
1.6270561 1.1017303 -0.048583809 4288439040
1.5749938 1.0665725 -0.035873991 4288308480
1.5074815 1.0209565 -0.023629153 4288047360
1.6472882 1.1156194 -0.014005388 4288569600
1.6472939 1.1156905 -0.0022338103 4288569600
1.740297 1.1786964 0.01011191 4288961280
1.8976127 1.2852356 0.02462801 4289614080
1.9584204 1.3264689 0.039390661 4289875200
1.9660816 1.3317344 0.053513836 4289875200
1.9591491 1.327122 0.067183308 4289875200
1.9357753 1.3113792 0.07999856 4289744640
1.9611044 1.3286057 0.094765596 4289875200
1.9547338 1.3243729 0.1080228 4289875200
1.9603175 1.3282334 0.12182065 4289875200
1.8995241 1.28715 0.13096978 4289614080
1.9609351 1.3288124 0.14843155 4289875200
1.96035 1.3284968 0.16143405 4289875200
1.9463574 1.3191012 0.17305747 4289875200
1.8682356 1.2662718 0.17817903 4289483520
1.9816166 1.3431435 0.20162722 4290005760
1.9754114 1.3390224 0.21334401 4290005760
1.9660233 1.3327448 0.22438501 4289875200
1.9351716 1.3119265 0.23248164 4289744640
1.7813461 1.2077936 0.22443672 4289222400
1.9741098 1.3384694 0.26007932 4290005760
1.9657948 1.3329182 0.26996443 4289875200
1.9523696 1.3239037 0.27872601 4289875200
1.9259772 1.3061013 0.28511015 4289744640
1.8920337 1.2831795 0.28974268 4289614080
1.9587847 1.328499 0.30964047 4289875200
1.9605296 1.3297647 0.31924024 4289875200
1.9518281 1.3239503 0.32674441 4289875200
1.9556156 1.3266011 0.33594656 4289875200
1.9428132 1.3180063 0.34187692 4289875200
1.9193443 1.3021792 0.34539151 4289744640
1.9396561 1.3160334 0.35637775 4289875200
1.9536054 1.3255755 0.36591139 4289875200
1.9409842 1.3171024 0.37005165 4289875200
1.9377508 1.3149946 0.37550354 4289875200
1.9363915 1.3141576 0.38087061 4289875200
1.9350946 1.3133633 0.38580137 4289875200
1.9283484 1.3088731 0.38917738 4289875200
1.9286199 1.3091427 0.393502 4289875200
1.9402975 1.31715 0.39972037 4289875200
1.9393008 1.3165605 0.40288162 4289875200
1.929973 1.3103192 0.40382519 4289875200
1.9295975 1.3101513 0.40615624 4289875200
1.9292868 1.3100278 0.40802491 4289875200
1.9290423 1.3099495 0.40942916 4289875200
1.9256052 1.3077049 0.40967378 4289875200
1.9328295 1.3126959 0.41170743 4289875200
1.934335 1.3138064 0.41204149 4289875200
1.9221382 1.3056171 0.4089753 4289875200
1.9341339 1.3138486 0.41057628 4289875200
1.9325941 1.3128932 0.40881673 4289875200
1.935277 1.3148048 0.40747041 4289875200
1.9369466 1.3160291 0.40542886 4289875200
1.9370258 1.3161738 0.40257785 4289875200
1.9411765 1.3190837 0.40009576 4289875200
1.9342866 1.3144968 0.39487642 4289875200
1.9401174 1.3185486 0.39179572 4289875200
1.9409478 1.3192052 0.38723391 4289875200
1.9375079 1.3169616 0.38137701 4289875200
1.9312576 1.312809 0.37455156 4289875200
1.9226958 1.307086 0.36688888 4289744640
1.9275528 1.3104787 0.361375 4289875200
1.9498054 1.3256909 0.35861266 4289875200
1.9583188 1.3315703 0.35279825 4289875200
1.9435967 1.3216621 0.34241676 4289875200
1.9228565 1.3079392 0.28042853 4289744640
1.9500204 1.3264997 0.27397189 4289875200
1.9656342 1.3372113 0.26535222 4289875200
1.9445164 1.3229527 0.25150421 4289875200
1.9195234 1.3060575 0.23713748 4289744640
1.9347564 1.3165115 0.22753794 4289744640
1.9538748 1.3296095 0.21793708 4289875200
1.9405816 1.320668 0.20443943 4289744640
1.9079968 1.2986051 0.1889669 4289614080
1.9306127 1.3140838 0.17882472 4289744640
1.9349842 1.3171552 0.16661824 4289744640
1.9337112 1.3163874 0.15372111 4289744640
1.9264346 1.3115354 0.14023358 4289744640
1.9398769 1.3207788 0.12806295 4289744640
1.9029834 1.2957752 0.11257831 4289614080
1.8562838 1.2640951 0.096962951 4289483520
1.5691599 1.0687997 0.070941746 4288308480
1.5537393 1.0583854 0.059323274 4288177920
1.5206089 1.0359159 0.047299478 4288047360
1.4705919 1.001949 0.035280891 4287916800
1.5010589 1.0227635 0.025322093 4288047360
1.4697125 1.0015008 0.01427566 4287916800
1.454019 0.99089158 0.0037069353 4287786240
1.6174412 1.1022345 -0.007393741 4288439040
1.6714323 1.1390806 -0.019583529 4288700160
1.6622516 1.1329144 -0.031357218 4288700160
1.6447699 1.1210941 -0.042754885 4288569600
1.6327673 1.1130036 -0.054038286 4288569600
1.6558856 1.1288334 -0.066490486 4288569600
1.671708 1.1396958 -0.078856051 4288700160
1.6846331 1.148586 -0.091202877 4288700160
1.6588858 1.1311311 -0.10128684 4288700160
1.6660708 1.1361109 -0.11312978 4288700160
1.6665435 1.1365178 -0.12445037 4288700160
1.6540933 1.1281186 -0.1345973 4288700160
1.6670605 1.1370395 -0.14665732 4288700160
1.6663527 1.1366417 -0.15744235 4288700160
1.6788629 1.1452527 -0.16937399 4288700160
1.6752223 1.1428561 -0.17955615 4288700160
1.6326461 1.1139175 -0.18510169 4288569600
1.670604 1.1398767 -0.19950053 4288700160
1.6677117 1.1379889 -0.20903434 4288700160
1.6690067 1.1389557 -0.21885027 4288700160
1.6593417 1.1324489 -0.2269453 4288700160
1.6097686 1.0987266 -0.22902483 4288439040
1.6664094 1.1374347 -0.24593173 4288700160
1.6747372 1.1431975 -0.25580394 4288700160
1.6757421 1.1439662 -0.26432267 4288830720
1.6672459 1.1382536 -0.27101478 4288700160
1.6517873 1.1277906 -0.27616096 4288700160
1.6464103 1.1242037 -0.28257915 4288700160
1.6529214 1.128727 -0.29071411 4288700160
1.6561779 1.1310298 -0.29798856 4288700160
1.648761 1.1260498 -0.3029936 4288700160
1.6575278 1.1321126 -0.31061998 4288700160
1.6537633 1.1296239 -0.31556821 4288700160
1.6493179 1.1266699 -0.31999716 4288700160
1.6470501 1.1252016 -0.32445776 4288700160
1.6534132 1.1296242 -0.33024955 4288700160
1.6581674 1.132949 -0.33536834 4288700160
1.6555718 1.1312562 -0.33862245 4288700160
1.6348166 1.1171641 -0.33773196 4288700160
1.6388485 1.1199946 -0.34151903 4288700160
1.6354355 1.1177415 -0.34336358 4288700160
1.6351013 1.1175902 -0.34544665 4288700160
1.6203054 1.1075621 -0.34406409 4288569600
1.624151 1.1102643 -0.34621373 4288569600
1.6344327 1.1173627 -0.3493357 4288700160
1.6261919 1.1118093 -0.34810522 4288569600
1.6188226 1.1068501 -0.34665042 4288569600
1.6373025 1.1195498 -0.35030523 4288700160
1.6369662 1.119395 -0.34953329 4288700160
1.6451267 1.1250455 -0.35015622 4288700160
1.6522346 1.1299772 -0.35013449 4288700160
1.6481609 1.1272683 -0.34733945 4288700160
1.6518348 1.1298535 -0.3457666 4288700160
1.6489605 1.1279633 -0.34242359 4288700160
1.6456859 1.1257989 -0.33861005 4288700160
1.6418126 1.1232247 -0.3342945 4288700160
1.6526194 1.1306851 -0.33255354 4288700160
1.6439825 1.1248538 -0.32652315 4288700160
1.63641 1.1197492 -0.32036984 4288700160
1.6347913 1.1187143 -0.3150351 4288569600
1.6236743 1.1111846 -0.30755427 4288569600
1.6062034 1.0993088 -0.29861796 4288569600
1.6291403 1.115064 -0.29680306 4288569600
1.6398096 1.1224313 -0.29229373 4288700160
1.6526175 1.1312618 -0.28773594 4288700160
1.6432024 1.1248933 -0.27898204 4288700160
1.6185893 1.108128 -0.26749176 4288569600
1.6221714 1.1106476 -0.26043642 4288569600
1.6396829 1.1226964 -0.25521299 4288569600
1.6445968 1.126128 -0.24763797 4288700160
1.6387846 1.1222212 -0.23818122 4288569600
1.6182737 1.1082562 -0.22647052 4288569600
1.6406953 1.1236671 -0.22047804 4288569600
1.6517321 1.1312888 -0.21252884 4288700160
1.6463736 1.127691 -0.20221099 4288569600
1.6180849 1.1083992 -0.1890651 4288569600
1.6333545 1.1189179 -0.18085343 4288569600
1.644475 1.1265978 -0.17182265 4288569600
1.6374028 1.1218251 -0.16068678 4288569600
1.6237054 1.1125164 -0.14886105 4288569600
1.6401035 1.1238101 -0.13959809 4288569600
1.6466941 1.1283902 -0.12920141 4288569600
1.636216 1.1212841 -0.11735938 4288569600
1.6317322 1.1182815 -0.10591804 4288569600
1.640673 1.1244712 -0.095196247 4288569600
1.636939 1.1219817 -0.083605871 4288569600
1.6385698 1.123166 -0.072211303 4288569600
1.61765 1.1089054 -0.059890367 4288439040
1.6344895 1.1205059 -0.048915166 4288569600
1.6426702 1.1261767 -0.037454173 4288569600
1.6428734 1.1263834 -0.025714487 4288569600
1.6463938 1.1288625 -0.013971206 4288569600
1.6657242 1.1421734 -0.0021775244 4288700160
1.6619029 1.1396238 0.0097513981 4288700160
1.6608802 1.1389912 0.021652382 4288700160
1.7767378 1.2184478 0.035914674 4289091840
1.9516045 1.3383509 0.053423379 4289875200
1.9471909 1.3354065 0.067131206 4289875200
1.9014128 1.3041128 0.078974687 4289614080
1.9451983 1.3342011 0.094461031 4289875200
1.9449106 1.334084 0.10799848 4289875200
1.9415834 1.3318837 0.12122427 4289875200
1.8815198 1.2907895 0.13032874 4289614080
1.9532681 1.3400545 0.14852849 4289875200
1.9526844 1.3397353 0.16153044 4289875200
1.9264077 1.3218001 0.17204794 4289744640
1.8535285 1.2719085 0.17755909 4289483520
1.9777623 1.3571754 0.20212141 4290005760
1.9635764 1.3475296 0.21299154 4289875200
1.9583313 1.3440146 0.22447725 4289875200
1.9234964 1.3202053 0.23207539 4289744640
1.7628919 1.2101297 0.22306272 4289091840
1.9508084 1.3391012 0.25810435 4289875200
1.9581009 1.3441861 0.27005091 4289875200
1.932444 1.326668 0.27704713 4289875200
1.9143456 1.3143334 0.28458232 4289744640
1.8805364 1.2912185 0.28919089 4289614080
1.947028 1.3369215 0.30906942 4289875200
1.9446821 1.3353951 0.31797928 4289875200
1.9443647 1.3352609 0.32684815 4289875200
1.9324485 1.3271669 0.3333405 4289875200
1.9278623 1.3241029 0.3406468 4289875200
1.9077504 1.3103826 0.34471908 4289744640
1.930144 1.3258367 0.35608679 4289875200
1.9264014 1.3233519 0.36229217 4289875200
1.9276845 1.3243173 0.36901724 4289875200
1.9220213 1.3205141 0.37397256 4289875200
1.928807 1.3252579 0.38092116 4289875200
1.9275151 1.3244565 0.38584861 4289875200
1.9264971 1.3238432 0.39037707 4289875200
1.9201816 1.3195924 0.39336112 4289875200
1.9131953 1.3148806 0.39572164 4289744640
1.9162693 1.317078 0.399694 4289875200
1.9239556 1.3224438 0.40417883 4289875200
1.9147309 1.3161949 0.40463683 4289875200
1.9103632 1.3132818 0.4056322 4289744640
1.9141802 1.3159914 0.40788957 4289875200
1.9140041 1.3159584 0.40882051 4289875200
1.9227418 1.32205 0.41117892 4289875200
1.9186418 1.3193219 0.41031089 4289875200
1.918668 1.319429 0.40984437 4289875200
1.9151943 1.3171314 0.40815106 4289875200
1.9096007 1.3133769 0.40553322 4289744640
1.919926 1.3205633 0.40581626 4289875200
1.917538 1.3190125 0.40292841 4289875200
1.9176619 1.3191886 0.40010005 4289875200
1.9229157 1.3228915 0.39786565 4289875200
1.9296273 1.3275975 0.39544633 4289875200
1.9306046 1.3283617 0.39137495 4289875200
1.927983 1.3266521 0.38612244 4289875200
1.9245548 1.3243877 0.38027525 4289875200
1.9149098 1.3178482 0.37279525 4289744640
1.9103529 1.3148073 0.36591712 4289744640
1.9151889 1.3182265 0.36041462 4289744640
1.939768 1.3352265 0.35811046 4289875200
1.9468638 1.3402027 0.35205016 4289875200
1.935226 1.3322924 0.34221566 4289875200
1.9111114 1.3163167 0.27983719 4289744640
1.9392737 1.335797 0.27355891 4289875200
1.9504393 1.3435805 0.26436061 4289875200
1.9326775 1.3314515 0.25097984 4289875200
1.903348 1.3113573 0.23608583 4289744640
1.9270502 1.3277727 0.22754604 4289744640
1.9378908 1.3353348 0.21702518 4289875200
1.9131593 1.318403 0.20236067 4289744640
1.9003956 1.3097107 0.18897487 4289614080
1.9188151 1.3224933 0.17845006 4289744640
1.9313819 1.3312467 0.16698235 4289744640
1.9281793 1.3291395 0.15390314 4289744640
1.9080689 1.3153851 0.13945785 4289744640
1.9255103 1.3274984 0.12762959 4289744640
1.7106727 1.1795821 0.10156665 4288830720
1.6576054 1.1431059 0.086887218 4288700160
1.6537068 1.1405047 0.075099923 4288700160
1.6607195 1.1454225 0.063706964 4288700160
1.6624712 1.1467152 0.051978711 4288700160
1.6388712 1.1305352 0.039547987 4288569600
1.6463771 1.1357933 0.027948953 4288569600
1.6423309 1.1330891 0.016093893 4288569600
1.6391242 1.1309631 0.0042808768 4288569600
1.6238869 1.1205428 -0.0074412357 4288569600
1.6150303 1.1145201 -0.019010315 4288439040
1.6271634 1.1229695 -0.030822374 4288569600
1.629814 1.1248811 -0.042532306 4288569600
1.634145 1.127952 -0.054290429 4288569600
1.6437707 1.1346749 -0.06626381 4288569600
1.6389445 1.1314307 -0.077624291 4288569600
1.6418439 1.133515 -0.08925081 4288569600
1.632827 1.1273793 -0.10009687 4288569600
1.6396971 1.1322027 -0.11178695 4288569600
1.6360664 1.129782 -0.12266796 4288569600
1.6226391 1.1206011 -0.13257165 4288569600
1.6407037 1.1331495 -0.14491943 4288569600
1.6517062 1.1408261 -0.15668087 4288700160
1.6539178 1.1424367 -0.16752802 4288700160
1.6369715 1.1308249 -0.1761682 4288569600
1.6023632 1.10702 -0.18240206 4288439040
1.6403922 1.1333528 -0.19668309 4288569600
1.6495912 1.1397865 -0.20759104 4288700160
1.6427047 1.1351155 -0.21626842 4288700160
1.6279685 1.125024 -0.22355357 4288569600
1.5650511 1.0816616 -0.22357035 4288308480
1.6442322 1.1364188 -0.24363349 4288700160
1.6566168 1.1450541 -0.25405034 4288700160
1.6535436 1.1430146 -0.26186898 4288700160
1.6491667 1.140074 -0.26915082 4288700160
1.6256245 1.1238943 -0.27288148 4288569600
1.6335269 1.1294341 -0.28148955 4288569600
1.6349162 1.1304748 -0.28870085 4288700160
1.6318669 1.1284488 -0.29479605 4288569600
1.63485 1.1305903 -0.30164024 4288700160
1.6367521 1.1319849 -0.30795908 4288700160
