# .PCD v0.7 - Point Cloud Data file format
VERSION 0.7
FIELDS x y z rgba
SIZE 4 4 4 4
TYPE F F F U
COUNT 1 1 1 1
WIDTH 1055
HEIGHT 1
VIEWPOINT 0 0 0 1 0 0 0
POINTS 1055
DATA ascii
3.4769099 -0.099671058 -0.32825801 4293661440
3.5109117 -0.10053428 -0.34904349 4293792000
3.5248816 -0.10082299 -0.36768407 4293792000
3.5188749 -0.10054068 -0.38386723 4293792000
3.501327 -0.09992972 -0.39825264 4293661440
3.4240406 -0.097618617 -0.4049435 4293400320
3.5364747 -0.10070926 -0.43385613 4293792000
3.5445359 -0.10082708 -0.44996312 4293922560
3.5314071 -0.10034292 -0.46284866 4293792000
3.5324275 -0.10026076 -0.47702679 4293792000
3.5037622 -0.099337816 -0.48654166 4293792000
3.4972732 -0.09904401 -0.49846447 4293792000
3.5031316 -0.099099532 -0.51158631 4293792000
3.5152798 -0.099332213 -0.5251109 4293792000
3.5100877 -0.099075221 -0.53546512 4293792000
3.5075505 -0.098893322 -0.54559153 4293792000
3.5025046 -0.098641016 -0.55468172 4293792000
3.5041053 -0.098575793 -0.56418234 4293792000
3.5014117 -0.098389931 -0.57233995 4293792000
3.4799221 -0.097677231 -0.57670361 4293792000
3.465452 -0.097162478 -0.58149034 4293661440
3.460721 -0.096921079 -0.58720523 4293661440
3.4569526 -0.096706882 -0.59238952 4293661440
3.439873 -0.096121371 -0.59456915 4293661440
3.4391296 -0.095992401 -0.59886354 4293661440
3.3869305 -0.094430484 -0.59342265 4293400320
3.3903623 -0.09441936 -0.59700972 4293400320
3.3948944 -0.09443859 -0.60010242 4293400320
3.3897021 -0.094187647 -0.60077393 4293400320
3.3806939 -0.093831234 -0.60006291 4293400320
3.451896 -0.095696554 -0.61292642 4293661440
3.4323046 -0.095046021 -0.6089226 4293530880
3.4536507 -0.095527768 -0.61148494 4293661440
3.4617105 -0.095641509 -0.61096507 4293661440
3.479125 -0.096012615 -0.61137122 4293792000
3.4747663 -0.095783114 -0.60722184 4293792000
3.4985232 -0.096327141 -0.60726839 4293792000
3.4928756 -0.096061893 -0.60147363 4293792000
3.4956896 -0.096029185 -0.59644568 4293792000
3.4991353 -0.096013613 -0.59082484 4293792000
3.5023265 -0.095990866 -0.5844658 4293792000
3.4982176 -0.095768273 -0.57621384 4293792000
3.4861257 -0.095327899 -0.56601745 4293792000
3.4755871 -0.094930671 -0.55547887 4293661440
3.4647591 -0.094526209 -0.54431331 4293661440
3.4806161 -0.094848797 -0.53671265 4293661440
3.5020313 -0.095321514 -0.52924752 4293792000
3.514864 -0.095559806 -0.51977187 4293792000
3.5076861 -0.095254488 -0.5067215 4293792000
3.4952178 -0.094806284 -0.49240026 4293792000
3.4658599 -0.093901783 -0.47529095 4293661440
3.4869368 -0.09436246 -0.46461388 4293661440
3.5180857 -0.095093749 -0.45455453 4293792000
3.5068412 -0.094679803 -0.43841162 4293792000
3.4856091 -0.093997516 -0.42066583 4293661440
3.4838831 -0.093841396 -0.40491533 4293661440
3.5123453 -0.094496667 -0.39211616 4293792000
3.5173261 -0.094519846 -0.37609783 4293792000
3.5165253 -0.094387703 -0.35902521 4293792000
3.47679 -0.093212947 -0.33776554 4293661440
3.4881637 -0.09340778 -0.32126513 4293661440
3.5020065 -0.093667865 -0.30451456 4293661440
3.4993162 -0.093485899 -0.28593054 4293661440
3.4786301 -0.092824422 -0.26568204 4293661440
3.5090528 -0.093524918 -0.24902104 4293661440
3.5104594 -0.093451917 -0.22984648 4293661440
3.5104904 -0.093342297 -0.21032688 4293661440
3.4813552 -0.092458948 -0.18898423 4293530880
3.4918075 -0.092626378 -0.1697139 4293661440
3.4938564 -0.092570759 -0.1497799 4293661440
3.5007308 -0.092642561 -0.12984575 4293661440
3.486594 -0.092159189 -0.10902771 4293661440
3.5028493 -0.092478186 -0.089049421 4293661440
3.4973712 -0.092223704 -0.068352468 4293661440
3.5034475 -0.092273548 -0.047814276 4293661440
3.4989188 -0.092044353 -0.027069323 4293661440
3.5117037 -0.092269838 -0.0063937767 4293661440
3.5313356 -0.09267401 0.014459985 4293792000
3.505162 -0.091877647 0.035092454 4293661440
3.5371978 -0.092605174 0.056268048 4293792000
3.5589058 -0.093060926 0.077536523 4293792000
3.559911 -0.092975214 0.09841074 4293792000
3.4370804 -0.089662686 0.1151098 4293400320
3.55076 -0.092513137 0.13940786 4293792000
3.555531 -0.09252549 0.16002078 4293792000
3.5482574 -0.092224829 0.17990658 4293792000
3.343091 -0.086793058 0.18847373 4293139200
3.5649257 -0.092433363 0.22072619 4293922560
3.5650909 -0.092325531 0.240373 4293922560
3.5434816 -0.091655105 0.25818104 4293792000
3.3571906 -0.086736366 0.26268578 4293139200
3.5851321 -0.092505738 0.29925683 4293922560
3.5762186 -0.092163555 0.3170155 4293922560
3.5787559 -0.092116334 0.33539563 4293922560
3.5288517 -0.090722278 0.34828231 4293792000
3.3044913 -0.08485686 0.34232911 4293008640
3.5834332 -0.091898553 0.38803834 4293922560
3.5761318 -0.09159907 0.40377477 4293922560
3.5525949 -0.090885162 0.41709337 4293922560
3.5111318 -0.089715213 0.42756066 4293792000
3.4499712 -0.088045761 0.43471858 4293530880
3.5752475 -0.091126777 0.4650093 4294053120
3.5819025 -0.091183588 0.47995228 4294053120
3.587687 -0.091217875 0.49427944 4294053120
3.5647068 -0.090522163 0.50403458 4293922560
3.5509095 -0.09006054 0.51437354 4293922560
3.5162952 -0.089073054 0.52095717 4293792000
3.5817997 -0.090617873 0.54180014 4294053120
3.5806532 -0.090476312 0.55217814 4294053120
3.5745549 -0.090210006 0.56113625 4294053120
3.576406 -0.09014421 0.57067406 4294053120
3.5692217 -0.089851104 0.57810009 4294053120
3.5772445 -0.089940362 0.58730668 4294053120
3.565341 -0.089529313 0.59256291 4294053120
3.5554311 -0.089168951 0.59741461 4294053120
3.5549731 -0.089045696 0.60313028 4294053120
3.5366778 -0.08847674 0.60509747 4293922560
3.5507374 -0.088716418 0.61186039 4293922560
3.5353539 -0.088221319 0.6128515 4293922560
3.5496421 -0.08846584 0.61824232 4293922560
3.5443501 -0.088222645 0.61951667 4293922560
3.5578928 -0.088447466 0.62334383 4294053120
3.5439842 -0.087990649 0.62164807 4293922560
3.5341392 -0.087635353 0.61992735 4293922560
3.5517132 -0.087958939 0.62226462 4294053120
3.5430999 -0.087634444 0.61929798 4293922560
3.5469265 -0.087617435 0.61776978 4293922560
3.5611968 -0.087857537 0.61731285 4294053120
3.5632932 -0.087797135 0.61401379 4294053120
3.5629523 -0.087676682 0.60957336 4294053120
3.5662014 -0.087644383 0.60502535 4294053120
3.5729918 -0.087698691 0.60035092 4294053120
3.5736332 -0.087602012 0.59393245 4294053120
3.5649261 -0.087276682 0.58528858 4294053120
3.5572166 -0.086976252 0.57615954 4293922560
3.5400715 -0.086446166 0.56489545 4293922560
3.5509238 -0.086599164 0.55743748 4293922560
3.5518606 -0.086510241 0.5477519 4293922560
3.5758312 -0.086980917 0.54089665 4294053120
3.5656822 -0.086622149 0.52823812 4293922560
3.5553977 -0.086260736 0.51501638 4293922560
3.5206282 -0.084703065 0.4217819 4293792000
3.5569522 -0.085464045 0.41038486 4293922560
3.5709634 -0.085687928 0.3957397 4293922560
3.5395615 -0.084823892 0.37572667 4293792000
3.5143278 -0.084109284 0.35621032 4293792000
3.5400951 -0.084613837 0.34142768 4293792000
3.557164 -0.084909387 0.32521749 4293922560
3.5263076 -0.08406271 0.30436334 4293792000
3.501807 -0.083369106 0.28400037 4293661440
3.5323589 -0.083984435 0.26771921 4293792000
3.5360162 -0.083959982 0.24893631 4293792000
3.5439613 -0.084036864 0.23011339 4293792000
3.5167267 -0.083281107 0.20887864 4293661440
3.5478129 -0.083904728 0.19081922 4293792000
3.5406337 -0.083623677 0.17037839 4293792000
3.5367932 -0.083421737 0.14996982 4293792000
3.5100331 -0.082680792 0.12861176 4293661440
3.5167511 -0.082728125 0.10843334 4293661440
3.5162709 -0.082606152 0.087879464 4293661440
3.4899604 -0.081878893 0.066752404 4293661440
3.4960046 -0.081910461 0.046268791 4293661440
3.4912095 -0.08168833 0.025586357 4293661440
3.5154831 -0.082144931 0.0049541336 4293661440
3.4841402 -0.081303716 -0.015694117 4293530880
3.5110815 -0.081821091 -0.036597472 4293661440
3.5019236 -0.081497669 -0.057175271 4293661440
3.5075772 -0.081518635 -0.07792446 4293661440
3.5009942 -0.081255592 -0.098310135 4293661440
3.5275848 -0.081760928 -0.11965913 4293792000
3.5174565 -0.081415698 -0.13971494 4293661440
3.5308425 -0.081613988 -0.16058804 4293792000
3.5037222 -0.08087752 -0.17935081 4293661440
3.5099223 -0.080909938 -0.19952579 4293661440
3.5183485 -0.080993161 -0.21969786 4293661440
3.5113676 -0.080722079 -0.23867364 4293661440
3.5088346 -0.08055342 -0.25764525 4293661440
3.5318093 -0.080969021 -0.27833441 4293792000
3.5437491 -0.081130832 -0.29803428 4293792000
3.5307438 -0.080722257 -0.31529671 4293792000
3.4684737 -0.079191066 -0.32740811 4293530880
3.5114377 -0.080060244 -0.34904346 4293792000
3.5343578 -0.080470905 -0.3686215 4293792000
3.5243697 -0.08013279 -0.38441148 4293792000
3.5117826 -0.079736359 -0.39938685 4293792000
3.4483776 -0.078189865 -0.40777209 4293530880
3.5419624 -0.080197729 -0.4344669 4293922560
3.5539885 -0.080357805 -0.45109996 4293922560
3.5458086 -0.080061421 -0.46467337 4293922560
3.5329516 -0.079660229 -0.47702673 4293792000
3.5239851 -0.079347342 -0.48928612 4293792000
3.4977906 -0.07864812 -0.49846444 4293792000
3.5085955 -0.078780308 -0.51231062 4293792000
3.5207424 -0.078941882 -0.52585137 4293792000
3.5155466 -0.07871484 -0.53622097 4293792000
3.513006 -0.078547433 -0.54636174 4293792000
3.5030198 -0.078214146 -0.55468166 4293792000
3.499685 -0.07802961 -0.56338573 4293792000
3.4969923 -0.077859573 -0.57153153 4293792000
3.4942393 -0.077688359 -0.57899737 4293792000
3.4758182 -0.077169888 -0.58314866 4293661440
3.4661548 -0.07684651 -0.58804333 4293661440
3.466325 -0.076741189 -0.59391272 4293661440
3.4502254 -0.0762766 -0.59627581 4293661440
3.4445548 -0.076042995 -0.59972292 4293661440
3.387423 -0.074676692 -0.59342259 4293400320
3.3908546 -0.074645542 -0.59700966 4293400320
3.3953867 -0.074638344 -0.60010237 4293400320
3.3901932 -0.074417643 -0.60077387 4293400320
3.3949633 -0.074415408 -0.60251451 4293400320
3.3860738 -0.074114271 -0.60112375 4293400320
3.4426434 -0.075242586 -0.61067277 4293661440
3.4679298 -0.075685471 -0.61393046 4293661440
3.4671311 -0.075558998 -0.61183572 4293661440
3.4712491 -0.07553944 -0.60989594 4293661440
3.4890523 -0.075816646 -0.60963655 4293792000
3.4863062 -0.075647399 -0.60505563 4293792000
3.5071685 -0.075989224 -0.60385418 4293792000
3.5050588 -0.075833343 -0.59796244 4293792000
3.5094926 -0.075818792 -0.59249318 4293792000
3.5028262 -0.075564809 -0.58446574 4293792000
3.4987159 -0.075366236 -0.57621378 4293792000
3.5004368 -0.075293206 -0.56826609 4293792000
3.4859531 -0.074872449 -0.5570606 4293792000
3.4751267 -0.074530959 -0.54586887 4293661440
3.4860497 -0.074655347 -0.53747642 4293792000
3.5064812 -0.074982136 -0.52984661 4293792000
3.5301955 -0.075377658 -0.5219717 4293922560
3.5220337 -0.075092904 -0.50872833 4293792000
3.5046201 -0.074611939 -0.49365911 4293792000
3.4752619 -0.073878475 -0.47651714 4293661440
3.492382 -0.074132219 -0.46527615 4293661440
3.5104465 -0.074404888 -0.45350006 4293792000
3.5172532 -0.074438468 -0.43965605 4293792000
3.4821272 -0.073586576 -0.42018485 4293661440
3.4843705 -0.073524453 -0.40491524 4293661440
3.5190966 -0.074145749 -0.39281783 4293792000
3.532728 -0.07432162 -0.37769887 4293792000
3.5289536 -0.074131452 -0.36024937 4293792000
3.4722984 -0.072833717 -0.33727983 4293661440
3.4986036 -0.073274903 -0.32218659 4293661440
3.4975126 -0.073142231 -0.30407912 4293661440
3.5047834 -0.073184021 -0.28633991 4293661440
3.4835379 -0.072631538 -0.26602215 4293661440
3.5096247 -0.073064543 -0.24902713 4293661440
3.5185153 -0.073138908 -0.23034579 4293661440
3.5114138 -0.072881207 -0.21035333 4293661440
3.4905365 -0.07233882 -0.18946086 4293661440
3.5002797 -0.072430581 -0.17010626 4293661440
3.5083201 -0.072486594 -0.15038636 4293661440
3.5062063 -0.072332889 -0.13003349 4293661440
3.4960649 -0.072014175 -0.10931349 4293661440
3.5133231 -0.072258919 -0.08930859 4293661440
3.5268369 -0.07242579 -0.068934128 4293792000
3.5039406 -0.07184618 -0.04781438 4293661440
3.5115132 -0.071891017 -0.027169442 4293661440
3.5235026 -0.07202556 -0.0064203651 4293661440
3.5211165 -0.071866311 0.014422055 4293661440
3.4919243 -0.07116162 0.034962788 4293661440
3.5344748 -0.071916714 0.056218974 4293792000
3.5593874 -0.072311252 0.077536643 4293792000
3.5624034 -0.072260626 0.098465353 4293792000
3.4898834 -0.070681892 0.11683252 4293661440
3.5594337 -0.071977012 0.13972512 4293792000
3.5590093 -0.071856722 0.16015421 4293792000
3.5537267 -0.071638651 0.18015698 4293792000
3.372489 -0.067883812 0.19008814 4293269760
3.5604136 -0.071549773 0.22042027 4293922560
3.5705559 -0.071641259 0.2407065 4293922560
3.5439551 -0.070996948 0.25818115 4293792000
3.3576388 -0.067163698 0.26268587 4293139200
3.5856099 -0.07160528 0.29925695 4293922560
3.6005974 -0.071791187 0.31912014 4294053120
3.584209 -0.071352318 0.33585924 4293922560
3.52932 -0.070150189 0.34828243 4293792000
3.3148749 -0.065789104 0.34335297 4293139200
3.5888777 -0.071107157 0.38857365 4294053120
3.5863221 -0.070943996 0.4048661 4294053120
3.5621016 -0.070353642 0.41814893 4293922560
3.530453 -0.069618501 0.42984521 4293792000
3.4553854 -0.068031602 0.43534049 4293530880
3.5846412 -0.070460618 0.46616444 4294053120
3.596247 -0.070575543 0.4818027 4294053120
3.5901258 -0.070342831 0.49454951 4294053120
3.5701385 -0.069839597 0.50473362 4294053120
3.5464256 -0.069264933 0.51366013 4293922560
3.5167539 -0.06857571 0.52095729 4293792000
3.5822666 -0.069739044 0.54180026 4294053120
3.5722251 -0.06943161 0.55081254 4294053120
3.5848978 -0.069565013 0.5626806 4294053120
3.571933 -0.069201551 0.56988966 4294053120
3.5746195 -0.069141239 0.57889634 4294053120
3.5688269 -0.06891723 0.58585471 4294053120
3.5855296 -0.069126718 0.59582877 4294053120
3.5706816 -0.068728626 0.59989029 4294053120
3.5554311 -0.068323746 0.60313046 4294053120
3.5545948 -0.068195991 0.60807347 4294053120
3.5413396 -0.067830727 0.61016911 4293922560
3.550586 -0.067896016 0.61540359 4293922560
3.5638885 -0.068038054 0.62063527 4294053120
3.5497286 -0.067656495 0.62037432 4293922560
3.5494828 -0.067540243 0.62179691 4293922560
3.5533004 -0.067501083 0.62319708 4294053120
3.5668123 -0.067645296 0.62555802 4294053120
3.5620143 -0.067442425 0.6239838 4294053120
3.5706444 -0.067493334 0.62401575 4294053120
3.5572276 -0.067128181 0.61947906 4294053120
3.572386 -0.067301519 0.61916721 4294053120
3.5690598 -0.067126684 0.61492646 4294053120
3.5722728 -0.067074671 0.61108524 4294053120
3.5715804 -0.06694933 0.6058585 4294053120
3.5732255 -0.066867717 0.60031492 4294053120
3.57006 -0.066696227 0.59326673 4294053120
3.5752411 -0.066680402 0.5869022 4294053120
3.5724688 -0.066516347 0.57854807 4294053120
3.5592761 -0.066159017 0.56787699 4293922560
3.5550616 -0.065968886 0.55801505 4293922560
3.5671277 -0.066080227 0.55002838 4294053120
3.5872748 -0.066340044 0.54255331 4294053120
3.5759313 -0.066017963 0.52968454 4294053120
3.5607874 -0.065626644 0.51573008 4293922560
3.5309896 -0.06436038 0.42296523 4293792000
3.5659213 -0.064883925 0.41136411 4293922560
3.5884984 -0.065181144 0.39762402 4294053120
3.5519304 -0.064405888 0.37698641 4293922560
3.5241492 -0.063791767 0.35715657 4293792000
3.5540528 -0.064220361 0.34272406 4293922560
3.5625765 -0.064261921 0.32566985 4293922560
3.5366991 -0.063684307 0.30521733 4293792000
3.5112023 -0.063115142 0.28472257 4293661440
3.5403547 -0.063526891 0.26828837 4293792000
3.5396397 -0.063402519 0.24915953 4293792000
3.5443904 -0.063375786 0.23011358 4293792000
3.5119424 -0.062685668 0.20857246 4293661440
3.5453441 -0.063169308 0.19066526 4293792000
3.5527575 -0.063189223 0.17093474 4293792000
3.5487661 -0.063006453 0.15045308 4293792000
3.5249448 -0.062472954 0.12913464 4293792000
3.5361612 -0.062559992 0.10900833 4293792000
3.5406814 -0.062528223 0.088465817 4293792000
3.505373 -0.061794989 0.067031048 4293661440
3.5114186 -0.061790708 0.046459187 4293661440
3.5236237 -0.061894093 0.025803529 4293661440
3.5213292 -0.061742809 0.0049590557 4293661440
3.5029919 -0.06131126 -0.015786914 4293661440
3.5095019 -0.061314385 -0.036575403 4293661440
3.523212 -0.061442491 -0.057526872 4293661440
3.515002 -0.061188668 -0.078083642 4293661440
3.5064051 -0.06092865 -0.098452844 4293661440
3.5329974 -0.06127869 -0.11983094 4293792000
3.5278614 -0.061078485 -0.14011662 4293792000
3.526264 -0.06093967 -0.16035821 4293792000
3.5050454 -0.060462948 -0.17939772 4293661440
3.5243087 -0.060683664 -0.20032692 4293792000
3.5287392 -0.060648579 -0.22032563 4293792000
3.5167658 -0.060332175 -0.23901486 4293661440
3.5182183 -0.060246125 -0.25830832 4293792000
3.5421882 -0.060544342 -0.27912441 4293792000
3.5541244 -0.060636025 -0.29887664 4293922560
3.5311539 -0.060133327 -0.31529647 4293792000
3.4778347 -0.059116915 -0.32825774 4293661440
3.5176117 -0.059681218 -0.34961918 4293792000
3.5310884 -0.059798237 -0.36823601 4293792000
3.5346382 -0.059746843 -0.38549131 4293792000
3.5211279 -0.059407793 -0.40040743 4293792000
3.4587033 -0.058246996 -0.40895048 4293530880
3.5473313 -0.059625655 -0.43507749 4293922560
3.5457685 -0.059487667 -0.45000091 4293922560
3.5481939 -0.05941648 -0.46493337 4293922560
3.5432637 -0.05922237 -0.47836858 4293922560
3.5293391 -0.058878731 -0.48997548 4293792000
3.5169957 -0.058562271 -0.50115228 4293792000
3.522845 -0.058548544 -0.51433867 4293792000
3.5112541 -0.058245543 -0.52437007 4293792000
3.5119059 -0.058145706 -0.53560287 4293792000
3.5084641 -0.05797828 -0.54559124 4293792000
3.5120869 -0.057927437 -0.55605805 4293792000
3.5085413 -0.057758536 -0.56475109 4293792000
3.5072536 -0.057626914 -0.57314801 4293792000
3.4946325 -0.05730978 -0.57899714 4293792000
3.4762087 -0.056898609 -0.58314842 4293661440
3.4764006 -0.056792293 -0.58971947 4293661440
3.4814949 -0.056765798 -0.59645116 4293792000
3.4555371 -0.056234375 -0.59712887 4293661440
3.3972871 -0.055180851 -0.59140658 4293400320
3.3966637 -0.05506384 -0.59497875 4293400320
3.4010785 -0.055028275 -0.59874713 4293530880
3.4006865 -0.054914936 -0.6009742 4293530880
3.4102583 -0.054961983 -0.60427094 4293530880
3.4002612 -0.054694131 -0.6033898 4293530880
3.3953078 -0.054507766 -0.6027 4293400320
3.4479454 -0.055243123 -0.61154765 4293661440
3.4683118 -0.055459894 -0.61393023 4293661440
3.4724355 -0.05541655 -0.61270624 4293661440
3.49034 -0.055592138 -0.61319053 4293792000
3.5042078 -0.055702541 -0.61222363 4293792000
3.4965384 -0.055470895 -0.60676897 4293792000
3.5075517 -0.055535123 -0.60385394 4293792000
3.5052249 -0.055388175 -0.59792525 4293792000
3.5149262 -0.055430807 -0.59334779 4293792000
3.5090382 -0.055227831 -0.58544087 4293792000
3.5093658 -0.055122729 -0.57790917 4293792000
3.5008159 -0.054878652 -0.5682658 4293792000
3.4952154 -0.054681208 -0.55848402 4293792000
3.4799452 -0.054333359 -0.54656839 4293661440
3.4953184 -0.054463282 -0.53885108 4293792000
3.5068583 -0.054532722 -0.52984637 4293792000
3.525629 -0.054713506 -0.52123815 4293792000
3.5236988 -0.054572981 -0.50891459 4293792000
3.5148957 -0.054326508 -0.49505767 4293792000
3.4904916 -0.053840306 -0.47856069 4293661440
3.489778 -0.053719796 -0.46487802 4293661440
3.5157783 -0.054009128 -0.45414245 4293792000
3.526556 -0.054063804 -0.44077581 4293792000
3.4873822 -0.053354703 -0.42077631 4293661440
3.4847395 -0.05320501 -0.40491495 4293661440
3.5194688 -0.053624082 -0.39281753 4293792000
3.5331008 -0.053720672 -0.3776986 4293792000
3.5263379 -0.053507395 -0.35994276 4293792000
3.4776394 -0.052660469 -0.33776519 4293661440
3.5079317 -0.053008497 -0.32301569 4293661440
3.5168049 -0.053032115 -0.3057332 4293792000
3.50403 -0.052729893 -0.28624758 4293661440
3.4878895 -0.05237801 -0.26632833 4293661440
3.5189667 -0.052733697 -0.24966811 4293792000
3.5238702 -0.052696608 -0.23067452 4293792000
3.5169878 -0.0524836 -0.21066767 4293661440
3.4958904 -0.05205965 -0.18973403 4293661440
3.5147104 -0.052229341 -0.17079674 4293661440
3.5155547 -0.052131694 -0.15068413 4293661440
3.5239947 -0.052146226 -0.1306884 4293661440
3.4976435 -0.051647257 -0.10935193 4293661440
3.5267651 -0.051966127 -0.089647613 4293792000
3.5452714 -0.05212732 -0.069296494 4293792000
3.5282793 -0.05176729 -0.048154011 4293792000
3.5287492 -0.051663607 -0.027308723 4293792000
3.5429471 -0.051760159 -0.0064650686 4293792000
3.5567319 -0.051849812 0.014547698 4293792000
3.4934335 -0.050818946 0.034974001 4293661440
3.5565407 -0.051624168 0.056552656 4293792000
3.5660696 -0.051650554 0.077671185 4293922560
3.5768318 -0.05169414 0.098846726 4293922560
3.5052261 -0.050550953 0.11732613 4293661440
3.5647881 -0.051296961 0.13991871 4293922560
3.5683575 -0.051236447 0.16055398 4293922560
3.5636759 -0.051057674 0.18063809 4293922560
3.3728268 -0.048221685 0.19008844 4293269760
3.57075 -0.050935119 0.22103266 4293922560
3.5788972 -0.050939023 0.24124046 4293922560
3.5638609 -0.050613657 0.25959435 4293922560
3.3679419 -0.047729816 0.26345986 4293269760
3.6031084 -0.05094441 0.30067787 4294053120
3.5960605 -0.050732214 0.31868964 4294053120
3.5965233 -0.050626025 0.33697307 4294053120
3.5346441 -0.049645498 0.34877071 4293792000
3.3052549 -0.046324886 0.34232953 4293008640
3.5942016 -0.05025544 0.3891091 4294053120
3.5968287 -0.050179377 0.40600654 4294053120
3.5713892 -0.049713042 0.41919297 4293922560
3.5307982 -0.049038179 0.42984554 4293792000
3.3895497 -0.04697312 0.42704651 4293400320
3.5968866 -0.04972912 0.46770436 4294053120
3.5963795 -0.049609344 0.48177406 4294053120
3.6003807 -0.04955155 0.49590823 4294053120
3.5803859 -0.049164485 0.50612748 4294053120
3.5439525 -0.048553783 0.5132544 4293922560
3.5358884 -0.048332557 0.52372956 4293922560
3.5874782 -0.048924122 0.54253352 4294053120
3.5913467 -0.048864119 0.55369616 4294053120
3.5852418 -0.048668683 0.56268096 4294053120
3.5841129 -0.048540905 0.57177097 4294053120
3.5798969 -0.048371539 0.57969278 4294053120
3.5879169 -0.048367117 0.58892059 4294053120
3.5809386 -0.048160773 0.59501272 4294053120
3.5798967 -0.048034385 0.601376 4294053120
3.5705576 -0.047797147 0.60562974 4294053120
3.5746453 -0.047739528 0.61143321 4294053120
3.5603988 -0.047437727 0.61338317 4294053120
3.5548623 -0.047252405 0.6160844 4294053120
3.564224 -0.047264677 0.62063563 4294053120
3.5540025 -0.047017671 0.62106073 4294053120
3.558681 -0.046967637 0.62334436 4294053120
3.558558 -0.046854168 0.62405795 4294053120
3.5447693 -0.046561476 0.62164885 4293922560
3.5672715 -0.04674444 0.6248436 4294053120
3.5625966 -0.046571258 0.6225571 4294053120
3.5674098 -0.046521898 0.62118858 4294053120
3.5718312 -0.046467129 0.61901462 4294053120
3.5782595 -0.046438068 0.61644912 4294053120
3.5726025 -0.046252374 0.61108559 4294053120
3.5857127 -0.046309017 0.60819125 4294053120
3.5686228 -0.045976344 0.59949011 4294053120
3.5797608 -0.046006948 0.59481859 4294053120
3.5804255 -0.045902774 0.58769673 4294053120
3.5683544 -0.04563592 0.57783216 4294053120
3.5650909 -0.045481998 0.56874973 4294053120
3.5589137 -0.045291245 0.55856699 4293922560
3.5818415 -0.045469753 0.55223829 4294053120
3.6014428 -0.045604754 0.5446384 4294053120
3.5910931 -0.04536077 0.53187335 4294053120
3.5711286 -0.04499647 0.51717526 4294053120
3.5503871 -0.044013139 0.42523947 4293922560
3.5751791 -0.044207245 0.41239035 4293922560
3.5937865 -0.044323616 0.39817202 4294053120
3.5572171 -0.043761112 0.37751144 4293922560
3.5383892 -0.043418247 0.35855997 4293792000
3.5543661 -0.043501843 0.34272441 4293922560
3.5636837 -0.043503262 0.3257423 4293922560
3.5469725 -0.04318767 0.30607152 4293792000
3.5264606 -0.042827047 0.28592631 4293792000
3.54565 -0.042947814 0.26866361 4293792000
3.5606937 -0.043017361 0.25060797 4293922560
3.5541804 -0.042826623 0.23072398 4293792000
3.5267811 -0.042385686 0.20942748 4293792000
3.5606294 -0.04267941 0.19146252 4293792000
3.5530651 -0.042476721 0.17093512 4293792000
3.5510833 -0.04234096 0.15053757 4293792000
3.5397367 -0.042094134 0.1296576 4293792000
3.5450504 -0.042045288 0.10926856 4293792000
3.5350657 -0.041815441 0.088321567 4293792000
3.5241756 -0.041575558 0.067374982 4293661440
3.5237205 -0.041458927 0.046611775 4293661440
3.5280108 -0.041397911 0.025831623 4293792000
3.5278893 -0.041285079 0.0049648881 4293792000
3.4942901 -0.040782195 -0.01574114 4293661440
3.5188851 -0.04095763 -0.036674529 4293661440
3.5235097 -0.040900093 -0.05752648 4293661440
3.529294 -0.040855665 -0.078401446 4293792000
3.5067003 -0.04048381 -0.098452456 4293661440
3.5282974 -0.040621292 -0.11965852 4293792000
3.5371492 -0.040611327 -0.14047791 4293792000
3.5355489 -0.040481329 -0.16077115 4293792000
3.505338 -0.040025309 -0.17939733 4293661440
3.5156176 -0.040031467 -0.19981137 4293661440
3.5240426 -0.040015958 -0.22001125 4293792000
3.5074749 -0.039717395 -0.23835854 4293661440
3.5135233 -0.039674826 -0.25793943 4293661440
3.5424807 -0.039889403 -0.27912399 4293792000
3.5453632 -0.039809868 -0.2981106 4293792000
3.5449607 -0.039693441 -0.31650931 4293792000
3.4930518 -0.039002933 -0.32967377 4293661440
3.5328243 -0.039334733 -0.35110909 4293792000
3.5413215 -0.039317399 -0.36927724 4293792000
3.5309501 -0.039091002 -0.38505548 4293792000
3.5214143 -0.038874477 -0.40040702 4293792000
3.4589837 -0.038077321 -0.40895006 4293530880
3.5528796 -0.038997006 -0.43572468 4293922560
3.555974 -0.038918719 -0.4512637 4293922560
3.5574024 -0.038822096 -0.466106 4293922560
3.5435486 -0.038559388 -0.47836816 4293922560
3.5287318 -0.038287137 -0.48985109 4293792000
3.5143039 -0.03802003 -0.50072694 4293792000
3.5195751 -0.037965968 -0.5138182 4293792000
3.517873 -0.037836719 -0.5253191 4293792000
3.5309656 -0.037865967 -0.53847468 4293922560
3.5275142 -0.037717823 -0.54851794 4293922560
3.5222404 -0.037550516 -0.55762535 4293792000
3.5186899 -0.03740184 -0.56634378 4293792000
3.5164108 -0.037266858 -0.5746026 4293792000
3.5097034 -0.037085325 -0.58145434 4293792000
3.4902864 -0.036770575 -0.58546966 4293792000
3.4679523 -0.036426477 -0.58823621 4293661440
3.4606071 -0.036240485 -0.59281695 4293661440
3.4597468 -0.036122557 -0.59781116 4293661440
3.4074016 -0.035469756 -0.59312516 4293530880
3.4117 -0.035407025 -0.59757233 4293530880
3.4151275 -0.035335049 -0.60117954 4293530880
3.4147332 -0.035223529 -0.60341561 4293530880
3.4105206 -0.035072852 -0.60427052 4293530880
3.4054446 -0.034913626 -0.60426497 4293530880
3.4054124 -0.034806196 -0.6044513 4293530880
3.4619915 -0.035274528 -0.61399758 4293661440
3.4484215 -0.035028096 -0.61035395 4293661440
3.4815612 -0.03525465 -0.61427313 4293792000
3.4906044 -0.035236344 -0.61319011 4293792000
3.5044727 -0.035265956 -0.61222315 4293792000
3.5105944 -0.035217151 -0.60916764 4293792000
3.5123205 -0.035124101 -0.60463089 4293792000
3.5192871 -0.035083104 -0.60028434 4293922560
3.5201192 -0.034980845 -0.59418154 4293922560
3.5181766 -0.034851119 -0.58692503 4293922560
3.5145602 -0.034705032 -0.57872313 4293792000
3.501076 -0.034462243 -0.56826538 4293792000
3.4915252 -0.034258835 -0.55785084 4293792000
3.4895878 -0.034130372 -0.54804599 4293792000
3.5010128 -0.034132075 -0.53969109 4293792000
3.5170031 -0.034177355 -0.53134388 4293792000
3.5397358 -0.034286842 -0.52329087 4293922560
3.5378118 -0.034157302 -0.51092106 4293922560
3.5102017 -0.033781182 -0.49435782 4293792000
3.4855754 -0.033435371 -0.4778491 4293661440
3.499943 -0.033463228 -0.46620226 4293792000
3.5209913 -0.033553746 -0.45478466 4293792000
3.5330629 -0.033557858 -0.44155955 4293792000
3.4925973 -0.033064816 -0.42137697 4293661440
3.4947047 -0.032975253 -0.4060477 4293661440
3.5211232 -0.033113759 -0.39297417 4293792000
3.5341458 -0.033125311 -0.37778318 4293792000
3.5365369 -0.033036936 -0.36096224 4293792000
3.481868 -0.032418199 -0.33815324 4293661440
3.5090899 -0.032561295 -0.32309937 4293661440
3.5031078 -0.032396227 -0.30451372 4293661440
3.5092607 -0.032343172 -0.28665656 4293661440
3.4881353 -0.03203968 -0.26632786 4293661440
3.5192139 -0.032214448 -0.24966763 4293792000
3.5327966 -0.032227986 -0.23124646 4293792000
3.5312078 -0.032103024 -0.21151114 4293792000
3.5011265 -0.031720541 -0.190007 4293661440
3.5189497 -0.031771608 -0.17099242 4293661440
3.5307839 -0.031767786 -0.15133356 4293792000
3.5292346 -0.031643473 -0.13087575 4293792000
3.5113759 -0.031373829 -0.10978024 4293661440
3.535594 -0.031479195 -0.089869827 4293792000
3.539392 -0.031402238 -0.069173165 4293792000
3.5394182 -0.031291768 -0.048307996 4293792000
3.5339897 -0.031133344 -0.027349588 4293792000
3.5467775 -0.031134851 -0.0064730472 4293792000
3.5464144 -0.031020759 0.014510645 4293792000
3.5215132 -0.030693252 0.035237942 4293661440
3.5703681 -0.031006549 0.056761805 4293922560
3.5753942 -0.030938298 0.077864572 4293922560
3.5849814 -0.030908976 0.099061452 4293922560
3.4521132 -0.029657742 0.11557111 4293530880
3.5668216 -0.030529622 0.13998868 4293922560
3.5785849 -0.030518185 0.16099831 4293922560
3.5738997 -0.030366536 0.18113914 4293922560
3.3730502 -0.028557923 0.1900889 4293269760
3.5780704 -0.030178078 0.22146763 4293922560
3.5912261 -0.030176479 0.24204913 4293922560
3.5595016 -0.0297991 0.25926295 4293922560
3.3721502 -0.028128378 0.26376981 4293269760
3.6033437 -0.029939931 0.30067837 4294053120
3.6102402 -0.029884165 0.3199178 4294053120
3.6021616 -0.029704722 0.33747676 4294053120
3.534873 -0.029040361 0.34877121 4293792000
3.3054683 -0.027056215 0.34233001 4293008640
3.6019785 -0.029365053 0.38992193 4294053120
3.6010346 -0.029244663 0.40645334 4294053120
3.5735037 -0.028909681 0.41941369 4293922560
3.5359871 -0.028496107 0.43044722 4293792000
3.4797556 -0.027934952 0.43832588 4293661440
3.6060402 -0.028833635 0.46885991 4294053120
3.6156571 -0.028797135 0.48431468 4294183680
3.6006079 -0.028564747 0.49590874 4294053120
3.5944743 -0.02840359 0.50807887 4294053120
3.5530822 -0.027965881 0.51453924 4293922560
3.5499594 -0.027830115 0.52577257 4293922560
3.5975902 -0.028089968 0.54402316 4294053120
3.6002488 -0.027997835 0.55502921 4294053120
3.5980501 -0.027867975 0.56464869 4294053120
3.5942101 -0.027725603 0.57334059 4294053120
3.5893919 -0.027575953 0.5811891 4294053120
3.5872502 -0.027447021 0.58877611 4294053120
3.5811729 -0.027288279 0.5950157 4294053120
3.5717254 -0.027104378 0.59997255 4294053120
3.5757051 -0.027022298 0.60646325 4294053120
3.5662696 -0.026839213 0.60996956 4294053120
3.5753977 -0.026795514 0.6159209 4294053120
3.5698578 -0.026641995 0.61863685 4294053120
3.578232 -0.026591977 0.62302893 4294053120
3.5739188 -0.026447734 0.62449133 4294053120
3.5638192 -0.026261194 0.6242044 4294053120
3.5636954 -0.026148297 0.62491894 4294053120
3.5538456 -0.025964489 0.62319827 4294053120
3.5763488 -0.026016101 0.62639123 4294053120
3.5815251 -0.025941059 0.62581623 4294053120
3.5764873 -0.025792176 0.62272733 4294053120
3.5818949 -0.025718417 0.62071645 4294053120
3.5784688 -0.025581291 0.61644965 4294053120
3.5886693 -0.025541117 0.61378831 4294053120
3.580569 -0.025370903 0.60728747 4294053120
3.5930519 -0.025346044 0.60354388 4294053120
3.5947659 -0.025244921 0.5972684 4294053120
3.5954349 -0.02513638 0.59011745 4294053120
3.5873165 -0.02496676 0.58085793 4294053120
3.5741835 -0.024762966 0.57016253 4294053120
3.5788765 -0.024682634 0.561656 4294053120
3.5869873 -0.024625393 0.55299759 4294053120
3.6016471 -0.02461227 0.54463899 4294053120
3.5953391 -0.024455914 0.53247011 4294053120
3.5989199 -0.024366729 0.52115393 4294053120
3.5505829 -0.023317069 0.42524004 4293922560
3.580343 -0.023398994 0.41296083 4293922560
3.5957694 -0.023386028 0.39836937 4294053120
3.5643692 -0.023069741 0.37824616 4293922560
3.5291891 -0.022731138 0.35761446 4293792000
3.5608537 -0.022822097 0.34332815 4293922560
3.5738351 -0.022792187 0.32664722 4293922560
3.5511489 -0.022535661 0.30641359 4293792000
3.5356209 -0.022325642 0.28664887 4293792000
3.5522323 -0.022318009 0.26914477 4293792000
3.5748494 -0.022346765 0.25158334 4293922560
3.5543692 -0.022106715 0.23072454 4293792000
3.540385 -0.021908039 0.21021698 4293792000
3.5558243 -0.02189092 0.19119745 4293792000
3.570821 -0.02187011 0.17177096 4293922560
3.5612607 -0.021699103 0.15095605 4293792000
3.5399215 -0.021457478 0.12965818 4293792000
3.5489318 -0.021399725 0.10938103 4293792000
3.5491204 -0.02128862 0.088661037 4293792000
3.528357 -0.021052809 0.067449808 4293792000
3.5229888 -0.020909442 0.046600766 4293661440
3.5281918 -0.020828648 0.025832197 4293792000
3.5380695 -0.020774897 0.0049741613 4293792000
3.4996872 -0.020439427 -0.015766891 4293661440
3.5190637 -0.020440979 -0.036673956 4293661440
3.5286872 -0.020385111 -0.057610147 4293792000
3.5344706 -0.020306634 -0.078514516 4293792000
3.5158727 -0.020088863 -0.098709121 4293661440
3.5244763 -0.020026406 -0.11952033 4293661440
3.5473173 -0.020043636 -0.14087921 4293792000
3.540719 -0.019894468 -0.16100019 4293792000
3.5144992 -0.019636391 -0.17986125 4293661440
3.5297678 -0.019609829 -0.20061211 4293792000
3.5293295 -0.019495787 -0.22033244 4293792000
3.5176229 -0.019320061 -0.23904082 4293661440
3.5245779 -0.019246699 -0.25874311 4293792000
3.5534158 -0.019291373 -0.27997661 4293792000
3.5505168 -0.019163424 -0.29853129 4293792000
3.5501115 -0.019049007 -0.31695569 4293792000
3.4981971 -0.018660652 -0.33014533 4293661440
3.5293128 -0.018714597 -0.350741 4293792000
3.5514357 -0.018719323 -0.37031829 4293922560
3.5400641 -0.018547682 -0.38603461 4293792000
3.5364838 -0.018417228 -0.40210778 4293792000
3.4680839 -0.017952479 -0.41001022 4293661440
3.5616798 -0.018323014 -0.43678674 4293922560
3.5660598 -0.018232841 -0.45252633 4293922560
3.5575681 -0.018077193 -0.4661054 4293922560
3.5536222 -0.017944986 -0.47970963 4293922560
3.5328565 -0.017728891 -0.49040219 4293922560
3.5194151 -0.017550539 -0.50143373 4293792000
3.5296307 -0.017489919 -0.51526636 4293922560
3.5229785 -0.017345879 -0.52605903 4293792000
3.5232146 -0.017235871 -0.53726423 4293792000
3.528585 -0.017150745 -0.54865932 4293922560
3.5180137 -0.016988559 -0.55692863 4293792000
3.5237839 -0.016905213 -0.56713974 4293922560
3.5120232 -0.016738236 -0.57385743 4293792000
3.5009964 -0.016575484 -0.57998163 4293792000
3.4867759 -0.016398476 -0.58485264 4293792000
3.4828932 -0.016270526 -0.5907501 4293792000
3.4568172 -0.016040199 -0.59213936 4293661440
3.4082892 -0.015708402 -0.58887124 4293530880
3.4164162 -0.015638147 -0.59467167 4293530880
3.4207125 -0.015550048 -0.59912813 4293530880
3.4300468 -0.01548437 -0.60378551 4293530880
3.4345737 -0.01539665 -0.60690331 4293530880
3.4342968 -0.015287359 -0.60846663 4293530880
3.4193735 -0.015113595 -0.60671598 4293530880
3.4193408 -0.015005916 -0.60690302 4293530880
3.467061 -0.015105607 -0.6148721 4293661440
3.45349 -0.014938123 -0.6112268 4293661440
3.4789052 -0.014938346 -0.61377692 4293792000
3.4858263 -0.014858438 -0.61232239 4293792000
3.4997084 -0.014807473 -0.61136276 4293792000
3.5156658 -0.014764345 -0.6100238 4293922560
3.5223196 -0.014681598 -0.60633075 4293922560
3.5194316 -0.014559124 -0.60028368 4293922560
3.521172 -0.014455792 -0.59433472 4293922560
3.5281827 -0.014373769 -0.58857387 4293922560
3.5235825 -0.01424456 -0.58018839 4293922560
3.5110872 -0.01408411 -0.56987095 4293792000
3.495615 -0.013912661 -0.55848294 4293792000
3.4996054 -0.013818774 -0.54960102 4293792000
3.4912696 -0.013676554 -0.53816277 4293792000
3.5229886 -0.013689952 -0.53222901 4293792000
3.5309727 -0.01361024 -0.52197033 4293922560
3.5376523 -0.01352508 -0.51087725 4293922560
3.5152895 -0.013329812 -0.4950566 4293792000
3.4948442 -0.013143149 -0.47910464 4293792000
3.5089989 -0.013086327 -0.46739385 4293792000
3.5250938 -0.013035787 -0.45529816 4293792000
3.5381594 -0.012973196 -0.44218117 4293792000
3.5026579 -0.012733932 -0.42257857 4293792000
3.4948373 -0.01259628 -0.40604708 4293661440
3.5302 -0.012612814 -0.39397582 4293792000
3.5392501 -0.012534337 -0.37831622 4293792000
3.5505962 -0.012463339 -0.3623895 4293922560
3.4825544 -0.012116569 -0.33820698 4293661440
3.5092199 -0.012099266 -0.32309872 4293661440
3.5171835 -0.012016679 -0.3057321 4293792000
3.5154927 -0.011901061 -0.28715742 4293661440
3.4838352 -0.011685471 -0.26598701 4293661440
3.5293162 -0.011727109 -0.25037947 4293792000
3.5379133 -0.011645027 -0.2315748 4293792000
3.5363255 -0.011529354 -0.21181189 4293792000
3.5237246 -0.011378382 -0.19123724 4293792000
3.5240688 -0.011269424 -0.17123693 4293792000
3.5359039 -0.01119668 -0.15154952 4293792000
3.5383525 -0.011093904 -0.13121319 4293792000
3.5070026 -0.010886535 -0.10963668 4293661440
3.5307188 -0.010849583 -0.089739531 4293792000
3.5495126 -0.010796252 -0.069373101 4293792000
3.5445397 -0.010670529 -0.048378188 4293792000
3.5391107 -0.010543768 -0.027390264 4293792000
3.5558982 -0.01048254 -0.0064935922 4293792000
3.5665343 -0.010402408 0.01458242 4293792000
3.5266318 -0.010176471 0.035285916 4293661440
3.5781856 -0.010212827 0.056880698 4293922560
3.5890996 -0.010131787 0.078153737 4293922560
3.5971086 -0.010041993 0.099387385 4293922560
3.5295634 -0.0097441375 0.1181166 4293792000
3.5751357 -0.0097577171 0.1403065 4293922560
3.5836966 -0.0096690832 0.16122094 4293922560
3.5879982 -0.0095686065 0.18184061 4293922560
3.3771527 -0.0089036636 0.19031222 4293269760
3.5868676 -0.0093416106 0.22200075 4293922560
3.604188 -0.0092739407 0.24290836 4294053120
3.5885389 -0.0091218119 0.26135355 4293922560
3.3921964 -0.0085193627 0.26531783 4293269760
3.6105306 -0.0089518838 0.30126524 4294053120
3.6162431 -0.0088530099 0.32043701 4294053120
3.6108079 -0.0087269694 0.33827204 4294053120
3.544934 -0.0084578553 0.34974784 4293792000
3.3155169 -0.0078099188 0.34335437 4293139200
3.602088 -0.0083683301 0.38992265 4294053120
3.6105826 -0.008275101 0.40751374 4294053120
3.5970573 -0.008131831 0.42215186 4294053120
3.55778 -0.0079323109 0.43307447 4293922560
3.4699366 -0.0076291002 0.43708298 4293661440
3.6091254 -0.0078203827 0.46924606 4294053120
3.6207194 -0.0077320989 0.4849762 4294183680
3.6076605 -0.0075915102 0.49686202 4294053120
3.6084268 -0.0074801994 0.51002842 4294053120
3.5807452 -0.0073111025 0.51851368 4294053120
3.5599539 -0.0071574794 0.52723217 4293922560
3.6026366 -0.0071299458 0.54476839 4294053120
3.6052926 -0.0070222649 0.5557887 4294183680
3.608031 -0.0069145504 0.56619364 4294183680
3.603199 -0.0067924657 0.57475352 4294183680
3.5993638 -0.0066724936 0.58278203 4294183680
3.5912964 -0.0065450775 0.58942217 4294053120
3.5960696 -0.0064409766 0.59746569 4294183680
3.580699 -0.0063013569 0.60145861 4294053120
3.5896056 -0.0062043285 0.60879636 4294053120
3.5663652 -0.0060525653 0.60997027 4294053120
3.5656369 -0.0059394459 0.61423016 4294053120
3.5710895 -0.0058363681 0.61883396 4294053120
3.5705955 -0.0057234634 0.62168872 4294053120
3.5702233 -0.0056107505 0.62383252 4294053120
3.5650485 -0.0054906975 0.62440354 4294053120
3.5775778 -0.0053974278 0.62732905 4294053120
3.5736377 -0.0052792192 0.62664092 4294053120
3.5688374 -0.005159996 0.62506545 4294053120
3.576689 -0.0050587826 0.62495947 4294053120
3.5913558 -0.0049663857 0.62529182 4294183680
3.5908523 -0.0048527252 0.62224829 4294053120
3.5933406 -0.0047429786 0.61898756 4294183680
3.601486 -0.0046402654 0.61595798 4294183680
3.5954461 -0.004519355 0.60978717 4294183680
3.6024492 -0.0044146199 0.60510266 4294183680
3.5992897 -0.0042974055 0.59800369 4294183680
3.6044018 -0.0041898759 0.59157038 4294183680
3.5923369 -0.0040627802 0.58165479 4294053120
3.5930312 -0.0039502885 0.57314461 4294053120
3.5793822 -0.0038225839 0.56172287 4294053120
3.5914583 -0.0037220598 0.55367219 4294053120
3.6154501 -0.0036325757 0.54670602 4294183680
3.6003666 -0.0035039964 0.53320032 4294053120
3.580195 -0.0033716129 0.51844323 4294053120
3.5554054 -0.0026236528 0.4258064 4293922560
3.5777593 -0.0025267864 0.41265652 4293922560
3.5975459 -0.0024267859 0.39855763 4294053120
3.5754275 -0.0022990715 0.37940598 4293922560
3.5441856 -0.002167267 0.35911843 4293792000
3.5789304 -0.0020748887 0.34505409 4293922560
3.6009986 -0.0019734988 0.32910809 4294053120
3.5512195 -0.001834443 0.30641434 4293792000
3.5356905 -0.001714719 0.28664961 4293792000
3.5648556 -0.0016156879 0.27008939 4293922560
3.5749185 -0.0015069713 0.25158408 4293922560
3.5684085 -0.001391339 0.23162414 4293922560
3.5504348 -0.0012721347 0.21080475 4293792000
3.5885439 -0.0011717109 0.19293536 4293922560
3.575882 -0.0010544887 0.17200917 4293922560
3.564311 -0.00093833258 0.15108165 4293922560
3.5490584 -0.0008220906 0.12998614 4293792000
3.5579917 -0.00071135786 0.10965406 4293792000
3.5553062 -0.00059823366 0.088811368 4293792000
3.5334184 -0.00048287524 0.06754338 4293792000
3.5380495 -0.00037136971 0.046791729 4293792000
3.5472524 -0.00025984817 0.025961777 4293792000
3.5458694 -0.00014742391 0.004981657 4293792000
3.5037465 -3.5156248e-05 -0.015786307 4293661440
3.5231228 7.6500583e-05 -0.036717001 4293661440
3.5387444 0.00018914061 -0.057777874 4293792000
3.5445261 0.00030181755 -0.078741029 4293792000
3.5159297 0.00041044515 -0.098708361 4293661440
3.5398252 0.00052566157 -0.120046 4293792000
3.5534928 0.00064042694 -0.14112455 4293792000
3.5501592 0.00075225584 -0.16143087 4293792000
3.519547 0.00085691141 -0.18011853 4293661440
3.5361128 0.00097314839 -0.20097202 4293792000
3.5443535 0.0010877767 -0.22127363 4293792000
3.5316429 0.0011955861 -0.23999608 4293792000
3.5296164 0.0013066592 -0.25911081 4293792000
3.5634363 0.0014324093 -0.28076604 4293922560
3.5615256 0.001544391 -0.29945704 4293922560
3.5551422 0.0016541084 -0.31740186 4293922560
3.4868274 0.0017319353 -0.32906145 4293661440
3.5519483 0.0018774603 -0.35299543 4293922560
3.5554626 0.0019918841 -0.37073418 4293922560
3.5450821 0.0020981347 -0.38657811 4293792000
3.5220196 0.0021956631 -0.40045041 4293792000
3.4780598 0.0022777915 -0.41118804 4293661440
3.5617259 0.0024461972 -0.43678594 4293922560
3.5661054 0.00256203 -0.45252553 4293922560
3.5625701 0.0026720953 -0.46675631 4293922560
3.5514259 0.0027758845 -0.47940543 4293922560
3.542804 0.0028810271 -0.49178061 4293922560
3.5244071 0.0029772366 -0.50214034 4293792000
3.519778 0.0030844794 -0.51381683 4293792000
3.5368652 0.0032113642 -0.52813172 4293922560
3.5331402 0.0033195191 -0.53877509 4293922560
3.5424576 0.0034402234 -0.55081534 4293922560
3.5318797 0.0035413217 -0.55912262 4293922560
3.5257845 0.0036464115 -0.56745553 4293922560
3.5219295 0.0037535022 -0.57547331 4293922560
3.5197766 0.0038622082 -0.58309388 4293922560
3.5016043 0.003952492 -0.58733934 4293792000
3.4918013 0.0040514041 -0.59225804 4293792000
3.4805055 0.0041478747 -0.59620053 4293792000
3.4221172 0.0041854787 -0.59125984 4293530880
3.4361513 0.0043110466 -0.59810877 4293530880
3.4394586 0.0044235527 -0.60241306 4293661440
3.3594723 0.0044255652 -0.59132576 4293400320
3.3590834 0.0045307796 -0.59352535 4293400320
3.363735 0.0046429541 -0.59592861 4293400320
3.4381099 0.0048546093 -0.61004239 4293661440
3.4341381 0.004956957 -0.60952979 4293530880
3.4194584 0.0050431136 -0.60640389 4293530880
3.467303 0.0052231839 -0.6136716 4293661440
3.4877956 0.0053638681 -0.61534345 4293792000
3.4871173 0.005472356 -0.61254412 4293792000
3.5145104 0.0056260056 -0.61394918 4293922560
3.5160809 0.0057389205 -0.61009061 4293922560
3.5262871 0.0058663599 -0.60701013 4293922560
3.5293133 0.0059821624 -0.60196829 4293922560
3.5300701 0.0060941814 -0.59583545 4293922560
3.5282063 0.0062015834 -0.5885731 4293922560
3.5334718 0.0063216672 -0.58181638 4293922560
3.5209796 0.0064095384 -0.57147634 4293922560
3.5055106 0.0064910534 -0.5600639 4293792000
3.5045655 0.0065990719 -0.55037802 4293792000
3.5061138 0.0067118015 -0.54045343 4293792000
3.5269632 0.006862354 -0.53282738 4293922560
3.5448406 0.0070082759 -0.5240227 4293922560
3.5465779 0.0071227085 -0.51216662 4293922560
3.525209 0.0071898573 -0.4964546 4293792000
3.5097213 0.0072678835 -0.48114762 4293792000
3.5189273 0.0073970784 -0.46871772 4293792000
3.5399852 0.0075522307 -0.45722532 4293922560
3.5282526 0.0076373587 -0.44093585 4293792000
3.5165708 0.0077218427 -0.42426088 4293792000
3.5087569 0.0078142285 -0.40766829 4293792000
3.5351822 0.0079837767 -0.39453179 4293792000
3.5442343 0.0081150001 -0.37884909 4293792000
3.5555823 0.0082521196 -0.36289865 4293922560
3.4974947 0.0082259104 -0.33966309 4293661440
3.5241668 0.0083989175 -0.32448021 4293792000
3.5184898 0.0084951399 -0.30584458 4293792000
3.5244718 0.0086196214 -0.28789359 4293792000
3.5037851 0.0086781383 -0.26751846 4293661440
3.5302351 0.0088540437 -0.2504437 4293792000
3.5392194 0.0089870598 -0.23165959 4293792000
3.5361135 0.0090894261 -0.21179782 4293792000
3.5052519 0.0091190999 -0.19022427 4293661440
3.5240746 0.009278141 -0.1712361 4293792000
3.5309136 0.0094063031 -0.15133204 4293792000
3.5383568 0.009536515 -0.13121234 4293792000
3.5115025 0.0095733386 -0.10977873 4293661440
3.5357201 0.0097498149 -0.089868315 4293792000
3.5545139 0.0099126156 -0.069472551 4293792000
3.5495408 0.01000933 -0.048448194 4293792000
3.5391116 0.010090122 -0.027389409 4293792000
3.5508988 0.010234509 -0.0064809476 4293792000
3.570534 0.010402569 0.014597503 4293922560
3.5266309 0.010384144 0.035286769 4293661440
3.5744858 0.010636915 0.05682477 4293922560
3.5995059 0.010823787 0.078375615 4293922560
3.594094 0.010919474 0.099306688 4293922560
3.5335577 0.01084511 0.11824901 4293792000
3.5909164 0.011133625 0.14091809 4293922560
3.5996726 0.011273054 0.16193183 4293922560
3.5833929 0.011333616 0.18161096 4293922560
3.3971159 0.010848602 0.19142637 4293269760
3.6040316 0.01162379 0.22305462 4294053120
3.6071773 0.011746428 0.24310951 4294053120
3.5981114 0.011829013 0.26204666 4294053120
3.3921883 0.0112559 0.26531866 4293269760
3.6254697 0.012145335 0.30250478 4294053120
3.6233261 0.01225115 0.3210623 4294053120
3.6187501 0.012348524 0.33901331 4294053120
3.5335073 0.012167109 0.3486293 4293792000
3.3393795 0.011601051 0.34581217 4293139200
3.6143281 0.012671745 0.39124259 4294053120
3.6160364 0.012790623 0.40812841 4294053120
3.592469 0.012819205 0.42161867 4294053120
3.5549405 0.012795956 0.43273321 4293922560
3.4848053 0.012651701 0.43894923 4293661440
3.6140678 0.013235101 0.46988863 4294053120
3.6207025 0.013372588 0.4849771 4294183680
3.6215134 0.013488769 0.49876466 4294183680
3.6084087 0.013552637 0.51002932 4294053120
3.5906241 0.013597948 0.51994163 4294053120
3.5549884 0.013573852 0.52650362 4293922560
3.6115162 0.013903177 0.5461095 4294183680
3.6153727 0.014031182 0.55734038 4294183680
3.6181471 0.014155215 0.567779 4294183680
3.6130528 0.014248352 0.57632357 4294183680
3.608824 0.014344648 0.58431238 4294183680
3.6069636 0.01445022 0.59198833 4294183680
3.5999918 0.014535026 0.59811974 4294183680
3.6038587 0.014663624 0.60533899 4294183680
3.5994406 0.014758455 0.61046326 4294183680
3.5761974 0.014775101 0.61165088 4294053120
3.5892646 0.014941799 0.61829054 4294053120
3.5787938 0.015010419 0.62016964 4294053120
3.5980036 0.015204097 0.62644887 4294183680
3.5877759 0.015273442 0.62689406 4294053120
3.5875249 0.015385052 0.6283316 4294053120
3.5824735 0.015475903 0.62819046 4294053120
3.5775476 0.01556702 0.62733024 4294053120
3.5961103 0.015761008 0.6298309 4294183680
3.591435 0.015853424 0.62753296 4294183680
3.5913234 0.015965909 0.62529272 4294183680
3.5908191 0.016076662 0.62224925 4294053120
3.6021771 0.016241001 0.62051082 4294183680
3.6063805 0.016373549 0.61679876 4294183680
3.6047072 0.016479481 0.61135882 4294183680
3.6122763 0.016627964 0.606754 4294183680
3.6081324 0.016722575 0.59947425 4294183680
3.6044419 0.01681908 0.59158391 4294183680
3.591804 0.01687328 0.58157587 4294053120
3.5890424 0.016973505 0.57251787 4294053120
3.5793433 0.017040506 0.56172383 4294053120
3.5963607 0.017235184 0.55443192 4294053120
3.6243091 0.017483789 0.54804713 4294183680
3.6092291 0.017524909 0.53451431 4294183680
3.5951223 0.017569873 0.52060246 4294053120
3.5648522 0.018149354 0.42693835 4293922560
3.5956817 0.018420368 0.4147191 4294053120
3.6097126 0.018606633 0.3999044 4294053120
3.5783176 0.018557856 0.3797169 4293922560
3.5630419 0.018591352 0.36102349 4293922560
3.5788813 0.018787494 0.34505501 4293922560
3.5877998 0.018948052 0.32791501 4293922560
3.5572712 0.018899301 0.30693814 4293922560
3.5545788 0.01899763 0.28817481 4293792000
3.5711966 0.019199779 0.27057093 4293922560
3.5761645 0.019339902 0.25167564 4293922560
3.5831058 0.019491106 0.23257406 4293922560
3.555373 0.019452775 0.21109918 4293792000
3.5884893 0.01974804 0.19293632 4293922560
