# .PCD v0.7 - Point Cloud Data file format
VERSION 0.7
FIELDS x y z rgba
SIZE 4 4 4 4
TYPE F F F U
COUNT 1 1 1 1
WIDTH 1128
HEIGHT 1
VIEWPOINT 0 0 0 1 0 0 0
POINTS 1128
DATA ascii
1.6253959 1.1541412 0.086476855 4288569600
1.5434878 1.0960538 0.07121484 4288308480
1.6773683 1.1912036 0.065457627 4288830720
2.4841244 1.7642487 0.079160608 4292094720
2.6526377 1.8840538 0.065452419 4292878080
2.6296389 1.867843 0.045901362 4292747520
2.6190965 1.8604785 0.026759719 4292747520
2.6073027 1.8522241 0.0077374042 4292616960
2.5743399 1.8289289 -0.011032334 4292486400
2.5793633 1.8326199 -0.029751137 4292486400
2.5997074 1.8471971 -0.048799045 4292616960
2.5975616 1.8457952 -0.067504741 4292616960
2.5617805 1.8204906 -0.084991597 4292486400
2.5884788 1.8395859 -0.1043941 4292616960
2.6079261 1.85353 -0.1237214 4292616960
2.5724654 1.8284488 -0.14019869 4292486400
2.5621171 1.8212146 -0.1575707 4292486400
2.5701649 1.8270566 -0.17588723 4292486400
2.5717919 1.8283348 -0.19364086 4292486400
2.5419393 1.8072323 -0.20862296 4292355840
2.5555811 1.817052 -0.22683679 4292486400
2.5922759 1.8432652 -0.24718267 4292616960
2.587888 1.8402674 -0.26355445 4292616960
2.5695844 1.8273731 -0.2780751 4292486400
2.4859545 1.7680169 -0.28458077 4292225280
2.5646973 1.8241402 -0.30932012 4292486400
2.5860748 1.8394674 -0.32741025 4292616960
2.5778496 1.8337389 -0.34146991 4292616960
2.5505483 1.8144389 -0.35241926 4292486400
2.4795225 1.764029 -0.3563838 4292225280
2.5846319 1.8389302 -0.3854388 4292616960
2.5872765 1.8409342 -0.39936259 4292616960
2.5939715 1.8458208 -0.41351053 4292616960
2.560221 1.8219256 -0.42061415 4292486400
2.5105555 1.7867012 -0.42423022 4292355840
2.5291626 1.8000631 -0.43875274 4292486400
2.5278647 1.7992589 -0.44940165 4292486400
2.5225694 1.7956094 -0.45880038 4292355840
2.5334258 1.803457 -0.47063297 4292486400
2.5046086 1.7830616 -0.47449246 4292355840
2.4645479 1.7546586 -0.47543228 4292225280
2.4755552 1.7626126 -0.48557323 4292225280
2.4209182 1.7238252 -0.482149 4291964160
2.4392831 1.7370176 -0.49259284 4292094720
2.4576981 1.7502472 -0.50257409 4292225280
2.3939488 1.7049615 -0.49506983 4291964160
2.4197309 1.723438 -0.50541115 4291964160
2.4351356 1.7345254 -0.51307803 4292094720
2.3526311 1.6758696 -0.49941501 4291703040
2.364186 1.6842124 -0.50502074 4291833600
2.3750134 1.6920382 -0.50990802 4291833600
2.370677 1.6890612 -0.51095146 4291833600
2.3704345 1.6890006 -0.51227552 4291833600
2.3630567 1.6838557 -0.51145512 4291833600
2.3549609 1.6781985 -0.50987732 4291703040
2.3509588 1.6754577 -0.50858867 4291703040
2.3976314 1.7088335 -0.51764745 4291964160
2.3865781 1.7010686 -0.51362449 4291833600
2.453707 1.749032 -0.5257709 4292225280
2.4235675 1.727663 -0.51643294 4292094720
2.4119546 1.7194989 -0.51049179 4291964160
2.4579589 1.7524123 -0.51608855 4292225280
2.447305 1.7449324 -0.50913018 4292094720
2.490824 1.7760797 -0.512775 4292355840
2.5143073 1.7929434 -0.51154774 4292355840
2.5151207 1.7936428 -0.50505561 4292355840
2.5087645 1.7892287 -0.49655467 4292355840
2.5249772 1.8009112 -0.49191436 4292486400
2.5179298 1.7960041 -0.48214784 4292355840
2.5412786 1.8127788 -0.47758701 4292486400
2.5572774 1.8243127 -0.4709529 4292616960
2.5696883 1.8332881 -0.4630084 4292616960
2.5676649 1.8319662 -0.45189273 4292616960
2.5499296 1.8194335 -0.43758279 4292486400
2.5430946 1.814677 -0.42475477 4292486400
2.5479765 1.8182814 -0.41340983 4292486400
2.5645633 1.8302397 -0.40339074 4292616960
2.5508981 1.8206084 -0.38814595 4292486400
2.5297627 1.8056437 -0.37150991 4292355840
2.535053 1.8095399 -0.35842091 4292486400
2.5583138 1.8262649 -0.34731159 4292486400
2.5635905 1.8301532 -0.33321169 4292486400
2.5477374 1.8189565 -0.3160578 4292486400
2.5347807 1.8098264 -0.29908469 4292355840
2.5508959 1.8214536 -0.28518924 4292486400
2.5567727 1.8257711 -0.26969704 4292486400
2.5502048 1.821202 -0.25259992 4292486400
2.5507996 1.8217479 -0.23597269 4292486400
2.5716183 1.8367382 -0.22081503 4292486400
2.5712814 1.8366197 -0.20346284 4292486400
2.5269973 1.8051082 -0.18271495 4292355840
2.3868067 1.7050793 -0.15610284 4291703040
2.5768735 1.8409809 -0.15056215 4292486400
2.5837655 1.8460273 -0.13278072 4292616960
2.578711 1.8425384 -0.11422806 4292486400
2.5818143 1.8448781 -0.095926069 4292616960
2.6102302 1.8653071 -0.078233816 4292616960
2.6378636 1.8851795 -0.060029317 4292747520
2.5385385 1.814316 -0.03938977 4292355840
2.4209983 1.730424 -0.01999641 4291833600
1.701386 1.2161572 -0.0016898211 4288961280
1.4808217 1.0585674 0.0092915101 4288047360
1.4685162 1.0498406 0.01987768 4287916800
1.8123785 1.2957532 0.037666578 4289352960
1.819416 1.300871 0.050958056 4289352960
1.8194346 1.3009708 0.06404952 4289352960
1.7952149 1.2837379 0.076045886 4289352960
1.8082298 1.2931305 0.089457087 4289352960
1.8104912 1.2948338 0.10234852 4289352960
1.7952927 1.2840493 0.11405215 4289352960
1.6650387 1.1909666 0.11731433 4288830720
1.7952458 1.2841862 0.13879056 4289352960
1.7932005 1.2828084 0.1507701 4289352960
1.7437651 1.2475264 0.15825711 4289091840
1.5285994 1.0936649 0.14878498 4288177920
1.8098202 1.2949555 0.1878701 4289352960
1.8162192 1.2996204 0.20008177 4289483520
1.7691363 1.2660136 0.20592874 4289222400
1.5726242 1.1254622 0.19266103 4288439040
1.4685186 1.0510278 0.18867876 4288047360
1.8024939 1.2901416 0.24209848 4289352960
1.7983052 1.2872289 0.2517527 4289352960
1.7631006 1.2621132 0.25656593 4289222400
1.7338455 1.2412534 0.26160663 4289091840
1.676566 1.2003268 0.26167122 4288830720
1.7987792 1.2879101 0.28977174 4289352960
1.7918068 1.2830031 0.29731396 4289352960
1.7884921 1.2807146 0.30507767 4289352960
1.7508358 1.2538327 0.30645424 4289222400
1.6305612 1.1677774 0.29234162 4288700160
1.5779967 1.1302068 0.28931043 4288439040
1.7592543 1.2601123 0.32930076 4289222400
1.7483451 1.2523814 0.33360019 4289222400
1.7391597 1.2458843 0.33777419 4289222400
1.6995921 1.2176201 0.33550113 4288961280
1.7141557 1.2281351 0.3434433 4289091840
1.644781 1.1785088 0.33402458 4288830720
1.6554316 1.1862187 0.3403078 4288830720
1.6629155 1.1916605 0.34558824 4288830720
1.6624312 1.1913925 0.34882662 4288830720
1.6579931 1.1882907 0.35082018 4288830720
1.6616185 1.1909682 0.35410842 4288830720
1.6500835 1.1827788 0.35374317 4288830720
1.6458132 1.1797962 0.35450286 4288830720
1.6496054 1.182593 0.356583 4288830720
1.6494521 1.1825616 0.35739574 4288830720
1.6525581 1.184867 0.35849687 4288830720
1.6565225 1.1877882 0.35936517 4288830720
1.6565436 1.1878822 0.35895705 4288830720
1.6566229 1.1880178 0.35814109 4288830720
1.6495558 1.1830283 0.3553662 4288830720
1.652951 1.1855419 0.35443124 4288830720
1.6459941 1.1806304 0.35086742 4288830720
1.702911 1.2215366 0.36043224 4289091840
1.6880592 1.2109634 0.35432631 4288961280
1.7352462 1.2448965 0.36076111 4289222400
1.7441155 1.2513425 0.35869536 4289222400
1.7365054 1.2459652 0.35282254 4289222400
1.7508911 1.2563704 0.35098925 4289222400
1.759928 1.2629387 0.34761146 4289222400
1.7546676 1.2592473 0.34099802 4289222400
1.7514827 1.257045 0.33442211 4289222400
1.7767425 1.2752587 0.3328118 4289352960
1.7943431 1.2879769 0.32922569 4289352960
1.7911917 1.2858001 0.32140011 4289352960
1.7489822 1.2560377 0.25994682 4289222400
1.7772738 1.27644 0.25448918 4289352960
1.7969577 1.2906626 0.24724996 4289352960
1.7880849 1.2843748 0.23574613 4289352960
1.7627302 1.2662467 0.22200722 4289222400
1.7741635 1.2745442 0.21273531 4289222400
1.7868638 1.283753 0.20323209 4289352960
1.7671243 1.2696557 0.18986046 4289222400
1.7549014 1.2609572 0.17728965 4289222400
1.7728946 1.2739704 0.16753721 4289222400
1.7826799 1.2810869 0.15664278 4289352960
1.786334 1.283798 0.14494839 4289352960
1.7629497 1.2670761 0.13103613 4289222400
1.7871612 1.2845627 0.12051077 4289352960
1.7740148 1.275198 0.10725943 4289222400
1.5856752 1.1398913 0.084715486 4288439040
1.5803145 1.1361129 0.073218152 4288439040
1.8241364 1.3114872 0.071482077 4289483520
2.496129 1.7947443 0.079875015 4292225280
2.6180754 1.8825498 0.064869151 4292747520
2.6073465 1.8749593 0.045702152 4292616960
2.5799196 1.8553594 0.026469441 4292616960
2.5519435 1.835362 0.0076047257 4292486400
2.5356414 1.8237584 -0.010911844 4292355840
2.54684 1.8319343 -0.029498611 4292486400
2.5514793 1.835393 -0.048093669 4292486400
2.5340483 1.8229749 -0.066129074 4292355840
2.5286393 1.8192043 -0.084242307 4292355840
2.5615733 1.8430203 -0.1037403 4292486400
2.565053 1.8456463 -0.12219553 4292486400
2.5225899 1.8152128 -0.13805453 4292355840
2.5287766 1.8197854 -0.15616968 4292355840
2.5440791 1.8309187 -0.1748291 4292486400
2.5424755 1.829886 -0.192233 4292486400
2.4573674 1.7687486 -0.2025243 4292094720
2.5255237 1.817926 -0.22510515 4292355840
2.5394294 1.8280569 -0.24315503 4292486400
2.5427434 1.8305639 -0.26003861 4292486400
2.5269861 1.8193403 -0.27460763 4292355840
2.463491 1.7737437 -0.28318748 4292094720
2.538681 1.8280026 -0.30746171 4292486400
2.540616 1.8295171 -0.32299897 4292486400
2.5221705 1.8163546 -0.33549058 4292355840
2.462218 1.773297 -0.34163609 4292094720
2.4611435 1.7726406 -0.35522062 4292094720
2.5432775 1.831919 -0.38085693 4292486400
2.5612106 1.8449584 -0.39699167 4292616960
2.540925 1.8304671 -0.40674749 4292486400
2.5415206 1.8310174 -0.41928744 4292486400
2.4280078 1.7493539 -0.41199669 4292094720
2.499352 1.8008758 -0.43539408 4292355840
2.4980686 1.8000704 -0.44596145 4292355840
2.4895942 1.7940828 -0.45469636 4292355840
2.4915919 1.7956413 -0.46479714 4292355840
2.4881406 1.7932726 -0.47334397 4292355840
2.47382 1.7830695 -0.47921687 4292225280
2.4340026 1.7544863 -0.47941974 4292094720
2.3836088 1.7182752 -0.47670424 4291833600
2.3987055 1.7292724 -0.48642486 4291964160
2.4170539 1.7426155 -0.4963305 4292094720
2.3455806 1.6911976 -0.4870967 4291703040
2.3712661 1.7098304 -0.49736065 4291833600
2.3898141 1.7233189 -0.50563586 4291964160
2.3164527 1.6705278 -0.4937928 4291572480
2.3271651 1.6783643 -0.49919295 4291703040
2.3307607 1.6810688 -0.50250143 4291703040
2.334435 1.6838303 -0.5052461 4291703040
2.3381891 1.6866498 -0.50742203 4291703040
2.3260508 1.678005 -0.50555313 4291703040
2.3187878 1.6728762 -0.50414711 4291703040
2.3803556 1.7174077 -0.51710403 4291964160
2.3652713 1.7066375 -0.51279902 4291833600
2.3382866 1.6872787 -0.50533861 4291703040
2.4163148 1.7436982 -0.51992673 4292094720
2.3862963 1.72215 -0.51062036 4291964160
2.378722 1.7167972 -0.50556654 4291833600
2.4213319 1.7476659 -0.51052737 4292094720
2.4637814 1.7784227 -0.51470476 4292225280
2.473613 1.7856377 -0.51136494 4292225280
2.484621 1.7937027 -0.50762558 4292355840
2.4854243 1.7944014 -0.50118321 4292355840
2.4862909 1.7951461 -0.49416828 4292355840
2.4952245 1.8017154 -0.48815474 4292355840
2.4922032 1.7996531 -0.47922125 4292355840
2.5194545 1.8194519 -0.47546974 4292486400
2.5273638 1.8252846 -0.4673945 4292486400
2.5437241 1.8372216 -0.460251 4292486400
2.5256522 1.8242898 -0.44636181 4292486400
2.5119896 1.8145413 -0.43287894 4292355840
2.5132015 1.815537 -0.42152151 4292355840
2.5180528 1.8191619 -0.41026744 4292355840
2.53456 1.8312087 -0.40034282 4292486400
2.5249639 1.8243963 -0.38581061 4292486400
2.4998844 1.8063948 -0.36866143 4292355840
2.5011163 1.8074046 -0.35510555 4292355840
2.5355461 1.8324063 -0.3456642 4292486400
2.5335405 1.8310779 -0.3306869 4292486400
2.5281019 1.8272682 -0.31493732 4292486400
2.497571 1.8053204 -0.2959303 4292355840
2.5249057 1.8251995 -0.28346762 4292355840
2.5219502 1.8231838 -0.26713982 4292355840
2.5131233 1.8169227 -0.24997126 4292355840
2.5171065 1.8199229 -0.2338327 4292355840
2.5362141 1.8338594 -0.21868876 4292486400
2.5419505 1.8381288 -0.2019859 4292486400
2.4700232 1.7862351 -0.17934488 4292094720
2.4831245 1.7958283 -0.16308378 4292225280
2.5170481 1.8204827 -0.14768387 4292355840
2.5236547 1.8253819 -0.13023594 4292355840
2.4419403 1.7663939 -0.10862362 4291964160
2.5205426 1.8233721 -0.094042674 4292355840
2.5768189 1.864206 -0.077556632 4292616960
2.6090851 1.8876739 -0.059623685 4292747520
2.5125327 1.8179384 -0.039149933 4292355840
2.3987236 1.7357068 -0.019895619 4291833600
1.6829296 1.2178417 -0.0016785091 4288830720
1.4665282 1.0613143 0.0092404662 4287916800
1.3820947 1.0002768 0.018786455 4287655680
1.7866222 1.2931348 0.037287235 4289352960
1.8044604 1.3061323 0.050751459 4289352960
1.7933012 1.2981408 0.063394718 4289352960
1.7715142 1.2824544 0.075357154 4289222400
1.7852874 1.2925106 0.08869312 4289352960
1.7907796 1.2965726 0.10165953 4289352960
1.7724122 1.2833591 0.11307169 4289222400
1.7200884 1.2455549 0.12170222 4289091840
1.7840335 1.2919446 0.13850333 4289352960
1.7905045 1.2967165 0.15117608 4289352960
1.7615467 1.2758291 0.1605428 4289222400
1.6824102 1.2185937 0.1644443 4288961280
1.789897 1.2965336 0.18658292 4289352960
1.680559 1.2174139 0.18591516 4288830720
1.6289032 1.1800718 0.19040258 4288700160
1.590439 1.1522824 0.19566265 4288569600
1.4274074 1.0342335 0.18416776 4287786240
1.6811876 1.2181914 0.22675489 4288961280
1.7686354 1.2816409 0.24864025 4289222400
1.7564281 1.272879 0.25666979 4289222400
1.7471285 1.2662233 0.26471943 4289222400
1.6931423 1.2271782 0.2653698 4288961280
1.7848296 1.2937182 0.2887339 4289352960
1.7807353 1.2908357 0.29671976 4289352960
1.7767509 1.2880327 0.30434984 4289352960
1.7424724 1.2632664 0.30627346 4289222400
1.6125139 1.1691258 0.2903223 4288700160
1.5865991 1.1504127 0.29211149 4288569600
1.7142403 1.2430451 0.32222512 4289091840
1.6819417 1.2197051 0.32228029 4288961280
1.6206638 1.1753454 0.31608492 4288700160
1.6311666 1.1830405 0.323349 4288700160
1.6424973 1.1913371 0.33047113 4288830720
1.6570547 1.2019753 0.3379336 4288830720
1.660468 1.2045308 0.34278002 4288830720
1.6519538 1.1984338 0.34475541 4288830720
1.6594512 1.2039524 0.34966725 4288830720
1.6470534 1.1950365 0.34997272 4288830720
1.6466765 1.1948421 0.3524017 4288830720
1.6391777 1.1894795 0.35288492 4288830720
1.6428977 1.1922578 0.35536507 4288830720
1.6387018 1.1892914 0.35571784 4288830720
1.6345638 1.1863667 0.35566145 4288830720
1.6424388 1.1921611 0.35780239 4288830720
1.6455892 1.1945268 0.35849702 4288830720
1.6384369 1.1894134 0.35652909 4288830720
1.6496731 1.1976496 0.35814109 4288830720
1.6498091 1.1978273 0.35691816 4288830720
1.642827 1.1928369 0.35374463 4288830720
1.6390876 1.1902003 0.35086742 4288830720
1.6242363 1.1794944 0.34522891 4288700160
1.6166096 1.1740334 0.34075892 4288700160
1.6702192 1.2130466 0.34870529 4288961280
1.7092869 1.2415028 0.35301411 4289091840
1.6906472 1.2280453 0.34495297 4288961280
1.7247704 1.2529143 0.34721047 4289091840
1.7293741 1.2563416 0.34301656 4289222400
1.7396619 1.263899 0.33950716 4289222400
1.7424936 1.2660398 0.3341085 4289222400
1.7602427 1.2790203 0.33111137 4289352960
1.7813389 1.2944347 0.32821786 4289352960
1.7779353 1.2920467 0.32036674 4289352960
1.6700803 1.2141848 0.24926703 4288830720
1.7322778 1.2594868 0.24909268 4289091840
1.7837316 1.2969831 0.24646568 4289352960
1.7779076 1.2928338 0.23539345 4289352960
1.7414726 1.2664231 0.22025546 4289222400
1.7592376 1.2794266 0.21183582 4289222400
1.7763436 1.2919524 0.20288825 4289352960
1.7627875 1.2821776 0.19019391 4289222400
1.7383728 1.2645029 0.17636113 4289091840
1.7644248 1.283538 0.16744067 4289222400
1.7598604 1.2803022 0.15529047 4289222400
1.7667209 1.2853781 0.14396216 4289222400
1.7427872 1.2680489 0.13008444 4289091840
1.7723235 1.2896246 0.12001487 4289222400
1.7269267 1.2566748 0.10485332 4289091840
1.563659 1.1379409 0.08389204 4288439040
1.5276145 1.1117831 0.071075395 4288308480
1.8164644 1.3220928 0.071482077 4289483520
2.5050154 1.823367 0.080497958 4292355840
2.5836217 1.8807076 0.064285889 4292616960
2.5672665 1.8689255 0.045189712 4292616960
2.5525024 1.8583001 0.026298782 4292486400
2.5035834 1.822806 0.0074921343 4292355840
2.5047066 1.8237443 -0.010824262 4292355840
2.4995792 1.8201309 -0.029073549 4292225280
2.4952984 1.8171338 -0.047233459 4292225280
2.4906776 1.8138884 -0.065271944 4292225280
2.4945643 1.8168391 -0.083458327 4292225280
2.5201046 1.8355618 -0.10249226 4292355840
2.5267947 1.840556 -0.12088177 4292355840
2.4925916 1.8157618 -0.13698946 4292225280
2.4910831 1.8147827 -0.1544922 4292225280
2.5011706 1.8222519 -0.17260711 4292355840
2.5043433 1.8246837 -0.19015044 4292355840
2.465873 1.7967727 -0.20408459 4292225280
2.5064309 1.8264458 -0.22434805 4292355840
2.5279179 1.8422251 -0.24307638 4292486400
2.5316379 1.8450578 -0.25999784 4292486400
2.4929981 1.8170172 -0.27206001 4292355840
2.4305859 1.7716449 -0.28058669 4292094720
2.5119033 1.8310379 -0.30550548 4292355840
2.5106223 1.8302249 -0.32053602 4292355840
2.5064974 1.8273385 -0.33481631 4292355840
2.4786463 1.8071531 -0.34537059 4292225280
2.4242904 1.7676394 -0.35138202 4292094720
2.5205173 1.8379234 -0.37904575 4292486400
2.531178 1.8458189 -0.39399683 4292486400
2.525816 1.8420302 -0.40603995 4292486400
2.5043831 1.8265202 -0.41490927 4292355840
2.3945634 1.7465407 -0.40804148 4291964160
2.4776177 1.8072379 -0.43343484 4292355840
2.4763451 1.8064286 -0.44395468 4292355840
2.471108 1.8027272 -0.45323062 4292225280
2.4636385 1.7973968 -0.46152824 4292225280
2.4413476 1.7812515 -0.46640852 4292225280
2.3984475 1.7500664 -0.4665834 4291964160
2.4125719 1.7604885 -0.47721079 4292094720
2.3623946 1.7239871 -0.4744623 4291833600
2.3846045 1.7403098 -0.48561332 4291964160
2.4028761 1.7537605 -0.495509 4291964160
2.32374 1.6961142 -0.4846051 4291703040
2.3421538 1.7096672 -0.49333537 4291833600
2.3574438 1.7209419 -0.50089991 4291833600
2.3720047 1.7316856 -0.5077768 4291964160
2.2982504 1.6779518 -0.49507922 4291572480
2.3018336 1.6806787 -0.49836755 4291572480
2.3054941 1.6834626 -0.50109673 4291572480
2.2933264 1.6746882 -0.49979514 4291572480
2.2971475 1.6775892 -0.50138694 4291572480
2.3703027 1.7311281 -0.51753151 4291964160
2.3583798 1.7225339 -0.51450151 4291833600
2.3393817 1.7087705 -0.50933582 4291833600
2.3284166 1.7008735 -0.50533861 4291703040
2.3838415 1.7414755 -0.51511383 4291964160
2.3531506 1.7191681 -0.5056625 4291833600
2.3535604 1.7195809 -0.50233966 4291833600
2.3991704 1.7530205 -0.5079996 4291964160
2.3885953 1.7454085 -0.50111371 4291964160
2.4349234 1.779379 -0.50550127 4292225280
2.4527452 1.792521 -0.50323832 4292225280
2.4495537 1.7903066 -0.4960449 4292225280
2.4646313 1.8014451 -0.491941 4292225280
2.4615619 1.7993203 -0.48361185 4292225280
2.462532 1.8001481 -0.47552449 4292225280
2.4776895 1.811348 -0.46957156 4292355840
2.5086911 1.834133 -0.4659096 4292486400
2.5145261 1.8385203 -0.45689845 4292486400
2.5069778 1.8331221 -0.44494146 4292486400
2.4897885 1.8206733 -0.43087384 4292355840
2.4761868 1.8108463 -0.41707581 4292355840
2.4953959 1.8250142 -0.40830144 4292355840
2.4894216 1.8207651 -0.39488196 4292355840
2.4986775 1.8276553 -0.38341466 4292355840
2.4668779 1.8045146 -0.36533824 4292225280
2.4895148 1.8211933 -0.35495886 4292355840
2.5055623 1.8330538 -0.34302676 4292355840
2.5067656 1.8340549 -0.3285813 4292355840
2.4909155 1.8225785 -0.31162238 4292355840
2.4637141 1.8027943 -0.29315823 4292225280
2.4956629 1.8262929 -0.28137439 4292355840
2.4967315 1.8271954 -0.26559168 4292355840
2.4791684 1.8144617 -0.24764122 4292225280
2.4791019 1.8145325 -0.23128036 4292225280
2.5061677 1.8344637 -0.21701586 4292355840
2.4997935 1.8299186 -0.19947988 4292355840
2.4824328 1.81733 -0.18101166 4292225280
2.4339442 1.7819501 -0.16053292 4292094720
2.497942 1.8289248 -0.14718556 4292355840
2.4863746 1.8205756 -0.12885727 4292225280
2.4001622 1.7575648 -0.10721891 4291833600
2.5026188 1.8327113 -0.093770728 4292355840
2.5352776 1.8567505 -0.07663063 4292486400
2.5786841 1.8886642 -0.059179407 4292616960
2.5368907 1.8581767 -0.039697494 4292486400
2.4422214 1.7889529 -0.020342508 4292094720
1.722659 1.2619491 -0.0017254379 4289091840
1.5130061 1.108439 0.0095738498 4288177920
1.4088118 1.0321735 0.019231029 4287786240
1.7682365 1.2955934 0.037060432 4289222400
1.781498 1.3053961 0.050318688 4289352960
1.7767385 1.3019943 0.06307631 4289352960
1.7527267 1.2844832 0.074875049 4289222400
1.7664438 1.294621 0.088130206 4289222400
1.7719152 1.2987165 0.10101647 4289222400
1.7612792 1.291006 0.1128394 4289222400
1.7117691 1.2547981 0.12162881 4289091840
1.7642264 1.2933366 0.13754828 4289222400
1.7662166 1.294881 0.14975984 4289222400
1.7540836 1.2860706 0.1605428 4289222400
1.6885227 1.2380837 0.16574401 4288961280
1.7766076 1.3027565 0.18598568 4289352960
1.727809 1.2670567 0.19195569 4289091840
1.6423609 1.2044743 0.19279268 4288830720
1.5432912 1.1318932 0.1906704 4288308480
1.3773302 1.0102392 0.17846306 4287655680
1.7313023 1.269953 0.23450825 4289091840
1.7499223 1.2836958 0.24705677 4289222400
1.7434582 1.2790382 0.25585911 4289222400
1.7143394 1.2577589 0.26085722 4289091840
1.6400701 1.203349 0.25814617 4288830720
1.7705754 1.2991887 0.28764763 4289352960
1.7646515 1.2949272 0.2952919 4289352960
1.7638749 1.2944425 0.30343094 4289352960
1.7310921 1.2704681 0.30556902 4289222400
1.654893 1.2146248 0.2992214 4288830720
1.526448 1.1204251 0.28223407 4288308480
1.7367935 1.2749044 0.32785511 4289222400
1.7201468 1.2627679 0.33100498 4289091840
1.7157918 1.2596539 0.3360638 4289091840
1.7049427 1.2517715 0.33941376 4289091840
1.6972216 1.2461846 0.34293672 4289091840
1.6874615 1.2390999 0.34560108 4288961280
1.6412565 1.205251 0.34025791 4288830720
1.6447028 1.2078613 0.34470499 4288830720
1.6513735 1.2128401 0.34944823 4288830720
1.6509426 1.2126034 0.35229433 4288830720
1.6505643 1.2124054 0.35473946 4288830720
1.6542102 1.2151635 0.35763925 4288830720
1.6579105 1.2179618 0.36014122 4288961280
1.6497604 1.2120544 0.35964519 4288830720
1.6496061 1.2120208 0.3604649 4288830720
1.6495098 1.2120298 0.36087504 4288830720
1.6574076 1.2179132 0.36261144 4288961280
1.6463175 1.2098434 0.35977167 4288830720
1.638459 1.2041477 0.35722357 4288830720
1.684135 1.2377976 0.36589816 4288961280
1.6811558 1.2356894 0.3635419 4288961280
1.6976597 1.2479023 0.36495572 4289091840
1.6930834 1.2446203 0.36139742 4289091840
1.7003703 1.2500594 0.35994363 4289091840
1.7186559 1.2635856 0.36034876 4289222400
1.7274761 1.270154 0.35829297 4289222400
1.7342898 1.2752477 0.35536757 4289222400
1.7253304 1.2687433 0.34880534 4289222400
1.7302605 1.2724525 0.34465703 4289222400
1.7247566 1.2684883 0.33803487 4289222400
1.7291552 1.271807 0.33296612 4289222400
1.7494253 1.2868005 0.33048126 4289222400
1.7587817 1.2937678 0.325445 4289352960
1.7583034 1.2935011 0.31818184 4289352960
1.6936753 1.2464867 0.25386831 4288961280
1.7318804 1.2746882 0.25009924 4289222400
1.767397 1.3009145 0.2452518 4289352960
1.7480991 1.2867947 0.23243549 4289222400
1.7239306 1.2690876 0.21896829 4289091840
1.739446 1.2805936 0.21034749 4289222400
1.7535508 1.2910626 0.20114067 4289222400
1.7400452 1.2812034 0.18854235 4289222400
1.7178539 1.2649471 0.17502418 4289091840
1.7336336 1.2766504 0.16522171 4289091840
1.7411269 1.2822529 0.15429403 4289222400
1.7439365 1.2844065 0.14271292 4289222400
1.7353697 1.2781812 0.13008444 4289091840
1.7473788 1.2871112 0.1188315 4289222400
1.706331 1.2569582 0.1040457 4288961280
1.578432 1.1628187 0.085046664 4288439040
1.5299754 1.1271952 0.071489587 4288308480
1.8117059 1.3348454 0.071599655 4289483520
2.5111687 1.8503238 0.081040747 4292355840
2.5578151 1.8848186 0.063915923 4292616960
2.5426605 1.8737745 0.044947997 4292486400
2.5142629 1.8529694 0.026015587 4292355840
2.4615266 1.8142229 0.007397783 4292225280
2.4697657 1.8204151 -0.010718916 4292225280
2.4794533 1.8276759 -0.028962824 4292225280
2.4792154 1.8276206 -0.04712978 4292225280
2.4535112 1.8087912 -0.064573027 4292094720
2.4573851 1.8117663 -0.082566209 4292094720
2.4932668 1.8383417 -0.10183463 4292355840
2.4927051 1.8380485 -0.11976121 4292355840
2.4707139 1.8219526 -0.13636816 4292225280
2.476052 1.8260093 -0.15421718 4292225280
2.4877024 1.8347217 -0.17241244 4292355840
2.4936576 1.8392346 -0.19014952 4292355840
2.4441214 1.802817 -0.20315023 4292094720
2.4724703 1.8238475 -0.22225568 4292225280
2.486654 1.8344311 -0.24013224 4292355840
2.4975886 1.8426187 -0.25759917 4292355840
2.4631317 1.8173172 -0.26995158 4292225280
2.3969882 1.7686323 -0.27789304 4291964160
2.4859655 1.8344054 -0.30364558 4292355840
2.4934204 1.8400275 -0.3197031 4292355840
2.4766092 1.8277417 -0.3322407 4292355840
2.4448886 1.8044506 -0.34212595 4292225280
2.3867807 1.7616799 -0.3474271 4291964160
2.4905982 1.8384283 -0.37615082 4292355840
2.504416 1.8487494 -0.39150113 4292486400
2.4998825 1.8455242 -0.40359271 4292355840
2.4665878 1.8210642 -0.41039845 4292225280
2.3572505 1.7404556 -0.40340433 4291833600
2.4337144 1.7970303 -0.42757878 4292094720
2.4324634 1.7962247 -0.43795645 4292094720
2.4352221 1.79838 -0.44856289 4292225280
2.4411945 1.802909 -0.45928371 4292225280
2.4237735 1.7901608 -0.46503577 4292094720
2.3802645 1.7581413 -0.46503097 4291964160
2.3381782 1.7271684 -0.46447819 4291833600
2.3411949 1.7295104 -0.47222033 4291833600
2.3625197 1.7453786 -0.48317859 4291833600
2.2923665 1.6936622 -0.47474709 4291572480
2.3217497 1.715484 -0.48626617 4291703040
2.3289816 1.7209406 -0.49266449 4291703040
2.3473773 1.7346476 -0.50089991 4291833600
2.2698865 1.6774943 -0.48800021 4291572480
2.2844737 1.6883856 -0.49422219 4291572480
2.2809122 1.6858642 -0.49595612 4291572480
2.283766 1.6880844 -0.49850339 4291572480
2.2803626 1.6856794 -0.49910179 4291572480
2.2762475 1.6827482 -0.49895671 4291572480
2.2682538 1.6769489 -0.49737501 4291572480
2.3372176 1.7280482 -0.51207256 4291833600
2.3333459 1.725299 -0.51020163 4291833600
2.3105476 1.7085541 -0.5036124 4291703040
2.3657343 1.7494773 -0.51339495 4291964160
2.351016 1.7387073 -0.50737214 4291833600
2.3514252 1.7391241 -0.50403798 4291833600
2.3210032 1.7167367 -0.49355799 4291703040
2.3672884 1.7510867 -0.49877554 4291964160
2.4054859 1.7794584 -0.50153381 4292094720
2.4232254 1.792699 -0.49931616 4292094720
2.4279742 1.7963302 -0.49378601 4292225280
2.4208832 1.7912016 -0.4852837 4292094720
2.4217837 1.7919856 -0.47783992 4292094720
2.4369113 1.8032978 -0.47259787 4292225280
2.4480243 1.8116403 -0.46594191 4292225280
2.4788842 1.8345984 -0.46235123 4292355840
2.4839702 1.8384833 -0.45328498 4292355840
2.4699988 1.8282626 -0.44026145 4292355840
2.4492824 1.8130478 -0.42568484 4292225280
2.4464808 1.8110927 -0.41384256 4292225280
2.4695814 1.8283141 -0.40581372 4292355840
2.4794879 1.8357686 -0.39499614 4292355840
2.4688449 1.8280088 -0.38046476 4292355840
2.4371712 1.8046752 -0.36248976 4292094720
2.4525156 1.8161567 -0.35118625 4292225280
2.4796636 1.8363813 -0.34094009 4292355840
2.4848495 1.8403426 -0.3271085 4292355840
2.4570684 1.8198869 -0.30870926 4292225280
2.4419703 1.8088229 -0.29182002 4292094720
2.4697757 1.8295391 -0.2796528 4292225280
2.4708326 1.8304422 -0.26396662 4292225280
2.4493332 1.8146342 -0.24571292 4292225280
2.4572709 1.8206346 -0.23022939 4292225280
2.4802082 1.83775 -0.21569149 4292225280
2.4738555 1.8331633 -0.198259 4292225280
2.4565637 1.8204693 -0.17989571 4292225280
2.400255 1.7788577 -0.15899178 4291964160
2.4804142 1.8383853 -0.14678141 4292225280
2.49297 1.8478127 -0.12975481 4292355840
2.4672682 1.8288823 -0.11069077 4292225280
2.466655 1.8285478 -0.092820808 4292225280
2.508343 1.8595736 -0.076142699 4292355840
2.5547156 1.8940766 -0.058881603 4292616960
2.4914832 1.847317 -0.039154708 4292355840
2.4590554 1.8233931 -0.020570867 4292225280
1.7822379 1.3216187 -0.001792795 4289352960
1.5143871 1.1230677 0.0096238293 4288177920
-4.8726664 -3.6138008 -0.066800758 4278190335
1.7132331 1.2706985 0.036062174 4289091840
1.7672448 1.3108449 0.050130975 4289352960
1.7602943 1.305775 0.062761545 4289222400
1.7448967 1.2944381 0.074861459 4289222400
1.746834 1.2959605 0.087527081 4289222400
1.7450646 1.2947327 0.099914074 4289222400
1.7416975 1.2923195 0.11206535 4289222400
1.6790005 1.2458808 0.1198142 4288961280
1.7505563 1.2990631 0.13707027 4289222400
1.751889 1.3001374 0.14918475 4289222400
1.724491 1.2798884 0.15851414 4289091840
1.4868376 1.1035784 0.14657542 4288177920
1.7616355 1.3076282 0.18521273 4289352960
1.7552371 1.3029642 0.19584297 4289222400
1.7305223 1.2847021 0.20401692 4289222400
1.6649169 1.2360792 0.20658326 4288961280
1.413704 1.0496408 0.18396536 4287786240
1.7517673 1.30073 0.23830275 4289222400
1.7507542 1.3000631 0.24823941 4289222400
1.7028965 1.2646081 0.25098357 4289091840
1.5807693 1.173991 0.24156964 4288569600
1.4553208 1.0808949 0.23005407 4288047360
1.7306926 1.2855033 0.28238025 4289222400
1.7254755 1.2817124 0.28998101 4289222400
1.6871635 1.2533357 0.29148588 4288961280
1.5837047 1.1765569 0.28075773 4288569600
1.5757467 1.1707217 0.28613937 4288569600
1.5709925 1.167266 0.29172266 4288569600
1.7380743 1.2914946 0.32951173 4289222400
1.7311771 1.286454 0.33456412 4289222400
1.73361 1.2883465 0.34101823 4289222400
1.7216541 1.2795453 0.34421888 4289222400
1.7188331 1.2775326 0.34880152 4289222400
1.7142862 1.2742367 0.35260943 4289222400
1.7171654 1.2764604 0.35753074 4289222400
1.7079886 1.2697222 0.3595131 4289091840
1.7114573 1.2723843 0.36372513 4289222400
1.6932098 1.2589008 0.36287272 4289091840
1.6999377 1.263986 0.3669273 4289091840
1.6816449 1.2504663 0.36513954 4289091840
1.685323 1.2532837 0.3676759 4289091840
1.6890579 1.2561436 0.36980119 4289091840
1.6928507 1.2590468 0.37151116 4289091840
1.6988492 1.2635911 0.3732737 4289091840
1.7027605 1.2665832 0.37414199 4289091840
1.706342 1.2693306 0.3744987 4289091840
1.7056201 1.2688768 0.37347177 4289091840
1.7018081 1.266124 0.37133428 4289091840
1.7150506 1.27606 0.37247288 4289222400
1.711296 1.2733499 0.36947581 4289222400
1.7287568 1.2864267 0.37060565 4289222400
1.7256953 1.2842327 0.36688223 4289222400
1.7201487 1.280189 0.36221945 4289222400
1.7259066 1.2845585 0.35951364 4289222400
1.7335529 1.2903341 0.35675099 4289222400
1.7265589 1.2852126 0.35056162 4289222400
1.7169243 1.2781246 0.34347805 4289222400
1.7069548 1.2707864 0.33599129 4289091840
1.7040642 1.2687176 0.32955241 4289091840
1.7087426 1.2722843 0.32419077 4289091840
1.7273306 1.2862087 0.32100648 4289222400
1.7216809 1.2820859 0.31290108 4289222400
1.7106904 1.274441 0.25752738 4289091840
1.7234129 1.2840031 0.24995252 4289222400
1.742221 1.2981011 0.24280363 4289222400
1.7343538 1.2923241 0.23160508 4289222400
1.69612 1.2639177 0.21636754 4289091840
1.7168217 1.2794281 0.20850947 4289091840
1.7347277 1.2928569 0.1998422 4289222400
1.7185885 1.2809126 0.18702288 4289091840
1.6984686 1.2659998 0.17379767 4289091840
1.722169 1.2837498 0.16483913 4289091840
1.7256297 1.2864137 0.15358229 4289091840
1.7314144 1.2908107 0.14230122 4289222400
1.7158897 1.2793205 0.12918074 4289091840
1.7324106 1.2917227 0.11832338 4289222400
1.603635 1.1957833 0.09820684 4288569600
1.5575013 1.1614588 0.084282093 4288439040
1.535398 1.1450511 0.07205347 4288308480
1.8891286 1.4089445 0.074982591 4289875200
2.480798 1.850343 0.080407165 4292355840
2.5307622 1.8877333 0.063513674 4292486400
2.5108519 1.8730047 0.044577852 4292355840
2.4809825 1.8508445 0.025782369 4292355840
2.4661696 1.8399146 0.007443828 4292225280
2.4348459 1.8166642 -0.010613119 4292094720
2.4535234 1.8307196 -0.02878404 4292225280
2.4464822 1.8255854 -0.04670893 4292094720
2.4277072 1.8116941 -0.064170621 4292094720
2.4387763 1.8200738 -0.082295872 4292094720
2.460099 1.8361073 -0.10091516 4292225280
2.4707429 1.8441724 -0.11922026 4292225280
2.4328372 1.8159984 -0.13485931 4292094720
2.4461632 1.8260653 -0.15301566 4292225280
2.4580846 1.8350848 -0.17109783 4292225280
2.4557061 1.8334295 -0.18806696 4292225280
2.4143882 1.8026997 -0.20154844 4292094720
2.4426219 1.8238997 -0.22052404 4292225280
2.4759243 1.8488877 -0.24013224 4292355840
2.4748335 1.8481944 -0.2563585 4292355840
2.4213753 1.8083905 -0.26652545 4292094720
2.3635089 1.7652889 -0.27519938 4291833600
2.4560997 1.8345646 -0.30129811 4292225280
2.4588304 1.8367246 -0.31663474 4292225280
2.4464095 1.827566 -0.3296122 4292225280
2.4040828 1.7960639 -0.33787438 4292094720
2.3494239 1.7553439 -0.34347218 4291833600
2.4543171 1.8338338 -0.37227866 4292225280
2.4609351 1.8388993 -0.3863723 4292355840
2.4620671 1.8398656 -0.39921144 4292355840
2.4359651 1.8204792 -0.40706119 4292225280
2.3769836 1.7765168 -0.40854573 4291964160
2.3953223 1.7903399 -0.4226591 4292094720
2.4051881 1.7978318 -0.43492416 4292094720
2.4008119 1.7946782 -0.44414309 4292094720
2.4067693 1.7992495 -0.45477155 4292094720
2.4033847 1.796837 -0.46312463 4292094720
2.3892686 1.7864003 -0.46881554 4292094720
2.353934 1.7600968 -0.46963724 4291833600
2.3002484 1.7200673 -0.46597487 4291703040
2.3222826 1.7366577 -0.47701061 4291703040
2.3364618 1.7473756 -0.48597932 4291833600
2.2738111 1.7006325 -0.47829303 4291572480
2.2810225 1.7061378 -0.48461396 4291572480
2.2993484 1.7199575 -0.49278113 4291703040
2.3059018 1.7249725 -0.49789533 4291703040
2.3133161 1.7306323 -0.50263482 4291703040
2.3239598 1.738709 -0.50751036 4291833600
2.3236389 1.7385827 -0.50940931 4291833600
2.3163016 1.7332064 -0.50916928 4291703040
2.3192971 1.7355615 -0.5106011 4291833600
2.3081818 1.7273568 -0.50832844 4291703040
2.2932057 1.7162617 -0.50461209 4291703040
2.2814639 1.7075858 -0.50102419 4291572480
2.3513072 1.759976 -0.51472276 4291964160
2.3326309 1.7461109 -0.50841022 4291833600
2.3100851 1.7293472 -0.50070471 4291703040
2.2954972 1.7185394 -0.4941875 4291703040
2.3407066 1.7525004 -0.49991068 4291833600
2.3833895 1.784574 -0.50435007 4292094720
2.3891332 1.7889919 -0.50028902 4292094720
2.3999829 1.7972339 -0.49667615 4292094720
2.3936474 1.7926068 -0.48892063 4292094720
2.3944802 1.793348 -0.48207733 4292094720
2.387465 1.788211 -0.47311619 4292094720
2.4063692 1.8024883 -0.46870348 4292094720
2.4140944 1.8083934 -0.46148148 4292094720
2.4316652 1.8216748 -0.45551601 4292225280
2.4435263 1.8306804 -0.4478434 4292225280
2.4370434 1.8259429 -0.4362762 4292225280
2.415302 1.8097718 -0.42160448 4292094720
2.4164653 1.8107619 -0.41054288 4292094720
2.4168401 1.8111614 -0.39887425 4292094720
2.4266822 1.818656 -0.38826531 4292225280
2.4343166 1.824497 -0.37677553 4292225280
2.4065275 1.8037874 -0.35948899 4292094720
2.4228148 1.8161142 -0.34844249 4292094720
2.4458587 1.8335078 -0.33775514 4292225280
2.4549887 1.8404723 -0.32458371 4292225280
2.4273186 1.8198475 -0.3062984 4292094720
2.4082942 1.8057024 -0.28904796 4292094720
2.4359679 1.8265715 -0.27702507 4292225280
2.4370098 1.8274722 -0.26148629 4292225280
2.4163909 1.812129 -0.24346323 4292094720
2.4194982 1.8145782 -0.22767705 4292094720
2.4431236 1.8324167 -0.21339126 4292225280
2.4591296 1.8445423 -0.19793674 4292225280
2.4195628 1.8149829 -0.17795748 4292094720
2.3746729 1.7814263 -0.15798208 4291833600
2.4460988 1.8351285 -0.14538102 4292225280
2.436897 1.8283446 -0.1273886 4292094720
2.3339562 1.7512254 -0.10516587 4291703040
2.4387207 1.8299524 -0.092169277 4292094720
2.4782879 1.8597643 -0.075557992 4292355840
2.5124495 1.8855233 -0.058159657 4292486400
2.4818537 1.862684 -0.039173268 4292355840
2.4451103 1.8352274 -0.020543311 4292225280
1.789703 1.3433859 -0.0018081472 4289352960
1.5536354 1.1662652 0.0099162627 4288439040
-4.8515286 -3.6421287 -0.066800758 4278190335
1.5902231 1.1938868 0.033618759 4288569600
1.7515407 1.3150847 0.049901996 4289222400
1.7374693 1.304605 0.062217686 4289222400
1.7261369 1.2961807 0.074379347 4289091840
1.7280681 1.2977159 0.08696416 4289222400
1.7417693 1.3080906 0.10016007 4289222400
1.7222232 1.2934958 0.11129533 4289091840
1.6749064 1.2580402 0.12004305 4288961280
1.6880522 1.2679971 0.13275234 4288961280
1.6015636 1.203109 0.13697815 4288700160
1.522418 1.1437291 0.14054987 4288308480
1.4030491 1.0541211 0.13891847 4287786240
1.720677 1.2928418 0.18169534 4289091840
1.7452003 1.3113533 0.19557226 4289222400
1.7323774 1.3018034 0.20512635 4289222400
1.6947085 1.2735802 0.21119693 4289091840
1.5992889 1.2019506 0.20902327 4288700160
1.7459077 1.3122282 0.23854163 4289222400
1.7354099 1.3044233 0.24713713 4289222400
1.7062095 1.2825588 0.25256893 4289091840
1.581043 1.1885487 0.24266557 4288569600
1.4910249 1.1209509 0.23672648 4288177920
1.5951822 1.1993347 0.26140603 4288700160
1.6165047 1.2154455 0.27285299 4288700160
1.5575678 1.1712077 0.27027041 4288569600
1.5377644 1.1563921 0.27380326 4288439040
1.499017 1.127328 0.27339414 4288308480
1.5530986 1.1680762 0.2896587 4288439040
1.7170115 1.2914385 0.32693946 4289222400
1.7136824 1.2890189 0.33262891 4289222400
1.7157792 1.2906805 0.33898419 4289222400
1.7095606 1.2860867 0.34329328 4289222400
1.7090967 1.2858218 0.34834009 4289222400
1.7110538 1.2873784 0.35348138 4289222400
1.7045906 1.2825994 0.35646245 4289222400
1.7056866 1.2835081 0.36059651 4289222400
1.6976222 1.2775232 0.36236057 4289091840
1.7035574 1.2820735 0.36668494 4289222400
1.68822 1.2706138 0.36598977 4289091840
1.6878878 1.2704468 0.36809605 4289091840
1.6876123 1.2703226 0.36978373 4289091840
1.6913292 1.2732037 0.37191626 4289091840
1.6872361 1.2702055 0.3718968 4289091840
1.6910704 1.2731754 0.37318808 4289091840
1.6941655 1.2755889 0.37388009 4289091840
1.6910381 1.2733175 0.37276182 4289091840
1.6996924 1.2799176 0.37380034 4289091840
1.6955863 1.2769091 0.37159368 4289091840
1.7004455 1.2806523 0.37091517 4289091840
1.7020291 1.2819287 0.36908138 4289222400
1.7060076 1.2850091 0.36732754 4289222400
1.7090917 1.2874163 0.36494082 4289222400
1.7139837 1.2911857 0.36249924 4289222400
1.7159526 1.2927535 0.35900301 4289222400
1.713948 1.2913277 0.35425878 4289222400
1.715827 1.2928278 0.34990606 4289222400
1.6980799 1.2795396 0.34119377 4289091840
1.6549203 1.2470994 0.32717368 4288961280
1.5726579 1.1851864 0.30546972 4288569600
1.5962117 1.2030156 0.30416551 4288700160
1.5740019 1.1863542 0.29379147 4288569600
1.6013396 1.207038 0.2923032 4288700160
1.6985878 1.2808808 0.25682452 4289091840
1.707972 1.2880416 0.24879728 4289091840
1.6815999 1.2682363 0.23538099 4288961280
1.5618197 1.1779768 0.20947789 4288569600
1.5927379 1.201375 0.20406893 4288569600
1.6064738 1.2118149 0.1959618 4288700160
1.6942377 1.2781016 0.19603226 4289091840
1.702861 1.2846907 0.18612275 4289091840
1.6759472 1.2644688 0.17224407 4288961280
1.7035176 1.285354 0.1637679 4289091840
1.7109395 1.2910385 0.15294172 4289091840
1.711917 1.2918606 0.14131498 4289091840
1.6993594 1.282468 0.12849662 4289091840
1.7153696 1.2946351 0.11767267 4289091840
1.5190231 1.146522 0.093432687 4288308480
1.5435314 1.1650964 0.08389204 4288439040
1.4848202 1.1208529 0.069985218 4288177920
1.934334 1.4602749 0.077113256 4290005760
2.4651186 1.8610985 0.080249064 4292225280
2.4933898 1.8825655 0.062849954 4292355840
2.4823515 1.8743538 0.044264987 4292355840
2.4474082 1.8480898 0.025544928 4292225280
2.4178755 1.8259082 0.0073300437 4292094720
2.4149935 1.8238511 -0.010572725 4292094720
2.4200809 1.8278124 -0.028516153 4292094720
2.3945413 1.8086414 -0.045917671 4291964160
2.385998 1.8023062 -0.063344628 4291964160
2.4010115 1.8137653 -0.081376724 4291964160
2.4373856 1.8413631 -0.10042181 4292225280
2.4328487 1.8380558 -0.1179065 4292094720
2.4030857 1.815688 -0.13379423 4291964160
2.3976271 1.811682 -0.15063728 4291964160
2.4202671 1.8289086 -0.16920435 4292094720
2.4187043 1.827847 -0.18604565 4292094720
2.361656 1.7848513 -0.19801119 4291833600
2.3937609 1.8092332 -0.21706077 4291964160
2.4165132 1.8265491 -0.23539831 4292094720
2.4218767 1.8307226 -0.25197351 4292094720
2.3936901 1.8095342 -0.26463404 4291964160
2.2959981 1.7357963 -0.26851165 4291572480
2.4040091 1.8175724 -0.29620203 4292094720
2.4146829 1.8257614 -0.31231418 4292094720
2.4008267 1.8154033 -0.32489029 4292094720
2.3634586 1.7872639 -0.33362278 4291964160
2.313015 1.7492323 -0.33963358 4291703040
2.4211097 1.8310992 -0.36885363 4292225280
2.426919 1.8356127 -0.38270429 4292225280
2.4180083 1.8289924 -0.3937887 4292225280
2.4132361 1.825502 -0.40503353 4292094720
2.3779528 1.7989291 -0.41050676 4291964160
2.3865945 1.8055845 -0.42296818 4292094720
2.3939683 1.8112814 -0.43479621 4292094720
2.4042873 1.8192077 -0.44673932 4292094720
2.3915997 1.8097256 -0.45388982 4292094720
2.3858252 1.8054739 -0.46176016 4292094720
2.3886979 1.8077658 -0.47076222 4292094720
2.3670204 1.7914772 -0.47432247 4291964160
2.350064 1.7787601 -0.47815764 4291964160
2.3118868 1.7499781 -0.47696146 4291703040
2.2656827 1.7151158 -0.47332788 4291572480
2.291667 1.734899 -0.48416695 4291703040
2.3098414 1.7487723 -0.49289298 4291703040
2.2476425 1.7017928 -0.48381665 4291441920
2.2510343 1.7044721 -0.48818421 4291572480
2.2725623 1.7208853 -0.49594998 4291572480
2.2721703 1.7207007 -0.49838135 4291572480
2.2797074 1.7265214 -0.50197506 4291703040
2.2794709 1.7264549 -0.50327581 4291703040
2.2683239 1.7181243 -0.50157446 4291572480
2.2564728 1.7092594 -0.49912536 4291572480
2.2494118 1.7040219 -0.49715158 4291572480
2.3149383 1.7537755 -0.5106107 4291833600
2.2962625 1.7397404 -0.50488329 4291703040
2.2776625 1.7257608 -0.49861258 4291703040
2.2622759 1.7142146 -0.49249867 4291572480
2.3040583 1.7459886 -0.49821216 4291703040
2.3696172 1.7957855 -0.50831115 4291964160
2.3800492 1.8038092 -0.50585866 4292094720
2.3795102 1.8035182 -0.50046581 4292094720
2.3887694 1.8106543 -0.49653026 4292094720
2.3856065 1.8083749 -0.48942199 4292094720
2.3793552 1.8037537 -0.48113987 4292094720
2.3716607 1.7980381 -0.47205231 4291964160
2.3686566 1.7958779 -0.46338809 4291964160
2.3853095 1.8086218 -0.45798549 4292094720
2.4025164 1.8217876 -0.45203632 4292094720
2.4110234 1.8283575 -0.44383118 4292225280
2.4007542 1.8206888 -0.43167144 4292094720
2.3825305 1.8069862 -0.41771466 4292094720
2.3632305 1.7924653 -0.40326604 4291964160
2.3836701 1.8080865 -0.3951318 4292094720
2.3959079 1.8174878 -0.38502923 4292094720
2.391149 1.8139961 -0.37172368 4292094720
2.3686919 1.7970768 -0.35539514 4291964160
2.3809247 1.8064754 -0.34392583 4291964160
2.398319 1.8197917 -0.33264878 4292094720
2.3994687 1.8207828 -0.31864035 4292094720
2.3994153 1.8208611 -0.30411091 4292094720
2.3624532 1.7929283 -0.28479499 4291964160
2.3800678 1.8064144 -0.27186024 4291964160
2.3918824 1.8154999 -0.25777483 4291964160
2.3817489 1.8079261 -0.2410301 4291964160
2.3636129 1.7942766 -0.22339812 4291833600
2.3989551 1.8212245 -0.21045665 4292094720
2.4101901 1.8298732 -0.1948524 4292094720
2.3819151 1.8085241 -0.17596051 4291964160
2.322103 1.7632254 -0.15516552 4291703040
2.3892262 1.814312 -0.1426267 4291964160
2.4071066 1.8280091 -0.12638593 4292094720
2.3688362 1.799063 -0.10720801 4291833600
2.4009542 1.8235745 -0.091141932 4291964160
2.4375517 1.8514919 -0.074643642 4292225280
2.4799943 1.883853 -0.057661463 4292355840
2.4478686 1.859571 -0.038807202 4292225280
2.3846946 1.8116977 -0.020124054 4291964160
1.8580449 1.4116839 -0.0018854709 4289744640
1.4669605 1.1146231 0.0094043408 4288047360
1.3043441 0.9911288 0.018038733 4287394560
1.5864246 1.2055513 0.033686373 4288569600
1.7243109 1.3104188 0.049342893 4289222400
1.7171748 1.3050808 0.061762195 4289091840
1.709734 1.2995104 0.073997535 4289091840
1.7165006 1.3047386 0.086763121 4289091840
1.7190087 1.3067302 0.099287346 4289222400
1.706609 1.297389 0.1107729 4289091840
1.6593757 1.2615638 0.11945473 4288961280
1.6857915 1.2817304 0.13315958 4288961280
1.5394415 1.1705348 0.13224603 4288439040
1.4628112 1.1123405 0.13564296 4288047360
1.3452232 1.0229918 0.1337809 4287655680
1.6223708 1.2338326 0.17207085 4288830720
1.7145048 1.3039867 0.19298056 4289222400
1.7168397 1.3058475 0.20418395 4289222400
1.6904155 1.2858329 0.21159197 4289091840
1.5851347 1.2058284 0.20808804 4288569600
1.7273604 1.3141067 0.23704959 4289222400
1.7224059 1.310423 0.24636836 4289222400
1.6959455 1.2903757 0.25215816 4289091840
1.5519744 1.1809111 0.23925598 4288439040
1.4465744 1.100783 0.23068354 4288047360
1.663435 1.2658874 0.27379474 4288961280
1.6394228 1.2476952 0.2779437 4288830720
1.5446978 1.1756806 0.26922122 4288439040
1.4742806 1.1221588 0.26365945 4288177920
1.4656526 1.1156642 0.26849005 4288177920
1.5383968 1.171114 0.28818446 4288439040
1.700096 1.2942928 0.32514894 4289091840
1.7043443 1.2976116 0.33227816 4289222400
1.694965 1.2905548 0.33635181 4289091840
1.6944048 1.2902124 0.34175357 4289091840
1.6931733 1.2893586 0.34661984 4289091840
1.693759 1.2898886 0.35145506 4289091840
1.6908802 1.2877803 0.35515833 4289091840
1.6828009 1.2817106 0.35733092 4289091840
1.6776826 1.2778956 0.35968757 4289091840
1.6772552 1.2776532 0.36261964 4289091840
1.6702019 1.2723633 0.36368454 4289091840
1.6698726 1.2721953 0.36577755 4289091840
1.6735172 1.2750552 0.36831683 4289091840
1.6772182 1.2779582 0.3704443 4289091840
1.6731433 1.2749363 0.3704215 4289091840
1.6691276 1.2719593 0.36997485 4289091840
1.6690876 1.2720118 0.369975 4289091840
1.6796863 1.2801723 0.37189731 4289091840
1.6797525 1.2803062 0.37104931 4289091840
1.6766763 1.2780448 0.36907512 4289091840
1.6812618 1.2816236 0.36835319 4289091840
1.6853721 1.2848406 0.36708638 4289091840
1.6909213 1.2891551 0.36569026 4289091840
1.6918002 1.2899092 0.36284718 4289091840
1.690217 1.2887861 0.35905468 4289091840
1.6891829 1.2880815 0.35496649 4289091840
1.692832 1.2909482 0.35144293 4289091840
1.6855062 1.2854453 0.34524423 4289091840
1.6775872 1.2794893 0.33856827 4289091840
1.6613897 1.2672181 0.3299067 4288961280
1.6475234 1.2567235 0.32142818 4288961280
1.6706194 1.2744241 0.31975374 4289091840
1.6713352 1.2750531 0.31334028 4289091840
1.6681551 1.27271 0.30584785 4288961280
1.6700689 1.274706 0.25363114 4288961280
1.680733 1.2829291 0.24591407 4289091840
1.6591731 1.2665546 0.23327079 4288961280
1.5718133 1.1999453 0.2117524 4288569600
1.5026871 1.147248 0.19338433 4288308480
1.5542952 1.1867263 0.19043709 4288439040
1.6922071 1.2921082 0.196665 4289091840
1.6756272 1.2795317 0.1839578 4288961280
1.667287 1.2732459 0.17211352 4288961280
1.6801517 1.2831539 0.16223758 4288961280
1.6843637 1.2864543 0.15123352 4289091840
1.6932597 1.2933329 0.14039451 4289091840
1.6807534 1.283864 0.12765317 4288961280
1.6913888 1.2920723 0.11654205 4289091840
1.5123174 1.1553527 0.093432687 4288308480
1.4700171 1.1231101 0.08025077 4288177920
1.5251275 1.165291 0.072203837 4288308480
1.9269609 1.4724121 0.077160016 4290005760
2.4367692 1.8620836 0.079678006 4292225280
2.4633141 1.8824906 0.062367253 4292355840
2.4467511 1.8699548 0.043823697 4292225280
2.4034562 1.8369858 0.025197461 4292094720
2.3722389 1.8132441 0.0072235963 4291964160
2.3883145 1.8256507 -0.010502315 4291964160
2.397877 1.8330796 -0.028379884 4292094720
2.3792825 1.8189833 -0.045827515 4291964160
2.3670566 1.8097544 -0.063120618 4291964160
2.3639107 1.8074667 -0.080474824 4291833600
2.379261 1.8193222 -0.098462097 4291964160
2.3828421 1.8221792 -0.11599551 4291964160
2.3801975 1.8202754 -0.13310812 4291964160
2.3591924 1.804329 -0.14888048 4291833600
2.3801944 1.8205101 -0.16714151 4291964160
2.3822517 1.8222022 -0.18405524 4291964160
2.3452497 1.7940158 -0.19750865 4291833600
2.3799186 1.8206546 -0.21676378 4291964160
2.4006977 1.8366704 -0.23489611 4292094720
2.4084027 1.8426851 -0.2516844 4292094720
2.3742824 1.8166976 -0.26365414 4291964160
2.2708223 1.7376475 -0.26674682 4291572480
2.3859539 1.8258657 -0.29528314 4292094720
2.3988843 1.8358804 -0.31164899 4292094720
2.4027498 1.8389584 -0.32659486 4292094720
2.3753495 1.8181058 -0.33679089 4291964160
2.2688711 1.7367196 -0.33463177 4291572480
2.4103413 1.8451289 -0.36884463 4292225280
2.4133103 1.8475219 -0.38224927 4292225280
2.4211049 1.8536097 -0.39604509 4292225280
2.4092422 1.8446476 -0.40616015 4292225280
2.3725207 1.8166498 -0.4113892 4291964160
2.3806717 1.8230098 -0.4237937 4292094720
2.3833747 1.8251984 -0.43479621 4292094720
2.3861039 1.8274075 -0.44533142 4292094720
2.388865 1.829641 -0.45538616 4292094720
2.3980188 1.8367715 -0.46618345 4292225280
2.3824327 1.8249521 -0.47161502 4292094720
2.361367 1.8089333 -0.47529352 4291964160
2.3553324 1.8044279 -0.48136044 4291964160
2.3204505 1.7778205 -0.48085701 4291833600
2.2634816 1.7342864 -0.47497091 4291572480
2.2854338 1.7512202 -0.48499748 4291703040
2.3035262 1.7651983 -0.49373159 4291833600
2.3138552 1.7732289 -0.50028461 4291833600
