# .PCD v0.7 - Point Cloud Data file format
VERSION 0.7
FIELDS x y z rgba
SIZE 4 4 4 4
TYPE F F F U
COUNT 1 1 1 1
WIDTH 1104
HEIGHT 1
VIEWPOINT 0 0 0 1 0 0 0
POINTS 1104
DATA ascii
3.3351536 -1.1800114 0.60645127 4293922560
3.3437951 -1.1829495 0.61237842 4293922560
3.3478987 -1.184283 0.61677188 4294053120
3.3346093 -1.1794696 0.61722904 4293922560
3.334296 -1.1792419 0.61935234 4293922560
3.3303838 -1.1777424 0.62007731 4293922560
3.3422325 -1.1818107 0.62300998 4293922560
3.3376262 -1.1800654 0.62214446 4293922560
3.337781 -1.1800017 0.62143534 4293922560
3.3545074 -1.1857904 0.62307513 4294053120
3.354439 -1.1856469 0.62085491 4294053120
3.3586457 -1.1870124 0.61869365 4294053120
3.3610284 -1.1877335 0.61546415 4294053120
3.3567436 -1.1861002 0.61029482 4294053120
3.3584385 -1.1865779 0.60550159 4294053120
3.365597 -1.1889836 0.60097075 4294053120
3.3625996 -1.1878041 0.59391737 4294053120
3.3717134 -1.1908985 0.5882979 4294053120
3.3598354 -1.1865851 0.57833779 4294053120
3.3437111 -1.1807743 0.5670436 4293922560
3.3388455 -1.1789361 0.55705649 4293922560
3.3554463 -1.1846699 0.54997265 4294053120
3.3739684 -1.1910797 0.54246241 4294053120
3.3633955 -1.1872275 0.52962434 4294053120
3.3612127 -1.1863343 0.51754224 4294053120
3.3217947 -1.1716421 0.42318627 4293792000
3.3509037 -1.1817749 0.41118667 4293922560
3.3765481 -1.1906849 0.39803943 4294053120
3.3543804 -1.1827499 0.37879077 4293922560
3.3239841 -1.171918 0.35845292 4293792000
3.3492079 -1.1806775 0.34374294 4293922560
3.3530505 -1.1819053 0.32630196 4293922560
3.3364015 -1.1759171 0.30657208 4293792000
3.3159215 -1.1685814 0.28635365 4293792000
3.334621 -1.1750399 0.26921523 4293792000
3.3410361 -1.1771727 0.25064468 4293792000
3.3477228 -1.1794006 0.23174314 4293792000
3.3164372 -1.1682642 0.21009775 4293792000
3.3590281 -1.1831268 0.19284287 4293922560
3.3588183 -1.1829263 0.17266132 4293922560
3.3521483 -1.1804529 0.15199895 4293792000
3.3209093 -1.169337 0.13028325 4293792000
3.3398542 -1.1758755 0.11047549 4293792000
3.3332088 -1.1734121 0.089620285 4293792000
3.3258281 -1.1706905 0.068733364 4293792000
3.3217914 -1.1691455 0.047910996 4293792000
3.3287315 -1.17146 0.027176913 4293792000
3.3328655 -1.1727875 0.006318789 4293792000
3.300148 -1.1611607 -0.014445477 4293661440
3.3137283 -1.1658093 -0.0352703 4293661440
3.3266065 -1.1702099 -0.05621735 4293792000
3.3315871 -1.1718345 -0.077085413 4293792000
3.2955549 -1.159048 -0.096738607 4293661440
3.3281217 -1.1703653 -0.11826675 4293792000
3.3341756 -1.1723664 -0.13897072 4293792000
3.3400664 -1.1743097 -0.15959263 4293792000
3.310797 -1.1639038 -0.17822991 4293661440
3.3193011 -1.1667656 -0.19857514 4293792000
3.3220468 -1.1676047 -0.21843046 4293792000
3.3266118 -1.1690825 -0.23821217 4293792000
3.3205488 -1.166829 -0.25696903 4293792000
3.3334005 -1.1712155 -0.27694455 4293792000
3.3479245 -1.1761882 -0.29691169 4293922560
3.3461268 -1.1754318 -0.31518254 4293792000
3.3135574 -1.1638774 -0.33003139 4293792000
3.3293324 -1.1692886 -0.34922904 4293792000
3.339946 -1.1728879 -0.36764058 4293792000
3.3411677 -1.1731919 -0.38467592 4293922560
3.3358867 -1.1712151 -0.40051845 4293792000
3.28878 -1.1545691 -0.41065311 4293661440
3.3463938 -1.1746519 -0.43342167 4293922560
3.3531978 -1.1769135 -0.4494372 4293922560
3.362638 -1.1800994 -0.46537372 4293922560
3.3537645 -1.1768641 -0.47826141 4293922560
3.358582 -1.1784291 -0.49254113 4293922560
3.3235502 -1.1660264 -0.50031441 4293792000
3.3335803 -1.1694195 -0.51419324 4293922560
3.3348212 -1.1697321 -0.52617598 4293922560
3.3426378 -1.1723487 -0.53862554 4293922560
3.3431542 -1.1724075 -0.54931331 4293922560
3.3337603 -1.1689947 -0.55772012 4293922560
3.331578 -1.1681089 -0.56665707 4293922560
3.3364403 -1.169691 -0.57614487 4293922560
3.3319969 -1.1680138 -0.58336616 4293922560
3.3124087 -1.1610339 -0.58721274 4293792000
3.3081651 -1.1594285 -0.59304428 4293792000
3.2991734 -1.1561613 -0.59731418 4293792000
3.2994683 -1.156146 -0.60255378 4293792000
3.2704575 -1.145873 -0.6017108 4293661440
3.274545 -1.1471868 -0.60621262 4293792000
3.2871082 -1.1514667 -0.61159128 4293792000
3.2830484 -1.149929 -0.61317778 4293792000
3.2865393 -1.1510341 -0.61545599 4293792000
3.2827096 -1.1495779 -0.61564785 4293792000
3.2687716 -1.1445861 -0.61322659 4293661440
3.2888489 -1.1514938 -0.61645675 4293792000
3.2963791 -1.154012 -0.61661321 4293792000
3.3132031 -1.15978 -0.61777318 4293922560
3.3178625 -1.1612936 -0.61593437 4293922560
3.3322866 -1.1662213 -0.61516911 4293922560
3.3316035 -1.1658666 -0.6108892 4293922560
3.3321288 -1.1659346 -0.60612023 4293922560
3.3327186 -1.1660254 -0.6006574 4293922560
3.3240221 -1.1628708 -0.59284228 4293922560
3.3315279 -1.1653793 -0.58722663 4293922560
3.3280623 -1.1640538 -0.57899386 4293922560
3.3218796 -1.1617794 -0.56964463 4293922560
3.3032317 -1.1551507 -0.55757123 4293792000
3.3044453 -1.1554618 -0.54825085 4293792000
3.3187304 -1.1603392 -0.54042006 4293792000
3.3445144 -1.1692321 -0.53371292 4293922560
3.3546181 -1.1726472 -0.5237807 4293922560
3.333776 -1.1652557 -0.50847018 4293922560
3.3126056 -1.157751 -0.49268863 4293792000
3.3006072 -1.1534501 -0.47783935 4293792000
3.3183546 -1.1595348 -0.4667241 4293792000
3.3220675 -1.1607195 -0.45302498 4293792000
3.331243 -1.1638107 -0.4395051 4293792000
3.2897849 -1.1492304 -0.4189761 4293661440
3.2956877 -1.1511804 -0.40416175 4293661440
3.3215065 -1.1600796 -0.39118263 4293792000
3.3355079 -1.1648542 -0.3761864 4293792000
3.3280265 -1.1621332 -0.35832584 4293792000
3.2803867 -1.1454043 -0.3360444 4293661440
3.3065157 -1.1544094 -0.32104266 4293661440
3.3194242 -1.158802 -0.30419946 4293792000
3.3248925 -1.1605994 -0.28624386 4293792000
3.2948222 -1.1500039 -0.26506501 4293661440
3.3169796 -1.1576209 -0.2478312 4293792000
3.3182385 -1.1579505 -0.22863856 4293792000
3.3261867 -1.160612 -0.20960493 4293792000
3.286284 -1.1465936 -0.18753184 4293661440
3.3035676 -1.1525096 -0.16864239 4293661440
3.3243103 -1.1596301 -0.14951904 4293792000
3.3177648 -1.1572399 -0.12892918 4293661440
3.3036027 -1.1521964 -0.10803555 4293661440
3.3263979 -1.1600301 -0.088175304 4293792000
3.3400362 -1.1646723 -0.067755975 4293792000
3.324086 -1.1590067 -0.046686646 4293661440
3.327441 -1.1600664 -0.025915921 4293792000
3.3498349 -1.1677567 -0.0051037921 4293792000
3.3488414 -1.1673009 0.015876273 4293792000
3.291204 -1.1471211 0.036191009 4293661440
3.3560038 -1.1695752 0.057875663 4293792000
3.3721869 -1.1750993 0.0791535 4293922560
3.3690639 -1.1739016 0.099967942 4293922560
3.247288 -1.1314032 0.11636177 4293400320
3.3546925 -1.1686785 0.1407837 4293792000
3.3649142 -1.1721258 0.16167676 4293922560
3.3430266 -1.1643988 0.18077424 4293792000
3.107275 -1.0822592 0.18653819 4293008640
3.369812 -1.1734979 0.2222295 4293922560
3.3740566 -1.1748636 0.24217956 4293922560
3.3517458 -1.1669916 0.2598491 4293792000
3.1718996 -1.1043272 0.2638509 4293269760
3.3825498 -1.1774834 0.30025199 4293922560
3.3948381 -1.1816449 0.31992814 4294053120
3.3812582 -1.1768106 0.33680221 4293922560
3.3054852 -1.1503533 0.34662789 4293661440
3.1184163 -1.0852085 0.34302312 4293008640
3.3763297 -1.1747606 0.38836896 4293922560
3.3701842 -1.1725121 0.40414008 4293922560
3.3510821 -1.1657608 0.41778111 4293922560
3.3212092 -1.1552674 0.42937899 4293792000
3.2596924 -1.13378 0.43598506 4293530880
3.3799376 -1.1754503 0.46667066 4294053120
3.3794868 -1.1751802 0.48066714 4294053120
3.375891 -1.1738174 0.49365252 4294053120
3.3728552 -1.1726491 0.50613046 4294053120
3.3253787 -1.1560457 0.51117128 4293792000
3.3177936 -1.153299 0.52156126 4293792000
3.3712273 -1.1717414 0.54109895 4294053120
3.3747079 -1.1728354 0.55217826 4294053120
3.3670673 -1.1700678 0.56078768 4294053120
3.3681424 -1.170326 0.57018077 4294053120
3.3636274 -1.1686436 0.57795709 4294053120
3.3663015 -1.1694564 0.58629227 4294053120
3.3522091 -1.1644499 0.59099948 4293922560
3.3377328 -1.1593109 0.59489167 4293922560
3.3296864 -1.1564038 0.59919363 4293922560
3.3466237 -1.1621648 0.60730416 4293922560
3.3459716 -1.1618224 0.61153501 4293922560
3.3381264 -1.1589848 0.61372441 4293922560
3.3330441 -1.1571057 0.61568886 4293922560
3.3327301 -1.1568804 0.61780685 4293922560
3.3371849 -1.1583083 0.620085 4293922560
3.3537097 -1.1639208 0.62388355 4294053120
3.3351352 -1.1573629 0.62042046 4293922560
3.3315666 -1.1560081 0.61902148 4293922560
3.3483257 -1.1616994 0.62066674 4293922560
3.356632 -1.1644596 0.62000269 4294053120
3.348758 -1.1616114 0.6156224 4293922560
3.3585763 -1.1648943 0.61376971 4294053120
3.3682494 -1.168126 0.61114776 4294053120
3.3606331 -1.1653666 0.60467094 4294053120
3.3640771 -1.1664391 0.59948349 4294053120
3.3741193 -1.1697965 0.59474695 4294053120
3.3608024 -1.1650627 0.58520699 4294053120
3.3536294 -1.1624572 0.57610136 4293922560
3.3542624 -1.1625549 0.56768328 4293922560
3.3503211 -1.1610686 0.55784166 4293922560
3.3529489 -1.1618565 0.54845208 4293922560
3.3715038 -1.1681572 0.54097033 4294053120
3.3655779 -1.1659831 0.52889723 4294053120
3.3633878 -1.165102 0.5168311 4293922560
3.3201163 -1.1493372 0.42211941 4293792000
3.3491976 -1.1592708 0.4101488 4293922560
3.3787279 -1.1693574 0.3974942 4293922560
3.3527529 -1.1602513 0.37784439 4293922560
3.3175888 -1.1479703 0.35704237 4293792000
3.3381529 -1.1549549 0.34191781 4293792000
3.3598762 -1.1623386 0.32630971 4293922560
3.3384845 -1.1548204 0.30614746 4293792000
3.3179605 -1.1476035 0.28595477 4293792000
3.3357558 -1.1536279 0.26876685 4293792000
3.3414266 -1.1554621 0.25017175 4293792000
3.3487585 -1.1578696 0.23135103 4293792000
3.3196566 -1.1476922 0.20988184 4293661440
3.3564231 -1.1602653 0.1923085 4293792000
3.3592336 -1.1611098 0.17233892 4293792000
3.3544514 -1.1593323 0.15180171 4293792000
3.3238845 -1.1486529 0.13014241 4293661440
3.3419218 -1.1547546 0.1103265 4293792000
3.3399863 -1.1539607 0.089627989 4293792000
3.3184133 -1.1463892 0.068446256 4293661440
3.3248806 -1.1484963 0.047865305 4293661440
3.322264 -1.1474681 0.027074436 4293661440
3.3222077 -1.1473235 0.0062903604 4293661440
3.2790358 -1.1323047 -0.01432151 4293530880
3.3128262 -1.1438371 -0.035182968 4293661440
3.3164687 -1.1449689 -0.055927943 4293661440
3.3143227 -1.1441038 -0.076527476 4293661440
3.3022499 -1.1398159 -0.096730985 4293661440
3.3301578 -1.1493143 -0.11809248 4293792000
3.3361073 -1.1512402 -0.13876265 4293792000
3.3421276 -1.1531901 -0.15936072 4293792000
3.3000536 -1.1385623 -0.17728765 4293661440
3.3184073 -1.1447639 -0.19811338 4293661440
3.3240733 -1.1465919 -0.21811423 4293792000
3.3154421 -1.1434933 -0.23692769 4293661440
3.3131447 -1.1425775 -0.25587219 4293661440
3.3354533 -1.1501389 -0.27654716 4293792000
3.3387046 -1.1511341 -0.29549032 4293792000
3.350337 -1.1550158 -0.31493288 4293792000
3.3237798 -1.1457449 -0.33037066 4293792000
3.3163307 -1.1430559 -0.34715804 4293792000
3.3326962 -1.1485673 -0.3660956 4293792000
3.3386183 -1.1504823 -0.38359886 4293792000
3.3398459 -1.150781 -0.40017512 4293792000
3.2943659 -1.1350029 -0.41051072 4293661440
3.3447323 -1.1522154 -0.43232423 4293922560
3.3599968 -1.1573447 -0.44942945 4293922560
3.363833 -1.1585406 -0.46459085 4293922560
3.3605633 -1.1572919 -0.47825366 4293922560
3.3522761 -1.1543174 -0.49061757 4293922560
3.3213906 -1.1435704 -0.49897271 4293792000
3.3319139 -1.1470681 -0.51289135 4293922560
3.3331609 -1.1473751 -0.524845 4293922560
3.3316467 -1.1467328 -0.53576607 4293922560
3.3321714 -1.1467919 -0.54639894 4293922560
3.3321066 -1.1466485 -0.55631113 4293922560
3.3395038 -1.1490706 -0.56684887 4293922560
3.3301301 -1.1457279 -0.57388884 4293922560
3.3210161 -1.1424751 -0.58026582 4293792000
3.3144522 -1.1400999 -0.58638132 4293792000
3.3102009 -1.1385199 -0.59220386 4293792000
3.29653 -1.1337042 -0.5956248 4293792000
3.2977593 -1.1340085 -0.6010198 4293792000
3.2640314 -1.1223049 -0.59931171 4293661440
3.2765143 -1.1264763 -0.60534579 4293661440
3.2853765 -1.1294036 -0.6100294 4293792000
3.2850344 -1.1291697 -0.6123035 4293792000
3.2848067 -1.1289754 -0.61388427 4293792000
3.2753806 -1.1256232 -0.61302966 4293661440
3.2670019 -1.1226317 -0.6116522 4293661440
3.2908444 -1.1307013 -0.61557937 4293792000
3.3030462 -1.1347742 -0.61660558 4293792000
3.3115191 -1.1375668 -0.61620784 4293792000
3.3105962 -1.1371348 -0.61334157 4293792000
3.3166595 -1.1391002 -0.61104751 4293792000
3.3225057 -1.1409912 -0.60798872 4293922560
3.3388646 -1.1464883 -0.60611248 4293922560
3.3347924 -1.1449764 -0.59981233 4293922560
3.3307402 -1.1434718 -0.59283459 4293922560
3.3335948 -1.1443366 -0.58639956 4293922560
3.3217187 -1.14015 -0.57672089 4293792000
3.3285913 -1.1423931 -0.56963694 4293922560
3.2958922 -1.1310687 -0.55520701 4293792000
3.3017743 -1.1329732 -0.54669833 4293792000
3.3076682 -1.1348816 -0.53753024 4293792000
3.3288181 -1.1420188 -0.53013593 4293792000
3.3426743 -1.146655 -0.52086133 4293922560
3.3273985 -1.1413077 -0.50647062 4293792000
3.3052411 -1.1336037 -0.49059889 4293792000
3.29831 -1.1311181 -0.47653949 4293661440
3.3119233 -1.1356713 -0.46487698 4293792000
3.3321407 -1.142486 -0.45347476 4293792000
3.3313975 -1.1421202 -0.43863422 4293792000
3.295898 -1.1298515 -0.4189018 4293661440
3.2978446 -1.1304085 -0.4036054 4293661440
3.3273494 -1.1404018 -0.39107421 4293792000
3.3337696 -1.1424897 -0.37522775 4293792000
3.3253269 -1.1394891 -0.35730904 4293792000
3.2811072 -1.1242422 -0.33543548 4293661440
3.313184 -1.1351131 -0.321035 4293661440
3.3175523 -1.136499 -0.30341041 4293661440
3.3089638 -1.1334506 -0.28429687 4293661440
3.2882566 -1.1262563 -0.264 4293661440
3.3180065 -1.1363273 -0.24740277 4293661440
3.3145444 -1.1350338 -0.22791924 4293661440
3.3215685 -1.1373281 -0.20888767 4293661440
3.2787344 -1.1225679 -0.18672022 4293530880
3.31495 -1.134847 -0.16887447 4293661440
3.3215547 -1.1369973 -0.14908898 4293661440
3.3200941 -1.1363893 -0.1287535 4293661440
3.3053215 -1.1312298 -0.10786779 4293661440
3.3254483 -1.138003 -0.08796674 4293661440
3.3375692 -1.1420381 -0.067563884 4293792000
3.3132696 -1.133623 -0.046436843 4293661440
3.334141 -1.1406486 -0.025908206 4293792000
3.3484516 -1.1454306 -0.0050851465 4293792000
3.3603144 -1.1493752 0.015907267 4293792000
3.3025601 -1.1295314 0.036251403 4293661440
3.3627586 -1.149991 0.057883445 4293792000
3.3751893 -1.154128 0.079072043 4293922560
3.3673298 -1.1513331 0.099722266 4293792000
3.2538221 -1.1124532 0.1163693 4293400320
3.3606882 -1.1488448 0.14075981 4293792000
3.365968 -1.150538 0.16140963 4293922560
3.3450112 -1.143272 0.1805255 4293792000
3.0946283 -1.0576739 0.18541029 4292878080
3.3671436 -1.1506089 0.22161435 4293922560
3.3713994 -1.1519513 0.24150972 4293922560
3.3490465 -1.1442109 0.25912532 4293792000
3.1829941 -1.0874273 0.26425052 4293269760
3.384634 -1.1561358 0.29984152 4293922560
3.3875215 -1.1570097 0.31860438 4293922560
3.3795736 -1.1541861 0.33596602 4293922560
3.3074191 -1.1294577 0.34614214 4293661440
3.1199758 -1.0654049 0.34251305 4293008640
3.3831131 -1.1550585 0.38837677 4293922560
3.3769548 -1.1528459 0.40414789 4293922560
3.3578136 -1.1462059 0.41778889 4293922560
3.3241222 -1.1346054 0.42890143 4293792000
3.181073 -1.0857192 0.42461553 4293269760
3.3773396 -1.1525275 0.46538433 4293922560
3.3768919 -1.152262 0.47934252 4294053120
3.3732927 -1.1509221 0.49229118 4293922560
3.3665061 -1.1484957 0.50417227 4293922560
3.3404839 -1.1395141 0.51247305 4293922560
3.2520053 -1.1092508 0.51019657 4293530880
3.3648911 -1.1476051 0.53900695 4293922560
3.3721254 -1.1499559 0.55065781 4294053120
3.3738234 -1.1504201 0.56079549 4294053120
3.3655529 -1.1474881 0.56860864 4294053120
3.3657033 -1.1474248 0.5771634 4294053120
3.3590434 -1.1450416 0.58386374 4293922560
3.3626676 -1.1461608 0.59166473 4294053120
3.3406925 -1.138563 0.59423494 4293922560
3.3575633 -1.1441921 0.60301036 4293922560
3.3309412 -1.1350133 0.60325485 4293922560
3.3480155 -1.1407102 0.61069173 4293922560
3.3308277 -1.1347443 0.61116409 4293922560
3.335062 -1.1360697 0.61483663 4293922560
3.3394096 -1.1374331 0.61781454 4293922560
3.3345485 -1.1356623 0.61836302 4293922560
3.3298044 -1.1339318 0.61820334 4293922560
3.3418176 -1.1379017 0.6204282 4293922560
3.3382411 -1.1365676 0.61902916 4293922560
3.3503704 -1.1405753 0.61981165 4293922560
3.3549614 -1.1420183 0.61846262 4293922560
3.3591819 -1.1433345 0.61631238 4294053120
3.355134 -1.141839 0.61192226 4293922560
3.3619297 -1.14403 0.60878897 4294053120
3.3626947 -1.1441702 0.60384041 4294053120
3.3661437 -1.1452222 0.59866077 4294053120
3.3668644 -1.1453465 0.59228933 4294053120
3.3591211 -1.1425942 0.58375293 4293922560
3.3603413 -1.1428879 0.57610917 4293922560
3.35256 -1.140123 0.5662691 4293922560
3.3392534 -1.1354812 0.55489492 4293922560
3.3500559 -1.1390297 0.54689169 4293922560
3.3706861 -1.1459152 0.53976655 4294053120
3.3637993 -1.1434537 0.52756953 4293922560
3.3616815 -1.142612 0.51554477 4293922560
3.3215256 -1.1281893 0.42146331 4293792000
3.360595 -1.141323 0.41073194 4293922560
3.364583 -1.1425518 0.39504617 4293922560
3.3508956 -1.1377841 0.37688881 4293792000
3.328928 -1.1302086 0.35755661 4293792000
3.3401089 -1.1338772 0.34144321 4293792000
3.3524423 -1.1379354 0.32494467 4293792000
3.3300602 -1.1302215 0.30477202 4293792000
3.3210576 -1.1270452 0.28565845 4293661440
3.3321121 -1.1306688 0.26794454 4293792000
3.3480988 -1.1359634 0.25017953 4293792000
3.3535578 -1.1376886 0.23122846 4293792000
3.3225026 -1.1270388 0.2096504 4293661440
3.3451548 -1.1345904 0.19128621 4293792000
3.3591244 -1.1391984 0.17199682 4293792000
3.3524225 -1.1368021 0.15141416 4293792000
3.3168502 -1.1246265 0.12961388 4293661440
3.3404591 -1.1324987 0.11006504 4293792000
3.3354023 -1.1306609 0.089332648 4293792000
3.3202987 -1.1254212 0.068355694 4293661440
3.3101311 -1.1218539 0.047562111 4293661440
3.3269107 -1.1274105 0.027065704 4293661440
3.3240974 -1.1263334 0.0062882737 4293661440
3.2812448 -1.1117038 -0.014295824 4293530880
3.3005624 -1.1181185 -0.034978844 4293661440
3.3078098 -1.1204473 -0.055666164 4293661440
3.3187416 -1.1240221 -0.076469764 4293661440
3.2950461 -1.1158807 -0.096323051 4293530880
3.3179429 -1.1235031 -0.11742136 4293661440
3.3285577 -1.1269692 -0.13816844 4293661440
3.3327119 -1.1282495 -0.15859132 4293792000
3.292438 -1.1145049 -0.17652217 4293530880
3.3194263 -1.1235076 -0.19777367 4293661440
3.3163955 -1.1223588 -0.21717322 4293661440
3.3220465 -1.1241454 -0.23691998 4293661440
3.3112402 -1.1203685 -0.25521103 4293661440
3.3313191 -1.1270316 -0.27565014 4293792000
3.3454354 -1.1316781 -0.29548979 4293792000
3.3385503 -1.129227 -0.31319788 4293792000
3.3030434 -1.1171056 -0.32765606 4293661440
3.326786 -1.1250044 -0.34755194 4293792000
3.3332889 -1.1270778 -0.36542705 4293792000
3.3394952 -1.1290506 -0.38293111 4293792000
3.3333127 -1.1268392 -0.39859462 4293792000
3.296217 -1.1141888 -0.40991917 4293661440
3.3552313 -1.1339941 -0.43281126 4293922560
3.3568959 -1.1344326 -0.44811779 4293922560
3.3517344 -1.1325667 -0.4619979 4293922560
3.3543072 -1.1333122 -0.47641128 4293922560
3.3438442 -1.129658 -0.48840839 4293922560
3.318615 -1.1210214 -0.49756101 4293792000
3.3319793 -1.12541 -0.51187754 4293792000
3.3342464 -1.1260535 -0.52396792 4293792000
3.3335867 -1.1257097 -0.53500789 4293792000
3.337743 -1.1269908 -0.54621923 4293922560
3.3289008 -1.1238875 -0.55466837 4293792000
3.3283644 -1.1235864 -0.56383467 4293792000
3.3386307 -1.1269284 -0.57420433 4293922560
3.3281815 -1.1232851 -0.58035666 4293792000
3.3341088 -1.1251639 -0.58867764 4293922560
3.302762 -1.114477 -0.58969778 4293792000
3.2900012 -1.1100577 -0.59326279 4293792000
3.2903013 -1.1100416 -0.59846824 4293792000
3.303633 -1.1144176 -0.60536313 4293792000
3.2783535 -1.1057818 -0.60447884 4293661440
3.2872334 -1.1086578 -0.60915828 4293792000
3.2822237 -1.1068541 -0.61056244 4293661440
3.2735963 -1.1038321 -0.61057466 4293661440
3.2772164 -1.1049366 -0.61215186 4293661440
3.2925899 -1.1099995 -0.61520833 4293792000
3.2927094 -1.1099248 -0.61470193 4293792000
3.291868 -1.1095266 -0.61329931 4293792000
3.3087561 -1.1150984 -0.61446941 4293792000
3.3218184 -1.1193812 -0.61419296 4293792000
3.3275394 -1.1211921 -0.61182922 4293922560
3.3244269 -1.1200297 -0.60712957 4293792000
3.3277385 -1.1210297 -0.60289431 4293922560
3.3371999 -1.1240995 -0.59905076 4293922560
3.3278825 -1.1208501 -0.59114867 4293922560
3.3309362 -1.1217638 -0.58476728 4293922560
3.3274505 -1.1204776 -0.57656544 4293792000
3.3249009 -1.1195068 -0.56787479 4293792000
3.3066363 -1.1132506 -0.55590606 4293792000
3.3085239 -1.1137736 -0.5467245 4293792000
3.3142235 -1.1155785 -0.53752255 4293792000
3.3251855 -1.1191529 -0.52850521 4293792000
3.3442235 -1.1254419 -0.52006584 4293922560
3.3284428 -1.1200246 -0.50562161 4293792000
3.3033404 -1.111475 -0.489342 4293661440
3.2907553 -1.1071346 -0.47450426 4293661440
3.3119082 -1.114134 -0.46395001 4293792000
3.3208761 -1.1170374 -0.45104545 4293792000
3.3201213 -1.1166735 -0.43628252 4293792000
3.2845414 -1.104609 -0.41663048 4293661440
3.2958987 -1.1083158 -0.40256473 4293661440
3.3194165 -1.116107 -0.38936701 4293792000
3.329612 -1.1194218 -0.37401441 4293792000
3.3273993 -1.118569 -0.35681888 4293792000
3.2708616 -1.0994732 -0.33372414 4293530880
3.2999182 -1.1091225 -0.31911519 4293661440
3.3100309 -1.1124097 -0.30212042 4293661440
3.3022811 -1.1096994 -0.28315794 4293661440
3.2900345 -1.1054803 -0.26361474 4293530880
3.3056555 -1.110616 -0.24599186 4293661440
3.3210995 -1.1156913 -0.22791152 4293661440
3.3101556 -1.1119103 -0.20775531 4293661440
3.2888582 -1.1046559 -0.18691871 4293530880
3.3063555 -1.1104196 -0.16809981 4293661440
3.3139865 -1.1128721 -0.14845103 4293661440
3.3082812 -1.1108505 -0.12803836 4293661440
3.2940567 -1.1059716 -0.10728405 4293530880
3.327281 -1.1170077 -0.08783482 4293661440
3.3358407 -1.1197702 -0.067389555 4293661440
3.3055954 -1.1095197 -0.046232935 4293661440
3.3302131 -1.1176666 -0.025820855 4293661440
3.3417096 -1.1214129 -0.0050595324 4293792000
3.3523235 -1.1248624 0.015843386 4293792000
3.2948611 -1.1054922 0.036100782 4293530880
3.3568821 -1.1261725 0.057674121 4293792000
3.3779795 -1.133134 0.078988679 4293922560
3.3648741 -1.1286325 0.099459551 4293792000
3.2555075 -1.0918778 0.11620698 4293400320
3.3531101 -1.1244725 0.14017135 4293792000
3.3678751 -1.1293097 0.16119009 4293792000
3.3421428 -1.1205804 0.18002182 4293792000
3.189121 -1.0692186 0.19071649 4293269760
3.3690553 -1.1293757 0.22131069 4293792000
3.3780506 -1.1322781 0.24151759 4293922560
3.3509245 -1.1230848 0.25876737 4293792000
3.0783253 -1.0317067 0.25504991 4292878080
3.3848867 -1.1342353 0.29928073 4293922560
3.3838153 -1.1337657 0.31763601 4293922560
3.3862376 -1.1344655 0.33597392 4293922560
3.3101652 -1.1088945 0.34575513 4293661440
3.1261268 -1.0471982 0.34252036 4293008640
3.3860109 -1.1340554 0.38795218 4293922560
3.3788991 -1.1315641 0.4035925 4293922560
3.3644311 -1.1266123 0.41779673 4293922560
3.2972829 -1.104039 0.42460597 4293661440
3.1788733 -1.064324 0.42349398 4293269760
3.3839934 -1.13282 0.4653922 4293922560
3.374671 -1.1295898 0.47809249 4293922560
3.3752401 -1.1296675 0.49161443 4293922560
3.3463688 -1.1199018 0.50017673 4293922560
3.3292301 -1.11406 0.50974888 4293792000
3.2630997 -1.0918424 0.510939 4293530880
3.3672981 -1.1265604 0.53834003 4293922560
3.3609555 -1.1243272 0.5477618 4293922560
3.3622622 -1.1246504 0.55778223 4293922560
3.3674946 -1.126285 0.56782657 4293922560
3.3639016 -1.1249703 0.57572854 4293922560
3.3656535 -1.1254412 0.58387154 4293922560
3.3515081 -1.1206012 0.58854967 4293922560
3.3556831 -1.1218811 0.59573781 4293922560
3.333576 -1.1143831 0.59753239 4293922560
3.3505814 -1.1199474 0.60562927 4293922560
3.3295085 -1.1127957 0.60612977 4293922560
3.3289676 -1.1125003 0.60963106 4293922560
3.3369484 -1.1150494 0.61398447 4293922560
3.3413043 -1.1163877 0.61695945 4293922560
3.3317616 -1.1130866 0.61664104 4293922560
3.3279421 -1.1116958 0.61665255 4293922560
3.3399782 -1.1155958 0.61887741 4293922560
3.3448024 -1.1170886 0.61903697 4293922560
3.3569546 -1.1210254 0.61981946 4293922560
3.3302429 -1.1119965 0.6127075 4293922560
3.3527117 -1.1193736 0.61392593 4293922560
3.3617256 -1.1222614 0.61193007 4293922560
3.3638589 -1.1228538 0.60795158 4293922560
3.3543243 -1.1195549 0.60116327 4293922560
3.3528657 -1.1189491 0.59513682 4293922560
3.3556967 -1.1197731 0.58917421 4293922560
3.3657169 -1.1229934 0.5837608 4293922560
3.3575747 -1.1201587 0.57451397 4293922560
3.3450902 -1.1158773 0.56390703 4293922560
3.3458085 -1.1159962 0.55490267 4293922560
3.3472557 -1.1163577 0.54537112 4293922560
3.3585415 -1.1199965 0.53677452 4293922560
3.3619545 -1.1210119 0.52625459 4293922560
3.365458 -1.1220567 0.5151208 4293922560
3.3280389 -1.1088074 0.42147109 4293792000
3.3578405 -1.1186036 0.40959907 4293922560
3.3741999 -1.1239239 0.39540833 4293922560
3.352747 -1.1166611 0.37636653 4293792000
3.3212934 -1.1060724 0.3560448 4293661440
3.3400409 -1.1121863 0.34077537 4293792000
3.3620386 -1.1193798 0.32524568 4293792000
3.3404491 -1.1120745 0.30513319 4293792000
3.3143239 -1.1032624 0.28452781 4293661440
3.333909 -1.1096517 0.26757202 4293792000
3.3414056 -1.1120203 0.24919727 4293792000
3.3488777 -1.1143799 0.23046063 4293792000
3.3183429 -1.1041051 0.20898487 4293661440
3.3530421 -1.1155145 0.1913705 4293792000
3.3540547 -1.115726 0.1714077 4293792000
3.3547761 -1.1158406 0.15123157 4293792000
3.3233435 -1.1052713 0.12962162 4293661440
3.3384612 -1.1101696 0.10979073 4293661440
3.3323259 -1.1080068 0.089082107 4293661440
3.3182571 -1.1032094 0.068186536 4293661440
3.3028476 -1.0979676 0.047370099 4293530880
3.3087494 -1.0998039 0.026868779 4293661440
3.3253245 -1.1051837 0.0062851203 4293661440
3.2791221 -1.0897201 -0.014252619 4293530880
3.2927833 -1.0941324 -0.034823272 4293530880
3.3142796 -1.1011446 -0.055658434 4293661440
3.3192914 -1.1026839 -0.076326564 4293661440
3.2967458 -1.0950782 -0.096177906 4293530880
3.3244305 -1.1041411 -0.11741361 4293661440
3.3312716 -1.1062866 -0.13800429 4293661440
3.334486 -1.1072286 -0.15835936 4293661440
3.2889931 -1.0920142 -0.17598791 4293530880
3.3100767 -1.0988842 -0.19682762 4293661440
3.3209851 -1.1023784 -0.21704227 4293661440
3.3171856 -1.1009949 -0.23610674 4293661440
3.3026371 -1.0960479 -0.25404727 4293661440
3.3328109 -1.1059282 -0.27522922 4293792000
3.3472409 -1.1105877 -0.29506615 4293792000
3.340344 -1.1081777 -0.31274855 4293792000
3.3094945 -1.0978302 -0.32764834 4293661440
3.3285596 -1.1040254 -0.34705284 4293792000
3.3303559 -1.1044976 -0.3643885 4293792000
3.3460155 -1.1095625 -0.38292331 4293792000
3.3266146 -1.1030126 -0.39701411 4293792000
3.2885096 -1.090269 -0.40815988 4293661440
3.3391647 -1.1069243 -0.42989764 4293792000
3.3540289 -1.111724 -0.4468576 4293922560
3.3621223 -1.1142809 -0.4625183 4293922560
3.3603804 -1.1135813 -0.47633669 4293922560
3.3503683 -1.1101443 -0.48840055 4293922560
3.3204629 -1.1001235 -0.49686226 4293792000
3.3329237 -1.1041268 -0.51101947 4293792000
3.3309736 -1.1033605 -0.52242953 4293792000
3.3392308 -1.1059722 -0.53486305 4293792000
3.3386257 -1.1056513 -0.54529411 4293792000
3.3353915 -1.104461 -0.55466056 4293792000
3.3343289 -1.1039894 -0.56373835 4293792000
3.3357682 -1.1043457 -0.57259059 4293792000
3.3346689 -1.1038625 -0.58034885 4293792000
3.3228142 -1.0998232 -0.58553952 4293792000
3.3180985 -1.0981456 -0.59127349 4293792000
3.2964122 -1.0908579 -0.59325504 4293792000
3.2789335 -1.084963 -0.59523839 4293661440
3.2960365 -1.0904999 -0.60279316 4293792000
3.2809982 -1.0854133 -0.60378379 4293661440
3.2711906 -1.0820566 -0.60500592 4293661440
3.2708488 -1.0818287 -0.6072613 4293661440
3.2659452 -1.0800939 -0.60796016 4293661440
3.2705073 -1.0814868 -0.60970765 4293661440
3.2990005 -1.0907847 -0.61520058 4293792000
3.2980404 -1.0903527 -0.61449343 4293792000
3.2842488 -1.0856835 -0.61068749 4293661440
3.3231521 -1.0984163 -0.61593395 4293792000
3.3189294 -1.0969074 -0.61246186 4293792000
3.3115621 -1.0943606 -0.60770768 4293792000
3.3275533 -1.0995258 -0.60651356 4293792000
3.3243296 -1.0983477 -0.60110229 4293792000
3.3259041 -1.0987537 -0.59586126 4293792000
3.3371685 -1.1023576 -0.59163874 4293922560
3.3327308 -1.1007797 -0.58394009 4293792000
3.3147941 -1.0947484 -0.57325524 4293792000
3.313554 -1.0942271 -0.56483573 4293792000
3.309314 -1.0927165 -0.5552699 4293792000
3.3018203 -1.0901331 -0.54455405 4293661440
3.3198009 -1.0959522 -0.53737497 4293792000
3.3350198 -1.1008596 -0.52903122 4293792000
3.3495004 -1.1055229 -0.51986861 4293922560
3.3217504 -1.0962615 -0.50362206 4293792000
3.3050566 -1.0906472 -0.48864028 4293661440
3.2886798 -1.0851388 -0.47328004 4293661440
3.3136349 -1.093255 -0.46328533 4293661440
3.3223331 -1.096012 -0.45036206 4293792000
3.3218575 -1.0957453 -0.43565795 4293792000
3.2814903 -1.0823342 -0.41543141 4293530880
3.3065431 -1.0904804 -0.40307334 4293661440
3.3164217 -1.093626 -0.38825646 4293661440
3.3310692 -1.0983422 -0.37344652 4293792000
3.3248801 -1.0961943 -0.35585237 4293661440
3.2863431 -1.0833933 -0.3346442 4293530880
3.3050706 -1.0894531 -0.31898692 4293661440
3.3053713 -1.0894442 -0.30110565 4293661440
3.3041627 -1.0889385 -0.28276393 4293661440
3.2826281 -1.0817412 -0.26250747 4293530880
3.3159409 -1.0926003 -0.24627085 4293661440
3.3171973 -1.0929061 -0.22719754 4293661440
3.316982 -1.0927274 -0.20777291 4293661440
3.2688241 -1.0767717 -0.18541858 4293530880
3.2985351 -1.0864421 -0.16737293 4293530880
3.3156669 -1.091972 -0.1482321 4293661440
3.3146954 -1.0915449 -0.12803061 4293661440
3.2904716 -1.083469 -0.10695425 4293530880
3.3195684 -1.0929332 -0.087456703 4293661440
3.3242605 -1.0943691 -0.0670214 4293661440
3.3034525 -1.0874187 -0.046107501 4293530880
3.3205204 -1.0929242 -0.025691129 4293661440
3.3301349 -1.0959781 -0.0050277258 4293661440
3.3474064 -1.1015487 0.015795374 4293792000
3.2675493 -1.075189 0.035734054 4293400320
3.351712 -1.1027474 0.057479843 4293792000
3.3732388 -1.1097142 0.078731403 4293792000
3.3562918 -1.1040357 0.099019557 4293792000
3.1804435 -1.0461432 0.11330239 4293139200
3.3708005 -1.1085856 0.14064819 4293792000
3.3526843 -1.1025245 0.16015759 4293792000
3.3581002 -1.104195 0.18054114 4293792000
3.0982001 -1.0187161 0.18491393 4292878080
3.3670411 -1.1069136 0.22075787 4293792000
3.3713167 -1.1082083 0.24057671 4293792000
3.3536177 -1.1022868 0.25848258 4293792000
3.079545 -1.0121881 0.25466484 4292878080
3.3781796 -1.1101322 0.29811728 4293922560
3.3903601 -1.1140206 0.31764394 4293922560
3.3711126 -1.1075919 0.33383295 4293922560
3.3165665 -1.089579 0.34576291 4293661440
3.117996 -1.0243038 0.34097573 4293008640
3.3839738 -1.111481 0.38697761 4293922560
3.3765182 -1.1089234 0.40253693 4293922560
3.3492451 -1.0998645 0.4151141 4293792000
3.3083715 -1.0863457 0.42522031 4293661440
3.1850166 -1.0457742 0.42350143 4293269760
3.3774583 -1.1087861 0.46360427 4293922560
3.3811913 -1.1098983 0.47810039 4293922560
3.3638766 -1.1041083 0.48902082 4293922560
3.352833 -1.1003754 0.5001846 4293922560
3.3309588 -1.0930922 0.50903773 4293792000
3.2694018 -1.0728016 0.51094663 4293530880
3.3691032 -1.1053723 0.53759795 4293922560
3.3632751 -1.1033492 0.54709101 4293922560
3.3734474 -1.1065696 0.55856764 4293922560
3.3581257 -1.1014353 0.56516236 4293922560
3.3610148 -1.1022685 0.5741334 4293922560
3.3637104 -1.1030377 0.58241761 4293922560
3.362663 -1.1025804 0.58937931 4293922560
3.3396676 -1.0949339 0.59175885 4293922560
3.340008 -1.0949315 0.5975402 4293922560
3.3532989 -1.0991697 0.60496098 4293922560
3.331249 -1.0918347 0.60528648 4293792000
3.3260255 -1.0900099 0.60792679 4293792000
3.3349583 -1.0928198 0.61244434 4293922560
3.3383865 -1.0938268 0.61524141 4293922560
3.338186 -1.0936456 0.61664885 4293922560
3.3249981 -1.0892137 0.6149286 4293792000
3.3370566 -1.0930439 0.61715347 4293922560
3.3325279 -1.0914458 0.61558521 4293792000
3.3540633 -1.0983748 0.61810148 4293922560
3.3460236 -1.0956272 0.61443526 4293922560
3.3460624 -1.0955223 0.61153686 4293922560
3.3635199 -1.101114 0.61108685 4293922560
3.3572247 -1.0989367 0.60559279 4293922560
3.356101 -1.0984503 0.60033274 4293922560
3.359324 -1.099385 0.59514469 4293922560
3.3619542 -1.1001253 0.58914608 4293922560
3.3581305 -1.0987556 0.58133221 4293922560
3.3551283 -1.0976543 0.57299918 4293922560
3.3436086 -1.0937696 0.5625813 4293922560
3.34286 -1.0934049 0.55335546 4293792000
3.3490021 -1.0952916 0.54461479 4293922560
3.3791029 -1.1050049 0.53903234 4293922560
3.373126 -1.1029304 0.52699739 4293922560
3.3625274 -1.0993465 0.51369077 4293922560
3.3212252 -1.0850749 0.41980726 4293661440
3.369019 -1.1005511 0.4101823 4293922560
3.3617909 -1.0980687 0.393204 4293792000
3.3498216 -1.0940397 0.37532339 4293792000
3.3233654 -1.0852852 0.35559067 4293661440
3.3351088 -1.0889934 0.33962587 4293792000
3.3552461 -1.0954386 0.3239722 4293792000
3.3335259 -1.088231 0.30392292 4293661440
3.3147597 -1.081988 0.28402647 4293661440
3.3298011 -1.0867696 0.26673627 4293661440
3.3412793 -1.0903884 0.248717 4293792000
3.3515155 -1.0936015 0.23020729 4293792000
3.3152256 -1.0816482 0.20839471 4293661440
3.3461077 -1.09159 0.19061457 4293792000
3.349659 -1.092623 0.17086121 4293792000
3.3517184 -1.0931693 0.15081058 4293792000
3.3202224 -1.0827831 0.12925804 4293661440
3.3258629 -1.084497 0.10917161 4293661440
3.3387222 -1.0885618 0.08908993 4293661440
3.324626 -1.0838463 0.068194322 4293661440
3.3035557 -1.0768608 0.047296271 4293530880
3.3142304 -1.0802134 0.026869357 4293661440
3.3186011 -1.081513 0.0062658316 4293661440
3.2818577 -1.0694276 -0.014230162 4293530880
3.2980309 -1.0745698 -0.034804463 4293530880
3.3054273 -1.0768542 -0.055398662 4293530880
3.3135462 -1.0793732 -0.076043189 4293661440
3.2802546 -1.0684168 -0.09551049 4293530880
3.3174994 -1.0804125 -0.11693948 4293661440
3.3262594 -1.0831389 -0.13752748 4293661440
3.3327355 -1.0851218 -0.15796727 4293661440
3.290549 -1.0712768 -0.17572761 4293530880
3.3116739 -1.0780245 -0.19653912 4293661440
3.3179405 -1.0799392 -0.2164228 4293661440
3.309716 -1.0771421 -0.23511982 4293661440
3.304105 -1.0751953 -0.2536675 4293661440
3.3327518 -1.0843848 -0.27469173 4293661440
3.3390481 -1.086308 -0.29377669 4293792000
3.3420057 -1.0871457 -0.31229922 4293792000
3.297842 -1.0726714 -0.32586721 4293661440
3.3250809 -1.0814 -0.34602204 4293661440
3.3364482 -1.0849705 -0.36434963 4293792000
3.3420243 -1.0866592 -0.38173038 4293792000
3.3286629 -1.0821966 -0.39649275 4293792000
3.3030386 -1.0737526 -0.40917003 4293661440
3.3489449 -1.0885388 -0.43032435 4293792000
3.3592203 -1.0917526 -0.44668674 4293792000
3.3553522 -1.0903744 -0.46070087 4293792000
3.3526704 -1.0893815 -0.47433197 4293792000
3.3492529 -1.0881503 -0.48729974 4293792000
3.3221066 -1.0792184 -0.49615249 4293792000
3.3214147 -1.0788735 -0.50827968 4293792000
3.3411081 -1.0851434 -0.52300978 4293792000
3.3311248 -1.0817838 -0.53254229 4293792000
3.3356102 -1.0831189 -0.54375648 4293792000
3.3371444 -1.0834967 -0.55388641 4293792000
3.3313115 -1.0814852 -0.56214821 4293792000
3.3294027 -1.080747 -0.57040334 4293792000
3.3269646 -1.0798376 -0.57789963 4293792000
3.329165 -1.0804325 -0.58553171 4293792000
3.3197498 -1.0772619 -0.59043288 4293792000
3.2895832 -1.0673655 -0.59089303 4293661440
3.2851987 -1.0658281 -0.59523064 4293661440
3.289211 -1.0670125 -0.60039395 4293661440
3.268523 -1.0601928 -0.60033906 4293661440
3.2680688 -1.0599309 -0.60327131 4293661440
3.2724111 -1.0612233 -0.60638696 4293661440
3.2721822 -1.0610348 -0.60795254 4293661440
3.2959292 -1.0686126 -0.61326247 4293661440
3.2781315 -1.0627338 -0.61014426 4293661440
3.2829335 -1.0641751 -0.61051178 4293661440
3.2820857 -1.0637871 -0.60911739 4293661440
3.3116913 -1.0732594 -0.61263788 4293792000
3.3205776 -1.0760223 -0.61159235 4293792000
3.3178811 -1.0750355 -0.60769987 4293792000
3.3339024 -1.0801073 -0.60650575 4293792000
3.325983 -1.0774306 -0.60024965 4293792000
3.3313839 -1.079065 -0.59569907 4293792000
3.3294597 -1.0783292 -0.58914453 4293792000
3.3293159 -1.0781698 -0.58222628 4293792000
3.32581 -1.0769231 -0.57405645 4293792000
3.3190148 -1.074613 -0.56468225 4293792000
3.3100591 -1.0716047 -0.55433178 4293792000
3.3034146 -1.0693448 -0.54377389 4293661440
3.3213098 -1.0750208 -0.53658992 4293792000
3.3282034 -1.0771387 -0.52694136 4293792000
3.3427045 -1.0817158 -0.51782268 4293792000
3.3267517 -1.0764477 -0.50341356 4293792000
3.3024006 -1.0684663 -0.48731372 4293661440
3.2998662 -1.0675377 -0.47397777 4293661440
3.3105962 -1.0708961 -0.46197513 4293661440
3.3192234 -1.0735747 -0.44907981 4293661440
3.3235447 -1.0748614 -0.43504402 4293661440
3.2973945 -1.066304 -0.41664118 4293661440
3.2940073 -1.0651016 -0.4007791 4293661440
3.3129933 -1.0711261 -0.38711271 4293661440
3.3232167 -1.0743195 -0.37185395 4293661440
3.3264754 -1.0752633 -0.35534003 4293661440
3.2831259 -1.0611572 -0.33367607 4293530880
3.3066223 -1.0686365 -0.31852385 4293661440
3.3021801 -1.0670948 -0.3002381 4293661440
3.3009644 -1.0665951 -0.28194821 4293530880
3.2843368 -1.0611211 -0.26213869 4293530880
3.3171122 -1.0715926 -0.24588346 4293661440
3.3102114 -1.0692582 -0.22628383 4293661440
3.3137903 -1.0703059 -0.20717324 4293661440
3.2834468 -1.0604088 -0.18588497 4293530880
3.2953837 -1.0641537 -0.16688994 4293530880
3.3134131 -1.0698632 -0.14784424 4293661440
3.3124368 -1.0694416 -0.12769459 4293661440
3.2920442 -1.0627578 -0.10679556 4293530880
3.3163633 -1.0704942 -0.087200589 4293661440
3.32582 -1.0734366 -0.066918761 4293661440
3.2954547 -1.0635394 -0.045903601 4293530880
3.3230226 -1.0723207 -0.025654627 4293661440
3.3364615 -1.0765457 -0.0050198869 4293661440
3.3404403 -1.0777208 0.015738118 4293661440
3.2989483 -1.0642409 0.03602124 4293530880
3.3529284 -1.0815301 0.057398714 4293792000
3.3785748 -1.089686 0.078714252 4293792000
3.3579073 -1.0829183 0.098886594 4293792000
3.1769693 -1.0245194 0.11297002 4293139200
3.3607571 -1.0836198 0.1399688 4293792000
3.3642049 -1.0846219 0.16041215 4293792000
3.3373892 -1.0758771 0.17909165 4293661440
3.1088314 -1.002167 0.18520503 4292878080
3.37343 -1.0872664 0.2207658 4293792000
3.3682163 -1.0854787 0.23990692 4293792000
3.3457398 -1.0781337 0.25739306 4293792000
3.0901318 -0.995745 0.2550644 4292878080
3.3978667 -1.0946946 0.29929665 4293922560
3.3986828 -1.0948468 0.31782919 4293922560
3.3775051 -1.0879213 0.33384088 4293922560
3.3133821 -1.0671784 0.34478387 4293661440
3.1286418 -1.0076324 0.3415004 4293008640
3.3809252 -1.0886909 0.38590434 4293922560
3.3734593 -1.0861788 0.4014183 4293922560
3.3508656 -1.0788012 0.41453668 4293792000
3.3051918 -1.0640022 0.42401487 4293661440
3.1816072 -1.0241519 0.42225447 4293269760
3.3753614 -1.086347 0.46244743 4293922560
3.3791049 -1.0874391 0.4769091 4293922560
3.3749638 -1.085996 0.48971337 4293922560
3.3507001 -1.0780848 0.49892852 4293792000
3.3372669 -1.0736561 0.5090456 4293792000
3.2529922 -1.0464611 0.50742686 4293530880
3.3571258 -1.0798151 0.53468078 4293922560
3.364938 -1.082213 0.54633474 4293922560
3.3572614 -1.0796341 0.55484343 4293922560
3.3625195 -1.0812104 0.56484044 4293922560
3.3495202 -1.0769217 0.57109553 4293922560
3.3606813 -1.0803934 0.58080119 4293922560
3.3558774 -1.0787371 0.58708608 4293922560
3.3412917 -1.0739398 0.59093612 4293792000
3.3284924 -1.0697167 0.59436214 4293792000
3.3277352 -1.0693603 0.59922117 4293792000
3.3449109 -1.0747601 0.60662985 4293922560
3.3396754 -1.0729651 0.60927784 4293792000
3.3271949 -1.068845 0.60987222 4293792000
3.3315682 -1.070134 0.61283308 4293792000
3.3266783 -1.0684501 0.61337006 4293792000
3.3386414 -1.0721732 0.61629516 4293792000
3.3349237 -1.0708648 0.61560273 4293792000
3.3350749 -1.0707974 0.61490119 4293792000
3.3378911 -1.0715845 0.6139673 4293792000
3.3556356 -1.0771585 0.61504632 4293922560
3.3514318 -1.075693 0.61137098 4293922560
3.3622725 -1.079051 0.60971576 4293922560
3.3588736 -1.0778431 0.60475546 4293922560
3.3596354 -1.0779688 0.59983975 4293922560
3.363096 -1.0789592 0.59469754 4293922560
3.3591151 -1.0775642 0.58754629 4293922560
3.351316 -1.0749457 0.5790661 4293922560
3.3525312 -1.0752158 0.57148397 4293922560
3.3399906 -1.0710785 0.56092077 4293792000
3.3359993 -1.0696805 0.5511862 4293792000
3.3421469 -1.07153 0.54248291 4293792000
3.3628819 -1.0780507 0.53544039 4293922560
3.3606505 -1.0772152 0.52406573 4293922560
3.3556769 -1.0755014 0.51168555 4293922560
3.3270707 -1.0655622 0.41976249 4293661440
3.3620424 -1.076629 0.40856919 4293792000
3.377594 -1.0814807 0.39431807 4293922560
3.3466644 -1.0714642 0.37427106 4293792000
3.3206832 -1.0630322 0.35464212 4293661440
3.3413937 -1.0695329 0.33963373 4293792000
3.352083 -1.0728279 0.3230648 4293792000
3.3360107 -1.067566 0.30358487 4293661440
3.3162575 -1.0611286 0.28362772 4293661440
3.332392 -1.0661633 0.2664493 4293661440
3.3380709 -1.0678551 0.24801764 4293661440
3.3444457 -1.0697689 0.22929592 4293661440
3.3115528 -1.0591352 0.20777896 4293661440
3.3476522 -1.0705457 0.19035135 4293661440
3.3487444 -1.0707705 0.1705004 4293661440
3.3447037 -1.0693558 0.15021804 4293661440
3.3131447 -1.0591526 0.12874588 4293530880
3.3321223 -1.0650899 0.10917946 4293661440
3.3259592 -1.0629983 0.088587381 4293661440
3.3127851 -1.0586689 0.067828596 4293530880
3.3097713 -1.0575837 0.047304064 4293530880
3.3071287 -1.0566173 0.026766878 4293530880
3.3115065 -1.0578916 0.0062461034 4293530880
3.2746933 -1.046021 -0.014167197 4293400320
3.2956598 -1.0525892 -0.034708004 4293530880
3.3030701 -1.0548309 -0.055249106 4293530880
3.3097188 -1.0568292 -0.075806968 4293530880
3.2875829 -1.0496458 -0.095536254 4293530880
3.3176315 -1.0591071 -0.11671813 4293661440
3.3316424 -1.0634519 -0.13748394 4293661440
3.3354402 -1.0645393 -0.15779178 4293661440
3.2881691 -1.049345 -0.17526521 4293530880
3.3093355 -1.0559705 -0.19602604 4293530880
3.3241746 -1.0605779 -0.21641496 4293661440
3.3159339 -1.0578287 -0.23511201 4293661440
3.2960577 -1.0513722 -0.25257069 4293530880
3.3342621 -1.0634236 -0.27429423 4293661440
3.3440833 -1.0664297 -0.29366058 4293792000
3.3484895 -1.0677102 -0.31231067 4293792000
3.3168478 -1.0575083 -0.32712007 4293661440
3.3218412 -1.0589768 -0.34503159 4293661440
3.3457475 -1.0664676 -0.36467192 4293792000
3.3341701 -1.0626588 -0.38011539 4293661440
3.3313699 -1.0616452 -0.39606485 4293661440
3.3045056 -1.0529715 -0.40857837 4293661440
3.3457704 -1.0659854 -0.42910576 4293792000
3.3522875 -1.0679377 -0.44492555 4293792000
3.3603141 -1.0703702 -0.46051064 4293792000
3.3543112 -1.068338 -0.47366887 4293792000
3.3470392 -1.0659028 -0.48606035 4293792000
3.318902 -1.0568308 -0.49474072 4293661440
3.3323586 -1.0609912 -0.50899076 4293792000
3.3294635 -1.0599504 -0.52020854 4293792000
3.3420811 -1.0638431 -0.53328484 4293792000
3.3333874 -1.0609587 -0.54237187 4293792000
3.333986 -1.0610298 -0.55232167 4293792000
3.3469651 -1.0650367 -0.56372261 4293792000
3.3403456 -1.0628132 -0.5711984 4293792000
3.3379006 -1.0619173 -0.57870555 4293792000
3.3324878 -1.0600786 -0.58501297 4293792000
3.3165722 -1.0549033 -0.58875954 4293792000
3.3076925 -1.0519648 -0.59302372 4293661440
3.2987211 -1.0489981 -0.59655339 4293661440
3.2812855 -1.0433435 -0.59782398 4293661440
3.2994969 -1.0490128 -0.60488021 4293661440
3.2704332 -1.0396671 -0.60257286 4293661440
3.2738447 -1.0406363 -0.60551256 4293661440
3.2651675 -1.0377673 -0.60551184 4293530880
3.2697461 -1.0391074 -0.60725576 4293661440
3.2936528 -1.0465834 -0.61187738 4293661440
3.2926869 -1.0461631 -0.61117297 4293661440
3.3048575 -1.0499123 -0.6121853 4293661440
3.3225815 -1.0554234 -0.61349535 4293792000
3.3183398 -1.0539635 -0.61003351 4293792000
3.3277619 -1.0568395 -0.60836267 4293792000
3.3260493 -1.0561826 -0.60394371 4293792000
3.3322034 -1.0580217 -0.60024178 4293792000
3.3282163 -1.056644 -0.59401661 4293792000
3.3309851 -1.0574094 -0.58830786 4293792000
3.3308387 -1.0572506 -0.58139908 4293792000
3.3273239 -1.056024 -0.57323956 4293792000
3.3252187 -1.0552447 -0.56467444 4293792000
3.3115385 -1.0507966 -0.5535385 4293661440
3.2959304 -1.0457385 -0.54152596 4293661440
3.3096135 -1.0499653 -0.53370017 4293661440
3.3379085 -1.0588219 -0.52748358 4293792000
3.3425388 -1.0601784 -0.51682538 4293792000
3.328248 -1.0555396 -0.50269437 4293792000
3.3124189 -1.0504148 -0.48787194 4293661440
3.2961097 -1.0451392 -0.47255054 4293661440
3.3154452 -1.051155 -0.46178198 4293661440
3.318994 -1.05217 -0.44820574 4293661440
3.3369296 -1.0577408 -0.43597239 4293792000
3.2940843 -1.044065 -0.41544205 4293530880
3.2954204 -1.0443803 -0.40019748 4293530880
3.3222117 -1.0527542 -0.38745809 4293661440
3.3324549 -1.0558884 -0.37218449 4293661440
3.3280139 -1.0543743 -0.35483554 4293661440
3.2759655 -1.0377941 -0.33232382 4293530880
3.2994988 -1.0451348 -0.31724119 4293530880
3.3083396 -1.0478253 -0.30023029 4293661440
3.3113961 -1.0486853 -0.28230384 4293661440
3.2904618 -1.0419557 -0.26213092 4293530880
3.313787 -1.0492277 -0.24517408 4293661440
3.3150413 -1.0495175 -0.22618473 4293661440
3.312602 -1.0486394 -0.20670737 4293530880
3.275286 -1.0367327 -0.18507333 4293400320
3.3015261 -1.0449241 -0.16688214 4293530880
3.3004174 -1.0444676 -0.14698662 4293530880
3.3080449 -1.0467727 -0.12728243 4293530880
3.2934129 -1.0420415 -0.10663445 4293530880
3.3130097 -1.0481297 -0.086944468 4293530880
3.3267708 -1.0523722 -0.066806577 4293661440
3.2977793 -1.0431044 -0.045843516 4293530880
3.3140383 -1.048136 -0.025532685 4293530880
3.3332222 -1.0540905 -0.0049995272 4293661440
3.3399975 -1.0561241 0.015713496 4293661440
3.2907877 -1.0404732 0.035870627 4293530880
3.354403 -1.0604596 0.057324376 4293661440
3.3619835 -1.062746 0.07818637 4293792000
3.3460462 -1.0576056 0.098359227 4293661440
3.1828818 -1.0059808 0.11297754 4293139200
3.3523266 -1.0593737 0.13936403 4293661440
3.3566496 -1.0606307 0.15976052 4293792000
3.3345568 -1.0535494 0.17861392 4293661440
3.0917645 -0.97681415 0.18385005 4292747520
3.3701866 -1.0645789 0.22015071 4293792000
3.3611598 -1.0616219 0.23896605 4293792000
3.3519614 -1.0586113 0.25740096 4293792000
3.0873213 -0.97501373 0.25436553 4292747520
3.3878353 -1.0697111 0.29786524 4293922560
3.3822029 -1.067825 0.3157064 4293922560
3.3799851 -1.0670159 0.33347371 4293792000
3.3147948 -1.0463483 0.34429827 4293661440
3.1211758 -0.9851886 0.34005925 4293008640
3.3691928 -1.0632838 0.38385794 4293792000
3.3664596 -1.0623124 0.39984906 4293792000
3.3390939 -1.0535762 0.41232046 4293792000
3.2933438 -1.039047 0.42171749 4293530880
3.1742697 -1.001412 0.4205057 4293139200
3.3711095 -1.063337 0.46101567 4293922560
3.3753979 -1.0645773 0.47550997 4293922560
3.367058 -1.0618386 0.48766747 4293922560
3.364954 -1.0610646 0.50013119 4293922560
3.3302474 -1.0500211 0.50704038 4293792000
3.3225982 -1.0475014 0.51733786 4293792000
3.3633561 -1.0602268 0.53468871 4293922560
3.3659418 -1.0609291 0.54549301 4293922560
3.3591831 -1.0586886 0.55414039 4293922560
3.3555717 -1.0574393 0.56263644 4293922560
3.3600698 -1.0587429 0.57184172 4293922560
3.344326 -1.0536745 0.57691079 4293792000
3.3526926 -1.0561949 0.58545035 4293922560
3.3611336 -1.058738 0.59335393 4293922560
3.3381593 -1.0513953 0.59499323 4293792000
3.3386056 -1.0514225 0.60007429 4293792000
3.3379519 -1.0511031 0.60425454 4293792000
3.3421068 -1.0522963 0.60860091 4293792000
3.3416741 -1.0520459 0.61140156 4293792000
3.3451145 -1.0530133 0.61419505 4293792000
3.3411539 -1.051653 0.6149081 4293792000
3.3269761 -1.04708 0.61301261 4293792000
3.318553 -1.044317 0.61145431 4293792000
3.3485036 -1.0536171 0.61624396 4293922560
3.3403151 -1.050927 0.61328483 4293792000
3.3486936 -1.053444 0.61264628 4293922560
3.349179 -1.0534798 0.60983801 4293922560
3.3459358 -1.0523436 0.60563821 4293792000
3.358428 -1.056151 0.60356522 4293922560
3.3573902 -1.055707 0.59833854 4293922560
3.3514462 -1.0537217 0.59154916 4293922560
3.3658013 -1.0581118 0.58763623 4293922560
3.3566501 -1.0551189 0.5789243 4293922560
3.349391 -1.0527204 0.56990135 4293792000
3.3463769 -1.0516551 0.56096333 4293792000
3.3348768 -1.0479256 0.54999059 4293792000
3.3495178 -1.0524023 0.54268354 4293792000
3.3861551 -1.0637813 0.53816009 4293922560
3.3668656 -1.0576063 0.52407366 4293922560
