# .PCD v0.7 - Point Cloud Data file format
VERSION 0.7
FIELDS x y z rgba
SIZE 4 4 4 4
TYPE F F F U
COUNT 1 1 1 1
WIDTH 1104
HEIGHT 1
VIEWPOINT 0 0 0 1 0 0 0
POINTS 1104
DATA ascii
3.3437784 -1.3047136 0.6263023 4294183680
3.3388793 -1.3026837 0.62759411 4294183680
3.3386855 -1.3024877 0.62902993 4294183680
3.3303497 -1.2991184 0.62818992 4294053120
3.3303905 -1.2990137 0.62819028 4294053120
3.3469257 -1.3053361 0.63056082 4294183680
3.3334353 -1.299958 0.62653369 4294053120
3.3510065 -1.3066821 0.62760514 4294183680
3.3501437 -1.3062235 0.62447494 4294183680
3.363605 -1.3113443 0.62326908 4294183680
3.3614902 -1.3103971 0.61843324 4294183680
3.3563755 -1.3082815 0.61233181 4294183680
3.3545723 -1.3074555 0.60612971 4294183680
3.36268 -1.3104886 0.60099858 4294183680
3.3679001 -1.3123964 0.59462321 4294183680
3.3599305 -1.3091689 0.58523363 4294183680
3.346792 -1.3039297 0.57431626 4294053120
3.3477798 -1.3041894 0.56518924 4294053120
3.3621273 -1.3096483 0.55761951 4294183680
3.3656147 -1.3108796 0.54755032 4294183680
3.3670118 -1.3112971 0.53649461 4294183680
3.3648877 -1.3103443 0.52426392 4294183680
3.3304508 -1.2961336 0.42932177 4293922560
3.3668096 -1.310143 0.41803792 4294053120
3.3844023 -1.316854 0.403694 4294183680
3.358377 -1.3066086 0.38373479 4294053120
3.3373649 -1.2983136 0.36415857 4293922560
3.3588519 -1.3065367 0.34881338 4294053120
3.3580356 -1.3060911 0.33065265 4294053120
3.3397534 -1.2988588 0.31050774 4293922560
3.3121026 -1.2879878 0.28940174 4293922560
3.3491888 -1.3022681 0.27358437 4294053120
3.3604832 -1.3065268 0.25507873 4294053120
3.3574629 -1.3052245 0.23515612 4294053120
3.3312926 -1.2949318 0.21352343 4293922560
3.3560998 -1.3044369 0.19493723 4294053120
3.360461 -1.3060011 0.17477097 4294053120
3.3578506 -1.3048581 0.15403888 4294053120
3.3276088 -1.2929884 0.13206899 4293922560
3.3405492 -1.2978833 0.1117811 4293922560
3.333993 -1.2952096 0.090675339 4293922560
3.3356614 -1.2957286 0.069725193 4293922560
3.3227274 -1.2905806 0.048461244 4293922560
3.3329389 -1.2944146 0.027501566 4293922560
3.3338878 -1.2946541 0.0063614901 4293922560
3.2982798 -1.2807115 -0.014643962 4293792000
3.3081398 -1.284409 -0.035665791 4293792000
3.3219156 -1.2896246 -0.056842335 4293922560
3.3382633 -1.2958364 -0.078193426 4293922560
3.3020928 -1.2816811 -0.09811803 4293792000
3.327765 -1.2915081 -0.11969715 4293922560
3.3414671 -1.2966924 -0.14096646 4293922560
3.3426678 -1.297029 -0.16165298 4293922560
3.3026218 -1.2813772 -0.1799427 4293792000
3.3245299 -1.2897415 -0.20128915 4293922560
3.3312223 -1.2922074 -0.22167374 4293922560
3.3339872 -1.2931508 -0.24161501 4293922560
3.3075836 -1.2827917 -0.25904942 4293792000
3.3455725 -1.2973834 -0.28129563 4293922560
3.3597243 -1.3027377 -0.3015359 4294053120
3.3441551 -1.296578 -0.31878 4294053120
3.3179498 -1.2863001 -0.33443388 4293922560
3.3329415 -1.2919794 -0.3538003 4293922560
3.3430295 -1.2957588 -0.37239107 4294053120
3.3454046 -1.2965511 -0.38977847 4294053120
3.3346622 -1.2922646 -0.40516782 4293922560
3.2888653 -1.274408 -0.4155812 4293792000
3.3552666 -1.2999872 -0.43977064 4294053120
3.3568833 -1.3004857 -0.45531443 4294053120
3.3564854 -1.3002048 -0.470081 4294053120
3.3589137 -1.3010176 -0.48472306 4294053120
3.3532107 -1.2986841 -0.49763456 4294053120
3.3200419 -1.2857244 -0.50576144 4293922560
3.3193314 -1.2853248 -0.51811802 4293922560
3.3215494 -1.2860583 -0.53034735 4294053120
3.3301082 -1.2892444 -0.54302007 4294053120
3.3434 -1.2942607 -0.5559147 4294053120
3.3351393 -1.2909414 -0.56461287 4294053120
3.3332105 -1.2900714 -0.57370269 4294053120
3.3285582 -1.2881488 -0.58164698 4294053120
3.3195581 -1.2845459 -0.58812827 4294053120
3.3176606 -1.2836895 -0.59516048 4294053120
3.3042746 -1.2783928 -0.59941524 4293922560
3.2917047 -1.2734128 -0.60307354 4293922560
3.2828 -1.2698506 -0.60666537 4293922560
3.258724 -1.2604265 -0.60670573 4293792000
3.2802222 -1.2686141 -0.6145032 4293922560
3.2751789 -1.2665459 -0.61664081 4293922560
3.2748423 -1.2662965 -0.61893934 4293922560
3.2746196 -1.2660916 -0.62053716 4293922560
3.2699189 -1.2641573 -0.62056226 4293792000
3.2850566 -1.2698854 -0.62362158 4293922560
3.2759945 -1.2662674 -0.62136865 4293922560
3.2843609 -1.2693801 -0.62168932 4293922560
3.3009942 -1.2756845 -0.62283391 4293922560
3.3056068 -1.277347 -0.62097394 4293922560
3.3106794 -1.2791871 -0.61846763 4294053120
3.3256512 -1.2848482 -0.61706364 4294053120
3.3197339 -1.282446 -0.61106223 4294053120
3.3336632 -1.287704 -0.60798383 4294053120
3.3373921 -1.2890249 -0.60231245 4294053120
3.3312201 -1.2865256 -0.59416574 4294053120
3.3241301 -1.2836728 -0.58519834 4294053120
3.3170393 -1.2808205 -0.57559019 4294053120
3.2990835 -1.2737777 -0.56350398 4293922560
3.3101835 -1.2779437 -0.55574179 4293922560
3.3195841 -1.2814537 -0.54699641 4294053120
3.3358705 -1.2876189 -0.53867567 4294053120
3.344214 -1.2907201 -0.52837777 4294053120
3.3391488 -1.2886511 -0.5153538 4294053120
3.3177087 -1.2802695 -0.49932343 4293922560
3.3012009 -1.273791 -0.48361781 4293922560
3.313736 -1.2785089 -0.47162771 4293922560
3.3343496 -1.28634 -0.46011364 4294053120
3.329376 -1.2843086 -0.44449297 4293922560
3.3047037 -1.2746863 -0.42588753 4293922560
3.3064535 -1.2752473 -0.41031191 4293922560
3.3296416 -1.2840686 -0.39681327 4293922560
3.3313637 -1.2846183 -0.38019997 4293922560
3.3333945 -1.285287 -0.36318308 4293922560
3.290724 -1.268737 -0.34112257 4293792000
3.3106737 -1.2763088 -0.3252818 4293922560
3.3202 -1.2798651 -0.30790344 4293922560
3.3220248 -1.2804552 -0.28941429 4293922560
3.2874143 -1.2670155 -0.26763213 4293792000
3.3248289 -1.2813097 -0.2513876 4293922560
3.3257122 -1.2815374 -0.23189557 4293922560
3.3317451 -1.2837473 -0.21247058 4293922560
3.2952569 -1.2695895 -0.19029883 4293792000
3.3116524 -1.2757888 -0.17108586 4293792000
3.3236501 -1.2802945 -0.15129074 4293922560
3.3292916 -1.2823535 -0.13093826 4293922560
3.2953212 -1.2691698 -0.10907401 4293792000
3.3226092 -1.2795582 -0.089150839 4293922560
3.3374133 -1.2851417 -0.068537936 4293922560
3.3160577 -1.2768141 -0.04716019 4293792000
3.333379 -1.2833654 -0.026302569 4293922560
3.3428335 -1.2868896 -0.0051895692 4293922560
3.3545392 -1.291279 0.016056901 4293922560
3.3059762 -1.272491 0.036750708 4293792000
3.3682454 -1.2963237 0.058739226 4294053120
3.3709981 -1.2972687 0.080023997 4294053120
3.3702288 -1.2968594 0.10114761 4294053120
3.2718911 -1.2589427 0.11859694 4293661440
3.3708537 -1.2968725 0.14309834 4294053120
3.3742118 -1.2980497 0.16400237 4294053120
3.3618059 -1.2931679 0.18390198 4294053120
3.1110971 -1.1967103 0.18893935 4293139200
3.3768172 -1.2987092 0.22528376 4294053120
3.3798001 -1.299741 0.24541831 4294053120
3.3620114 -1.2927926 0.26368487 4294053120
3.1243351 -1.2013749 0.26292008 4293139200
3.3902011 -1.3033929 0.3044447 4294183680
3.3920293 -1.30398 0.32339615 4294183680
3.3794637 -1.299039 0.34055603 4294053120
3.2582407 -1.2523724 0.34566137 4293661440
3.0504224 -1.1724629 0.33945885 4292878080
3.380631 -1.2991418 0.39341143 4294183680
3.3738575 -1.2964259 0.40931305 4294053120
3.352843 -1.2882434 0.42289081 4294053120
3.3080244 -1.270925 0.43267703 4293922560
3.191431 -1.2260617 0.43184334 4293530880
3.3776379 -1.2974138 0.47181064 4294183680
3.3792624 -1.2979209 0.48626056 4294183680
3.372082 -1.2950492 0.49886683 4294183680
3.3562179 -1.288846 0.50952774 4294053120
3.3393216 -1.2822477 0.51932478 4294053120
3.2695787 -1.2553781 0.51999474 4293792000
3.3590102 -1.2895676 0.54544848 4294183680
3.3606124 -1.2900651 0.55630797 4294183680
3.3652847 -1.2917396 0.56705213 4294183680
3.352072 -1.2865553 0.57410198 4294053120
3.3503826 -1.2857898 0.58241934 4294053120
3.3538625 -1.2870064 0.59096265 4294183680
3.3532643 -1.2866589 0.59810579 4294183680
3.3477023 -1.2844086 0.60365331 4294053120
3.3351381 -1.2794744 0.60719985 4294053120
3.3308465 -1.2777114 0.61151427 4294053120
3.3348022 -1.2791089 0.61662579 4294053120
3.3296654 -1.2770218 0.61933202 4294053120
3.34304 -1.2820272 0.624762 4294053120
3.3427291 -1.2817885 0.62691134 4294053120
3.3379354 -1.2798322 0.62748075 4294053120
3.337858 -1.2796825 0.62819743 4294053120
3.3332994 -1.2778163 0.62733191 4294053120
3.3369942 -1.2791108 0.62728208 4294053120
3.3280702 -1.2755728 0.62412524 4294053120
3.344759 -1.281842 0.62503296 4294053120
3.349412 -1.2835017 0.62294179 4294183680
3.3629014 -1.2885437 0.62174475 4294183680
3.359859 -1.2872561 0.61675048 4294183680
3.3547297 -1.2851698 0.61066276 4294183680
3.3588393 -1.2866195 0.60554397 4294183680
3.3559198 -1.2853787 0.59844887 4294183680
3.3618639 -1.2875295 0.5922302 4294183680
3.3545904 -1.2846223 0.58299714 4294183680
3.3460279 -1.2812225 0.57290196 4294053120
3.346091 -1.2811226 0.56364191 4294053120
3.3475437 -1.2815537 0.55395937 4294053120
3.3687761 -1.2895495 0.54684091 4294183680
3.3607321 -1.2863476 0.53429776 4294053120
3.3585961 -1.2854052 0.52211487 4294053120
3.3282707 -1.2730011 0.42808428 4293922560
3.35865 -1.2844828 0.41609481 4294053120
3.3705795 -1.2889134 0.40114832 4294053120
3.3579624 -1.2839653 0.38283318 4294053120
3.3305309 -1.2733594 0.36260337 4293922560
3.3478467 -1.2798464 0.3468959 4294053120
3.3457003 -1.2788992 0.32870418 4293922560
3.3463697 -1.2790272 0.31043246 4293922560
3.3238041 -1.2702832 0.28978086 4293922560
3.3520584 -1.2809435 0.27321166 4293922560
3.3540566 -1.2815782 0.25402573 4293922560
3.3519557 -1.2806479 0.23424977 4293922560
3.3290524 -1.2717777 0.21290757 4293922560
3.3504982 -1.2798347 0.19418122 4293922560
3.3633442 -1.2846084 0.17453569 4294053120
3.3560588 -1.2816994 0.15361774 4293922560
3.3302097 -1.2717085 0.13188271 4293922560
3.3446996 -1.2771083 0.11167615 4293922560
3.3461499 -1.2775331 0.090810329 4293922560
3.3388493 -1.2746198 0.069642231 4293922560
3.3264508 -1.2697631 0.048413679 4293922560
3.3273406 -1.2699746 0.027399044 4293922560
3.3329623 -1.2719902 0.00635145 4293922560
3.2875183 -1.2545362 -0.01455947 4293661440
3.3108928 -1.2633206 -0.035608988 4293792000
3.3200278 -1.2666754 -0.056677155 4293792000
3.3233335 -1.2678076 -0.077666312 4293792000
3.3046267 -1.2605509 -0.097967051 4293792000
3.3305614 -1.2703066 -0.11952303 4293922560
3.3451474 -1.2757363 -0.14079912 4293922560
3.3454983 -1.2757417 -0.16142124 4293922560
3.3146961 -1.2638793 -0.18018796 4293792000
3.3261068 -1.2680987 -0.20092778 4293922560
3.3414941 -1.2738318 -0.22185163 4293922560
3.3284097 -1.268721 -0.24066657 4293922560
3.3223405 -1.2662826 -0.25961393 4293922560
3.3484147 -1.2760835 -0.28089836 4293922560
3.3486295 -1.2760376 -0.29986471 4293922560
3.3557849 -1.2786337 -0.31916466 4294053120
3.3207338 -1.2651639 -0.33395967 4293922560
3.3390989 -1.2720274 -0.35365418 4293922560
3.3409448 -1.2726029 -0.37132156 4293922560
3.3482549 -1.2752578 -0.38923201 4294053120
3.3508897 -1.2761334 -0.4062196 4294053120
3.2869511 -1.2516809 -0.41440591 4293792000
3.3577628 -1.2784945 -0.43910789 4294053120
3.3678322 -1.282198 -0.45577013 4294053120
3.3593686 -1.278852 -0.46942711 4294053120
3.3659713 -1.2812366 -0.48464873 4294053120
3.3477566 -1.2741838 -0.49571109 4294053120
3.3219953 -1.264263 -0.50492245 4293922560
3.3222184 -1.2642235 -0.51740402 4293922560
3.3415496 -1.2714483 -0.53233808 4294053120
3.3367183 -1.2694873 -0.54287553 4294053120
3.3398013 -1.2705348 -0.55407178 4294053120
3.3459058 -1.2727307 -0.56516224 4294053120
3.3364608 -1.2690176 -0.57297367 4294053120
3.3286364 -1.2659211 -0.58035672 4294053120
3.3275437 -1.2653831 -0.58821934 4294053120
3.3250828 -1.2643256 -0.59515297 4294053120
3.3112113 -1.2589343 -0.59932566 4293922560
3.280637 -1.2472001 -0.59970242 4293792000
3.2936852 -1.2520356 -0.60731024 4293922560
3.2848673 -1.2485667 -0.6101954 4293922560
3.2700589 -1.2428242 -0.61123025 4293792000
3.2742145 -1.2442831 -0.61507905 4293792000
3.2692735 -1.2422887 -0.61650503 4293792000
3.2773366 -1.2452313 -0.61966079 4293792000
3.264339 -1.2401795 -0.61811817 4293792000
3.2831924 -1.2472175 -0.62187308 4293922560
3.2997463 -1.2533817 -0.62446576 4293922560
3.2917004 -1.2502104 -0.62168193 4293922560
3.3162036 -1.25939 -0.62429893 4294053120
3.3120573 -1.2576987 -0.62079149 4293922560
3.3140275 -1.2583283 -0.61770684 4293922560
3.3238666 -1.2619429 -0.61535317 4294053120
3.3312409 -1.2646221 -0.61180514 4294053120
3.3318903 -1.2647508 -0.60630161 4294053120
3.3300946 -1.2639525 -0.59965307 4294053120
3.3336678 -1.2651904 -0.59327149 4294053120
3.3394775 -1.2672762 -0.58658075 4294053120
3.3189864 -1.259391 -0.57463926 4293922560
3.310214 -1.2559499 -0.56413734 4293922560
3.3037145 -1.253371 -0.55341685 4293922560
3.3131292 -1.2568243 -0.54471344 4293922560
3.3373871 -1.2659024 -0.53771472 4294053120
3.3470507 -1.2694486 -0.52764225 4294053120
3.3360374 -1.2651602 -0.51372272 4294053120
3.31585 -1.2573969 -0.49792781 4293922560
3.3050623 -1.2531962 -0.48309928 4293922560
3.325763 -1.260924 -0.47227725 4293922560
3.3334386 -1.2637172 -0.45895898 4293922560
3.3414414 -1.266634 -0.44510236 4294053120
3.2981453 -1.250124 -0.42409277 4293792000
3.3133602 -1.2557728 -0.41024691 4293922560
3.3370652 -1.2646352 -0.39680579 4293922560
3.3422301 -1.2664772 -0.38058332 4293922560
3.3446195 -1.2672683 -0.36358714 4293922560
3.2934043 -1.2477688 -0.34063488 4293792000
3.3133953 -1.2552236 -0.32481897 4293792000
3.3229401 -1.2587239 -0.30746597 4293922560
3.3201051 -1.2575389 -0.28859866 4293922560
3.304065 -1.2513574 -0.26838011 4293792000
3.3191741 -1.2569628 -0.25039768 4293792000
3.3297706 -1.2608598 -0.23165575 4293922560
3.3298295 -1.2607701 -0.21187103 4293922560
3.2941902 -1.2471776 -0.18980889 4293792000
3.3236988 -1.2582276 -0.1713182 4293792000
3.3179679 -1.2559488 -0.15069179 4293792000
3.3273573 -1.2593881 -0.13056587 4293792000
3.3120072 -1.2534723 -0.10937345 4293792000
3.3253303 -1.2583987 -0.089019112 4293792000
3.3439798 -1.2653378 -0.068512924 4293922560
3.3234382 -1.2574607 -0.047152717 4293792000
3.327702 -1.2589611 -0.026194401 4293792000
3.3502722 -1.2673801 -0.0051820385 4293922560
3.3442302 -1.2649845 0.015976412 4293922560
3.3095901 -1.2517827 0.036715992 4293792000
3.3710618 -1.2748989 0.058664646 4294053120
3.3747559 -1.2761817 0.079942361 4294053120
3.3683736 -1.2736576 0.10087366 4294053120
3.1896966 -1.2060494 0.11535382 4293400320
3.3609731 -1.2706364 0.14236721 4293922560
3.3830447 -1.2788599 0.16407469 4294053120
3.3389237 -1.262084 0.18224815 4293922560
3.1180136 -1.1785529 0.18894635 4293139200
3.3759201 -1.2758288 0.22473079 4294053120
3.360244 -1.2697967 0.24346106 4294053120
3.3424249 -1.2629567 0.26157132 4293922560
3.0995672 -1.17117 0.26026005 4293008640
3.3791692 -1.2766004 0.30278656 4294053120
3.3860521 -1.2790838 0.32211658 4294053120
3.3735635 -1.2742565 0.33921385 4294053120
3.314245 -1.2517587 0.35083672 4293792000
3.1242759 -1.1799687 0.34692219 4293139200
3.3787224 -1.2758597 0.39232457 4294053120
3.3788035 -1.2757754 0.40901211 4294053120
3.350996 -1.2651712 0.42172799 4294053120
3.2977231 -1.2449636 0.43037972 4293792000
3.1845925 -1.2021847 0.4299691 4293400320
3.3703635 -1.2721314 0.46975788 4294053120
3.3832955 -1.2768923 0.48576996 4294183680
3.3615897 -1.2685921 0.49621922 4294053120
3.3678415 -1.2708335 0.51016814 4294053120
3.3291378 -1.2561272 0.51660061 4293922560
3.2509174 -1.2265282 0.5158872 4293661440
3.3620396 -1.2682978 0.54473907 4294053120
3.3609107 -1.2677556 0.55513287 4294053120
3.3662906 -1.2696662 0.56597328 4294183680
3.3595068 -1.2669929 0.57410955 4294053120
3.3586433 -1.2665503 0.58257097 4294053120
3.3566692 -1.2656891 0.59015572 4294053120
3.3602445 -1.2669183 0.5980323 4294183680
3.342205 -1.2600056 0.60133547 4294053120
3.3286932 -1.2547989 0.6046924 4294053120
3.3417773 -1.2596087 0.61217183 4294053120
3.3540399 -1.2641081 0.61881971 4294053120
3.3287466 -1.2544658 0.61779881 4294053120
3.33201 -1.255576 0.62132996 4294053120
3.3316991 -1.2553403 0.6234675 4294053120
3.3278172 -1.2537601 0.62420195 4294053120
3.3314264 -1.2549993 0.62560755 4294053120
3.3396194 -1.2579632 0.62713957 4294053120
3.3305583 -1.2544334 0.62469512 4294053120
3.3471649 -1.2605618 0.62632728 4294053120
3.3300381 -1.2539972 0.62091303 4294053120
3.3429968 -1.2587515 0.62038147 4294053120
3.348212 -1.2605919 0.61766732 4294053120
3.3540184 -1.2626539 0.61432493 4294053120
3.3538516 -1.2624689 0.60916132 4294053120
3.3487372 -1.2604231 0.60239559 4294053120
3.3644733 -1.2662174 0.59865683 4294183680
3.3651466 -1.2663469 0.59150666 4294183680
3.352977 -1.2616482 0.58143699 4294053120
3.3407326 -1.2569219 0.57073897 4294053120
3.3363216 -1.2551404 0.56076169 4294053120
3.3516452 -1.260776 0.55342108 4294053120
3.3766897 -1.2700632 0.54692328 4294183680
3.367125 -1.2663437 0.53414011 4294053120
3.3614647 -1.2640916 0.52141482 4294053120
3.3230128 -1.2488408 0.42647153 4293922560
3.3511508 -1.2592796 0.41425619 4294053120
3.3641522 -1.2640338 0.39950657 4294053120
3.3463695 -1.2572317 0.38067576 4293922560
3.329906 -1.2509259 0.36174265 4293922560
3.3402905 -1.2546968 0.34535572 4293922560
3.3555865 -1.2603099 0.32895666 4293922560
3.3360391 -1.2528481 0.30879736 4293922560
3.3106036 -1.2431787 0.28799874 4293792000
3.3342977 -1.2519411 0.27116942 4293922560
3.3412187 -1.2544101 0.25250065 4293922560
3.3502777 -1.2576804 0.23362295 4293922560
3.3270562 -1.248844 0.2123173 4293792000
3.3578951 -1.2602811 0.19418879 4293922560
3.3589947 -1.260565 0.17393187 4293922560
3.352932 -1.2581638 0.15314257 4293922560
3.323524 -1.2470114 0.1313334 4293792000
3.3376577 -1.252182 0.11120086 4293922560
3.3413615 -1.2534424 0.090486258 4293922560
3.336854 -1.2516254 0.069453336 4293922560
3.3244264 -1.2468408 0.048283592 4293792000
3.3253169 -1.2470472 0.02732796 4293792000
3.33095 -1.2490301 0.0063394792 4293792000
3.2989275 -1.2369071 -0.014569641 4293792000
3.3181949 -1.2439975 -0.035601512 4293792000
3.331176 -1.2487321 -0.056734104 4293792000
3.3306615 -1.2484119 -0.077658802 4293792000
3.3074374 -1.2395884 -0.097828105 4293792000
3.3332241 -1.2491164 -0.11934888 4293922560
3.3431633 -1.2527099 -0.14040047 4293922560
3.3444521 -1.2530645 -0.16101006 4293922560
3.3126483 -1.2410328 -0.17967513 4293792000
3.3346536 -1.2491419 -0.20099334 4293922560
3.3367019 -1.2497813 -0.2210415 4293922560
3.3291903 -1.2468433 -0.24018772 4293922560
3.3212531 -1.2437469 -0.25895286 4293792000
3.3464534 -1.2530479 -0.28011134 4293922560
3.3653395 -1.2599852 -0.30068895 4294053120
3.367841 -1.260793 -0.31959864 4294053120
3.3280473 -1.2457829 -0.33395216 4293922560
3.3431065 -1.2512882 -0.35329387 4293922560
3.3448553 -1.2518154 -0.37093273 4293922560
3.3556268 -1.2557162 -0.38922444 4294053120
3.3448377 -1.251556 -0.40459102 4293922560
3.3034894 -1.2359741 -0.41556635 4293792000
3.3605044 -1.2571597 -0.43849486 4294053120
3.3668802 -1.2594161 -0.45463529 4294053120
3.3667614 -1.2592454 -0.46941951 4294053120
3.3784857 -1.2634999 -0.48537356 4294183680
3.3588345 -1.2560316 -0.49625093 4294053120
3.3246665 -1.2431419 -0.50421292 4293922560
3.3295267 -1.2448335 -0.51739651 4293922560
3.3396337 -1.2484846 -0.53086013 4294053120
3.33812 -1.2477952 -0.54190576 4294053120
3.3341854 -1.2462022 -0.55192238 4294053120
3.3440096 -1.2497472 -0.56359762 4294053120
3.3437972 -1.2495444 -0.57296616 4294053120
3.3363509 -1.2466414 -0.58041793 4294053120
3.3209937 -1.2407863 -0.58577013 4293922560
3.3277717 -1.2431943 -0.59432167 4294053120
3.3184896 -1.2396084 -0.59931815 4293922560
3.3088274 -1.2358816 -0.60351557 4293922560
3.3055401 -1.2345345 -0.60815084 4293922560
3.2920854 -1.2293944 -0.61018795 4293922560
3.2915227 -1.2290652 -0.61388171 4293922560
3.267565 -1.2200093 -0.612481 4293792000
3.2810693 -1.2249283 -0.61736441 4293792000
3.2670043 -1.2195646 -0.61635119 4293792000
3.2715087 -1.221127 -0.61811078 4293792000
3.2867122 -1.2266788 -0.62116927 4293922560
3.2940745 -1.2293063 -0.62202287 4293922560
3.2897003 -1.2275581 -0.61993831 4293922560
3.3059499 -1.2334985 -0.62100279 4293922560
3.3193283 -1.2383678 -0.62078404 4293922560
3.325918 -1.2407062 -0.6185565 4294053120
3.3278642 -1.2413141 -0.61473739 4294053120
3.3339338 -1.2434586 -0.61095268 4294053120
3.3254166 -1.240168 -0.60379505 4294053120
3.3374016 -1.2445165 -0.59964556 4294053120
3.3363597 -1.2440116 -0.59244448 4294053120
3.3329325 -1.2426186 -0.58414602 4294053120
3.3225665 -1.2386416 -0.5739935 4293922560
3.3137729 -1.2352512 -0.56350136 4293922560
3.3072567 -1.2327098 -0.55279142 4293922560
3.3250263 -1.2392119 -0.5454644 4293922560
3.3460126 -1.2469107 -0.53791696 4294053120
3.3593044 -1.2517438 -0.5284065 4294053120
3.3353832 -1.2427237 -0.51249301 4293922560
3.3231187 -1.2380441 -0.4979203 4293922560
3.3028173 -1.2303746 -0.48171034 4293792000
3.3284066 -1.2397847 -0.47161272 4293922560
3.3373055 -1.2429825 -0.45847997 4293922560
3.3319414 -1.240873 -0.44286329 4293922560
3.3005149 -1.2290677 -0.42346343 4293792000
3.3206193 -1.2364348 -0.4102394 4293922560
3.3397179 -1.2434264 -0.39624679 4293922560
3.3414435 -1.2439554 -0.37965658 4293922560
3.3434796 -1.2445997 -0.36266342 4293922560
3.2912872 -1.2250779 -0.33966687 4293792000
3.3075023 -1.2309964 -0.32352844 4293792000
3.3255465 -1.2375941 -0.30702847 4293922560
3.3231711 -1.2365992 -0.28822762 4293792000
3.3066247 -1.2303367 -0.26799494 4293792000
3.3311148 -1.2393289 -0.250741 4293922560
3.3277047 -1.2379498 -0.23100097 4293792000
3.333374 -1.2399454 -0.21162668 4293922560
3.309823 -1.2310823 -0.19028392 4293792000
3.3216081 -1.2353507 -0.17083111 4293792000
3.3252273 -1.2365844 -0.15068428 4293792000
3.3374348 -1.2410085 -0.13066733 4293922560
3.3061342 -1.22927 -0.10893637 4293792000
3.3386111 -1.2412229 -0.089170858 4293922560
3.3427846 -1.2426616 -0.068333045 4293922560
3.3096087 -1.2302296 -0.046850551 4293792000
3.3264599 -1.2363769 -0.026121551 4293792000
3.3406413 -1.2415317 -0.0051513668 4293922560
3.3530025 -1.2460098 0.015991215 4293922560
3.2882609 -1.2218634 0.036402255 4293661440
3.3619423 -1.249105 0.058383182 4293922560
3.3784983 -1.255138 0.079863533 4294053120
3.3702064 -1.2519479 0.10071521 4293922560
3.1966665 -1.1874337 0.11536104 4293400320
3.3560567 -1.2464725 0.14185475 4293922560
3.3632748 -1.2490387 0.16276386 4293922560
3.3321724 -1.2373872 0.18148866 4293792000
3.1070395 -1.1537576 0.18787526 4293008640
3.3641937 -1.2490424 0.22346711 4293922560
3.3718631 -1.2517744 0.24377877 4294053120
3.3543847 -1.2451792 0.26194352 4293922560
3.0932491 -1.1482273 0.2591688 4293008640
3.3768196 -1.253273 0.3019233 4294053120
3.3841772 -1.2558876 0.32124352 4294053120
3.3678579 -1.2497236 0.33790869 4294053120
3.2953525 -1.2227319 0.3480815 4293792000
3.121768 -1.158278 0.34589478 4293139200
3.374912 -1.2519972 0.39103529 4294053120
3.3679516 -1.2493035 0.40681654 4294053120
3.3536365 -1.2438846 0.42114857 4294053120
3.3193164 -1.2310539 0.43226382 4293922560
3.1831663 -1.1804973 0.42884743 4293400320
3.3729498 -1.2506975 0.46910244 4294053120
3.3817897 -1.253857 0.48450395 4294183680
3.3689198 -1.2489746 0.49622682 4294053120
3.3659003 -1.2477407 0.50877154 4294053120
3.3280437 -1.2336059 0.51531416 4293922560
3.320504 -1.2306995 0.52579659 4293922560
3.3605585 -1.2454158 0.54332167 4294053120
3.380692 -1.2527539 0.55719447 4294183680
3.3693914 -1.2484535 0.56527001 4294053120
3.3611906 -1.245301 0.57315546 4294053120
3.3567045 -1.2435238 0.58097571 4294053120
3.3593554 -1.2443881 0.58935124 4294053120
3.3536882 -1.2421737 0.59557462 4294053120
3.3448613 -1.2387902 0.6005125 4294053120
3.3569469 -1.2431445 0.60850877 4294053120
3.3398113 -1.2366872 0.61048907 4294053120
3.3437841 -1.2380391 0.61559337 4294053120
3.3478649 -1.2394305 0.62000543 4294053120
3.3263295 -1.2313472 0.6189298 4294053120
3.3213992 -1.229406 0.62019616 4293922560
3.3258233 -1.2309238 0.62247986 4294053120
3.3376112 -1.2351637 0.62541521 4294053120
3.3376498 -1.2350588 0.6254155 4294053120
3.3458591 -1.2379738 0.62621039 4294053120
3.3544483 -1.2410285 0.62633485 4294053120
3.3497641 -1.2391766 0.62324351 4294053120
3.3594971 -1.2426528 0.62209839 4294053120
3.3609481 -1.2430674 0.61867899 4294053120
3.3576157 -1.2417144 0.6136564 4294053120
3.3537598 -1.2401679 0.60782975 4294053120
3.3479359 -1.2378944 0.60095155 4294053120
3.3625364 -1.2431654 0.59702092 4294053120
3.3585794 -1.2415808 0.58907807 4294053120
3.3519332 -1.2390034 0.58000195 4294053120
3.3396583 -1.2343476 0.56932467 4294053120
3.3352334 -1.232591 0.5593698 4293922560
3.3496592 -1.2377939 0.55190039 4294053120
3.3793905 -1.2486457 0.54618102 4294183680
3.3642378 -1.2429274 0.53253168 4294053120
3.3584411 -1.2406632 0.51982301 4294053120
3.318362 -1.2250713 0.42495814 4293922560
3.3565664 -1.2390366 0.41403407 4294053120
3.3701408 -1.2439162 0.39935818 4294053120
3.3525856 -1.2373161 0.38056421 4293922560
3.325243 -1.2271087 0.3604598 4293922560
3.3512762 -1.2365805 0.34574914 4293922560
3.3532441 -1.2371793 0.32802156 4293922560
3.3320184 -1.2292291 0.30776346 4293922560
3.3069773 -1.2198743 0.28706646 4293792000
3.3313136 -1.2287169 0.27034637 4293922560
3.3522925 -1.2363205 0.25279722 4293922560
3.3446419 -1.2333745 0.23273091 4293922560
3.3258426 -1.2263219 0.21178684 4293792000
3.349246 -1.2348161 0.19327472 4293922560
3.3577623 -1.2378253 0.17349817 4293922560
3.3517649 -1.2354888 0.15276434 4293922560
3.3265662 -1.226082 0.13117608 4293792000
3.3368375 -1.2297372 0.1109393 4293792000
3.3439145 -1.2322154 0.090366326 4293922560
3.3393958 -1.2304244 0.069362685 4293792000
3.3326867 -1.2278275 0.04830661 4293792000
3.3347044 -1.228443 0.027353782 4293792000
3.3332701 -1.227788 0.0063368552 4293792000
3.2922792 -1.2125775 -0.014503921 4293661440
3.3188119 -1.222214 -0.035524856 4293792000
3.3270473 -1.2251172 -0.056535911 4293792000
3.3273103 -1.225087 -0.077407479 4293792000
3.3050139 -1.2167592 -0.097539552 4293792000
3.3323863 -1.2267002 -0.11905508 4293792000
3.3522756 -1.2338873 -0.14047095 4293922560
3.3404307 -1.2294043 -0.16046375 4293922560
3.3070943 -1.2170206 -0.17898157 4293792000
3.3291385 -1.2249988 -0.20022264 4293792000
3.3356102 -1.2272512 -0.22048612 4293922560
3.341079 -1.2291346 -0.2405162 4293922560
3.3116341 -1.2181864 -0.25764155 4293792000
3.3562334 -1.23445 -0.28031513 4293922560
3.368799 -1.2389399 -0.30034137 4294053120
3.3616264 -1.2361772 -0.31831568 4293922560
3.3140173 -1.2185605 -0.33182397 4293792000
3.3287725 -1.2238551 -0.35101736 4293922560
3.3487391 -1.2310631 -0.3705551 4293922560
3.3499353 -1.2313763 -0.38772127 4293922560
3.3408666 -1.2279201 -0.40323383 4293922560
3.2893343 -1.2088735 -0.41289082 4293792000
3.3597672 -1.2346084 -0.43744719 4294053120
3.3744404 -1.2398691 -0.45466536 4294053120
3.3655813 -1.2364912 -0.46823725 4294053120
3.3764846 -1.2403673 -0.48403454 4294053120
3.3550165 -1.232363 -0.49461305 4294053120
3.3280613 -1.2223471 -0.50363278 4293922560
3.3366413 -1.2253716 -0.51737642 4293922560
3.3388741 -1.2260672 -0.52958959 4293922560
3.342001 -1.2270906 -0.54135942 4294053120
3.3478799 -1.2291237 -0.55298519 4294053120
3.3474514 -1.2288432 -0.56295502 4294053120
3.3371146 -1.2249293 -0.57058489 4294053120
3.3431602 -1.2270237 -0.58034158 4294053120
3.3327975 -1.223102 -0.58657646 4293922560
3.3303275 -1.2220746 -0.59349024 4293922560
3.3302839 -1.2219373 -0.60014343 4293922560
3.2995734 -1.2105595 -0.60052842 4293922560
3.2915366 -1.2074941 -0.60426867 4293792000
3.2954912 -1.2088243 -0.60949719 4293922560
3.2796926 -1.2029161 -0.61035609 4293792000
3.2699928 -1.199244 -0.61161005 4293792000
3.2789021 -1.2023906 -0.61562347 4293792000
3.278677 -1.2021905 -0.61721271 4293792000
3.3067417 -1.2123531 -0.62340665 4293922560
3.2891793 -1.2058028 -0.62029129 4293792000
3.3058038 -1.211774 -0.62288517 4293922560
3.2967958 -1.208358 -0.6199308 4293922560
3.3223286 -1.21759 -0.62272614 4293922560
3.3218615 -1.2173016 -0.61991477 4293922560
3.323838 -1.2179081 -0.6168347 4293922560
3.3300164 -1.2200528 -0.61380541 4293922560
3.3364935 -1.2223067 -0.61010021 4294053120
3.3288095 -1.2193778 -0.60310453 4293922560
3.3371832 -1.2223259 -0.59831125 4294053120
3.3355932 -1.2216278 -0.59102929 4294053120
3.332155 -1.2202541 -0.58274859 4293922560
3.325937 -1.2178638 -0.57333386 4293922560
3.3124931 -1.2128309 -0.56206757 4293922560
3.3048997 -1.2099392 -0.5512051 4293922560
3.3237617 -1.2167238 -0.54407972 4293922560
3.3317783 -1.2195413 -0.53447568 4293922560
3.3594878 -1.2295593 -0.52729398 4294053120
3.3350484 -1.2205086 -0.51133484 4293922560
3.3260903 -1.2171197 -0.49728832 4293922560
3.3104494 -1.2112887 -0.48177847 4293792000
3.3188097 -1.214232 -0.46923959 4293922560
3.3364882 -1.2205806 -0.45737761 4293922560
3.336314 -1.2204038 -0.44248515 4293922560
3.3128033 -1.2116996 -0.42411834 4293792000
3.3093679 -1.2103324 -0.40796852 4293792000
3.3304029 -1.2179061 -0.3942897 4293922560
3.3452806 -1.2232292 -0.37926972 4293922560
3.3415916 -1.2217691 -0.36167514 4293922560
3.2883625 -1.2022146 -0.33863151 4293661440
3.3164845 -1.2123752 -0.32370275 4293792000
3.3255155 -1.2155621 -0.30636081 4293792000
3.3165927 -1.2121927 -0.28703541 4293792000
3.3002095 -1.2061 -0.26689669 4293792000
3.3203921 -1.2133583 -0.24939412 4293792000
3.3263412 -1.2154193 -0.23040527 4293792000
3.3299804 -1.2166369 -0.21095246 4293792000
3.3038051 -1.2069725 -0.18952589 4293792000
3.3117762 -1.2097716 -0.16995621 4293792000
3.31935 -1.2124255 -0.15009053 4293792000
3.3305247 -1.2163928 -0.13011247 4293792000
3.3038483 -1.206549 -0.10862203 4293661440
3.331697 -1.2165992 -0.088790596 4293792000
3.3410439 -1.2198985 -0.068145178 4293792000
3.329406 -1.2155426 -0.047019806 4293792000
3.3383019 -1.2186768 -0.026149904 4293792000
3.3469579 -1.2217228 -0.005142597 4293922560
3.3536384 -1.224048 0.01596644 4293922560
3.2859271 -1.1992476 0.036304299 4293661440
3.3597665 -1.2260599 0.058226459 4293922560
3.3706062 -1.2299002 0.079511479 4293922560
3.3651369 -1.2277946 0.10035398 4293922560
3.261461 -1.189894 0.11746422 4293530880
3.3563836 -1.2243811 0.14157133 4293922560
3.3644633 -1.227214 0.16247948 4293922560
3.3519819 -1.2225541 0.1821862 4293922560
3.1825242 -1.160699 0.19204547 4293269760
3.3748794 -1.2306732 0.22370516 4293922560
3.3744087 -1.2303894 0.24344765 4294053120
3.3344181 -1.2157098 0.25983101 4293792000
3.0867691 -1.1253983 0.25807759 4293008640
3.3734791 -1.2297128 0.30098554 4294053120
3.3857019 -1.2340511 0.32070762 4294053120
3.3778033 -1.2310616 0.33818948 4294053120
3.3061574 -1.2048626 0.34848371 4293792000
3.1200485 -1.136997 0.34497085 4293139200
3.3812928 -1.2319916 0.39094427 4294053120
3.3705013 -1.2279497 0.406261 4294053120
3.3561568 -1.2226152 0.420571 4293922560
3.3180339 -1.2086281 0.43117961 4293792000
3.176002 -1.1568317 0.42697322 4293400320
3.3755167 -1.2293187 0.46846306 4294053120
3.3750634 -1.2290392 0.4825131 4294053120
3.3761358 -1.2293146 0.49623451 4294053120
3.3600826 -1.2233601 0.50681329 4294053120
3.3351707 -1.2141844 0.51532179 4293922560
3.3090227 -1.2045605 0.52286494 4293792000
3.3677535 -1.2258047 0.54332936 4294053120
3.3656392 -1.2249202 0.55353439 4294053120
3.3766041 -1.2287909 0.5652777 4294053120
3.3637447 -1.2239994 0.57237321 4294053120
3.3685269 -1.2256213 0.58178484 4294053120
3.3572707 -1.2214133 0.5877347 4294053120
3.3478856 -1.2178856 0.59328127 4294053120
3.3390427 -1.2145554 0.59819466 4294053120
3.3511567 -1.2188408 0.6061691 4294053120
3.3247232 -1.2091192 0.60643983 4293922560
3.3416746 -1.2151612 0.61389881 4294053120
3.3292394 -1.2105263 0.61524606 4293922560
3.3334429 -1.211936 0.61893743 4294053120
3.3331306 -1.2117049 0.62106663 4294053120
3.3283055 -1.2098345 0.62162262 4293922560
3.3401179 -1.2140058 0.62455696 4294053120
3.336453 -1.2125562 0.62386465 4294053120
3.3530109 -1.2184486 0.62621802 4294053120
3.3440261 -1.2150671 0.62306362 4294053120
3.3569226 -1.2196286 0.62325114 4294053120
3.3666759 -1.223048 0.62210602 4294053120
3.3551612 -1.2187479 0.61630368 4294053120
3.3555243 -1.2187586 0.61197364 4294053120
3.3572173 -1.2192515 0.60716671 4294053120
3.3597221 -1.2200387 0.60178971 4294053120
3.365082 -1.2218609 0.59620684 4294053120
3.3620417 -1.2206357 0.58843607 4294053120
3.353986 -1.2175912 0.57912773 4294053120
3.3509111 -1.2163534 0.57003385 4294053120
3.3423543 -1.2131277 0.55937743 4293922560
3.3496199 -1.2156394 0.55072528 4294053120
3.3689439 -1.222522 0.54333901 4294053120
3.3583994 -1.2185754 0.53048182 4294053120
3.3572354 -1.2180294 0.51853669 4294053120
3.3207724 -1.2040154 0.42436877 4293792000
3.3544662 -1.2160951 0.4129011 4293922560
3.3630288 -1.2190706 0.39767355 4293922560
3.3466449 -1.2130114 0.37908772 4293922560
3.3124447 -1.2005023 0.35831377 4293792000
3.3453181 -1.2122796 0.34440634 4293922560
3.3557103 -1.2159157 0.32757166 4293922560
3.3335028 -1.2077507 0.30725259 4293792000
3.3198929 -1.2026989 0.28758302 4293792000
3.3317366 -1.2068598 0.26981243 4293792000
3.3390706 -1.2093878 0.25126961 4293792000
3.3419142 -1.2102903 0.23205295 4293922560
3.3192501 -1.2019644 0.2109233 4293792000
3.3498108 -1.2128938 0.19290309 4293922560
3.3546641 -1.2145222 0.17297578 4293922560
3.3469348 -1.2115996 0.15222579 4293922560
3.319968 -1.2017206 0.13064311 4293792000
3.3341575 -1.2067254 0.11062069 4293792000
3.3500974 -1.2123618 0.090348534 4293922560
3.3286407 -1.2044775 0.068997003 4293792000
3.312511 -1.1985205 0.047915053 4293792000
3.3230758 -1.2022132 0.027204795 4293792000
3.3356624 -1.2066357 0.0063346936 4293792000
3.3004715 -1.1937921 -0.014501396 4293661440
3.3117676 -1.1977483 -0.03536927 4293792000
3.3256631 -1.2026428 -0.05638643 4293792000
3.3296881 -1.2039704 -0.077291667 4293792000
3.3082843 -1.1961126 -0.097422011 4293661440
3.3394747 -1.2072523 -0.11904747 4293792000
3.3415492 -1.2078747 -0.13972031 4293792000
3.3381388 -1.2065165 -0.1600077 4293792000
3.3056726 -1.1946676 -0.17851926 4293661440
3.3239276 -1.2011328 -0.19948015 4293792000
3.3295588 -1.2030398 -0.21961448 4293792000
3.326679 -1.2018743 -0.23896873 4293792000
3.319144 -1.1990291 -0.2576704 4293792000
3.341717 -1.2070497 -0.27850804 4293922560
3.3600202 -1.213528 -0.29891941 4293922560
3.3497865 -1.2097092 -0.31651872 4293922560
3.3079476 -1.1944891 -0.33050954 4293792000
3.3283529 -1.2017254 -0.35022324 4293792000
3.3473513 -1.2084528 -0.3696107 4293922560
3.3579137 -1.2121365 -0.38781297 4293922560
3.3479629 -1.2084223 -0.4032262 4293922560
3.2869778 -1.1863074 -0.41171548 4293661440
3.3584168 -1.211941 -0.43633923 4293922560
3.3698559 -1.2159395 -0.45308089 4294053120
3.366194 -1.2144941 -0.46732426 4294053120
3.3703954 -1.2158833 -0.48213381 4294053120
3.3574791 -1.2111032 -0.49392116 4294053120
3.3313999 -1.2015812 -0.50306356 4293922560
3.330689 -1.2012019 -0.51535559 4293922560
3.3459601 -1.2065808 -0.52958196 4293922560
3.3369198 -1.2032008 -0.53938746 4293922560
3.3420825 -1.2049377 -0.55085468 4293922560
3.3420086 -1.2047884 -0.56084561 4293922560
3.3447139 -1.2056403 -0.57066584 4294053120
3.3483825 -1.2068392 -0.58001071 4294053120
3.326308 -1.1987691 -0.5841915 4293922560
3.3290384 -1.199631 -0.59199977 4293922560
3.3108988 -1.1929803 -0.59538758 4293922560
3.2982225 -1.1882975 -0.59900731 4293792000
3.2938788 -1.186615 -0.60341316 4293792000
3.3024776 -1.1895908 -0.60948962 4293922560
3.2736678 -1.1791052 -0.60794252 4293792000
3.2815578 -1.1818266 -0.6124661 4293792000
3.2812178 -1.1815867 -0.61474919 4293792000
3.2763586 -1.1797216 -0.61546731 4293792000
3.2762482 -1.1795652 -0.61635536 4293792000
3.3044879 -1.1896056 -0.62185067 4293922560
3.2916372 -1.184867 -0.61890346 4293792000
3.2861719 -1.1827854 -0.61662459 4293792000
3.3168471 -1.1936989 -0.62038076 4293922560
3.3205543 -1.1949151 -0.61835605 4293922560
3.3219714 -1.195308 -0.61518055 4293922560
3.3370676 -1.2006179 -0.61379778 4293922560
3.3394392 -1.2013538 -0.60934222 4294053120
3.3363221 -1.2001172 -0.60318089 4293922560
3.3313699 -1.1982217 -0.59600335 4293922560
3.3305039 -1.197795 -0.5888769 4293922560
3.3270535 -1.1964401 -0.58062339 4293922560
3.3255398 -1.1957816 -0.57204932 4293922560
3.3106742 -1.1903272 -0.56056768 4293922560
3.3025939 -1.1873112 -0.54965264 4293792000
3.31777 -1.1926483 -0.54194838 4293922560
3.3425491 -1.2014332 -0.53506297 4293922560
3.347971 -1.2032658 -0.52437454 4293922560
3.3421018 -1.2010447 -0.51132721 4293922560
3.3058898 -1.1879307 -0.49322483 4293792000
3.299731 -1.1856078 -0.47920251 4293792000
3.3268757 -1.1952392 -0.46937969 4293922560
3.3342066 -1.1977578 -0.4560954 4293922560
3.3293562 -1.1959047 -0.44062692 4293922560
3.3020494 -1.185994 -0.42184696 4293792000
3.3126221 -1.1896764 -0.40750182 4293792000
3.3262117 -1.1944407 -0.39295825 4293792000
3.3438442 -1.2006546 -0.37830192 4293922560
3.3402238 -1.199244 -0.36075926 4293922560
3.2868774 -1.1799989 -0.33775955 4293661440
3.30568 -1.1866324 -0.32196477 4293792000
3.3232431 -1.1928203 -0.30550078 4293792000
3.3146284 -1.1896207 -0.2862553 4293792000
3.2987313 -1.1838109 -0.26620933 4293661440
3.3189523 -1.1909505 -0.24875502 4293792000
3.3333642 -1.1960067 -0.23039766 4293792000
3.3225126 -1.1920066 -0.21003152 4293792000
3.2893043 -1.1799946 -0.18829365 4293661440
3.3206439 -1.1911168 -0.17004438 4293792000
3.3263557 -1.1930537 -0.15008293 4293792000
3.3216424 -1.191255 -0.12948784 4293792000
3.2976465 -1.1825482 -0.10818495 4293661440
3.3208451 -1.1907499 -0.088310972 4293792000
3.3438556 -1.1988827 -0.068052113 4293792000
3.314301 -1.1881868 -0.046704553 4293661440
3.3218894 -1.1907951 -0.025963303 4293792000
3.3432741 -1.1983434 -0.0051204222 4293792000
3.3479335 -1.1999015 0.015911138 4293792000
3.2989471 -1.182252 0.03638006 4293661440
3.3558252 -1.2025058 0.058041602 4293922560
3.3739471 -1.2088822 0.079429939 4293922560
3.3675249 -1.206472 0.10022088 4293922560
3.259867 -1.1678294 0.11716593 4293530880
3.3669372 -1.2060392 0.14172602 4293922560
3.362031 -1.2041723 0.16202684 4293922560
3.359045 -1.2029927 0.18219388 4293922560
3.1986301 -1.1454892 0.19262025 4293269760
3.372592 -1.2076164 0.22308996 4293922560
3.3729889 -1.2076466 0.24284025 4293922560
3.3498785 -1.1992687 0.26049587 4293922560
3.1846638 -1.1400698 0.26572278 4293269760
3.3835888 -1.2111011 0.30126125 4294053120
3.3825176 -1.2106054 0.31973919 4294053120
3.3708529 -1.2063221 0.33679056 4293922560
3.3046844 -1.1825538 0.3476032 4293792000
3.1266165 -1.1187886 0.34497797 4293139200
3.3761587 -1.2078806 0.38953716 4294053120
3.3682382 -1.2049365 0.40514228 4294053120
3.3585436 -1.2013589 0.41999346 4293922560
3.3250158 -1.1892651 0.43118721 4293792000
3.1789474 -1.1369619 0.42647874 4293269760
3.382618 -1.2096206 0.46847078 4294053120
3.3774965 -1.2076766 0.48185465 4294053120
3.3655128 -1.2032816 0.4936409 4294053120
3.3624873 -1.2020869 0.50611883 4294053120
3.3282051 -1.1897291 0.51317275 4293922560
3.3159807 -1.1852503 0.52287251 4293792000
3.3608677 -1.201165 0.54108733 4294053120
3.3596849 -1.2006277 0.55140251 4294053120
3.375329 -1.2060975 0.56388599 4294053120
3.3661652 -1.2027103 0.57159102 4294053120
3.3672397 -1.2029779 0.58034992 4294053120
3.3559623 -1.1988368 0.58628064 4294053120
3.3549204 -1.1983489 0.59328896 4294053120
3.3497732 -1.1963959 0.59886676 4294053120
3.348912 -1.1959722 0.60450006 4294053120
3.3363488 -1.1913736 0.60729259 4293922560
3.344981 -1.1943364 0.61322564 4294053120
3.3315916 -1.1894435 0.6143977 4293922560
3.3311646 -1.1891743 0.61722517 4293922560
3.327141 -1.1876222 0.61865819 4293922560
3.3306551 -1.1887579 0.62076539 4293922560
3.3434196 -1.1931914 0.62387198 4294053120
3.3341799 -1.1897789 0.62214065 4293922560
3.3554101 -1.1972286 0.62536085 4294053120
3.3510444 -1.1955531 0.62307125 4294053120
3.3602557 -1.1987164 0.62257093 4294053120
3.3551791 -1.196787 0.61868978 4294053120
3.3622007 -1.1991688 0.61631137 4294053120
3.3625638 -1.1991774 0.61198133 4294053120
3.3549731 -1.196352 0.60549772 4294053120
3.3491197 -1.1941457 0.59864134 4294053120
3.3498385 -1.1942805 0.59226996 4294053120
3.3589401 -1.1974006 0.58666986 4294053120
3.3563697 -1.1963632 0.57833397 4294053120
3.3532858 -1.1951429 0.56925154 4294053120
3.3354025 -1.1886531 0.55705261 4293922560
3.3473315 -1.192778 0.54920465 4293922560
3.3658326 -1.1992412 0.54170865 4294053120
3.3607788 -1.1973188 0.5297547 4294053120
3.357748 -1.1961164 0.51753837 4294053120
3.32305 -1.1829731 0.42377943 4293792000
3.3521316 -1.1931914 0.41175812 4293922560
3.3683882 -1.1988469 0.39748251 4293922560
3.3517814 -1.1928165 0.37888372 4293922560
3.3205614 -1.1815921 0.3584491 4293792000
3.3429425 -1.1894237 0.34344935 4293922560
3.3495982 -1.1916639 0.32629812 4293922560
3.3404796 -1.1882974 0.30726025 4293792000
3.317204 -1.1799006 0.2867564 4293792000
3.3340106 -1.1857476 0.26943982 4293792000
3.3413572 -1.1882322 0.25092369 4293792000
3.3442779 -1.1891438 0.2317393 4293792000
3.3130248 -1.1779163 0.21009393 4293792000
3.3521948 -1.1917033 0.19264443 4293922560
3.3506567 -1.1910305 0.17241459 4293792000
3.3487 -1.190209 0.15199511 4293792000
3.3174934 -1.1790023 0.13027944 4293792000
3.3411288 -1.1872679 0.11062834 4293792000
3.3382599 -1.186123 0.089846037 4293792000
3.3352275 -1.1849203 0.068996891 4293792000
3.3277991 -1.1821578 0.048044842 4293792000
3.3347332 -1.1844923 0.027251752 4293792000
3.3247273 -1.1808157 0.0063051777 4293792000
3.296756 -1.1707658 -0.014449269 4293661440
3.3197467 -1.178797 -0.035372756 4293792000
3.3099949 -1.1752121 -0.056000497 4293661440
3.3281639 -1.1815311 -0.077089243 4293792000
3.3015902 -1.171981 -0.097017363 4293661440
3.3294125 -1.1817219 -0.11843717 4293792000
3.3438189 -1.186704 -0.13951713 4293792000
3.3404019 -1.1853664 -0.15977584 4293792000
3.2984552 -1.1703705 -0.17775379 4293661440
3.3205976 -1.1780943 -0.19885971 4293792000
3.3233392 -1.1789408 -0.21874285 4293792000
3.3278985 -1.1804311 -0.238552 4293792000
3.3129108 -1.1749951 -0.25664619 4293792000
3.3298969 -1.1808887 -0.2769416 4293792000
3.352942 -1.1889275 -0.29766408 4293922560
3.3520818 -1.1884968 -0.31606948 4293922560
3.3054645 -1.1718597 -0.32956848 4293792000
3.3259161 -1.1789788 -0.34923288 4293792000
3.3449578 -1.1855973 -0.36857218 4293922560
3.3424258 -1.1845758 -0.38521865 4293922560
3.3371482 -1.1825825 -0.40108398 4293922560
3.3021142 -1.170056 -0.41274095 4293792000
3.356998 -1.1893601 -0.43524176 4293922560
3.3628528 -1.1913075 -0.45119447 4293922560
3.3638639 -1.1915407 -0.46602392 4293922560
3.3549974 -1.1882786 -0.47893092 4293922560
3.359808 -1.1898566 -0.49322921 4293922560
3.3154762 -1.1740489 -0.49961621 4293792000
3.3301635 -1.1791222 -0.51419705 4293922560
3.3314035 -1.1794385 -0.52617985 4293922560
3.3345516 -1.1804296 -0.53787887 4293922560
3.3360016 -1.1808202 -0.54870522 4293922560
3.3489704 -1.1852841 -0.56083798 4293922560
3.3423715 -1.1828288 -0.56907576 4293922560
3.3330226 -1.1794021 -0.57614869 4293922560
3.3332353 -1.1793562 -0.58418381 4293922560
3.3136656 -1.1723186 -0.58804035 4293922560
3.3131442 -1.1720145 -0.59454715 4293922560
3.3088069 -1.1703622 -0.59967244 4293792000
3.2914438 -1.164108 -0.6017096 4293792000
3.2671092 -1.1553922 -0.60171455 4293661440
3.2758372 -1.1583586 -0.60707569 4293792000
3.2800286 -1.1597221 -0.61090422 4293792000
3.2880459 -1.1624368 -0.61474168 4293792000
3.2794616 -1.1592883 -0.61476457 4293792000
3.2793505 -1.1591327 -0.61565167 4293792000
3.2747123 -1.157379 -0.61497134 4293792000
3.2891984 -1.1623778 -0.61715633 4293792000
3.3022933 -1.1668849 -0.61835319 4293792000
3.309814 -1.1694237 -0.61777699 4293922560
3.322829 -1.1739014 -0.61748928 4293922560
3.3242335 -1.174281 -0.61431587 4293922560
3.3235505 -1.1739241 -0.61004156 4293922560
3.3275499 -1.1752197 -0.60591102 4293922560
3.3339601 -1.1773659 -0.60149854 4293922560
3.3336439 -1.1771389 -0.59516686 4293922560
3.3281226 -1.1750762 -0.58723044 4293922560
3.329314 -1.1753818 -0.57980675 4293922560
3.3324497 -1.1763732 -0.57204169 4293922560
3.3128955 -1.1693634 -0.55977452 4293792000
3.304796 -1.1663941 -0.54887259 4293792000
3.3204682 -1.1718069 -0.54125839 4293922560
3.3271086 -1.1740348 -0.53148597 4293922560
3.3418608 -1.1791221 -0.52232873 4293922560
3.3350389 -1.1766042 -0.50918537 4293922560
3.3092227 -1.1673927 -0.49269244 4293792000
3.2972367 -1.163057 -0.47784314 4293792000
3.3206923 -1.1712109 -0.46753255 4293792000
3.3288848 -1.1739857 -0.45441973 4293792000
3.3326385 -1.1751963 -0.44014108 4293922560
3.2948551 -1.1617746 -0.4200522 4293661440
3.3054416 -1.1653934 -0.40577251 4293792000
3.3312414 -1.1743696 -0.39273041 4293792000
3.3235812 -1.1715609 -0.3752301 4293792000
3.3377688 -1.1764461 -0.35974246 4293792000
3.2807956 -1.1562746 -0.33643237 4293661440
3.312536 -1.1673404 -0.32195717 4293792000
3.3160384 -1.1684635 -0.30420327 4293792000
3.3083391 -1.1656435 -0.2851164 4293661440
3.2949793 -1.1608316 -0.26535124 4293661440
3.3277118 -1.1722425 -0.24888748 4293792000
3.319562 -1.1692647 -0.22896598 4293792000
3.3246911 -1.1709599 -0.2097279 4293792000
3.2829342 -1.1561584 -0.18753563 4293661440
3.3096228 -1.1654396 -0.16912569 4293661440
3.3256347 -1.1709632 -0.14973406 4293792000
3.3238111 -1.1702123 -0.12929781 4293792000
3.3044782 -1.1633035 -0.10817736 4293661440
3.3324397 -1.1730282 -0.088427529 4293792000
3.3413496 -1.1760519 -0.067854688 4293792000
3.3206999 -1.1686815 -0.046690475 4293661440
3.3334856 -1.1730675 -0.025991566 4293792000
3.3501971 -1.1788328 -0.00511273 4293792000
3.3548653 -1.1803638 0.01591884 4293792000
3.2925696 -1.158358 0.036239963 4293661440
3.3580554 -1.1812645 0.057967111 4293792000
3.3781862 -1.1882284 0.079372771 4293922560
3.3703499 -1.1853639 0.10010488 4293922560
3.2524693 -1.143836 0.11666381 4293530880
3.3619325 -1.1821851 0.14122903 4293922560
3.3662028 -1.1835746 0.16190025 4293922560
3.334914 -1.1724735 0.18051468 4293792000
3.0994039 -1.0896488 0.18625085 4293008640
3.3748591 -1.1862818 0.22278626 4293922560
3.3706248 -1.1846834 0.24217567 4293922560
3.3483369 -1.1767465 0.25984523 4293792000
3.1818426 -1.1181824 0.26494557 4293269760
3.3774209 -1.1867349 0.30009776 4293922560
3.3913865 -1.1915252 0.31992424 4294053120
3.3750846 -1.185691 0.3365252 4293922560
3.3115149 -1.1632689 0.34761083 4293792000
3.1190007 -1.095602 0.34343335 4293008640
3.3775885 -1.1862327 0.38890564 4294053120
3.3705096 -1.1836363 0.40458679 4293922560
3.347677 -1.1755136 0.41777727 4293922560
3.3225181 -1.1665761 0.42998174 4293792000
3.2563808 -1.143267 0.4359813 4293530880
3.3765044 -1.1852871 0.46666679 4294053120
3.3891478 -1.1896073 0.48252863 4294053120
3.379859 -1.1862359 0.49473199 4294053120
3.3610213 -1.1795169 0.50486273 4293922560
3.3304069 -1.1686703 0.51246148 4293922560
3.3228261 -1.1658999 0.52288014 4293792000
3.367805 -1.1815528 0.54109508 4294053120
3.3572929 -1.1777538 0.54988194 4294053120
3.3683112 -1.1815004 0.56156129 4294053120
3.3647244 -1.1801283 0.5701769 4294053120
3.3602142 -1.1784328 0.57795322 4294053120
3.3582299 -1.1776221 0.58547628 4294053120
3.3571866 -1.177141 0.59247488 4294053120
3.3343468 -1.1690248 0.59488779 4293922560
3.3474452 -1.1734971 0.60299873 4293922560
3.3385782 -1.1702757 0.60645509 4293922560
3.3518786 -1.174817 0.61323333 4294053120
3.330092 -1.1670719 0.61286455 4293922560
3.3296645 -1.166806 0.61568499 4293922560
3.324703 -1.1649524 0.61694008 4293922560
3.3291538 -1.1663936 0.61921632 4293922560
3.3503103 -1.1736811 0.62387967 4294053120
3.3317549 -1.1670693 0.62041664 4293922560
3.3281903 -1.1657041 0.6190176 4293922560
3.3495815 -1.1730707 0.62152582 4294053120
3.3578801 -1.1758549 0.62085879 4294053120
3.3453653 -1.1713574 0.61561853 4293922560
3.3644755 -1.1779224 0.61546803 4294053120
3.3648376 -1.1779286 0.61114389 4294053120
3.3711882 -1.1800287 0.60718215 4294053120
3.3560162 -1.1746022 0.59864908 4294053120
3.3660469 -1.1779884 0.59392124 4294053120
3.3620567 -1.1764718 0.58601522 4294053120
3.3586202 -1.1751488 0.57754022 4294053120
3.3424776 -1.1693846 0.56625748 4293922560
3.3469298 -1.1708192 0.55783784 4293922560
3.3542202 -1.1732448 0.5492124 4293922560
3.3774252 -1.1812308 0.54246634 4294053120
3.3715103 -1.1790406 0.53036308 4294053120
3.3599849 -1.1748906 0.51682717 4293922560
3.3251956 -1.1619451 0.42319012 4293792000
3.3505008 -1.1706551 0.41072026 4293922560
