# .PCD v0.7 - Point Cloud Data file format
VERSION 0.7
FIELDS x y z rgba
SIZE 4 4 4 4
TYPE F F F U
COUNT 1 1 1 1
WIDTH 1103
HEIGHT 1
VIEWPOINT 0 0 0 1 0 0 0
POINTS 1103
DATA ascii
3.3121817 0.40689451 -0.30710822 4293139200
3.3167918 0.40756238 -0.29033816 4293139200
3.3186917 0.40789756 -0.27297992 4293139200
3.2823403 0.40353307 -0.25234488 4293008640
3.3164394 0.40782428 -0.23689933 4293139200
3.3221741 0.40863082 -0.21894029 4293139200
3.3161681 0.40799406 -0.19996826 4293139200
3.3228395 0.40891606 -0.18154933 4293139200
3.3056738 0.40690601 -0.16168222 4293139200
3.3154597 0.40821123 -0.14301781 4293139200
3.3277934 0.40983057 -0.12418524 4293139200
3.2897632 0.40525037 -0.10346625 4293008640
3.3156412 0.40853748 -0.084754705 4293139200
3.3327439 0.41074529 -0.06547261 4293139200
3.3422458 0.4120177 -0.045812499 4293139200
3.3196805 0.40933898 -0.025727175 4293139200
3.3418012 0.41216698 -0.0059918445 4293139200
3.3458734 0.41277108 0.013944788 4293269760
3.3463914 0.41293713 0.033877194 4293269760
3.341378 0.41242087 0.053689804 4293139200
3.368789 0.41590497 0.07407555 4293269760
3.3853347 0.41804981 0.094404779 4293400320
3.3304043 0.41137239 0.11245176 4293139200
3.351522 0.41408166 0.13269703 4293269760
3.3635476 0.41566935 0.15263291 4293269760
3.3726447 0.41689605 0.17239009 4293269760
3.3155296 0.40994167 0.18833941 4293139200
3.3665078 0.41634393 0.2101163 4293269760
3.3666022 0.4164587 0.22880219 4293269760
3.3784955 0.41803253 0.24809474 4293400320
3.3146286 0.41023651 0.26131603 4293139200
3.3899395 0.41965562 0.28518718 4293400320
3.4012396 0.42115811 0.3038536 4293400320
3.3955467 0.42055792 0.32070357 4293400320
3.3581214 0.41602865 0.3340019 4293269760
3.2578471 0.40371376 0.34003779 4293008640
3.3907747 0.42028028 0.37002382 4293400320
3.3800507 0.41905606 0.38459376 4293400320
3.3818083 0.41937816 0.40010074 4293400320
3.3546064 0.41611055 0.41163692 4293269760
3.3021245 0.40970668 0.41927904 4293139200
3.3834276 0.41989273 0.4434543 4293400320
3.3870311 0.42044464 0.45734003 4293400320
3.3925211 0.42123097 0.47099277 4293530880
3.3799713 0.41977867 0.48158938 4293400320
3.3768642 0.41949803 0.49291652 4293400320
3.3397017 0.41498825 0.49859485 4293269760
3.3828485 0.42045182 0.51564682 4293400320
3.3812692 0.42036122 0.52544665 4293400320
3.3739998 0.4195635 0.53373307 4293400320
3.3866432 0.42124081 0.54454982 4293530880
3.3748777 0.41988409 0.55082989 4293400320
3.3712935 0.41954428 0.55776203 4293400320
3.3712547 0.4196454 0.56461972 4293400320
3.3706312 0.41967398 0.57071906 4293400320
3.3639483 0.41894847 0.57511663 4293400320
3.3719459 0.42005038 0.58134079 4293400320
3.3624566 0.41897532 0.58387977 4293400320
3.361866 0.41900828 0.58725995 4293400320
3.371165 0.42027351 0.59167767 4293400320
3.3610239 0.4191168 0.59200221 4293400320
3.3705516 0.42041141 0.59507859 4293400320
3.3655329 0.41989306 0.59489912 4293400320
3.3557446 0.4187797 0.59317827 4293400320
3.3695195 0.42060539 0.59490496 4293400320
3.3667097 0.42036268 0.59301293 4293400320
3.3715506 0.42107484 0.59176338 4293400320
3.3660512 0.42049655 0.5880115 4293400320
3.3734744 0.4215318 0.58581394 4293530880
3.3709114 0.42132032 0.58119655 4293400320
3.3674467 0.42099616 0.57575053 4293400320
3.3756242 0.42212695 0.57160407 4293530880
3.3746543 0.42211491 0.56523436 4293400320
3.3669193 0.42125708 0.5570932 4293400320
3.3602438 0.42053139 0.54850733 4293400320
3.3394864 0.41804373 0.53705865 4293269760
3.3503897 0.41951677 0.53007776 4293400320
3.3740151 0.42258313 0.52439201 4293400320
3.381052 0.42357424 0.51544553 4293400320
3.3707011 0.42238837 0.50327623 4293400320
3.3619688 0.42140475 0.49082914 4293400320
3.3323393 0.41819435 0.40239942 4293269760
3.3703759 0.42307597 0.39195433 4293400320
3.3902164 0.42567688 0.37870225 4293400320
3.3492773 0.42065036 0.35837498 4293269760
3.3351407 0.41898623 0.3407568 4293269760
3.353266 0.42137286 0.32601097 4293269760
3.3680532 0.42334145 0.31041375 4293269760
3.3268545 0.41827649 0.28948283 4293139200
3.3174272 0.417202 0.27123567 4293139200
3.3402963 0.42018712 0.25523433 4293269760
3.3415809 0.42045963 0.23718436 4293269760
3.3450136 0.42100248 0.21899636 4293269760
3.3291793 0.41912147 0.19938526 4293139200
3.3532684 0.4222638 0.18187201 4293269760
3.3594644 0.4231554 0.16302605 4293269760
3.3484569 0.42188126 0.14320259 4293269760
3.3301089 0.41968188 0.12308028 4293139200
3.334204 0.42030874 0.10371948 4293139200
3.3288984 0.41975129 0.08396291 4293139200
3.3102396 0.41751033 0.063924164 4293139200
3.3252106 0.41950828 0.044463638 4293139200
3.3271708 0.41986638 0.024684219 4293139200
3.3237693 0.41954824 0.0048460648 4293139200
3.2980311 0.4164114 -0.014847486 4293008640
3.3153036 0.41870147 -0.034696661 4293139200
3.3244507 0.41996685 -0.054580081 4293139200
3.3162224 0.41903862 -0.074119292 4293139200
3.3122203 0.41864365 -0.093606867 4293139200
3.3399029 0.42225173 -0.11404929 4293139200
3.3369639 0.42199162 -0.13345572 4293139200
3.3367825 0.42207986 -0.15281527 4293139200
3.3127661 0.41915417 -0.17076971 4293139200
3.3323834 0.42174572 -0.19078895 4293139200
3.330039 0.42156002 -0.20943436 4293139200
3.323544 0.42084888 -0.22754304 4293139200
3.3376398 0.42274365 -0.24686909 4293269760
3.3537152 0.42488995 -0.26624107 4293269760
3.3504932 0.4245933 -0.28385341 4293269760
3.3510561 0.42477581 -0.30146623 4293269760
3.2695248 0.41455579 -0.31090847 4293008640
3.3475306 0.42455119 -0.33523721 4293269760
3.3495166 0.42491385 -0.35195094 4293269760
3.3552473 0.42575142 -0.36871067 4293269760
3.3234894 0.42183399 -0.38080478 4293269760
3.2185032 0.40862319 -0.38342351 4292878080
3.3664739 0.42750877 -0.41605496 4293400320
3.3594818 0.42673215 -0.42962408 4293400320
3.3709936 0.42830455 -0.44510648 4293400320
3.359627 0.42697179 -0.45706114 4293400320
3.3357172 0.42404464 -0.46665254 4293269760
3.3257725 0.42289039 -0.47754955 4293269760
3.3370669 0.42443511 -0.49096981 4293269760
3.3452494 0.42558476 -0.50344181 4293269760
3.3408217 0.42513111 -0.51345152 4293269760
3.3386323 0.42496178 -0.52320057 4293269760
3.3386903 0.42507809 -0.53269869 4293269760
3.3364015 0.42489561 -0.54120541 4293269760
3.3288722 0.42404565 -0.54821378 4293269760
3.3222616 0.42331207 -0.55470961 4293269760
3.2981474 0.42034847 -0.55757016 4293269760
3.2895682 0.41936234 -0.56235343 4293139200
3.294652 0.42011666 -0.56882048 4293139200
3.2679465 0.41681904 -0.5690943 4293139200
3.2867687 0.41932431 -0.57664126 4293139200
3.2154357 0.41033298 -0.56760728 4292878080
3.2198243 0.41099626 -0.57124072 4293008640
3.219439 0.41105053 -0.57336384 4293008640
3.2230732 0.41161761 -0.57553828 4293008640
3.2190082 0.41120186 -0.5756644 4293008640
3.2750008 0.41845462 -0.5858894 4293139200
3.2614 0.41682202 -0.5829556 4293139200
3.2913477 0.42075199 -0.58713728 4293139200
3.2895491 0.42062688 -0.58494794 4293139200
3.3165638 0.42418441 -0.58719414 4293269760
3.3258793 0.42548063 -0.58558565 4293269760
3.3406179 0.42747077 -0.58422714 4293400320
3.3300803 0.42622852 -0.57775581 4293269760
3.3318434 0.42655927 -0.57276595 4293269760
3.3342319 0.42697001 -0.56721354 4293269760
3.3291066 0.4264189 -0.55972975 4293269760
3.3272254 0.4262827 -0.55216116 4293269760
3.3284614 0.42654544 -0.54447651 4293269760
3.3266406 0.42641655 -0.53566635 4293269760
3.3031673 0.42351297 -0.52281445 4293269760
3.3055911 0.42392683 -0.5135324 4293269760
3.3175726 0.42556605 -0.50510931 4293269760
3.3432236 0.42895862 -0.49807763 4293269760
3.34745 0.42960483 -0.48718032 4293269760
3.3358612 0.42822218 -0.47344971 4293269760
3.3097904 0.42498034 -0.45726249 4293139200
3.3094082 0.42503396 -0.44422141 4293139200
3.3329852 0.42816338 -0.43381473 4293269760
3.3373306 0.42882454 -0.4202961 4293269760
3.3122919 0.4257116 -0.40268493 4293139200
3.3055048 0.42494193 -0.38699341 4293139200
3.3242881 0.42745769 -0.37382281 4293269760
3.3442144 0.43012142 -0.36018687 4293269760
3.3414407 0.42986777 -0.34361711 4293269760
3.2973261 0.42429748 -0.32263163 4293139200
3.3097887 0.42600191 -0.30701366 4293139200
3.3193347 0.42733178 -0.29067585 4293139200
3.3162923 0.4270421 -0.27287975 4293139200
3.2947998 0.42437726 -0.25339174 4293008640
3.3140397 0.4269554 -0.23679413 4293139200
3.3197694 0.42779481 -0.21883249 4293139200
3.3137667 0.42712319 -0.19985834 4293139200
3.3105292 0.42680743 -0.18089055 4293139200
3.303278 0.42597419 -0.16156828 4293139200
3.3130558 0.42733556 -0.14290152 4293139200
3.3253791 0.42902574 -0.12406659 4293139200
3.2972882 0.42550454 -0.10366429 4293008640
3.3231478 0.42894107 -0.084891744 4293139200
3.3253646 0.42932853 -0.065248691 4293139200
3.3308911 0.4301433 -0.045559768 4293139200
3.317266 0.42848611 -0.025601057 4293139200
3.3344104 0.43080103 -0.0058522099 4293139200
3.3474042 0.43258098 0.014088532 4293269760
3.3381035 0.43148166 0.033951256 4293139200
3.3429089 0.43220448 0.053882185 4293139200
3.3712897 0.43597448 0.074314363 4293269760
3.3739419 0.43642026 0.094294071 4293269760
3.3418496 0.43237373 0.11304455 4293269760
3.3540285 0.43405095 0.13302311 4293269760
3.3709967 0.4363485 0.15321024 4293269760
3.3662164 0.43583304 0.17232271 4293269760
3.3081527 0.42842117 0.18819121 4293139200
3.3600838 0.43524513 0.21000309 4293269760
3.3740315 0.43715402 0.22960064 4293269760
3.3611827 0.43559325 0.24714358 4293269760
3.3121986 0.42935058 0.26144317 4293139200
3.3874531 0.43920344 0.28531593 4293400320
3.3987439 0.4407708 0.3039813 4293400320
3.3891044 0.43962556 0.32045844 4293400320
3.36059 0.43603235 0.33461282 4293269760
3.260386 0.4231393 0.34066704 4293008640
3.3922265 0.4403435 0.37057191 4293400320
3.3883202 0.43994123 0.38592887 4293400320
3.3793209 0.43887776 0.4002153 4293400320
3.3609986 0.43660352 0.41283044 4293400320
3.3046141 0.42938569 0.4200075 4293139200
3.3907716 0.4406786 0.44484416 4293400320
3.3884692 0.44048458 0.45797181 4293400320
3.3998475 0.44206831 0.4724513 4293530880
3.3774817 0.43926692 0.48168516 4293400320
3.3655429 0.43781987 0.49172378 4293400320
3.3470514 0.43552008 0.50014132 4293400320
3.3803558 0.43995646 0.5157311 4293400320
3.3807344 0.44011134 0.52582973 4293530880
3.3901284 0.44143954 0.53674334 4293530880
3.3753331 0.43961993 0.5432086 4293400320
3.3723905 0.43934271 0.55089635 4293400320
3.368809 0.43898228 0.55782366 4293400320
3.3687701 0.43908322 0.56467646 4293400320
3.3632572 0.43847111 0.56994545 4293400320
3.3702693 0.43949109 0.57666284 4293400320
3.3792367 0.44076657 0.58306211 4293530880
3.3599794 0.43836269 0.58391565 4293400320
3.3642752 0.43902948 0.58814108 4293400320
3.3735671 0.44034845 0.59255725 4293530880
3.3634331 0.43913352 0.59287906 4293400320
3.3729539 0.44048324 0.59595162 4293530880
3.363055 0.43929866 0.59490669 4293400320
3.3493671 0.43761885 0.59249145 4293400320
3.3670394 0.44003424 0.59490061 4293400320
3.3740013 0.44105169 0.59471774 4293530880
3.373955 0.44115403 0.59260148 4293530880
3.3607292 0.43953389 0.5874933 4293400320
3.3709931 0.44098407 0.58578497 4293530880
3.3733199 0.4413971 0.58200127 4293530880
3.3698592 0.44105345 0.5765422 4293400320
3.3742418 0.44173592 0.57174182 4293530880
3.3819561 0.44285485 0.56681317 4293530880
3.3644447 0.44067243 0.55703294 4293400320
3.3626688 0.44054931 0.54923707 4293400320
3.3370323 0.43730137 0.53698647 4293269760
3.3479278 0.43883744 0.52999908 4293400320
3.3716574 0.44205603 0.52432537 4293400320
3.3873918 0.44422847 0.51669383 4293530880
3.3770525 0.44298396 0.50449151 4293400320
3.3634238 0.44130757 0.49129641 4293400320
3.3347151 0.43866456 0.40299585 4293269760
3.3776493 0.44442055 0.39310083 4293400320
3.3826964 0.44519615 0.37816277 4293400320
3.3453243 0.44039151 0.35823685 4293269760
3.3227239 0.43752831 0.33976617 4293139200
3.3506992 0.44132096 0.32602474 4293269760
3.3556004 0.44207758 0.30952504 4293269760
3.3193672 0.43741739 0.28907359 4293139200
3.3148854 0.43693745 0.27125552 4293139200
3.3426795 0.44071001 0.25563148 4293269760
3.3439643 0.44099075 0.23755702 4293269760
3.3523426 0.44220668 0.21966533 4293269760
3.3404818 0.4407545 0.20023625 4293269760
3.3605959 0.44351894 0.18243493 4293269760
3.3555441 0.44296467 0.1629955 4293269760
3.3508396 0.44245592 0.14344777 4293269760
3.3238878 0.43901038 0.12298512 4293139200
3.3316438 0.44014549 0.10376012 4293139200
3.3312972 0.44021112 0.084128045 4293139200
3.3126528 0.43785968 0.064062044 4293139200
3.3176992 0.43863729 0.044447523 4293139200
3.324614 0.43966216 0.02473389 4293139200
3.3172493 0.43879977 0.0048942869 4293139200
3.2915304 0.43550998 -0.014773898 4293008640
3.3177116 0.43908289 -0.034695413 4293139200
3.3218946 0.4397473 -0.054522045 4293139200
3.3285389 0.44073766 -0.074399985 4293139200
3.3160257 0.43919271 -0.093728326 4293139200
3.3373342 0.44212475 -0.1139854 4293139200
3.343312 0.443028 -0.13375166 4293269760
3.3536308 0.44450659 -0.15364803 4293269760
3.3133886 0.43928668 -0.17086688 4293139200
3.3298194 0.44157496 -0.19071916 4293139200
3.3274765 0.44137555 -0.20936339 4293139200
3.3209865 0.44062603 -0.2274711 4293139200
3.3350711 0.44260484 -0.24679586 4293269760
3.3550868 0.44537133 -0.26648265 4293269760
3.3652887 0.44683686 -0.28525987 4293269760
3.3583498 0.44602793 -0.30228427 4293269760
3.3020122 0.43866009 -0.31418264 4293139200
3.3350892 0.44316235 -0.33416784 4293269760
3.3518667 0.44550169 -0.35239539 4293269760
3.352663 0.44571874 -0.3686344 4293269760
3.3307784 0.44292152 -0.38186345 4293269760
3.2774274 0.43594 -0.39070114 4293008640
3.3687992 0.44819745 -0.41659048 4293400320
3.3693268 0.44837898 -0.43114686 4293400320
3.3683953 0.44836637 -0.44503304 4293400320
3.352675 0.44638574 -0.45639336 4293400320
3.3438454 0.44532108 -0.46808532 4293269760
3.33302 0.44398999 -0.47889572 4293269760
3.3295884 0.44364262 -0.49017873 4293269760
3.3377662 0.44484121 -0.50263631 4293269760
3.3382425 0.44501412 -0.51338869 4293269760
3.3409512 0.44548443 -0.52391022 4293400320
3.3410063 0.44560102 -0.53342444 4293400320
3.3338232 0.44475248 -0.54115015 4293269760
3.3311896 0.44451004 -0.54896981 4293269760
3.3196924 0.44308493 -0.55466056 4293269760
3.3102579 0.44193417 -0.5600118 4293269760
3.2958164 0.44011441 -0.56382 4293269760
3.2823315 0.43842122 -0.5670898 4293139200
3.2566245 0.43509516 -0.56752414 4293139200
3.2695742 0.43692988 -0.57403255 4293139200
3.217823 0.43012238 -0.56844586 4293008640
3.2173257 0.43015963 -0.57121891 4293008640
3.2306035 0.43203768 -0.57578784 4293008640
3.2166657 0.4302783 -0.57482588 4293008640
3.216506 0.43036011 -0.57565606 4293008640
3.2724535 0.43794575 -0.58588576 4293139200
3.258862 0.43623215 -0.58295697 4293139200
3.2839053 0.43968713 -0.58627051 4293139200
3.2918661 0.44085726 -0.58583045 4293269760
3.2861514 0.44019699 -0.58226854 4293139200
3.3232849 0.44527364 -0.58560872 4293269760
3.3233631 0.44538948 -0.58168584 4293269760
3.3274791 0.44604617 -0.57779044 4293269760
3.3292394 0.44638723 -0.57280654 4293269760
3.3365107 0.44746688 -0.56809431 4293400320
3.3304119 0.44675443 -0.56044215 4293269760
3.338311 0.44791844 -0.5545001 4293400320
3.3258541 0.44635257 -0.54454148 4293269760
3.3191402 0.44555619 -0.53494668 4293269760
3.3142838 0.44500852 -0.52506918 4293269760
3.2990794 0.44307154 -0.51300466 4293139200
3.3149683 0.44530764 -0.50519925 4293269760
3.3405979 0.4488526 -0.4981747 4293269760
3.3350112 0.44820631 -0.48585045 4293269760
3.3332391 0.44807199 -0.47355935 4293269760
3.3032603 0.4441472 -0.45683259 4293139200
3.301893 0.44406596 -0.44368047 4293139200
3.3205338 0.44667426 -0.43265799 4293269760
3.3297865 0.44802126 -0.41980889 4293269760
3.3146031 0.44608209 -0.40342626 4293139200
3.3029013 0.44461027 -0.38713941 4293139200
3.3315182 0.44856283 -0.37508938 4293269760
3.3415794 0.45001966 -0.36034662 4293269760
3.3388071 0.44974938 -0.34378263 4293269760
3.2858498 0.44272134 -0.32192644 4293008640
3.3071797 0.44569507 -0.30718893 4293139200
3.3305402 0.44894359 -0.29207623 4293269760
3.3275058 0.44863698 -0.27421275 4293139200
3.2773805 0.44198346 -0.25243273 4293008640
3.3114274 0.44667354 -0.23699062 4293139200
3.3220971 0.44821361 -0.21936323 4293139200
3.3250039 0.44870734 -0.20090839 4293139200
3.3178155 0.44783935 -0.18164778 4293139200
3.3145325 0.44749787 -0.16246897 4293139200
3.3104455 0.44704759 -0.1431202 4293139200
3.3227599 0.44881102 -0.12428993 4293139200
3.2808244 0.44325048 -0.1034444 4293008640
3.325485 0.44938198 -0.085251607 4293139200
3.3415725 0.45165658 -0.065863565 4293269760
3.337188 0.45116621 -0.045924135 4293139200
3.3196111 0.44889271 -0.025880774 4293139200
3.3407071 0.45184556 -0.0061154249 4293139200
3.3497276 0.45316708 0.013861383 4293269760
3.3462803 0.45280311 0.033808272 4293269760
3.3402827 0.45209399 0.053634457 4293139200
3.3636882 0.45536253 0.073957317 4293269760
3.3762462 0.45716459 0.094177313 4293269760
3.3491311 0.45359758 0.11312307 4293269760
3.3563483 0.45467696 0.13296504 4293269760
3.3683527 0.4564051 0.1529578 4293269760
3.3823814 0.45840818 0.17302179 4293400320
3.3105066 0.44877434 0.18822293 4293139200
3.3762436 0.4577834 0.21091647 4293400320
3.3802869 0.45843479 0.22995177 4293400320
3.3684337 0.45693141 0.24761803 4293269760
3.3096049 0.44905761 0.26120287 4293139200
3.3946762 0.46069726 0.28589833 4293400320
3.3921347 0.4604567 0.30338949 4293400320
3.4051979 0.46233347 0.3219822 4293530880
3.3619044 0.45656234 0.33477154 4293269760
3.2627625 0.44320714 0.34095797 4293008640
3.3807046 0.45932212 0.36938328 4293400320
3.3807447 0.45943183 0.38515061 4293400320
3.381597 0.45965195 0.4005802 4293400320
3.3313088 0.45292357 0.40931514 4293269760
3.3020267 0.44904703 0.41980824 4293139200
3.3800552 0.45975623 0.44359311 4293400320
3.3907259 0.46131194 0.45844078 4293530880
3.3873665 0.46096033 0.47090736 4293530880
3.3748343 0.45936093 0.48150784 4293400320
3.3717306 0.45904365 0.49283877 4293400320
3.3444257 0.4554328 0.49998063 4293400320
3.3736982 0.45952189 0.51496828 4293400320
3.3731828 0.45955718 0.52492511 4293400320
3.3874645 0.46160775 0.53660578 4293530880
3.377141 0.46030775 0.543796 4293530880
3.3697371 0.459405 0.55077767 4293400320
3.3661566 0.45902303 0.55771464 4293400320
3.3710034 0.45978972 0.56539369 4293400320
3.3752637 0.46047693 0.57233196 4293530880
3.3724942 0.46020591 0.57741684 4293530880
3.3629076 0.459005 0.58064431 4293400320
3.3670883 0.45968199 0.58554965 4293400320
3.361613 0.45904168 0.58809441 4293400320
3.3611326 0.45908302 0.59081239 4293400320
3.3612478 0.45920584 0.5929395 4293400320
3.374181 0.46107933 0.59662664 4293530880
3.3603833 0.45930243 0.59490573 4293400320
3.3652477 0.46007466 0.59577256 4293400320
3.3692393 0.46072808 0.59578317 4293530880
3.3713126 0.46111971 0.59475285 4293530880
3.3618867 0.45993942 0.59100688 4293400320
3.3717144 0.46139178 0.589935 4293530880
3.3731813 0.46170127 0.586703 4293530880
3.370621 0.46146002 0.58208591 4293530880
3.3808372 0.46296731 0.57897216 4293530880
3.3813086 0.46314147 0.57350242 4293530880
3.3743551 0.46229929 0.56611931 4293530880
3.3666315 0.46135128 0.55797458 4293400320
3.3736594 0.46242368 0.55161393 4293530880
3.3539171 0.45982876 0.54028416 4293400320
3.3452322 0.45874813 0.53017056 4293400320
3.3787332 0.46345001 0.52602851 4293530880
3.3944573 0.46571675 0.51838189 4293530880
3.3743277 0.46306744 0.50470167 4293400320
3.375417 0.46332777 0.49365929 4293400320
3.3321304 0.45789292 0.40300065 4293269760
3.3701096 0.46322042 0.39253485 4293400320
3.3800733 0.46470127 0.37816596 4293400320
3.3476558 0.46035841 0.35876387 4293269760
3.3300033 0.45804313 0.34076986 4293269760
3.35303 0.46132013 0.32650208 4293269760
3.3727283 0.46414098 0.31133351 4293400320
3.3315961 0.4585951 0.29035288 4293269760
3.3172488 0.45673212 0.27165398 4293139200
3.3400834 0.45998564 0.2556276 4293269760
3.3512492 0.4616344 0.23824851 4293269760
3.3398516 0.46017703 0.21901694 4293269760
3.326015 0.45838302 0.19952412 4293139200
3.3546166 0.46243465 0.18224555 4293269760
3.3568931 0.4628607 0.16317587 4293269760
3.3482332 0.46177956 0.14343694 4293269760
3.3302116 0.45940724 0.12329779 4293139200
3.3379626 0.46058774 0.10401946 4293139200
3.3188007 0.45805666 0.083869338 4293139200
3.3189726 0.45819169 0.064213686 4293139200
3.3200679 0.45845422 0.044494539 4293139200
3.326977 0.4595193 0.024750255 4293139200
3.3285325 0.45984575 0.0048880652 4293139200
3.2929268 0.45504034 -0.014813585 4293008640
3.3200769 0.4589012 -0.034770858 4293139200
3.3193035 0.45890573 -0.054543864 4293139200
3.3313174 0.46067747 -0.074546076 4293139200
3.3035357 0.45694885 -0.093466371 4293139200
3.3396783 0.46205702 -0.11418203 4293269760
3.3505986 0.46367931 -0.13417892 4293269760
3.3460631 0.46316424 -0.15344498 4293269760
3.3175228 0.45932734 -0.1712444 4293139200
3.331172 0.46132755 -0.1909757 4293139200
3.3416839 0.46289432 -0.21045908 4293269760
3.3278809 0.46109492 -0.22815558 4293139200
3.3374004 0.46252471 -0.2471936 4293269760
3.3524604 0.46472263 -0.2665126 4293269760
3.3675885 0.46693093 -0.28571144 4293400320
3.3561418 0.46545684 -0.30235317 4293269760
3.3033693 0.4582527 -0.31459057 4293139200
3.3423312 0.46376562 -0.33519188 4293269760
3.3590901 0.46620145 -0.3534677 4293269760
3.3538501 0.46558627 -0.3690871 4293269760
3.3326976 0.4627625 -0.38241622 4293269760
3.2748554 0.45484465 -0.39073092 4293008640
3.3710704 0.46831131 -0.4172315 4293400320
3.35917 0.4667705 -0.43021122 4293400320
3.3706598 0.46847773 -0.44571403 4293400320
3.3632333 0.4675574 -0.45822552 4293400320
3.3451419 0.46515441 -0.46866482 4293269760
3.3402054 0.46457866 -0.48033732 4293269760
3.336771 0.46421126 -0.49165338 4293269760
3.3302438 0.46341339 -0.50192112 4293269760
3.3405125 0.46495125 -0.51416856 4293400320
3.3334298 0.46407548 -0.52316302 4293269760
3.3334863 0.46419263 -0.53266239 4293269760
3.3311996 0.46398348 -0.54117048 4293269760
3.3265274 0.46344188 -0.54865122 4293269760
3.320987 0.4627789 -0.55533314 4293269760
3.2930007 0.45898879 -0.55754024 4293269760
3.2981031 0.45980689 -0.56467193 4293269760
3.2895076 0.45871618 -0.56879407 4293139200
3.2628422 0.45510596 -0.56906998 4293139200
3.2816336 0.45783162 -0.57661879 4293139200
3.2104104 0.44800517 -0.56758726 4292878080
3.2186921 0.44926405 -0.57191783 4293008640
3.2183053 0.44931385 -0.57404566 4293008640
3.2229071 0.45005959 -0.57639897 4293008640
3.2139709 0.44891578 -0.5756532 4293008640
3.2649989 0.45614329 -0.58500469 4293139200
3.2699447 0.45693853 -0.58539921 4293139200
3.2861924 0.45931256 -0.58713341 4293139200
3.2804937 0.45862126 -0.58425021 4293139200
3.3211193 0.46440303 -0.58892959 4293269760
3.3157871 0.46376336 -0.58472764 4293269760
3.3256214 0.46524355 -0.5825209 4293269760
3.3297353 0.46592426 -0.57861596 4293400320
3.3266144 0.46559313 -0.57277894 4293269760
3.338762 0.46739775 -0.56889778 4293400320
3.3375533 0.46733397 -0.56205785 4293400320
3.3356783 0.46717662 -0.55446327 4293400320
3.3281183 0.46622315 -0.54530472 4293269760
3.3214114 0.46538851 -0.53569466 4293269760
3.3018866 0.46275795 -0.52346784 4293269760
3.2965982 0.46212047 -0.5129748 4293139200
3.3221445 0.46580315 -0.50664479 4293269760
3.34286 0.46881026 -0.49885204 4293400320
3.3470807 0.46950614 -0.48794147 4293400320
3.3355112 0.46798807 -0.47419652 4293269760
3.3045769 0.46375331 -0.45731279 4293139200
3.3179362 0.46572992 -0.44612911 4293269760
3.3277326 0.46720734 -0.43387172 4293269760
3.3458261 0.46984965 -0.42209831 4293269760
3.3169003 0.46589276 -0.4039498 4293269760
3.309144 0.46490628 -0.38810173 4293139200
3.3288853 0.46778074 -0.37500539 4293269760
3.3428764 0.46984863 -0.36068627 4293269760
3.3393226 0.46945229 -0.34401917 4293269760
3.2881789 0.46236804 -0.32232049 4293139200
3.318368 0.46671239 -0.30838388 4293139200
3.3190258 0.46690682 -0.29119447 4293139200
3.319937 0.4671368 -0.2737025 4293139200
3.2984812 0.46422091 -0.25416902 4293139200
3.3176935 0.46702477 -0.23752615 4293139200
3.3283572 0.46862683 -0.21984698 4293139200
3.3223679 0.46788579 -0.20079768 4293139200
3.3240829 0.46822885 -0.18202707 4293139200
3.3082445 0.46610039 -0.16217293 4293139200
3.3127642 0.46683803 -0.1432201 4293139200
3.320121 0.46797553 -0.12417094 4293139200
3.2871253 0.46342805 -0.10361083 4293008640
3.3178921 0.46786419 -0.084999509 4293139200
3.329015 0.46953326 -0.065538444 4293139200
3.334533 0.47041282 -0.04579813 4293139200
3.3169687 0.46803772 -0.025754137 4293139200
3.3314624 0.47018319 -0.0059712813 4293139200
3.3520095 0.47318357 0.014009249 4293269760
3.3328211 0.47057822 0.033835657 4293139200
3.3524697 0.47345304 0.053996332 4293269760
3.3709037 0.47615767 0.074302547 4293269760
3.3824589 0.47789213 0.094554834 4293400320
3.3415077 0.47221193 0.11309138 4293269760
3.3675179 0.47598815 0.13363983 4293269760
3.3755515 0.47722611 0.15353552 4293400320
3.3747311 0.47721335 0.1729054 4293400320
3.3167546 0.46912152 0.18885487 4293139200
3.3685987 0.47655278 0.21074311 4293269760
3.377579 0.47792584 0.23008397 4293400320
3.3657339 0.47635391 0.24774887 4293269760
3.3168228 0.4695375 0.26210424 4293139200
3.3919532 0.4802705 0.28602782 4293400320
3.393358 0.48057345 0.30386826 4293400320
3.3975351 0.48126903 0.32164538 4293400320
3.3690586 0.47734138 0.33587107 4293400320
3.2650659 0.46271694 0.34158778 4293008640
3.3917696 0.48076612 0.37100196 4293400320
3.3829467 0.47962061 0.38582611 4293400320
3.3788776 0.47914842 0.40069529 4293400320
3.3556662 0.47596264 0.4127337 4293400320
3.2993701 0.46808475 0.4199152 4293139200
3.3822446 0.47993961 0.44434136 4293400320
3.3929036 0.48155648 0.45920527 4293530880
3.3944485 0.48188105 0.47236603 4293530880
3.3760386 0.4793742 0.48216149 4293400320
3.3641155 0.47778702 0.49221751 4293400320
3.3505471 0.47596574 0.50138164 4293400320
3.3748968 0.47952801 0.51564854 4293400320
3.3802514 0.4803941 0.52652317 4293530880
3.3808227 0.48058119 0.53606433 4293530880
3.3744204 0.47977757 0.54386759 4293530880
3.3763778 0.48016185 0.55236876 4293530880
3.3771236 0.48037413 0.56003582 4293530880
3.3731713 0.47991866 0.56626743 4293530880
3.3764503 0.48049155 0.57304448 4293530880
3.3746586 0.48034346 0.57829702 4293530880
3.355319 0.47769874 0.57984602 4293400320
3.3643763 0.47909421 0.58558601 4293400320
3.3637836 0.47911683 0.58897603 4293400320
3.3501282 0.47727972 0.58938348 4293400320
3.3448868 0.47664019 0.59055769 4293400320
3.3763411 0.48122746 0.59750015 4293530880
3.3674309 0.48006606 0.59663492 4293530880
3.3527873 0.47808728 0.59405339 4293400320
3.3665283 0.48015359 0.59577918 4293530880
3.3716249 0.48098853 0.59527475 4293530880
3.3689365 0.48071384 0.59270012 4293530880
3.364125 0.48013631 0.58906192 4293400320
3.3607118 0.47975817 0.58498275 4293400320
3.3618009 0.48002249 0.58099937 4293400320
3.369334 0.48120677 0.57743138 4293530880
3.3639448 0.48054689 0.570979 4293400320
3.3667598 0.48105836 0.56524903 4293400320
3.3639259 0.48076341 0.55791467 4293400320
3.3660617 0.48117837 0.55075139 4293400320
3.351222 0.479168 0.54021192 4293400320
3.3474345 0.47873646 0.53086454 4293400320
3.3760185 0.4829326 0.52594328 4293530880
3.3868356 0.48459026 0.51754528 4293530880
3.3765132 0.48322535 0.50533372 4293400320
3.3580079 0.48068929 0.4914147 4293400320
3.3382521 0.47857651 0.40407068 4293269760
3.3624361 0.48215318 0.39196989 4293400320
3.3822277 0.48510203 0.37871879 4293400320
3.3399944 0.47915968 0.35824415 4293269760
3.3331101 0.47828385 0.3413685 4293269760
3.3476744 0.48048422 0.3262544 4293269760
3.3650377 0.48308721 0.31088629 4293400320
3.319005 0.47659385 0.2895039 4293139200
3.3154409 0.47619334 0.27173296 4293139200
3.3422818 0.480158 0.25600761 4293269760
3.3485026 0.48116335 0.23825358 4293269760
3.3420525 0.48034921 0.21934311 4293269760
3.3282282 0.47847521 0.19982277 4293139200
3.355819 0.4825519 0.18246321 4293269760
3.3501842 0.48185474 0.16299091 4293269760
3.3405409 0.4805809 0.14323294 4293269760
3.3274782 0.47881472 0.12330282 4293139200
3.3352222 0.48004052 0.10402451 4293139200
3.3358657 0.48024532 0.084363267 4293269760
3.3310909 0.47967046 0.064497493 4293139200
3.3173404 0.47780332 0.044499565 4293139200
3.3242428 0.47890881 0.024755295 4293139200
3.3301916 0.47987741 0.0048970683 4293139200
3.2951684 0.47494474 -0.0148337 4293008640
3.3191252 0.47850728 -0.034785464 4293139200
3.3254797 0.4795348 -0.054690275 4293139200
3.3285768 0.48009315 -0.074541025 4293139200
3.3156574 0.47834253 -0.093889765 4293139200
3.3319836 0.4808085 -0.11400505 4293139200
3.3469369 0.48307759 -0.13413717 4293269760
3.3383639 0.48195326 -0.15321037 4293269760
3.3049059 0.47723711 -0.17072348 4293139200
3.3383086 0.48216972 -0.1915428 4293269760
3.343869 0.48308468 -0.21076788 4293269760
3.3290875 0.48106232 -0.2284236 4293269760
3.3271034 0.48088744 -0.24662533 4293139200
3.3546288 0.48497587 -0.26690251 4293269760
3.3598797 0.48584715 -0.28528515 4293269760
3.3583014 0.48573154 -0.3027949 4293269760
3.3055696 0.47821999 -0.31505758 4293139200
3.3435116 0.48381743 -0.3355841 4293269760
3.3513951 0.48506945 -0.3529419 4293269760
3.3412421 0.48371243 -0.36799365 4293269760
3.3299446 0.48218897 -0.38241115 4293269760
3.2721496 0.47393429 -0.39072594 4293008640
3.3682845 0.48796156 -0.41722637 4293400320
3.3638983 0.48743838 -0.4311716 4293400320
3.367873 0.48812583 -0.44570887 4293400320
3.370259 0.48858324 -0.45956224 4293400320
3.3316915 0.48310599 -0.46715677 4293269760
3.3374419 0.48404971 -0.48033223 4293269760
3.3428226 0.48494008 -0.49295196 4293400320
3.3411894 0.4848136 -0.50398922 4293400320
3.342638 0.48513383 -0.51491922 4293400320
3.3443589 0.48549351 -0.52531445 4293400320
3.3448958 0.48568135 -0.53492999 4293400320
3.3284395 0.48340261 -0.54116541 4293269760
3.3286536 0.48354277 -0.54945439 4293269760
3.3143294 0.48157167 -0.55467278 4293269760
3.3180907 0.48222625 -0.56226194 4293269760
3.300246 0.47974214 -0.56550491 4293269760
3.2867792 0.47789276 -0.56878906 4293139200
3.2650106 0.47483584 -0.56991827 4293139200
3.2642872 0.47483665 -0.57403564 4293139200
3.2165177 0.4679966 -0.56913859 4293008640
3.2160196 0.46802822 -0.57191288 4293008640
3.2156327 0.46807578 -0.57404071 4293008640
3.2202301 0.46884835 -0.57639402 4293008640
3.2151978 0.46821967 -0.57634866 4293008640
3.2671571 0.47588637 -0.58587545 4293139200
3.2623553 0.47529203 -0.58451921 4293139200
3.2873578 0.47903755 -0.58782703 4293269760
3.277766 0.47774547 -0.58424515 4293139200
3.3003211 0.48113614 -0.58571553 4293269760
3.3130288 0.48309308 -0.58472252 4293269760
3.3326032 0.48605153 -0.58422923 4293400320
3.3369696 0.48679388 -0.58035547 4293400320
3.3331096 0.48633677 -0.5743745 4293400320
3.3311038 0.48614964 -0.56805855 4293400320
3.3396537 0.48750213 -0.56287736 4293400320
3.3241129 0.48533982 -0.55299246 4293269760
3.3302288 0.48633707 -0.54610258 4293269760
3.3186436 0.48475054 -0.53568953 4293269760
3.3010857 0.48229113 -0.52377331 4293269760
3.2938497 0.48133782 -0.51296973 4293139200
3.3193741 0.4851692 -0.50663972 4293269760
3.343987 0.48886889 -0.49943346 4293400320
3.3482056 0.48958966 -0.48850965 4293400320
3.3327277 0.48743165 -0.47419143 4293269760
3.30672 0.48373312 -0.45798886 4293269760
3.3063393 0.48378018 -0.44493201 4293269760
3.3249538 0.48660526 -0.43386662 4293269760
3.3292868 0.48734212 -0.42035118 4293269760
3.3190408 0.48594597 -0.40454572 4293269760
3.2926199 0.48218188 -0.38647491 4293139200
3.3211868 0.48646516 -0.37444356 4293269760
3.3400819 0.48933408 -0.36068115 4293269760
3.3333778 0.48845521 -0.34368742 4293269760
3.2992158 0.48355395 -0.32367492 4293139200
3.3057399 0.48461124 -0.30745748 4293139200
3.3201916 0.48683047 -0.29153755 4293139200
3.3220894 0.48721051 -0.27410671 4293139200
3.2907879 0.48272374 -0.25378099 4293139200
3.324785 0.48780948 -0.23823331 4293139200
3.3255701 0.48802644 -0.21984185 4293139200
3.3353837 0.48956776 -0.20175649 4293269760
3.3212981 0.48760319 -0.18202196 4293139200
3.2955904 0.48393217 -0.1616777 4293139200
3.3149302 0.48687157 -0.14343151 4293139200
3.3262362 0.48863265 -0.12450372 4293139200
3.2893136 0.48331252 -0.10376447 4293008640
3.3101645 0.48647529 -0.084864877 4293139200
3.3311684 0.48966184 -0.065633498 4293139200
3.3317354 0.4898468 -0.045792989 4293139200
3.3230894 0.4886778 -0.025823237 4293139200
3.3352449 0.49056596 -0.0059816684 4293139200
3.3491955 0.49271879 0.014014418 4293269760
3.3300228 0.49000153 0.033840798 4293139200
3.3420868 0.49187759 0.053883873 4293269760
3.3654513 0.49541685 0.074251443 4293269760
3.3895068 0.4990592 0.094831035 4293400320
3.3485875 0.49314037 0.11342564 4293269760
3.3646872 0.49561259 0.13364501 4293269760
3.3628297 0.49544191 0.15309666 4293269760
3.3669529 0.49615189 0.17266022 4293269760
3.3090258 0.48772234 0.18858156 4293139200
3.3657646 0.49618283 0.21074831 4293269760
3.3747368 0.49760801 0.23008919 4293400320
3.3816493 0.49873021 0.24912375 4293400320
3.309099 0.4881385 0.26172242 4293139200
3.3940268 0.50076276 0.28644606 4293400320
3.3954275 0.50107354 0.30431208 4293400320
3.3946731 0.50106657 0.32165065 4293400320
3.3612971 0.49624661 0.33538821 4293400320
3.2623143 0.48174283 0.34159282 4293008640
3.3889108 0.50052965 0.3710072 4293400320
3.3800945 0.49933261 0.38583136 4293400320
3.3795378 0.49935484 0.40111482 4293400320
3.339571 0.49355632 0.41111463 4293269760
3.3054206 0.4886148 0.42103973 4293139200
3.3842959 0.50037181 0.44498837 4293530880
3.3949428 0.5020504 0.45987147 4293530880
3.4013836 0.50310802 0.47372988 4293530880
3.3927798 0.5019418 0.48495421 4293530880
3.3759608 0.4995603 0.49436364 4293400320
3.3575034 0.49693555 0.50284594 4293400320
3.3720453 0.49919194 0.51565373 4293400320
3.3822834 0.50081253 0.5272873 4293530880
3.3637948 0.49818215 0.53383034 4293400320
3.3764522 0.50016159 0.54465753 4293530880
3.377429 0.50041246 0.553011 4293530880
3.3742671 0.5000506 0.56004107 4293530880
3.3707027 0.49962911 0.56633711 4293530880
3.3678381 0.49931127 0.57207602 4293530880
3.3718023 0.50000542 0.57830226 4293530880
3.3622298 0.4986935 0.58153117 4293400320
3.370302 0.49999714 0.58711374 4293530880
3.3614154 0.49878663 0.58906513 4293400320
3.3511887 0.49737695 0.59007245 4293400320
3.3508234 0.49742985 0.59210664 4293400320
3.3505738 0.49750003 0.59346402 4293400320
3.3504407 0.49758777 0.59414321 4293400320
3.368458 0.50037009 0.5973289 4293530880
3.3685455 0.5004915 0.59664404 4293530880
3.3638926 0.49990901 0.59442234 4293530880
3.3748496 0.50164533 0.59424382 4293530880
3.3710172 0.50118506 0.59076864 4293530880
3.364671 0.50035113 0.58617002 4293530880
3.3686976 0.50105894 0.58268452 4293530880
3.3701603 0.50138593 0.57806659 4293530880
3.3708432 0.50159729 0.57263488 4293530880
3.3658478 0.50096422 0.56558037 4293530880
3.3698528 0.50167006 0.55937225 4293530880
3.3544123 0.49948269 0.54932338 4293400320
3.3483732 0.49869376 0.54021716 4293400320
3.3533833 0.49954963 0.53225982 4293400320
3.3731472 0.50260293 0.52594852 4293530880
3.3790641 0.50359529 0.51680589 4293530880
3.3785326 0.5036276 0.50606859 4293530880
3.3649395 0.50171375 0.49284723 4293400320
3.3403172 0.4987607 0.40466759 4293269760
3.3644824 0.50247884 0.39254519 4293400320
3.3793435 0.5048098 0.37872407 4293400320
3.362139 0.50235373 0.36091635 4293400320
3.3342028 0.49829379 0.34177467 4293269760
3.3497405 0.50072664 0.32673666 4293269760
3.3670905 0.50343138 0.31134385 4293400320
3.3299673 0.49799606 0.29070476 4293269760
3.3165531 0.4961026 0.27205914 4293139200
3.3443582 0.50037158 0.2563878 4293269760
3.3456421 0.50067598 0.23825882 4293269760
3.3530142 0.50189137 0.22024751 4293269760
3.3293328 0.49846098 0.20006287 4293269760
3.3489997 0.50151646 0.18225588 4293269760
3.3585374 0.503057 0.16353565 4293269760
3.3515177 0.50211924 0.14382358 4293269760
3.3295734 0.49894598 0.12348837 4293139200
3.3422537 0.50095773 0.1043325 4293269760
3.3369653 0.50027823 0.084466279 4293269760
3.3232954 0.49834234 0.064409785 4293139200
3.3194442 0.49787733 0.044568285 4293139200
3.3213959 0.49828207 0.024760509 4293139200
3.3229477 0.49862698 0.0048983255 4293139200
3.2972896 0.49489069 -0.014853626 4293139200
3.3095593 0.49684289 -0.034705978 4293139200
3.3226292 0.49891597 -0.054685052 4293139200
3.3243108 0.4992806 -0.07450337 4293139200
3.3029289 0.4961828 -0.093598969 4293139200
3.3291254 0.50022805 -0.11399982 4293139200
3.3449676 0.50271994 -0.13416858 4293269760
3.3404384 0.50215238 -0.15343463 4293269760
3.3168826 0.49872547 -0.1714921 4293139200
3.3216207 0.49954942 -0.19073656 4293139200
3.3360627 0.50183249 -0.21044876 4293269760
3.3315501 0.5012663 -0.2287866 4293269760
3.3341069 0.50176299 -0.24735683 4293269760
3.3428741 0.50319403 -0.26618624 4293269760
3.3569918 0.5054307 -0.28527987 4293269760
3.3313549 0.50168514 -0.30060649 4293269760
3.2978048 0.49674657 -0.31458035 4293139200
3.3455555 0.50404686 -0.33607551 4293269760
3.3573632 0.50593722 -0.35387388 4293400320
3.3531115 0.50540918 -0.36962089 4293400320
3.3359208 0.5029313 -0.38342652 4293269760
3.2693326 0.4930079 -0.39072078 4293008640
3.3627839 0.50720328 -0.41689745 4293400320
3.3633115 0.50739497 -0.43146381 4293400320
3.3707688 0.50863159 -0.44647413 4293400320
3.3673551 0.50822878 -0.45955694 4293400320
3.3337169 0.5032658 -0.467841 4293269760
3.3384802 0.5040952 -0.48089278 4293400320
3.3360267 0.5038355 -0.4923673 4293269760
3.3383079 0.50429028 -0.50398391 4293400320
3.3397546 0.504619 -0.51491392 4293400320
3.3375654 0.50439858 -0.52469307 4293400320
3.3278506 0.50304097 -0.53265208 4293269760
3.3343518 0.50413281 -0.54259378 4293400320
3.318059 0.50177997 -0.54817009 4293269760
3.3153687 0.50148213 -0.55532283 4293269760
3.2971792 0.49884048 -0.55918813 4293269760
3.2876472 0.49750674 -0.56382358 4293269760
3.2878368 0.49764273 -0.56946075 4293269760
3.2621887 0.49386942 -0.56991309 4293139200
3.2799718 0.49666661 -0.57729608 4293139200
3.2137363 0.48674774 -0.56913346 4293008640
3.2181065 0.48751354 -0.57277656 4293008640
3.2128508 0.48682183 -0.57403564 4293008640
3.2125762 0.486884 -0.57551473 4293008640
3.2172825 0.48770052 -0.57721901 4293008640
3.2740631 0.49640754 -0.58762175 4293139200
3.2643979 0.49504793 -0.58538902 4293139200
3.2845109 0.49820143 -0.58782178 4293269760
3.283689 0.49818197 -0.58580709 4293269760
3.3106136 0.50236994 -0.58805227 4293269760
3.3150272 0.50314504 -0.58557963 4293269760
3.3297148 0.50547886 -0.58422393 4293400320
3.3253081 0.50491601 -0.57881999 4293400320
3.3302195 0.50576699 -0.57436925 4293400320
3.3282146 0.50556809 -0.56805331 4293400320
3.3318808 0.50623 -0.56204742 4293400320
3.3300078 0.50605071 -0.5544529 4293400320
3.3175802 0.50426793 -0.54449135 4293269760
3.3206437 0.50483775 -0.53647506 4293269760
3.3031027 0.50227642 -0.52454579 4293269760
3.3144383 0.50410295 -0.51663035 4293269760
3.3213782 0.50526178 -0.50738329 4293269760
3.3410819 0.50836176 -0.49942815 4293400320
3.3387902 0.5081175 -0.48755127 4293400320
3.3249366 0.50611413 -0.47348684 4293269760
3.2901337 0.50092232 -0.45607641 4293139200
3.307384 0.50364977 -0.44545653 4293269760
3.3308859 0.50732976 -0.43501791 4293269760
3.3263907 0.50674862 -0.4203459 4293269760
3.3077233 0.50400901 -0.40350801 4293139200
3.2946641 0.50212228 -0.38704887 4293139200
3.3271379 0.50717103 -0.37544036 4293269760
3.3371742 0.50880289 -0.36067584 4293269760
3.3452268 0.51013297 -0.34521168 4293269760
3.2919161 0.50210977 -0.32323286 4293139200
3.3127038 0.50538039 -0.30837351 4293139200
3.327147 0.50768459 -0.29240274 4293269760
3.3241203 0.50732511 -0.27451077 4293269760
3.297776 0.50340819 -0.25454164 4293139200
3.3218863 0.50718814 -0.23822802 4293139200
3.3187244 0.50680733 -0.21957344 4293139200
3.3324745 0.50900781 -0.20175117 4293269760
3.312578 0.50607204 -0.18169419 4293139200
3.3025882 0.50464779 -0.16216257 4293139200
3.3169751 0.50694615 -0.14364274 4293139200
3.3188889 0.50733984 -0.12432954 4293139200
3.2855308 0.50234419 -0.10372997 4293008640
3.3260493 0.50863683 -0.08535175 4293139200
3.329545 0.50927269 -0.065654263 4293139200
3.3382854 0.5107106 -0.045923095 4293269760
3.3063469 0.5059284 -0.025702514 4293139200
3.339596 0.51111472 -0.0059934957 4293269760
3.3432989 0.51178312 0.014009013 4293269760
3.3409493 0.51152557 0.033978913 4293269760
3.3530014 0.51347196 0.054104518 4293269760
3.3723903 0.5165422 0.07446935 4293400320
3.3769391 0.51734155 0.094573103 4293400320
3.3232143 0.50921768 0.11268333 4293139200
3.3583806 0.51470536 0.13351874 4293269760
3.3710992 0.51675636 0.15360633 4293400320
3.3783782 0.51797473 0.17339474 4293400320
3.2859251 0.50390917 0.18744686 4293008640
3.3726823 0.51730835 0.21136603 4293400320
3.3767114 0.51802933 0.2304281 4293400320
3.3725135 0.51748908 0.24867782 4293400320
3.2998221 0.50644326 0.26122695 4293139200
3.386126 0.51978427 0.28603849 4293400320
3.4022965 0.52236938 0.30519465 4293530880
3.3971102 0.52167809 0.32216617 4293530880
3.3681855 0.51734263 0.33636975 4293400320
3.1840413 0.48917449 0.33374441 4292747520
3.3957641 0.52178526 0.37208322 4293530880
3.3771276 0.51902765 0.38583678 4293400320
3.3765709 0.51904649 0.40112022 4293400320
3.3650939 0.51738751 0.41460747 4293400320
3.307421 0.50862825 0.42166692 4293269760
3.3862238 0.52084416 0.44563562 4293530880
3.3890173 0.52137882 0.4594799 4293530880
3.3940463 0.52225757 0.47313204 4293530880
3.3803961 0.52026379 0.48362088 4293530880
3.3548884 0.5164451 0.49172759 4293400320
3.3594396 0.51725024 0.50358093 4293400320
3.373966 0.51959097 0.51640385 4293530880
3.3804059 0.52068806 0.52746338 4293530880
3.3793881 0.52063751 0.53677022 4293530880
3.378361 0.5205856 0.54544765 4293530880
3.3744557 0.52009046 0.55301642 4293530880
3.3712962 0.51971012 0.56004649 4293530880
3.3765097 0.52062005 0.56781226 4293530880
3.3697453 0.51968437 0.57290679 4293530880
3.3785765 0.52115268 0.57997388 4293530880
3.3641384 0.51903379 0.58237654 4293530880
3.3673313 0.51963329 0.58711916 4293530880
3.3628411 0.51904804 0.58983737 4293530880
3.3579712 0.51840413 0.59178722 4293400320
3.3527362 0.51770377 0.59296966 4293400320
3.3573537 0.51852393 0.59518862 4293400320
3.3474846 0.5171082 0.59414858 4293400320
3.3615911 0.51939416 0.59664583 4293530880
3.3334589 0.51515764 0.59097856 4293400320
3.3609223 0.51950777 0.59442776 4293530880
3.3718693 0.52130789 0.59424925 4293530880
3.3729088 0.52157784 0.59162486 4293530880
3.3714385 0.52146006 0.58786714 4293530880
3.3744886 0.52204132 0.58420193 4293530880
3.3769259 0.52252817 0.57973826 4293530880
3.3678632 0.52123666 0.5726403 4293530880
3.3755496 0.52253592 0.56770939 4293530880
3.3668723 0.52130383 0.55937767 4293530880
3.3613222 0.52055532 0.55094105 4293400320
3.3493142 0.51880693 0.54085028 4293400320
3.365061 0.52135533 0.53458196 4293400320
3.3750451 0.52301252 0.52671289 4293530880
3.3872225 0.52501029 0.51851082 4293530880
3.3724091 0.52282721 0.50560665 4293530880
3.3668494 0.52207732 0.49356633 4293400320
3.3422606 0.51898515 0.40526468 4293269760
3.3713148 0.5236066 0.39369074 4293400320
3.3851848 0.52587283 0.37971547 4293400320
3.3479414 0.52020311 0.35972416 4293269760
3.3361585 0.51848543 0.34228125 4293269760
3.3566024 0.5217734 0.32769614 4293400320
3.3680363 0.52366287 0.31171113 4293400320
3.3181481 0.5160228 0.28994149 4293139200
3.3234556 0.51695961 0.27286699 4293269760
3.328922 0.51792157 0.25544456 4293269760
3.3466108 0.5207848 0.23854285 4293269760
3.3460116 0.52080458 0.21999101 4293269760
3.3373446 0.51956916 0.20072152 4293269760
3.3549011 0.52241409 0.18273966 4293269760
3.3506141 0.52186024 0.16330354 4293269760
3.3396499 0.52026665 0.14345266 4293269760
3.3329399 0.51933479 0.123725 4293269760
3.3415995 0.52079642 0.10440909 4293269760
3.3300426 0.51910919 0.084373899 4293269760
3.3163986 0.51709598 0.064341098 4293139200
3.311547 0.51645219 0.044510145 4293139200
3.3223884 0.51825452 0.024793116 4293139200
3.3249261 0.51876283 0.004908192 4293139200
3.300401 0.51505065 -0.014879005 4293139200
3.3133235 0.51717836 -0.034774873 4293139200
3.3246055 0.5190509 -0.054763779 4293139200
3.3213451 0.51865476 -0.074497975 4293139200
3.3098581 0.51697427 -0.093879178 4293139200
3.3360286 0.52117234 -0.11433821 4293269760
3.3518538 0.52375662 -0.13456479 4293269760
3.3423908 0.52239197 -0.15365872 4293269760
3.3139205 0.51805729 -0.17148671 4293139200
3.332463 0.5210669 -0.19153214 4293269760
3.3380125 0.52204692 -0.2107572 4293269760
3.3285728 0.52068406 -0.22878118 4293269760
3.3262002 0.52042544 -0.24698305 4293269760
3.3487494 0.52406436 -0.26689178 4293269760
3.360301 0.52598435 -0.28581437 4293400320
3.3573332 0.52563328 -0.303231 4293400320
3.2948544 0.51596856 -0.31457499 4293139200
3.3523929 0.52508599 -0.33706334 4293269760
3.3543582 0.52550638 -0.35386842 4293400320
3.3451993 0.52418482 -0.36907125 4293269760
3.3427496 0.52391332 -0.38455504 4293269760
3.2762153 0.51360172 -0.3918938 4293139200
3.3597715 0.52680463 -0.41689199 4293400320
3.3602982 0.52699947 -0.43145832 4293400320
3.3628507 0.52751189 -0.44581708 4293400320
3.3594418 0.52708954 -0.45888054 4293400320
3.3511775 0.52590537 -0.47071746 4293400320
3.3354864 0.52355552 -0.48088732 4293400320
3.3369443 0.52389508 -0.49294126 4293400320
3.3353131 0.52374983 -0.50397849 4293400320
3.3416405 0.52485353 -0.51566416 4293400320
3.3414059 0.52492726 -0.52576637 4293400320
3.3292522 0.52312911 -0.53335178 4293400320
3.3225806 0.52219099 -0.54115474 4293269760
3.3276672 0.52309954 -0.55025196 4293400320
3.3084924 0.52019602 -0.55466217 4293269760
3.3029845 0.51943898 -0.56067502 4293269760
3.2895622 0.51743722 -0.56465626 4293269760
3.280987 0.51619661 -0.56877846 4293139200
3.2592556 0.51288623 -0.56990778 4293139200
3.2633982 0.51364404 -0.57488453 4293139200
3.2108457 0.50548238 -0.56912822 4293008640
3.2103474 0.50550824 -0.57190257 4293008640
3.2099597 0.50555134 -0.5740304 4293008640
3.2057943 0.50499952 -0.57481015 4293008640
3.2007701 0.50431198 -0.57476252 4292878080
3.2662525 0.51472783 -0.58674067 4293139200
3.2565954 0.51331174 -0.58450866 4293139200
3.2776618 0.51673543 -0.58711779 4293139200
3.2807307 0.51732415 -0.58580172 4293269760
3.3076303 0.52166891 -0.58804685 4293269760
3.3177791 0.5233745 -0.58659148 4293269760
3.3267131 0.52488905 -0.58421844 4293400320
3.3310704 0.52568215 -0.58034474 4293400320
3.3223479 0.52441204 -0.5735212 4293400320
3.3300822 0.5257377 -0.56888187 4293400320
3.333746 0.52642131 -0.56286663 4293400320
3.3270028 0.52546233 -0.55444741 4293400320
3.3243353 0.52514619 -0.54609185 4293269760
3.317646 0.52419466 -0.53646964 4293269760
3.3001201 0.52153105 -0.52454036 4293269760
3.2977786 0.52126479 -0.51448649 4293269760
3.3271675 0.52601141 -0.50872582 4293269760
3.338063 0.52783734 -0.49942267 4293400320
3.3396831 0.52819765 -0.48811913 4293400320
3.3317115 0.52704161 -0.47487995 4293269760
3.3057511 0.52304053 -0.45865932 4293269760
3.3043933 0.52292866 -0.44545111 4293269760
3.3278735 0.52674538 -0.43501243 4293269760
3.3371022 0.52830869 -0.42208236 4293269760
3.309633 0.52406526 -0.40410355 4293269760
3.2867775 0.52055019 -0.38646427 4293139200
3.3290343 0.52734125 -0.37599158 4293269760
3.3439734 0.52980942 -0.36173749 4293269760
3.3372848 0.52885324 -0.34469631 4293269760
3.2889347 0.52129745 -0.32322744 4293139200
3.3083158 0.52446914 -0.30823809 4293139200
3.3192127 0.52629757 -0.29196203 4293269760
3.3260298 0.52747995 -0.27491462 4293269760
3.2849391 0.52106827 -0.25377032 4293139200
3.3287263 0.52811152 -0.23893479 4293269760
3.3295124 0.52833813 -0.22048886 4293269760
3.31565 0.52624136 -0.20090212 4293139200
3.3194349 0.52694321 -0.18223538 4293139200
3.3134022 0.52608752 -0.16284327 4293139200
3.3179119 0.52690446 -0.14381047 4293139200
3.3257458 0.52824938 -0.12469948 4293139200
3.283458 0.52163714 -0.10375381 4293008640
3.3190801 0.527394 -0.085242666 4293139200
3.3314581 0.52946126 -0.065748945 4293269760
3.3401906 0.53095013 -0.045988321 4293269760
3.3132186 0.52676654 -0.025779489 4293139200
3.3365612 0.53057718 -0.0059879869 4293269760
3.34026 0.53126693 0.014014529 4293269760
3.3379121 0.53099555 0.033984426 4293269760
3.3548899 0.53379703 0.054186955 4293269760
3.3732727 0.53682297 0.074559934 4293400320
3.3790197 0.53784019 0.094720125 4293400320
3.3241391 0.52921176 0.11282047 4293139200
