# .PCD v0.7 - Point Cloud Data file format
VERSION 0.7
FIELDS x y z rgba
SIZE 4 4 4 4
TYPE F F F U
COUNT 1 1 1 1
WIDTH 1078
HEIGHT 1
VIEWPOINT 0 0 0 1 0 0 0
POINTS 1078
DATA ascii
2.6423788 -0.32593808 -0.16046654 4290919680
2.5932112 -0.31978926 -0.14278914 4290658560
2.5842412 -0.31860378 -0.12750575 4290658560
2.5804119 -0.3180531 -0.11241555 4290658560
2.5669968 -0.31632039 -0.096889831 4290528000
2.5109792 -0.30933532 -0.080059104 4290397440
2.5206985 -0.31045753 -0.06551674 4290397440
2.5210471 -0.31042424 -0.050604265 4290397440
2.4946346 -0.30709356 -0.035256986 4290397440
2.4726365 -0.30430827 -0.020226071 4290266880
2.4654524 -0.30334875 -0.0054733376 4290266880
2.4725189 -0.30414426 0.0092478124 4290266880
2.4734857 -0.30418855 0.023980539 4290266880
2.4922605 -0.30642426 0.038971737 4290397440
2.5158155 -0.30924699 0.054242138 4290397440
2.5430946 -0.31252638 0.069830157 4290528000
2.5170195 -0.30924284 0.083886646 4290397440
2.563714 -0.31490752 0.10038541 4290528000
2.5965328 -0.31886378 0.11669131 4290658560
2.6040778 -0.31971231 0.13196635 4290658560
2.5531247 -0.3133736 0.14388976 4290528000
2.7692947 -0.33984691 0.17160098 4291311360
3.1703534 -0.38901007 0.21399435 4292616960
3.3272314 -0.40817261 0.2427721 4293139200
3.2881417 -0.40327397 0.25764588 4293008640
3.3805506 -0.41451275 0.28280172 4293400320
3.39362 -0.41601312 0.30156958 4293400320
3.383013 -0.41460893 0.31791195 4293400320
3.3545034 -0.41101021 0.33202037 4293269760
3.2552278 -0.39873865 0.3381308 4293008640
3.3848944 -0.41452977 0.36774936 4293400320
3.3814468 -0.41400385 0.38310832 4293400320
3.3733699 -0.412911 0.39745745 4293400320
3.3511193 -0.41008282 0.40955356 4293269760
3.3035784 -0.40415969 0.41779676 4293139200
3.3809831 -0.4135322 0.44146654 4293400320
3.3836296 -0.41375199 0.45520815 4293400320
3.3852136 -0.41384149 0.46830258 4293400320
3.3854675 -0.41376808 0.48068291 4293400320
3.3514285 -0.40950137 0.48752818 4293400320
3.3237815 -0.40601802 0.49453038 4293269760
3.3746707 -0.4121342 0.51270449 4293400320
3.3760598 -0.41219914 0.52293497 4293400320
3.3805873 -0.41264716 0.53306115 4293530880
3.3751788 -0.41188136 0.54100055 4293400320
3.3712912 -0.4113014 0.5485298 4293400320
3.3555024 -0.40926892 0.55343944 4293400320
3.3636286 -0.41015545 0.56162447 4293400320
3.3617659 -0.40982267 0.56749833 4293400320
3.3569818 -0.40913355 0.57220256 4293400320
3.3513088 -0.40833619 0.57606733 4293400320
3.3511183 -0.40820727 0.58018798 4293400320
3.3505545 -0.40803266 0.58356023 4293400320
3.3598828 -0.40906313 0.58797371 4293400320
3.359544 -0.40891531 0.59001112 4293400320
3.3593211 -0.40878144 0.59137267 4293400320
3.3445475 -0.406876 0.58947384 4293400320
3.3396702 -0.40617573 0.58861899 4293400320
3.3627856 -0.40888163 0.59199452 4293400320
3.3532381 -0.40761259 0.58892518 4293400320
3.3642597 -0.40884545 0.58876801 4293400320
3.3653295 -0.40886745 0.58616871 4293400320
3.3589854 -0.40798804 0.58159429 4293400320
3.3669653 -0.40884945 0.57881016 4293400320
3.3647575 -0.40847251 0.57358885 4293400320
3.369168 -0.40889931 0.5688172 4293400320
3.3680999 -0.40866044 0.56244892 4293400320
3.3545921 -0.40691143 0.55337584 4293400320
3.3527501 -0.40657881 0.54561007 4293400320
3.3467124 -0.4057371 0.53654402 4293400320
3.342937 -0.40516999 0.5272398 4293400320
3.3578866 -0.40687346 0.52024156 4293400320
3.3772895 -0.40911564 0.51323003 4293400320
3.3659227 -0.40762743 0.50093073 4293400320
3.3532257 -0.40597859 0.48793274 4293400320
3.3349442 -0.40321279 0.4010222 4293269760
3.3690841 -0.40723175 0.39012513 4293400320
3.369226 -0.4071371 0.37470099 4293400320
3.3305402 -0.40234831 0.35472128 4293269760
3.2766182 -0.39572054 0.33316311 4293008640
3.0002563 -0.36221969 0.29026288 4292094720
2.7053971 -0.32650277 0.24810365 4291050240
2.5887344 -0.31232437 0.22407545 4290658560
2.5562143 -0.30831191 0.20784062 4290528000
2.5663633 -0.30945143 0.19495401 4290658560
2.5600924 -0.30860898 0.18058445 4290528000
2.5354481 -0.30555055 0.16488937 4290528000
2.5135701 -0.30282733 0.14944769 4290397440
2.5128112 -0.30265164 0.13521892 4290397440
2.4970317 -0.30066559 0.12012699 4290397440
2.4818208 -0.29874906 0.10510568 4290266880
2.4587774 -0.29589006 0.089857079 4290266880
2.4690993 -0.29705054 0.075796694 4290266880
2.4721086 -0.29732996 0.061348874 4290266880
2.4194412 -0.29090801 0.045748148 4290136320
2.4979055 -0.3002679 0.032407191 4290397440
2.5023122 -0.30071408 0.017581942 4290397440
2.522675 -0.3030788 0.002697252 4290397440
2.5344286 -0.30440712 -0.012393921 4290528000
2.5699823 -0.30859518 -0.027875442 4290528000
2.591702 -0.31111863 -0.043520447 4290658560
2.5801466 -0.30964351 -0.05862201 4290658560
2.6247783 -0.31491667 -0.075139485 4290789120
2.6676726 -0.31997827 -0.092045307 4290919680
2.6868091 -0.32218552 -0.10839823 4291050240
2.6767621 -0.32088989 -0.1235125 4290919680
2.7076731 -0.32450807 -0.14050835 4291050240
2.7445216 -0.32883623 -0.15805161 4291180800
2.761492 -0.33077887 -0.17458695 4291311360
2.7422569 -0.32838097 -0.18863454 4291180800
2.9439638 -0.352458 -0.21868692 4291833600
3.1861382 -0.38136911 -0.25392953 4292747520
3.3089523 -0.39597023 -0.28134698 4293139200
3.3232532 -0.39757186 -0.29996043 4293139200
3.2959659 -0.39419508 -0.31442887 4293139200
3.3260105 -0.39768016 -0.33403665 4293139200
3.3299065 -0.39803547 -0.3508237 4293269760
3.3323979 -0.39822266 -0.36710978 4293269760
3.3140357 -0.39591664 -0.38062093 4293139200
3.2791586 -0.39163807 -0.39157057 4293008640
3.3566067 -0.40078348 -0.41568467 4293269760
3.3548584 -0.40046349 -0.42986482 4293269760
3.3548903 -0.40035638 -0.44378725 4293400320
3.3540115 -0.40014061 -0.45709017 4293400320
3.3362935 -0.39791518 -0.46751457 4293269760
3.3329535 -0.39740673 -0.47934794 4293269760
3.336514 -0.39772186 -0.49163377 4293269760
3.3421326 -0.39828232 -0.50369859 4293269760
3.333076 -0.39709291 -0.51297086 4293269760
3.3311024 -0.39674848 -0.52271533 4293269760
3.3375537 -0.39740834 -0.53319854 4293269760
3.3275714 -0.39611021 -0.54043925 4293269760
3.3340051 -0.39676797 -0.54971653 4293269760
3.3224907 -0.39528856 -0.55539364 4293269760
3.3068089 -0.39331403 -0.55967659 4293269760
3.2889388 -0.39108032 -0.56287789 4293139200
3.2793751 -0.38983613 -0.56680107 4293139200
3.2771337 -0.38946357 -0.57131499 4293139200
3.281327 -0.38985643 -0.57629138 4293139200
3.2148354 -0.38184708 -0.56812012 4292878080
3.2094753 -0.38110679 -0.57001442 4292878080
3.2188942 -0.38212287 -0.5738731 4293008640
3.2186468 -0.3819904 -0.5753482 4293008640
3.218513 -0.38187164 -0.5761748 4293008640
3.2794807 -0.38900632 -0.58727193 4293139200
3.2859039 -0.3896642 -0.58792245 4293139200
3.286118 -0.38958517 -0.58677763 4293139200
3.2902083 -0.3899661 -0.58564073 4293139200
3.3211899 -0.39353576 -0.58858329 4293269760
3.3177257 -0.39302015 -0.58471847 4293269760
3.328701 -0.3942163 -0.58271068 4293269760
3.3266745 -0.39387137 -0.57774204 4293269760
3.3214881 -0.39315251 -0.57156754 4293269760
3.3292947 -0.39397281 -0.56696284 4293269760
3.3357573 -0.39463368 -0.56144881 4293269760
3.3248281 -0.39323586 -0.55237269 4293269760
3.3286841 -0.39358839 -0.54513288 4293269760
3.3111048 -0.39140514 -0.53379399 4293269760
3.2982101 -0.38977721 -0.52268004 4293139200
3.3016376 -0.39008009 -0.51358157 4293139200
3.315521 -0.39161888 -0.50547206 4293269760
3.340976 -0.39452446 -0.49842685 4293269760
3.3322091 -0.39338553 -0.48565933 4293269760
3.3105891 -0.39072916 -0.47057855 4293139200
3.2910588 -0.38832104 -0.45541674 4293139200
3.2921627 -0.38835022 -0.44266853 4293139200
3.315464 -0.39099917 -0.43231091 4293139200
3.3073616 -0.38994154 -0.41731599 4293139200
3.2786434 -0.38645267 -0.39941517 4293008640
3.2661836 -0.38488308 -0.38323373 4293008640
3.2566156 -0.38365528 -0.36706871 4293008640
3.0999436 -0.36508933 -0.33470458 4292486400
2.9264598 -0.34455198 -0.30174381 4291833600
2.7594914 -0.32479286 -0.2707983 4291311360
2.7405567 -0.32247892 -0.25501412 4291180800
2.7266881 -0.32076269 -0.23959264 4291180800
2.7074213 -0.31841192 -0.22361101 4291050240
2.6605124 -0.31280932 -0.20545782 4290919680
2.6625321 -0.31296635 -0.19110462 4290919680
2.6456218 -0.31089666 -0.17527001 4290919680
2.6353045 -0.30960336 -0.15983668 4290789120
2.5790038 -0.30290473 -0.14181903 4290658560
2.5622389 -0.30085635 -0.12624177 4290528000
2.5583997 -0.30032784 -0.11128718 4290528000
2.5548935 -0.29983872 -0.096273221 4290528000
2.4938698 -0.29259476 -0.07936611 4290397440
2.4986274 -0.29307815 -0.06480395 4290397440
2.507411 -0.29403386 -0.050200615 4290397440
2.4675722 -0.28928304 -0.034754734 4290266880
2.4557052 -0.28781638 -0.019978248 4290266880
2.4598935 -0.28823361 -0.0053616795 4290266880
2.4698236 -0.2893239 0.0093277572 4290266880
2.4712317 -0.28941453 0.024039175 4290266880
2.4900184 -0.2915419 0.039008077 4290266880
2.5175612 -0.2946941 0.054341707 4290397440
2.5498226 -0.29839736 0.070067063 4290528000
2.532172 -0.29625332 0.084432505 4290528000
2.5565577 -0.29903206 0.10013853 4290528000
2.5834467 -0.30210233 0.11612719 4290658560
2.6009197 -0.30406904 0.13181897 4290658560
2.5410063 -0.2969811 0.14320999 4290528000
2.676338 -0.31273285 0.16584204 4290919680
2.8782113 -0.33625725 0.1942824 4291703040
3.2631547 -0.38117045 0.23806581 4293008640
3.2755561 -0.38252097 0.25661069 4293008640
3.3680339 -0.39322683 0.28169069 4293269760
3.3811176 -0.39465293 0.30038095 4293400320
3.3803985 -0.39446625 0.31757423 4293400320
3.3617556 -0.39218694 0.33263236 4293269760
3.252528 -0.3793357 0.33773631 4293008640
3.387223 -0.394954 0.36786982 4293400320
3.3748887 -0.39341176 0.38222122 4293400320
3.3707559 -0.39282674 0.39699227 4293400320
3.3534219 -0.39070258 0.40966535 4293269760
3.3220801 -0.3869465 0.41995418 4293269760
3.3833048 -0.39397952 0.44157341 4293400320
3.376107 -0.39303708 0.45398918 4293400320
3.382617 -0.39369151 0.46772328 4293400320
3.3691027 -0.39201373 0.47813001 4293400320
3.3389814 -0.38840333 0.48547816 4293269760
3.3309751 -0.38736838 0.49534807 4293269760
3.3671637 -0.39147595 0.51129931 4293400320
3.3734665 -0.39210477 0.52225649 4293400320
3.3730922 -0.39195654 0.53159243 4293400320
3.3627787 -0.39065266 0.53871727 4293400320
3.3785064 -0.39237589 0.54939383 4293530880
3.3725078 -0.39157349 0.55592358 4293400320
3.3708353 -0.3912738 0.56249905 4293400320
3.3591731 -0.38981387 0.56672513 4293400320
3.3592842 -0.38972142 0.57224995 4293400320
3.3624206 -0.38997987 0.57762212 4293400320
3.3436272 -0.38769326 0.5785321 4293400320
3.3577476 -0.38922584 0.58444268 4293400320
3.347508 -0.38793218 0.58543414 4293400320
3.3520637 -0.38835439 0.58831513 4293400320
3.3518414 -0.38822231 0.58966696 4293400320
3.3566289 -0.38867053 0.5912044 4293400320
3.3380492 -0.38641122 0.58793277 4293400320
3.3562882 -0.38841709 0.59044307 4293400320
3.3653276 -0.38935646 0.59063202 4293400320
3.3577623 -0.38837299 0.58721328 4293400320
3.3715575 -0.38986161 0.58682805 4293400320
3.361294 -0.38856587 0.58156651 4293400320
3.3506742 -0.38722935 0.57558262 4293400320
3.3670709 -0.38901711 0.57354856 4293400320
3.3626671 -0.38839924 0.56728423 4293400320
3.3655162 -0.3886196 0.56157905 4293400320
3.360821 -0.387968 0.55396271 4293400320
3.3511336 -0.38673997 0.54490757 4293400320
3.3401849 -0.38536674 0.53505951 4293269760
3.3403296 -0.38527453 0.52638972 4293269760
3.3552873 -0.38689154 0.51939827 4293400320
3.3845248 -0.39015472 0.51388454 4293530880
3.3682387 -0.38816556 0.50083423 4293400320
3.3555329 -0.38659006 0.48783061 4293400320
3.327374 -0.38263494 0.39984357 4293269760
3.3565969 -0.38588682 0.38841936 4293269760
3.3666055 -0.38692662 0.37415847 4293400320
3.3189983 -0.38134059 0.35325629 4293139200
3.1315918 -0.35968724 0.31821972 4292486400
2.7860909 -0.31987807 0.26938817 4291311360
2.662884 -0.30563042 0.24404739 4290919680
2.5846508 -0.29655623 0.22357355 4290658560
2.5629208 -0.29397494 0.2082466 4290528000
2.5730784 -0.29505524 0.19533376 4290658560
2.5503039 -0.29235578 0.17977633 4290528000
2.5322304 -0.29019704 0.16457208 4290528000
2.5112407 -0.28770506 0.14921159 4290397440
2.5046134 -0.28686109 0.13469078 4290397440
2.5037053 -0.28667304 0.1203692 4290397440
2.4686325 -0.28257021 0.10448132 4290266880
2.4420857 -0.27944642 0.089192018 4290136320
2.450608 -0.28034043 0.075183734 4290136320
2.4561827 -0.28089637 0.060917806 4290266880
2.4185848 -0.27651075 0.045704991 4290136320
2.4748571 -0.28286806 0.032092594 4290266880
2.4953008 -0.28512335 0.017525651 4290397440
2.4955885 -0.28507245 0.0026730262 4290397440
2.5083435 -0.28644669 -0.012251585 4290397440
2.5427108 -0.29029003 -0.027554389 4290528000
2.5646651 -0.2927129 -0.043030705 4290528000
2.5580709 -0.2918736 -0.058074865 4290528000
2.6067088 -0.29734129 -0.074565649 4290658560
2.6406987 -0.30113369 -0.091046318 4290789120
2.6648173 -0.30379742 -0.10743187 4290919680
2.6448438 -0.30142939 -0.12195031 4290789120
2.6906683 -0.30656689 -0.13952529 4291050240
2.7099509 -0.30867523 -0.15594824 4291050240
2.7356105 -0.31150916 -0.17282708 4291180800
2.6965463 -0.30696627 -0.18535753 4291050240
2.8254049 -0.32155493 -0.20972855 4291441920
2.9573338 -0.3364847 -0.23552276 4291964160
3.1887376 -0.3627308 -0.27093291 4292747520
3.3017657 -0.37548858 -0.29781204 4293139200
3.2707939 -0.37185445 -0.31180915 4293008640
3.3233311 -0.37772146 -0.33353481 4293139200
3.3321726 -0.37861621 -0.35081807 4293269760
3.3346653 -0.37878877 -0.36710414 4293269760
3.3202388 -0.37703842 -0.38106853 4293139200
3.2863219 -0.37307477 -0.39215374 4293139200
3.3573139 -0.38102925 -0.4154841 4293269760
3.3571384 -0.38089818 -0.42985913 4293269760
3.3483036 -0.37978429 -0.44260949 4293269760
3.3562899 -0.38058001 -0.45708448 4293400320
3.3336384 -0.37789953 -0.46681985 4293269760
3.335216 -0.3779687 -0.47934228 4293269760
3.3224096 -0.37640697 -0.48921791 4293269760
3.3345735 -0.37767667 -0.50221294 4293269760
3.3402483 -0.37821043 -0.51372051 4293269760
3.3421977 -0.37832192 -0.52409518 4293269760
3.3349097 -0.37738732 -0.53240955 4293269760
3.3386557 -0.37770265 -0.54186642 4293269760
3.3264585 -0.37621331 -0.54809529 4293269760
3.3296428 -0.3764655 -0.55620664 4293269760
3.3090487 -0.37402773 -0.55967093 4293269760
3.3085215 -0.37386093 -0.5658403 4293269760
3.2776775 -0.37026677 -0.56611896 4293139200
3.3003731 -0.37272614 -0.57497126 4293269760
3.2698421 -0.36916998 -0.57388079 4293139200
3.2780614 -0.36999327 -0.57889491 4293139200
3.2214313 -0.36349282 -0.57174557 4293008640
3.2161779 -0.36279652 -0.57299608 4292878080
3.21593 -0.36266568 -0.57446897 4292878080
3.2817161 -0.36998591 -0.58708578 4293139200
3.2582152 -0.36723045 -0.58306497 4293139200
3.2832308 -0.36994785 -0.58704227 4293139200
3.292099 -0.37084347 -0.58744341 4293139200
3.3048728 -0.37217888 -0.58784831 4293269760
3.3048358 -0.37207028 -0.58528489 4293269760
3.3199635 -0.37367004 -0.5847128 4293269760
3.3309457 -0.37480223 -0.58270502 4293269760
3.328917 -0.37446919 -0.57773638 4293269760
3.3237267 -0.37378058 -0.57156187 4293269760
3.331538 -0.37455544 -0.56695718 4293269760
3.3380039 -0.37517866 -0.56144315 4293269760
3.3319695 -0.37439594 -0.55318087 4293269760
3.328326 -0.37388259 -0.54470199 4293269760
3.3133333 -0.37209406 -0.53378832 4293269760
3.2906127 -0.36943832 -0.52111989 4293139200
3.2920766 -0.36950088 -0.51174462 4293139200
3.3146031 -0.37192887 -0.50498694 4293269760
3.3245444 -0.37294266 -0.49563676 4293269760
3.3246133 -0.37284794 -0.48422125 4293269760
3.3177333 -0.37197366 -0.47127175 4293269760
3.286381 -0.36835474 -0.45445856 4293139200
3.295655 -0.36929402 -0.44283515 4293139200
3.3127618 -0.37111104 -0.43166316 4293139200
3.3145115 -0.37120584 -0.41793203 4293139200
3.2759101 -0.36677915 -0.39880902 4293008640
3.225929 -0.36108011 -0.37825096 4292878080
3.0722365 -0.34376919 -0.34604737 4292355840
2.905165 -0.32496974 -0.31345654 4291833600
2.8232129 -0.31570828 -0.29089668 4291441920
2.7080283 -0.30273306 -0.26556447 4291050240
2.7037988 -0.30217782 -0.25141981 4291050240
2.7002392 -0.30169776 -0.23710446 4291050240
2.680934 -0.29945752 -0.22126986 4291050240
2.6335571 -0.29408056 -0.20323473 4290789120
2.6306095 -0.29367158 -0.18868142 4290789120
2.6285498 -0.29336208 -0.17401737 4290789120
2.6082981 -0.29102084 -0.1580873 4290789120
2.5529423 -0.2847611 -0.14028648 4290528000
2.5450914 -0.28380778 -0.12530786 4290528000
2.5414617 -0.28332609 -0.11047123 4290528000
2.5188608 -0.28072798 -0.094845615 4290397440
2.4716949 -0.27539125 -0.078602202 4290266880
2.4848948 -0.27678886 -0.064399518 4290266880
2.475378 -0.27565321 -0.049519669 4290266880
2.4499454 -0.2727443 -0.034477841 4290136320
2.4334915 -0.27083737 -0.019778309 4290136320
2.4421997 -0.27173427 -0.0053138081 4290136320
2.4594464 -0.27358148 0.0092876116 4290266880
2.4679096 -0.27444977 0.023995539 4290266880
2.4916775 -0.27702099 0.039012346 4290266880
2.5242062 -0.28056559 0.054452736 4290397440
2.5415852 -0.28242296 0.06979955 4290528000
2.5388241 -0.28203946 0.084601857 4290528000
2.5622315 -0.28456551 0.10029801 4290528000
2.5851655 -0.28703752 0.11613162 4290658560
2.6026495 -0.28890252 0.13182344 4290658560
2.5590401 -0.28397954 0.14413306 4290528000
2.6511307 -0.29413 0.16417849 4290919680
2.7328143 -0.30311936 0.18436584 4291180800
3.021898 -0.33512515 0.22034711 4292094720
3.2400765 -0.35924506 0.25367203 4292878080
3.3702698 -0.37359065 0.2816965 4293269760
3.3909347 -0.37578061 0.30105838 4293400320
3.3875892 -0.37530696 0.3180441 4293400320
3.3590395 -0.37203956 0.33214962 4293269760
3.2497413 -0.35982537 0.33722946 4292878080
3.3894684 -0.37520668 0.36787567 4293400320
3.3771253 -0.37373647 0.38222703 4293400320
3.3690403 -0.37273839 0.39653376 4293400320
3.3507097 -0.37060651 0.40906939 4293269760
3.29423 -0.36425379 0.41616726 4293139200
3.3658304 -0.3720746 0.43901026 4293400320
3.3823676 -0.37380064 0.45453557 4293400320
3.3897784 -0.37451631 0.46840885 4293400320
3.371331 -0.37237296 0.47813579 4293400320
3.3544767 -0.3704066 0.48741293 4293400320
3.3282602 -0.36740679 0.49462378 4293269760
3.3693886 -0.37184674 0.51130509 4293400320
3.375695 -0.37243891 0.52226233 4293400320
3.3664818 -0.3713173 0.5302074 4293400320
3.3797235 -0.3726742 0.54107839 4293400320
3.3620923 -0.37062395 0.54637229 4293400320
3.3551147 -0.36974967 0.55270022 4293400320
3.3593304 -0.37010983 0.56021726 4293400320
3.3613884 -0.37023172 0.56673092 4293400320
3.3516984 -0.36905858 0.57058859 4293400320
3.3607173 -0.36994708 0.57695562 4293400320
3.3507288 -0.36874127 0.57938415 4293400320
3.3413494 -0.367603 0.58121395 4293400320
3.3497124 -0.36841816 0.58543992 4293400320
3.3591669 -0.36935264 0.58917898 4293400320
3.3540478 -0.36868307 0.58967274 4293400320
3.3539419 -0.36856496 0.5903492 4293400320
3.3441617 -0.367383 0.5886274 4293400320
3.3535995 -0.36831379 0.58958882 4293400320
3.362644 -0.36920059 0.58977973 4293400320
3.3599694 -0.36879921 0.58721906 4293400320
3.3649573 -0.3692393 0.5853017 4293400320
3.3586035 -0.36843368 0.58072603 4293400320
3.3626733 -0.36877233 0.5772692 4293400320
3.3643808 -0.36885127 0.57272083 4293400320
3.3648741 -0.36879677 0.56729007 4293400320
3.3628211 -0.36846274 0.56076789 4293400320
3.3728356 -0.36945164 0.55558312 4293400320
3.3513718 -0.36698976 0.54459524 4293400320
3.3463018 -0.36632526 0.53569341 4293400320
3.3425188 -0.3658019 0.52639544 4293269760
3.3662069 -0.36828658 0.52075207 4293400320
3.3867419 -0.37042442 0.51389039 4293530880
3.3606102 -0.36745387 0.49938002 4293400320
3.3577297 -0.36702853 0.48783642 4293400320
3.3295486 -0.36323681 0.39984933 4293269760
3.357213 -0.36614615 0.38824299 4293269760
3.373745 -0.36783874 0.3747125 4293400320
3.2539406 -0.35465747 0.34611896 4293008640
2.8812954 -0.31391057 0.29262853 4291703040
2.6795058 -0.29181528 0.25893176 4291050240
2.6458111 -0.28805363 0.24233158 4290919680
2.5813844 -0.28094581 0.22315055 4290658560
2.5596378 -0.27849093 0.20784937 4290528000
2.5648427 -0.27897218 0.19458738 4290528000
2.5608916 -0.27845633 0.18040843 4290528000
2.5338805 -0.27543125 0.16457647 4290528000
2.5020463 -0.27188325 0.1485741 4290397440
2.5169251 -0.27341753 0.13526791 4290397440
2.4927745 -0.27070749 0.11977141 4290266880
2.4501147 -0.26598731 0.10363657 4290136320
2.4439669 -0.26523712 0.089206889 4290136320
2.43784 -0.26448956 0.07474909 4290136320
2.4416194 -0.2648181 0.060523074 4290136320
2.3749607 -0.25750008 0.044859912 4289875200
2.4575782 -0.26638588 0.031853803 4290136320
2.4780335 -0.26852244 0.017398998 4290266880
2.4733498 -0.26793119 0.0026537452 4290266880
2.4861126 -0.26923183 -0.012128935 4290266880
2.5207207 -0.2728993 -0.027292248 4290397440
2.5375025 -0.27463293 -0.042540938 4290528000
2.5319009 -0.27394089 -0.057437222 4290397440
2.5818267 -0.27926204 -0.073799893 4290658560
2.6098399 -0.28220782 -0.089917652 4290658560
2.63873 -0.28524661 -0.10630515 4290789120
2.6088183 -0.2819221 -0.12020487 4290658560
2.66487 -0.2878966 -0.13809212 4290919680
2.6878846 -0.29029551 -0.15457255 4291050240
2.6986842 -0.29137272 -0.17037764 4291050240
2.6744866 -0.2886678 -0.1837167 4290919680
2.7650642 -0.29836214 -0.20510992 4291311360
2.8406758 -0.30643445 -0.22607759 4291572480
2.968256 -0.32011172 -0.25202623 4291964160
3.1928639 -0.34425142 -0.28779545 4292747520
3.2442043 -0.34968367 -0.30906835 4292878080
3.3148351 -0.35719305 -0.33246133 4293139200
3.3303702 -0.35875764 -0.35039604 4293269760
3.3269358 -0.3582767 -0.36601087 4293139200
3.3223829 -0.35767561 -0.38106275 4293139200
3.2658873 -0.35147986 -0.38945803 4293008640
3.3545465 -0.36091876 -0.414868 4293269760
3.3494415 -0.36025816 -0.42859119 4293269760
3.3541095 -0.36064979 -0.44308531 4293269760
3.3589454 -0.36105934 -0.45714548 4293400320
3.3446505 -0.35941115 -0.46805432 4293269760
3.3235857 -0.3570362 -0.47735736 4293269760
3.3245502 -0.35703063 -0.4892121 4293269760
3.3278713 -0.35727841 -0.50087523 4293269760
3.339251 -0.35839173 -0.5132308 4293269760
3.3355072 -0.35788047 -0.52270389 4293269760
3.3321459 -0.35741067 -0.53162044 4293269760
3.3368773 -0.35780981 -0.54122376 4293269760
3.3384104 -0.35786569 -0.54970509 4293269760
3.3268795 -0.35652044 -0.55538213 4293269760
3.3160784 -0.35525441 -0.56049377 4293269760
3.3106477 -0.35456493 -0.56583452 4293269760
3.297272 -0.3530246 -0.56913155 4293139200
3.2926955 -0.35242799 -0.57325995 4293139200
3.2719417 -0.35009935 -0.57387507 4293139200
3.2752688 -0.35035041 -0.5780251 4293139200
3.2088106 -0.34313226 -0.56913507 4292878080
3.2084503 -0.34299102 -0.57124746 4292878080
3.2790627 -0.35044178 -0.58536398 4293139200
3.2838202 -0.35084599 -0.58708 4293139200
3.2700937 -0.34927407 -0.58480984 4293139200
3.2804396 -0.35027596 -0.58616197 4293139200
3.2981243 -0.35206145 -0.5881359 4293269760
3.3069892 -0.35290399 -0.58784252 4293269760
3.3206472 -0.35425797 -0.58770269 4293269760
3.3314967 -0.35531151 -0.58636272 4293269760
3.3232803 -0.35433 -0.58098668 4293269760
3.3310466 -0.35505423 -0.57773054 4293269760
3.3258522 -0.35439596 -0.57155603 4293269760
3.3238633 -0.35407996 -0.56528407 4293269760
3.3303297 -0.35466552 -0.55978888 4293269760
3.3291929 -0.35444069 -0.55236119 4293269760
3.3167114 -0.35300764 -0.542449 4293269760
3.3105395 -0.35224748 -0.53299218 4293269760
3.2927134 -0.35024711 -0.52111411 4293139200
3.2902467 -0.34988281 -0.51112819 4293139200
3.3100355 -0.3518869 -0.50396377 4293139200
3.3300126 -0.35391 -0.49612966 4293269760
3.3267331 -0.35345888 -0.48421541 4293269760
3.317529 -0.35237825 -0.47093672 4293269760
3.293401 -0.34971225 -0.4551335 4293139200
3.2964721 -0.3499378 -0.44265711 4293139200
3.3099408 -0.35126773 -0.43101522 4293139200
3.3116884 -0.3513523 -0.41730452 4293139200
3.2404811 -0.34369218 -0.39423907 4292878080
3.0778918 -0.32633829 -0.36065707 4292355840
2.8754227 -0.30476326 -0.32366589 4291703040
2.8054919 -0.29725865 -0.30250353 4291441920
2.7622614 -0.29258955 -0.2844297 4291311360
2.6918342 -0.28504017 -0.26380363 4291050240
2.6847351 -0.28420642 -0.24948339 4291050240
2.6682718 -0.28238109 -0.23414315 4290919680
2.6538944 -0.28077778 -0.21889365 4290919680
2.6060834 -0.27563524 -0.20098144 4290789120
2.6035132 -0.27528465 -0.18661389 4290658560
2.5964794 -0.27446193 -0.17177933 4290658560
2.57762 -0.27238858 -0.156123 4290658560
2.5208001 -0.26630148 -0.13842644 4290397440
2.5183375 -0.26596537 -0.12390621 4290397440
2.5142598 -0.26545873 -0.10921364 4290397440
2.4916375 -0.26299262 -0.093755089 4290266880
2.4414661 -0.25761747 -0.077585459 4290136320
2.452745 -0.25873551 -0.063519552 4290136320
2.4530823 -0.2586976 -0.049036615 4290136320
2.4326024 -0.25646231 -0.034206439 4290136320
2.4145977 -0.25448942 -0.019606484 4290005760
2.4490089 -0.25804734 -0.0053213737 4290136320
2.4510565 -0.25818989 0.0092552453 4290136320
2.4744415 -0.26058209 0.024047773 4290266880
2.4932518 -0.26249066 0.039016742 4290266880
2.5208292 -0.26532194 0.054350473 4290397440
2.54319 -0.267602 0.069804035 4290528000
2.5319715 -0.26634422 0.084325582 4290397440
2.5688171 -0.27014762 0.10049641 4290528000
2.5967314 -0.2730087 0.11658118 4290658560
2.5943582 -0.27268103 0.13132632 4290658560
2.5646253 -0.26947528 0.14436069 4290528000
2.6470475 -0.27806622 0.16382769 4290789120
2.6832578 -0.28179362 0.18091908 4290919680
2.8276963 -0.29689422 0.20608218 4291441920
3.1370142 -0.32931095 0.24546453 4292486400
3.3486042 -0.35144308 0.2797178 4293269760
3.3765743 -0.35427931 0.29960248 4293400320
3.379818 -0.35451785 0.31712198 4293400320
3.347295 -0.35100222 0.33078766 4293269760
3.256731 -0.34139842 0.33774763 4293008640
3.3817105 -0.35440943 0.36681017 4293400320
3.3743055 -0.35353029 0.38167459 4293400320
3.3563392 -0.35154429 0.39479846 4293269760
3.3528137 -0.3510727 0.40907529 4293269760
3.3263667 -0.34819961 0.41996577 4293269760
3.3778059 -0.353486 0.4403007 4293400320
3.3903189 -0.35469308 0.45532373 4293400320
3.3771243 -0.35320809 0.46637556 4293400320
3.3734448 -0.35271955 0.47814178 4293400320
3.3531272 -0.35049033 0.48691803 4293400320
3.3429849 -0.34932643 0.49650523 4293269760
3.3714993 -0.35220492 0.51131105 4293400320
3.3728938 -0.35224664 0.52150893 4293400320
3.3636761 -0.35117915 0.5294407 4293400320
3.3582649 -0.3505097 0.53731579 4293400320
3.3641958 -0.35102493 0.54637825 4293400320
3.3670287 -0.35121614 0.55432075 4293400320
3.3614309 -0.35052702 0.56022322 4293400320
3.3585849 -0.35012519 0.56591111 4293400320
3.3586965 -0.35003182 0.57142812 4293400320
3.3481102 -0.34882271 0.5744403 4293400320
3.3479202 -0.34869781 0.57854384 4293400320
3.3571568 -0.34955516 0.58360326 4293400320
3.3469036 -0.34838113 0.58459073 4293400320
3.3563635 -0.34926078 0.58832687 4293400320
3.3512411 -0.34862122 0.58881861 4293400320
3.3423166 -0.34758607 0.58794415 4293400320
3.3560443 -0.34890836 0.59035546 4293400320
3.3507905 -0.34825504 0.58873469 4293400320
3.3598397 -0.34908924 0.58892757 4293400320
3.3620622 -0.34921294 0.58722502 4293400320
3.3523507 -0.34809595 0.58275408 4293400320
3.3606944 -0.34885532 0.58073205 4293400320
3.3647661 -0.34917021 0.57727516 4293400320
3.3664739 -0.34923917 0.57272679 4293400320
3.3707695 -0.34957641 0.56793612 4293400320
3.3640161 -0.34876665 0.56062466 4293400320
3.3651161 -0.34877181 0.55397451 4293400320
3.3554151 -0.34765658 0.54491931 4293400320
3.3483806 -0.34681824 0.53569937 4293400320
3.3406639 -0.34590945 0.52578324 4293269760
3.3545327 -0.34723741 0.51863188 4293400320
3.3839259 -0.35017216 0.51315129 4293400320
3.3725359 -0.34888205 0.50084609 4293400320
3.3598125 -0.34745452 0.48784238 4293400320
3.3316102 -0.34382632 0.39985526 4293269760
3.3592911 -0.34657437 0.38824898 4293269760
3.3610017 -0.34663951 0.37307394 4293269760
3.0741391 -0.31692454 0.32681739 4292355840
2.7326882 -0.28159699 0.27738783 4291180800
2.6613591 -0.27414981 0.25702658 4290919680
2.6417038 -0.2720347 0.24181138 4290789120
2.5868211 -0.26629016 0.22348654 4290658560
2.561219 -0.26356602 0.20785393 4290528000
2.5713863 -0.26452765 0.19496737 4290658560
2.5535419 -0.2626043 0.1797853 4290528000
2.5354445 -0.26065606 0.16458099 4290528000
2.5085554 -0.25780436 0.14887264 4290397440
2.504571 -0.25731045 0.13452703 4290397440
2.4943118 -0.25617149 0.11977586 4290266880
2.4615643 -0.25272152 0.10406002 4290266880
2.4478099 -0.25122547 0.089296252 4290136320
2.4336686 -0.24969055 0.074580155 4290136320
2.4247229 -0.24869013 0.060073387 4290136320
2.3878314 -0.24482132 0.045078412 4290005760
2.4440472 -0.25051042 0.031664662 4290136320
2.4457371 -0.25060165 0.017168963 4290136320
2.4509969 -0.25105888 0.0026345013 4290136320
2.4637673 -0.25228581 -0.012006248 4290266880
2.4983974 -0.25575238 -0.027027693 4290397440
2.5263913 -0.2585367 -0.042323235 4290397440
2.5319717 -0.25902337 -0.057398934 4290397440
2.5639629 -0.26221398 -0.073238485 4290528000
2.5925527 -0.26505432 -0.089261502 4290658560
2.6184947 -0.26762182 -0.10541936 4290789120
2.5865693 -0.26426819 -0.11910076 4290658560
2.6381316 -0.26945412 -0.13661668 4290789120
2.6562023 -0.27121294 -0.15265077 4290919680
2.695976 -0.27518848 -0.17009735 4291050240
2.6433735 -0.2697244 -0.18146227 4290789120
2.7330265 -0.27879173 -0.20260324 4291180800
2.7758138 -0.28306854 -0.22077332 4291311360
2.8344169 -0.2889567 -0.24050657 4291441920
2.9564857 -0.30131614 -0.26631576 4291964160
3.1572065 -0.32168934 -0.30058903 4292616960
3.2931051 -0.3354401 -0.33007368 4293008640
3.3175659 -0.3378236 -0.34882933 4293139200
3.3289704 -0.33887532 -0.36600491 4293139200
3.324414 -0.33830062 -0.38105679 4293139200
3.2629437 -0.33193108 -0.38886344 4293008640
3.3477094 -0.34045145 -0.41376358 4293269760
3.3564219 -0.34122723 -0.42921621 4293269760
3.3650353 -0.3419925 -0.44425133 4293400320
3.3560665 -0.34096935 -0.456469 4293269760
3.3328962 -0.33850327 -0.46611902 4293269760
3.3157647 -0.33665255 -0.47593775 4293139200
3.3341081 -0.33840716 -0.49031347 4293269760
3.324981 -0.33737081 -0.50012928 4293269760
3.3314517 -0.33791888 -0.51171428 4293269760
3.3326247 -0.33792901 -0.52192813 4293269760
3.344002 -0.3389746 -0.53318101 4293269760
3.3389096 -0.3383491 -0.5412178 4293269760
3.3306246 -0.33740041 -0.54808354 4293269760
3.323997 -0.33662042 -0.55455756 4293269760
3.3033791 -0.33442339 -0.55800205 4293139200
3.3077574 -0.33476007 -0.56499094 4293269760
3.2992771 -0.33379444 -0.56912559 4293139200
3.2995989 -0.33372071 -0.57410681 4293139200
3.2592282 -0.3295289 -0.57129246 4293008640
3.2733388 -0.33085188 -0.57732791 4293139200
3.2205575 -0.32540867 -0.57086587 4292878080
3.2152967 -0.32477382 -0.57211316 4292878080
3.2722366 -0.33042648 -0.58378536 4293139200
3.2672009 -0.32981348 -0.58374912 4293139200
3.2720773 -0.33020222 -0.58480394 4293139200
3.2922251 -0.33213302 -0.58790517 4293139200
3.2962053 -0.33243063 -0.58743173 4293139200
3.2991958 -0.33262834 -0.58609623 4293269760
3.3089554 -0.33350897 -0.58527315 4293269760
3.3152802 -0.33404276 -0.58314967 4293269760
3.3252926 -0.33494821 -0.58098066 4293269760
3.3232582 -0.33463898 -0.57602519 4293269760
3.3278646 -0.33499926 -0.57155001 4293269760
3.3307793 -0.33518901 -0.56611168 4293269760
3.3235116 -0.33435345 -0.55829936 4293269760
3.3223703 -0.33413526 -0.55089033 4293269760
3.3187158 -0.33366445 -0.54244304 4293269760
3.3125398 -0.33294037 -0.53298622 4293269760
3.2947021 -0.33104399 -0.52110821 4293139200
3.2922332 -0.33069414 -0.51112229 4293139200
3.3080983 -0.33218744 -0.50335908 4293139200
3.3221796 -0.33350068 -0.49465823 4293269760
3.3238163 -0.33356318 -0.48349321 4293269760
3.3244557 -0.3335256 -0.47162956 4293269760
3.2806005 -0.32902128 -0.45308548 4293008640
3.294811 -0.3303473 -0.44216165 4293139200
3.3030541 -0.33107391 -0.4298535 4293139200
3.299861 -0.3306531 -0.41555786 4293139200
3.1288345 -0.31340414 -0.38042074 4292486400
2.8942182 -0.28979149 -0.33892411 4291703040
2.7852697 -0.27878621 -0.31332341 4291311360
2.7503512 -0.27520385 -0.2963739 4291180800
2.7455394 -0.2746388 -0.28253266 4291180800
2.6558201 -0.26557338 -0.26011226 4290919680
2.6427534 -0.26418546 -0.24542889 4290919680
2.6562147 -0.26545274 -0.23294 4290919680
2.6289711 -0.26264769 -0.21670228 4290789120
2.5749085 -0.25716248 -0.19845232 4290658560
2.5785367 -0.25744787 -0.18470715 4290658560
2.5747032 -0.2569873 -0.17023093 4290658560
2.5553286 -0.25497442 -0.15467438 4290528000
2.4934986 -0.24872239 -0.13683926 4290266880
2.4959948 -0.24889693 -0.1227276 4290397440
2.4819665 -0.24742194 -0.10773998 4290266880
2.49016 -0.24816526 -0.093638703 4290266880
2.4240317 -0.24149397 -0.076979734 4290136320
2.4353139 -0.24254662 -0.063024715 4290136320
2.4306738 -0.24201123 -0.048553526 4290136320
2.4130769 -0.24018472 -0.033905648 4290005760
2.4027882 -0.23908745 -0.019493528 4290005760
2.4265919 -0.24138673 -0.0052631698 4290136320
2.4543099 -0.24407434 0.0092662815 4290136320
2.4709451 -0.24565704 0.024004363 4290266880
2.4863803 -0.24711931 0.038891241 4290266880
2.5223348 -0.25062206 0.054355036 4290397440
2.5357561 -0.25188154 0.069563918 4290397440
2.5369704 -0.25192645 0.084445916 4290528000
2.5564291 -0.25378475 0.099958181 4290528000
2.5933099 -0.25737309 0.11636338 4290658560
2.6008747 -0.25804693 0.13158189 4290658560
2.5711219 -0.25501427 0.14464426 4290528000
2.6436589 -0.26213863 0.16352586 4290789120
2.6700494 -0.2646786 0.17992784 4290919680
2.7118256 -0.26874346 0.19753791 4291050240
2.9184768 -0.28915966 0.2282566 4291833600
3.312912 -0.32818398 0.2765815 4293139200
3.3736265 -0.33410287 0.2991696 4293269760
3.3778646 -0.33442122 0.31675687 4293400320
3.3492851 -0.33148798 0.33079371 4293269760
3.2438183 -0.32094151 0.33621621 4292878080
3.3936138 -0.33567452 0.36788779 4293400320
3.3812542 -0.33434847 0.38223913 4293400320
3.3731582 -0.33344489 0.39654583 4293400320
3.3498642 -0.33103833 0.40847963 4293269760
3.3283405 -0.32880807 0.41997182 4293269760
3.3748751 -0.33330706 0.4396646 4293400320
3.3864968 -0.3343527 0.4545477 4293400320
3.3840561 -0.33400819 0.46706146 4293400320
3.3852985 -0.33402741 0.47954258 4293400320
3.3634927 -0.33177069 0.48813906 4293400320
3.3597324 -0.33129632 0.49870142 4293400320
3.364639 -0.33167723 0.50997597 4293400320
3.3827627 -0.33336136 0.52273053 4293400320
3.3705826 -0.3320559 0.5302195 4293400320
3.3690968 -0.33180526 0.53873509 4293400320
3.3661852 -0.33141398 0.54638433 4293400320
3.3641086 -0.33110496 0.55351961 4293400320
3.3634174 -0.33093232 0.5602293 4293400320
3.356643 -0.33016059 0.56525666 4293400320
3.3508673 -0.32948732 0.56976706 4293400320
3.3549919 -0.32978839 0.57528681 4293400320
3.3459728 -0.32879609 0.57787287 4293400320
3.3454082 -0.32863551 0.58122593 4293400320
3.3449554 -0.32848576 0.58391267 4293400320
3.3583426 -0.32969585 0.58833295 4293400320
3.344393 -0.32821935 0.58727658 4293400320
3.3442862 -0.32810301 0.58795023 4293400320
3.3442965 -0.32799789 0.58795053 4293400320
3.347862 -0.3282415 0.58788073 4293400320
3.36672 -0.32998502 0.58979183 4293400320
3.3591383 -0.32913393 0.58637601 4293400320
3.36413 -0.32951593 0.58446258 4293400320
3.3695495 -0.32993928 0.58192515 4293400320
3.3618393 -0.3290756 0.57644087 4293400320
3.3645277 -0.32923073 0.57206607 4293400320
3.3689456 -0.32955486 0.56730217 4293400320
3.3767073 -0.3302058 0.56241405 4293400320
3.3670921 -0.32915562 0.55398065 4293400320
3.3524723 -0.3276163 0.54412872 4293400320
3.3459213 -0.32686678 0.5349986 4293269760
3.3327909 -0.32547429 0.52424395 4293269760
3.3702724 -0.32902843 0.52076417 4293400320
3.3859103 -0.33044603 0.51315743 4293400320
3.3745127 -0.3292222 0.50085223 4293400320
3.3568561 -0.32738787 0.4871344 4293400320
3.3197067 -0.32321808 0.39820328 4293139200
3.35234 -0.32628751 0.38722733 4293269760
3.3335102 -0.32434234 0.36981562 4293269760
2.8858819 -0.28064957 0.30665135 4291703040
2.672164 -0.25975266 0.27109727 4290919680
2.6526949 -0.25776944 0.25604409 4290919680
2.6333218 -0.25579676 0.24090634 4290789120
2.5883188 -0.25133333 0.2234862 4290658560
2.5577412 -0.24827486 0.20745108 4290528000
2.557987 -0.24821326 0.19383909 4290528000
2.5616214 -0.24848071 0.1802462 4290528000
2.5418773 -0.24647789 0.16489889 4290528000
2.510006 -0.24329925 0.14886814 4290397440
2.5109882 -0.24331044 0.13478786 4290397440
2.495753 -0.24174848 0.11976965 4290266880
2.466964 -0.2388733 0.10422063 4290266880
2.4402714 -0.23620322 0.088963024 4290136320
2.4350734 -0.23561761 0.074571535 4290136320
2.4190369 -0.23398249 0.059889246 4290005760
2.3781085 -0.22993822 0.044859987 4289875200
2.416594 -0.23358342 0.031282526 4290005760
2.4277365 -0.23458032 0.017022571 4290136320
2.4493225 -0.23658663 0.0026186251 4290136320
2.442553 -0.23584972 -0.011907779 4290136320
2.4654963 -0.23798528 -0.026668308 4290266880
2.5039599 -0.24161895 -0.041937079 4290397440
2.5005896 -0.24120924 -0.056668866 4290397440
2.5365832 -0.24460068 -0.07243003 4290397440
2.579617 -0.24866928 -0.08878231 4290658560
2.6011024 -0.25065577 -0.10467684 4290658560
2.5681682 -0.2473917 -0.11820377 4290528000
2.6058478 -0.25093874 -0.13488589 4290658560
2.6428201 -0.25441509 -0.15181482 4290789120
2.6498377 -0.25500271 -0.16711003 4290919680
2.6111245 -0.25118494 -0.179166 4290789120
2.707056 -0.26033479 -0.20058487 4291050240
2.7347353 -0.26290852 -0.21740367 4291180800
2.7547805 -0.26474592 -0.23363709 4291180800
2.7786226 -0.2669473 -0.25017112 4291311360
2.9573796 -0.28404325 -0.28142524 4291964160
3.234329 -0.31056592 -0.32402465 4292878080
3.3105521 -0.31778249 -0.34792203 4293139200
3.3308725 -0.3196243 -0.36603418 4293139200
3.3263128 -0.31907582 -0.38108587 4293139200
3.2697492 -0.3135359 -0.3894805 4293008640
3.3585119 -0.32194498 -0.4148908 4293269760
3.3567603 -0.32166579 -0.42904308 4293269760
3.3482022 -0.32073423 -0.44180489 4293269760
3.3579798 -0.32156098 -0.4564963 4293269760
3.3397255 -0.31970111 -0.46683455 4293269760
3.3301141 -0.31867054 -0.47775084 4293269760
3.3212326 -0.31771064 -0.48816675 4293269760
3.326874 -0.31814176 -0.50015306 4293269760
3.3325639 -0.31857732 -0.51161665 4293269760
3.3345213 -0.31865561 -0.52194977 4293269760
3.3223085 -0.31737891 -0.52944148 4293269760
3.3266172 -0.31768259 -0.53893787 4293269760
3.3325186 -0.31813839 -0.54810107 4293269760
3.3170485 -0.31655237 -0.55309993 4293269760
3.3101654 -0.31578758 -0.55884492 4293269760
3.3194513 -0.31656706 -0.56667876 4293269760
3.2924728 -0.3138853 -0.56764024 4293139200
3.2965691 -0.31417006 -0.57326293 4293139200
3.27579 -0.31208241 -0.57387608 4293139200
3.275198 -0.31192091 -0.57733274 4293139200
3.2125828 -0.30584848 -0.56913191 4292878080
3.2171226 -0.30617839 -0.57211369 4292878080
3.287817 -0.31280893 -0.5862301 4293139200
3.2690556 -0.31091809 -0.583745 4293139200
3.2690341 -0.31081226 -0.58392215 4293139200
3.2940938 -0.31309307 -0.58789605 4293139200
3.2882738 -0.31243539 -0.58567435 4293139200
3.3108714 -0.31448033 -0.58782214 4293269760
3.3059309 -0.31390652 -0.58438957 4293269760
3.3122582 -0.31440392 -0.58226794 4293269760
3.3271794 -0.31571746 -0.58095783 4293269760
3.3251436 -0.31542006 -0.5759995 4293269760
3.3258274 -0.3153812 -0.57084769 4293269760
3.3277607 -0.31546107 -0.5652464 4293269760
3.3204873 -0.31466761 -0.55744052 4293269760
3.3193433 -0.31445611 -0.55003881 4293269760
3.3232014 -0.31471911 -0.54282749 4293269760
3.3095031 -0.31331819 -0.53215212 4293139200
3.2966557 -0.31199893 -0.52107501 4293139200
3.2891803 -0.31118947 -0.51030934 4293139200
3.3237541 -0.31436184 -0.50540119 4293269760
3.3339105 -0.31522116 -0.49606693 4293269760
3.3355527 -0.31527451 -0.48486564 4293269760
3.317467 -0.31346187 -0.47030884 4293139200
3.2923214 -0.31098297 -0.45438141 4293139200
3.2877955 -0.31045485 -0.44090196 4293139200
3.2950509 -0.31104046 -0.42849758 4293139200
3.2444336 -0.30615881 -0.40827277 4292878080
2.9375887 -0.27708325 -0.35689551 4291833600
2.7948611 -0.26352003 -0.32703447 4291441920
2.7339828 -0.2576901 -0.30730996 4291180800
2.7236347 -0.25663126 -0.29325697 4291180800
2.7094555 -0.2552118 -0.27858752 4291050240
2.6480114 -0.24933694 -0.25912645 4290919680
2.6254096 -0.24712694 -0.24360418 4290789120
2.6239917 -0.24691445 -0.22990541 4290789120
2.6066399 -0.24520122 -0.21466003 4290658560
2.552536 -0.24002834 -0.19653638 4290528000
2.5611215 -0.24076004 -0.18327342 4290528000
2.5523105 -0.2398542 -0.16857067 4290528000
2.5391378 -0.23853864 -0.153522 4290528000
2.4936259 -0.23418254 -0.13668397 4290266880
2.4735322 -0.23221892 -0.12146737 4290266880
2.4639635 -0.23124576 -0.10681001 4290266880
2.4591522 -0.23072016 -0.092330322 4290136320
2.4015093 -0.22523265 -0.076132387 4290005760
2.4177692 -0.22668777 -0.062444713 4290005760
2.4120042 -0.22607456 -0.048061654 4290005760
2.4078984 -0.22561742 -0.033722054 4290005760
2.4028373 -0.22507088 -0.019390777 4290005760
2.4319315 -0.22772765 -0.0051780287 4290136320
2.4678311 -0.23102069 0.009407335 4290266880
2.4673471 -0.23090179 0.024053341 4290266880
2.4877677 -0.23274145 0.038989455 4290266880
2.5237412 -0.23603649 0.054455101 4290397440
2.5411501 -0.23759122 0.069773756 4290528000
2.538383 -0.23725644 0.08454708 4290528000
2.5668054 -0.23984018 0.10040955 4290528000
2.599725 -0.24284282 0.11668953 4290658560
2.6023195 -0.24300779 0.13168545 4290658560
2.5636022 -0.2393108 0.14424394 4290528000
2.6527224 -0.24756235 0.16409948 4290919680
2.6701281 -0.24910901 0.17993854 4290919680
2.6825554 -0.25018963 0.19540586 4290919680
2.7504983 -0.25645235 0.21512505 4291180800
3.1897898 -0.29736862 0.26629001 4292747520
3.3493567 -0.31216031 0.2969828 4293269760
3.3747742 -0.31443036 0.31641906 4293269760
3.3511348 -0.3121247 0.33091733 4293269760
3.2555132 -0.30311096 0.33735928 4292878080
3.3855865 -0.31513286 0.36693704 4293400320
3.373224 -0.3138791 0.38124028 4293400320
3.3750174 -0.31394407 0.39666137 4293400320
3.3467674 -0.31121215 0.4079898 4293269760
3.3153541 -0.3081874 0.4182128 4293139200
3.3717959 -0.31333733 0.43912923 4293400320
3.3883605 -0.31477523 0.45465192 4293400320
3.3908501 -0.31490347 0.46784213 4293400320
3.3773007 -0.31354076 0.47824487 4293400320
3.3653424 -0.31232649 0.48823202 4293400320
3.3517292 -0.3109591 0.4973301 4293269760
3.37535 -0.31304935 0.51140255 4293400320
3.3797011 -0.31334946 0.52205253 4293400320
3.3724351 -0.3125712 0.53029633 4293400320
3.375315 -0.31273428 0.53950483 4293400320
3.3680351 -0.31195495 0.54645205 4293400320
3.3659575 -0.31165802 0.55358249 4293400320
3.3652661 -0.31148952 0.56028736 4293400320
3.3722367 -0.31203055 0.56762195 4293400320
3.3527093 -0.31011727 0.56981486 4293400320
3.3617442 -0.31084892 0.57616991 4293400320
3.3478124 -0.30945456 0.57791007 4293400320
3.3511727 -0.3096604 0.58193868 4293400320
3.3556249 -0.3099668 0.58547825 4293400320
3.3650951 -0.31073654 0.58921176 4293400320
3.350157 -0.30924994 0.58797956 4293400320
3.3461268 -0.3087717 0.58795935 4293400320
3.3461375 -0.30866665 0.58795381 4293400320
3.3497052 -0.30888975 0.58787805 4293400320
3.35484 -0.309257 0.58738041 4293400320
3.3560832 -0.30926466 0.58550608 4293400320
3.3659837 -0.31007043 0.58444166 4293400320
3.3714066 -0.31046253 0.58189791 4293400320
3.3587842 -0.30919114 0.57556719 4293400320
3.3703098 -0.3101449 0.57269329 4293400320
3.3746099 -0.31043229 0.56789631 4293400320
3.3785696 -0.31068787 0.56236172 4293400320
3.3738632 -0.31014547 0.55472946 4293400320
3.3572743 -0.30851007 0.54454285 4293400320
3.3482604 -0.30757213 0.53500682 4293269760
3.33463 -0.30621016 0.52416754 4293269760
3.3632739 -0.3087337 0.51931411 4293400320
3.3789165 -0.31006086 0.51172638 4293400320
3.3665235 -0.30881229 0.49929655 4293400320
3.3636365 -0.30843696 0.48774695 4293400320
3.3116765 -0.30263636 0.39702529 4293139200
3.3354182 -0.30469784 0.38506734 4293269760
3.1829386 -0.2906476 0.35294029 4292747520
2.7582645 -0.25173244 0.29295292 4291311360
2.6498775 -0.24173921 0.26869988 4290919680
2.6492202 -0.24159095 0.25557873 4290919680
2.6374149 -0.24042498 0.24115945 4290789120
2.5897636 -0.23598865 0.22350121 4290658560
2.5641315 -0.23356399 0.20786928 4290528000
2.5743096 -0.23440637 0.19498363 4290658560
2.5514767 -0.23223895 0.17945354 4290528000
2.5293806 -0.23014013 0.16401979 4290397440
2.5014629 -0.22751246 0.14830282 4290397440
2.5024424 -0.22751777 0.13428004 4290397440
2.4971428 -0.22695145 0.11979591 4290266880
2.4643574 -0.22388463 0.10408067 4290266880
2.4416294 -0.22173473 0.088992134 4290136320
2.4364283 -0.2211798 0.074602284 4290136320
2.4180689 -0.21942933 0.059864432 4290005760
2.3776622 -0.21567705 0.04486011 4289875200
2.4020078 -0.21780811 0.031113176 4290005760
2.4151437 -0.21891984 0.016963175 4290005760
2.4267819 -0.21989478 0.0026339332 4290136320
2.4200087 -0.2191987 -0.011749117 4290005760
2.4579034 -0.22255372 -0.026528293 4290136320
2.4764733 -0.2241544 -0.041407395 4290266880
2.4780827 -0.22421694 -0.0560803 4290266880
2.5140996 -0.22739612 -0.071698897 4290397440
2.5422313 -0.22985891 -0.087395117 4290528000
2.5637364 -0.23172003 -0.10306238 4290528000
2.5367627 -0.2291933 -0.11663979 4290397440
2.5834236 -0.23332854 -0.13359573 4290658560
2.6166642 -0.23624727 -0.15017188 4290789120
2.6303477 -0.23739627 -0.16573094 4290789120
2.5797839 -0.23273979 -0.17685924 4290658560
2.6807473 -0.2417718 -0.19846453 4290919680
2.7168329 -0.24493992 -0.21579878 4291050240
2.7275286 -0.24581434 -0.23113464 4291180800
2.7186613 -0.24492328 -0.24457301 4291050240
2.6694207 -0.24039204 -0.25381494 4290919680
3.0474241 -0.2743789 -0.30505735 4292225280
3.2361145 -0.29128101 -0.33983466 4292878080
3.2999609 -0.29692468 -0.3623597 4293139200
3.3143027 -0.29810646 -0.37942311 4293139200
3.2666159 -0.29370403 -0.38881695 4293008640
3.3603728 -0.30203211 -0.4148145 4293269760
3.3497274 -0.30096337 -0.42783189 4293269760
3.3549938 -0.30132619 -0.44238168 4293269760
3.3549037 -0.30120739 -0.45575258 4293269760
3.3366416 -0.299456 -0.46607402 4293269760
3.3270266 -0.29848269 -0.47697431 4293269760
3.3230696 -0.2980181 -0.48809889 4293269760
3.3313231 -0.29864991 -0.50047904 4293269760
3.3344057 -0.29881743 -0.51155263 4293269760
3.3314426 -0.29844272 -0.52111828 4293269760
3.3339798 -0.29856151 -0.53094888 4293269760
3.3279028 -0.29790834 -0.53879231 4293269760
3.3255105 -0.29758584 -0.54659349 4293269760
3.318877 -0.29688394 -0.5530495 4293269760
3.3119891 -0.29615986 -0.55879784 4293269760
3.3114595 -0.29600546 -0.56495988 4293269760
3.2756329 -0.29269367 -0.56438708 4293139200
3.2885675 -0.29374498 -0.57152134 4293139200
3.27759 -0.29265806 -0.57384408 4293139200
3.285826 -0.29328898 -0.5788601 4293139200
3.2765136 -0.29235202 -0.58011436 4293139200
3.2139826 -0.28666359 -0.5712232 4292878080
3.213732 -0.28653887 -0.57269382 4292878080
3.2757485 -0.29197076 -0.58460993 4293139200
3.2659187 -0.29099005 -0.58304167 4293139200
3.2958941 -0.29355964 -0.58789587 4293139200
3.2851655 -0.29249924 -0.58480644 4293139200
3.3077734 -0.29441032 -0.58696228 4293269760
3.3028281 -0.2938658 -0.58353877 4293139200
3.3140621 -0.29476255 -0.58228922 4293269760
3.3240831 -0.29555082 -0.58012867 4293269760
3.3171356 -0.2948288 -0.57433301 4293269760
3.3315613 -0.29600862 -0.57156008 4293269760
3.3295667 -0.29572764 -0.56529111 4293269760
3.3173754 -0.29454064 -0.55666697 4293269760
3.3211417 -0.29477254 -0.55009562 4293269760
3.3063204 -0.29335335 -0.53984076 4293139200
3.3099601 -0.29357454 -0.53200686 4293139200
3.2935176 -0.29201314 -0.52037269 4293139200
3.2909567 -0.29168469 -0.51039028 4293139200
3.3206236 -0.29421535 -0.50474095 4293269760
3.3307817 -0.29501447 -0.49542895 4293269760
3.3235488 -0.29427156 -0.48296139 4293269760
3.3093905 -0.29291558 -0.46901807 4293139200
3.2802782 -0.29023597 -0.45258775 4293008640
3.2510581 -0.28754875 -0.43585816 4293008640
3.2124565 -0.28403303 -0.41765398 4292878080
3.0053129 -0.26560524 -0.37809795 4292094720
2.8061178 -0.24789324 -0.34085578 4291441920
2.7097578 -0.23928726 -0.31702319 4291050240
2.7077327 -0.23902649 -0.30431834 4291050240
2.7013259 -0.23837876 -0.29082578 4291050240
2.6834216 -0.23671581 -0.27589327 4291050240
2.6058095 -0.22978118 -0.25499082 4290789120
2.6030123 -0.22945605 -0.24153194 4290658560
2.5966208 -0.22881398 -0.22752446 4290658560
2.5836554 -0.22759239 -0.21279581 4290658560
2.5201356 -0.22191323 -0.19408026 4290397440
