# .PCD v0.7 - Point Cloud Data file format
VERSION 0.7
FIELDS x y z rgba
SIZE 4 4 4 4
TYPE F F F U
COUNT 1 1 1 1
WIDTH 1131
HEIGHT 1
VIEWPOINT 0 0 0 1 0 0 0
POINTS 1131
DATA ascii
3.0989053 1.4120722 -0.12626562 4293400320
3.0536613 1.3915677 -0.10491002 4293269760
3.0753081 1.4015191 -0.085895829 4293400320
3.1020663 1.4137994 -0.066623822 4293400320
3.1093605 1.4172171 -0.04664455 4293530880
3.0900304 1.4085094 -0.026295776 4293400320
3.1054976 1.4156498 -0.00624539 4293400320
3.118825 1.4218163 0.013999684 4293530880
3.1177251 1.4214116 0.034241766 4293530880
3.1193447 1.4222457 0.054476395 4293530880
3.1474512 1.4351475 0.075301312 4293661440
3.1446869 1.4339855 0.095468864 4293661440
3.1401627 1.4320214 0.11542968 4293530880
3.1292393 1.4271412 0.13492902 4293530880
3.1396804 1.4319967 0.15519448 4293661440
3.1371295 1.4309319 0.17469697 4293530880
3.0866508 1.4080224 0.19101311 4293400320
3.1473234 1.4357746 0.21404463 4293661440
3.1483111 1.4363234 0.23316357 4293661440
3.1408849 1.433037 0.25136369 4293661440
3.0910692 1.4104247 0.26556009 4293400320
3.1504433 1.4375937 0.28888109 4293661440
3.1611211 1.4425626 0.30782503 4293661440
3.1607671 1.4425019 0.3254118 4293661440
3.1353714 1.4310218 0.3399196 4293661440
3.039778 1.3875253 0.34579644 4293269760
3.1525345 1.4390519 0.37503833 4293661440
3.1570351 1.4412071 0.39160383 4293661440
3.1442039 1.4354568 0.40554017 4293661440
3.110626 1.4202415 0.4161213 4293530880
3.0800731 1.4064046 0.42633322 4293400320
3.1438057 1.4355856 0.44924334 4293661440
3.1496682 1.4383652 0.46369168 4293792000
3.1576214 1.4420998 0.47797707 4293792000
3.146147 1.4369695 0.48876524 4293792000
3.1361287 1.4325036 0.49913546 4293661440
3.087785 1.4105445 0.50262493 4293530880
3.1473939 1.4378599 0.52312165 4293792000
3.1468 1.4376972 0.53321958 4293792000
3.1497891 1.4391708 0.54331428 4293792000
3.1505682 1.4396365 0.55240935 4293792000
3.1494102 1.4392183 0.56052238 4293792000
3.1424248 1.4361397 0.56692648 4293792000
3.1333008 1.4320847 0.57224655 4293661440
3.1112423 1.4221225 0.5744732 4293661440
3.1318929 1.4316667 0.58389962 4293661440
3.1277769 1.4299002 0.58805889 4293661440
3.1235075 1.428064 0.59148711 4293661440
3.1309927 1.4315984 0.59644735 4293792000
3.1145229 1.4241893 0.59614044 4293661440
3.1231132 1.4282305 0.59991574 4293661440
3.1183708 1.4261804 0.60042959 4293661440
3.1182168 1.4262277 0.60111696 4293661440
3.1171377 1.425853 0.60091817 4293661440
3.1216815 1.4280491 0.60109359 4293661440
3.1332479 1.4334565 0.601906 4293792000
3.1330879 1.4335047 0.59975386 4293792000
3.1379569 1.4358529 0.59785366 4293792000
3.1428275 1.4382031 0.59524089 4293792000
3.1484492 1.4408978 0.59205776 4293792000
3.1365268 1.4355705 0.58489454 4293792000
3.143316 1.4388011 0.58053863 4293792000
3.1398566 1.4373449 0.57360655 4293792000
3.1399999 1.4375374 0.56666815 4293792000
3.1410532 1.4381469 0.55922967 4293792000
3.1255026 1.4311607 0.54822439 4293661440
3.1225142 1.4299217 0.53883255 4293661440
3.1322608 1.4345109 0.53099 4293661440
3.1494761 1.4425195 0.5237121 4293792000
3.1388822 1.4378023 0.5111894 4293661440
3.1313131 1.4344695 0.49863318 4293661440
3.1027002 1.4222271 0.40865129 4293530880
3.1342058 1.4367927 0.39756766 4293661440
3.1486614 1.4435509 0.38364896 4293661440
3.122215 1.4315723 0.36438283 4293530880
3.1006005 1.4218059 0.34551993 4293530880
3.1230135 1.4322121 0.33116317 4293530880
3.1328318 1.4368491 0.31492648 4293661440
3.1143208 1.4285038 0.2955431 4293530880
3.0888541 1.4169688 0.27542058 4293400320
3.119247 1.4310381 0.25993446 4293530880
3.1252148 1.4339129 0.24191363 4293530880
3.134346 1.4382389 0.22377805 4293661440
3.096004 1.4207978 0.20218761 4293400320
3.1237228 1.4336478 0.18474275 4293530880
3.1327381 1.4379225 0.16576114 4293530880
3.128479 1.4361095 0.14586441 4293530880
3.090421 1.4187926 0.12449999 4293400320
3.1038823 1.4251072 0.10522252 4293530880
3.0991406 1.4230716 0.085155569 4293400320
3.1022241 1.4246262 0.065216929 4293400320
3.0719216 1.4108607 0.044680223 4293400320
3.0922675 1.4203368 0.024887754 4293400320
3.0937202 1.4211433 0.0047714883 4293400320
3.0591028 1.4053926 -0.015192059 4293269760
3.0823467 1.4162015 -0.035360835 4293400320
3.0878203 1.4188538 -0.05547788 4293400320
3.0972469 1.4233215 -0.075707562 4293400320
3.0717881 1.4117702 -0.094902471 4293400320
3.1083612 1.4287051 -0.11598966 4293530880
3.107378 1.4283936 -0.13578136 4293530880
3.1111956 1.430287 -0.15565866 4293530880
3.0812008 1.4166476 -0.17351469 4293400320
3.0867794 1.4193487 -0.193038 4293400320
3.0930119 1.4223508 -0.21247004 4293400320
3.0846384 1.4186412 -0.23065892 4293400320
3.0803688 1.4168168 -0.24883118 4293400320
3.1038036 1.427725 -0.26908752 4293530880
3.1120532 1.4316548 -0.28792331 4293530880
3.1016519 1.4270114 -0.30471003 4293530880
3.0560462 1.4061816 -0.31739119 4293400320
3.0942738 1.423893 -0.33838856 4293530880
3.1083815 1.4305161 -0.35666406 4293530880
3.1014616 1.4274702 -0.37217492 4293530880
3.0945716 1.4244368 -0.38720801 4293530880
3.026206 1.3931258 -0.39374512 4293269760
3.1270421 1.4396424 -0.42200866 4293661440
3.1274731 1.439976 -0.43674323 4293661440
3.1310709 1.4417659 -0.45145133 4293661440
3.1211102 1.4373168 -0.46367234 4293661440
3.1067536 1.4308435 -0.47461608 4293530880
3.108243 1.431661 -0.48739183 4293661440
3.1090364 1.4321578 -0.49951732 4293661440
3.1221774 1.4383376 -0.51311231 4293661440
3.1109273 1.4332895 -0.5221256 4293661440
3.1163211 1.4359025 -0.5333162 4293661440
3.1095829 1.4329294 -0.54181892 4293661440
3.106986 1.4318619 -0.55039471 4293661440
3.1160963 1.4361849 -0.56042987 4293661440
3.0984147 1.4281689 -0.56498355 4293661440
3.0852396 1.4222263 -0.56963378 4293530880
3.0683763 1.4145831 -0.57288074 4293530880
3.0604503 1.4110548 -0.57708412 4293530880
3.0493789 1.4060762 -0.57999337 4293400320
3.0567265 1.4095826 -0.58572519 4293530880
2.9958427 1.3816482 -0.57764226 4293269760
3.0087662 1.3877211 -0.58305663 4293269760
3.0083745 1.3876576 -0.58522516 4293269760
3.0080881 1.387642 -0.58673251 4293269760
3.0123792 1.3897357 -0.58845037 4293269760
3.0510945 1.407698 -0.59621006 4293400320
3.0511293 1.4078298 -0.59572041 4293400320
3.0651066 1.4143893 -0.59725308 4293530880
3.0687978 1.416206 -0.59607863 4293530880
3.0850029 1.423793 -0.59662479 4293530880
3.0930655 1.4276252 -0.59488022 4293661440
3.0994558 1.430686 -0.59210604 4293661440
3.1093943 1.4353831 -0.5892989 4293661440
3.1074102 1.4345806 -0.58353776 4293661440
3.1104724 1.436105 -0.57804596 4293661440
3.1084554 1.4352856 -0.57094067 4293661440
3.11357 1.4377558 -0.56447858 4293661440
3.1081049 1.435344 -0.55545062 4293661440
3.0988557 1.4311849 -0.54514802 4293661440
3.0814166 1.4232448 -0.53285772 4293530880
3.0743172 1.4200749 -0.52182037 4293530880
3.0828719 1.4241292 -0.51283801 4293530880
3.1018798 1.4330087 -0.50491375 4293530880
3.1081119 1.4359912 -0.49424562 4293661440
3.1027491 1.4336205 -0.48117194 4293530880
3.0708866 1.4190137 -0.46359795 4293400320
3.0705521 1.418962 -0.45039392 4293400320
3.0768187 1.4219579 -0.43762618 4293530880
3.0867624 1.4266517 -0.42481819 4293530880
3.0787444 1.4230504 -0.40905666 4293530880
3.0623887 1.415597 -0.39185092 4293400320
3.0770831 1.4224842 -0.37818992 4293400320
3.0930605 1.4299644 -0.36411175 4293530880
3.0945022 1.4307305 -0.34783071 4293530880
3.058538 1.4142146 -0.32715064 4293400320
3.0550568 1.4127042 -0.30980217 4293400320
3.0734544 1.4213026 -0.29424974 4293400320
3.0799758 1.4244139 -0.27709809 4293400320
3.0520148 1.41159 -0.25666925 4293269760
3.0790648 1.4241878 -0.24059346 4293400320
3.0819311 1.4256096 -0.22218955 4293400320
3.0905349 1.4296832 -0.20389074 4293400320
3.0939088 1.4313397 -0.18495485 4293400320
3.0727234 1.4216429 -0.1644641 4293400320
3.0795209 1.4248815 -0.14538692 4293400320
3.0967169 1.4329278 -0.12649487 4293400320
3.0473163 1.4101826 -0.10495306 4293269760
3.0761669 1.423618 -0.08613079 4293400320
3.0937793 1.4318582 -0.066604078 4293400320
3.0975361 1.4336914 -0.046571665 4293400320
3.0772364 1.424399 -0.026237134 4293400320
3.101738 1.435827 -0.0062350384 4293530880
3.1126287 1.4409608 0.014029028 4293530880
3.0984912 1.4345174 0.03414226 4293400320
3.1155453 1.4425032 0.054575399 4293530880
3.1398826 1.4538594 0.075341523 4293661440
3.1408174 1.4543896 0.095626637 4293661440
3.1272333 1.4482018 0.11528286 4293530880
3.1254079 1.4474546 0.13514461 4293530880
3.138905 1.4537982 0.15559144 4293661440
3.136899 1.4529679 0.17517172 4293661440
3.0919883 1.4322798 0.19187486 4293400320
3.1343782 1.451998 0.21375626 4293661440
3.1444187 1.4567444 0.23351938 4293661440
3.1374638 1.4536241 0.25178277 4293661440
3.0909438 1.4321864 0.26628035 4293530880
3.1465378 1.4580245 0.28931642 4293661440
3.1608 1.4647287 0.3086386 4293792000
3.1523111 1.460899 0.32543191 4293661440
3.1486559 1.4593077 0.34229314 4293661440
3.0361574 1.4073083 0.34633002 4293269760
3.1522176 1.4611611 0.37602594 4293792000
3.1485865 1.4595819 0.39162394 4293661440
3.1390078 1.4552479 0.40597609 4293661440
3.1113076 1.4425187 0.41734818 4293661440
3.0754294 1.4259996 0.42685217 4293530880
3.1524858 1.4618039 0.4517107 4293792000
3.1512401 1.461332 0.46518716 4293792000
3.1572571 1.464226 0.47922397 4293792000
3.142215 1.4573618 0.4894844 4293792000
3.1073322 1.4413019 0.49590299 4293661440
3.0920811 1.4343394 0.50469369 4293530880
3.14345 1.4582566 0.52388859 4293792000
3.1424081 1.4578824 0.53392488 4293792000
3.1458337 1.4595799 0.54410881 4293792000
3.1385448 1.4563107 0.55179989 4293792000
3.1454508 1.4596237 0.56134093 4293792000
3.1295292 1.4523524 0.56613743 4293792000
3.1338549 1.4544702 0.5739041 4293792000
3.1243775 1.4501876 0.57846516 4293661440
3.1234999 1.4498936 0.58391958 4293661440
3.1158173 1.446444 0.58740509 4293661440
3.1365917 1.4561951 0.59557772 4293792000
3.1066487 1.4424199 0.59342289 4293661440
3.1106422 1.4443883 0.59701717 4293661440
3.1147401 1.4464062 0.59993565 4293661440
3.1100097 1.4443285 0.60044944 4293661440
3.1098554 1.4443749 0.60113686 4293661440
3.113246 1.4460673 0.60180086 4293661440
3.1133096 1.4462165 0.6011135 4293661440
3.1248443 1.4516912 0.60192597 4293792000
3.1112797 1.4455159 0.59720314 4293661440
3.129539 1.454115 0.59787363 4293792000
3.1343961 1.4564936 0.59526092 4293792000
3.1265917 1.452994 0.58955133 4293792000
3.14063 1.459638 0.58725351 4293792000
3.130409 1.4550174 0.57973117 4293792000
3.1439562 1.461436 0.57591921 4293792000
3.1315725 1.4558116 0.56668824 4293792000
3.1281459 1.4543478 0.55845124 4293792000
3.1171126 1.4493506 0.5482443 4293661440
3.1141315 1.4480944 0.53885251 4293661440
3.1363997 1.4585712 0.53314114 4293792000
3.1535733 1.4666829 0.52582353 4293792000
3.1430125 1.4619074 0.51325858 4293792000
3.1376324 1.4595393 0.50100279 4293792000
3.094363 1.4402857 0.40867111 4293530880
3.1347909 1.4592241 0.39873227 4293661440
3.1447051 1.463973 0.38421905 4293661440
3.1183314 1.451842 0.3649298 4293661440
3.0922661 1.4398526 0.34553975 4293530880
3.1191304 1.4524889 0.33166242 4293661440
3.1244092 1.4550836 0.31494647 4293661440
3.1104636 1.4487325 0.29599229 4293530880
3.080548 1.4349477 0.27544031 4293400320
3.1096377 1.4486257 0.2598525 4293530880
3.1331515 1.459711 0.24320041 4293661440
3.1295342 1.4581676 0.22405681 4293661440
3.0922008 1.4409257 0.20250328 4293530880
3.1153193 1.4518303 0.18476272 4293530880
3.1243098 1.4561576 0.16578116 4293530880
3.1164384 1.4526329 0.14571534 4293530880
3.0775754 1.4346721 0.12433714 4293400320
3.0963717 1.4435674 0.10527093 4293530880
3.096554 1.4437929 0.085333511 4293530880
3.0984054 1.444796 0.065331958 4293530880
3.0696309 1.4315288 0.044786654 4293400320
3.0855367 1.4390806 0.024920288 4293400320
3.0952821 1.4437628 0.0048059691 4293530880
3.0508654 1.4232008 -0.015172498 4293269760
3.0740461 1.4341451 -0.035341125 4293400320
3.0930977 1.4431665 -0.055703711 4293400320
3.0970595 1.4451542 -0.075888015 4293530880
3.0761969 1.4355669 -0.095276304 4293400320
3.0991454 1.446408 -0.11593824 4293530880
3.1035342 1.4485953 -0.13596004 4293530880
3.1028128 1.4483993 -0.15563875 4293530880
3.0779634 1.4369483 -0.17378117 4293400320
3.0829847 1.4394298 -0.19330207 4293400320
3.0973382 1.4462655 -0.21332274 4293530880
3.0853653 1.4408183 -0.23131728 4293400320
3.0765841 1.4368593 -0.24917758 4293400320
3.1080835 1.4516976 -0.27016729 4293530880
3.1117895 1.4535663 -0.28865743 4293530880
3.1113398 1.4534953 -0.30646852 4293530880
3.052316 1.42608 -0.31784138 4293400320
3.0956299 1.4464374 -0.33943257 4293530880
3.1036029 1.450297 -0.35705894 4293530880
3.1057065 1.4514161 -0.3736724 4293530880
3.0907252 1.4445565 -0.38775295 4293530880
3.0351377 1.4187301 -0.39595607 4293269760
3.1275983 1.4620497 -0.42320552 4293661440
3.1190343 1.4581853 -0.4367232 4293661440
3.1316049 1.4641931 -0.45272994 4293661440
3.125257 1.4613622 -0.46552461 4293661440
3.1073422 1.4531257 -0.47597066 4293661440
3.1124098 1.4556266 -0.489346 4293661440
3.1051259 1.452355 -0.5002194 4293661440
3.1137483 1.4565167 -0.51309234 4293661440
3.1098745 1.4548372 -0.52334189 4293661440
3.1115649 1.455758 -0.53392392 4293661440
3.1056595 1.453127 -0.54258049 4293661440
3.1086664 1.4546618 -0.55216342 4293661440
3.0996339 1.4505666 -0.55895919 4293661440
3.0945139 1.4482996 -0.56578052 4293661440
3.0889719 1.4458343 -0.57184756 4293661440
3.0725899 1.4382975 -0.57520133 4293530880
3.0646811 1.4347221 -0.57942736 4293530880
3.0456021 1.42592 -0.58082485 4293400320
3.05739 1.4315562 -0.58741987 4293530880
2.9922073 1.4011799 -0.57848537 4293269760
3.0006342 1.4052409 -0.58303738 4293269760
2.9957833 1.4030883 -0.58433616 4293269760
2.9954975 1.403071 -0.58584124 4293269760
2.9863997 1.3989288 -0.58493823 4293269760
3.0464125 1.4271338 -0.59688932 4293530880
3.0428796 1.4255962 -0.59570086 4293400320
3.0612774 1.4343244 -0.59810454 4293530880
3.0649583 1.4361629 -0.59692734 4293530880
3.0766594 1.4417564 -0.596605 4293530880
3.0971894 1.451484 -0.59726858 4293661440
3.0991027 1.4524943 -0.59362417 4293661440
3.1054454 1.4555783 -0.59012681 4293661440
3.1034672 1.4547648 -0.58435816 4293661440
3.1109865 1.4583992 -0.57968968 4293661440
3.1033483 1.4549329 -0.57152915 4293661440
3.1096122 1.4579782 -0.56527066 4293661440
3.1041629 1.4555354 -0.55623138 4293661440
3.1008856 1.4541093 -0.54696536 4293661440
3.0864949 1.4474745 -0.5351643 4293530880
3.074945 1.4421694 -0.5233236 4293530880
3.0745265 1.4420797 -0.51281828 4293530880
3.1015439 1.4548481 -0.50620955 4293661440
3.1077623 1.4578688 -0.49551159 4293661440
3.0988309 1.4537877 -0.48184907 4293661440
3.0759487 1.4431654 -0.46560311 4293530880
3.0532615 1.4326324 -0.44905427 4293400320
3.0774653 1.4440826 -0.43888703 4293530880
3.0844743 1.4474713 -0.42563629 4293530880
3.0680237 1.4398592 -0.40871966 4293400320
3.0513918 1.4321605 -0.39148471 4293400320
3.0658648 1.4390479 -0.37781501 4293400320
3.0846171 1.4479432 -0.36408442 4293530880
3.0951245 1.4529718 -0.34882602 4293530880
3.0457447 1.4299084 -0.32664776 4293400320
3.0548913 1.4342973 -0.31060767 4293400320
3.0732422 1.4430045 -0.29500937 4293400320
3.0761397 1.4444622 -0.2774854 4293400320
3.0437422 1.4293587 -0.25664967 4293269760
3.0707183 1.4421138 -0.2405737 4293400320
3.0772531 1.4452776 -0.22243565 4293400320
3.0821562 1.4476756 -0.20387091 4293400320
3.0990791 1.4557153 -0.18574816 4293530880
3.0680082 1.4412289 -0.16463861 4293400320
3.0787702 1.4463768 -0.1457272 4293400320
3.0915658 1.4524797 -0.1266081 4293530880
3.0508165 1.433446 -0.1053403 4293269760
3.0728879 1.4439036 -0.086253457 4293400320
3.0913575 1.4526714 -0.066713378 4293530880
3.1018045 1.4576732 -0.046743464 4293530880
3.0840917 1.4494519 -0.026348198 4293400320
3.0933228 1.4538829 -0.0062151169 4293530880
3.1087089 1.4612055 0.014069196 4293530880
3.1072803 1.4606311 0.034351051 4293530880
3.1070907 1.460639 0.054595411 4293530880
3.1223123 1.467886 0.075144611 4293530880
3.1368167 1.4747972 0.095784582 4293661440
3.1232681 1.4685299 0.1154698 4293530880
3.1169243 1.4656471 0.13516469 4293530880
3.1385214 1.4758927 0.1560154 4293661440
3.1365886 1.4750829 0.17565064 4293661440
3.0917261 1.4540992 0.19240004 4293530880
3.1258676 1.470242 0.21377641 4293661440
3.1494248 1.4814128 0.23454693 4293661440
3.1239777 1.4695518 0.25140384 4293661440
3.0870605 1.4522979 0.26668945 4293530880
3.1515195 1.4826981 0.29058248 4293792000
3.1567218 1.4852448 0.30909976 4293792000
3.1572635 1.4856009 0.32684979 4293792000
3.1446052 1.4797511 0.34280372 4293661440
3.0279083 1.4249798 0.34634954 4293269760
3.1481514 1.4816231 0.37658378 4293792000
3.1436279 1.4795986 0.39209235 4293792000
3.1304777 1.4735173 0.40599626 4293661440
3.1028521 1.460627 0.41736817 4293661440
3.080538 1.4502338 0.42874447 4293530880
3.1439173 1.4801514 0.45173097 4293792000
3.1552303 1.4855791 0.46706441 4293792000
3.148674 1.482601 0.47924426 4293792000
3.1417358 1.4794433 0.49076307 4293792000
3.1069434 1.4631789 0.49721158 4293661440
3.0791979 1.4502289 0.50398177 4293530880
3.134902 1.4765509 0.52390879 4293792000
3.1428046 1.4803793 0.53546733 4293792000
3.141747 1.4799916 0.54490352 4293792000
3.1380494 1.4783616 0.5532366 4293792000
3.1368947 1.4779292 0.56136113 4293792000
3.1254799 1.4726671 0.56696665 4293792000
3.1288989 1.4743892 0.5745793 4293792000
3.1158764 1.4683704 0.57848525 4293661440
3.1283805 1.474372 0.58644581 4293792000
3.1198232 1.4704566 0.58978331 4293792000
3.114682 1.4681503 0.59305364 4293792000
3.1141012 1.4679923 0.5964874 4293792000
3.1021752 1.462491 0.5970372 4293661440
3.1187377 1.4704103 0.60236341 4293792000
3.1015432 1.4624276 0.60046947 4293661440
3.1102991 1.4666715 0.60288262 4293661440
3.1127887 1.4679639 0.60337406 4293792000
3.1083961 1.4660143 0.60182303 4293661440
3.12079 1.4719763 0.60280603 4293792000
3.1331062 1.4779035 0.60305035 4293792000
3.1334798 1.4782031 0.60027963 4293792000
3.1258583 1.4747345 0.59528112 4293792000
3.1350145 1.479176 0.59277189 4293792000
3.1409917 1.48212 0.58894449 4293792000
3.1352601 1.4795444 0.58223403 4293792000
3.1398506 1.4818367 0.57675827 4293792000
3.1319642 1.4782457 0.56832659 4293792000
3.1240849 1.4746584 0.55926991 4293792000
3.1173527 1.471612 0.54980379 4293661440
3.114578 1.4704329 0.54042155 4293661440
3.1242743 1.4751375 0.53255242 4293792000
3.1413989 1.4833485 0.52524632 4293792000
3.1344433 1.4801991 0.51327878 4293792000
3.1246018 1.4756881 0.50030708 4293661440
3.0993888 1.4646544 0.41047293 4293530880
3.1262376 1.477469 0.39875245 4293661440
3.1406178 1.4843979 0.38478935 4293792000
3.1134181 1.4716901 0.36537153 4293661440
3.091923 1.4616748 0.34646595 4293530880
3.1151168 1.472769 0.33216184 4293661440
3.1284864 1.4792243 0.31623945 4293661440
3.0974681 1.4647086 0.29558301 4293530880
3.0884295 1.4605764 0.27691916 4293530880
3.1011469 1.4667253 0.25987256 4293530880
3.115577 1.473685 0.24251951 4293661440
3.1128678 1.4725453 0.22349483 4293530880
3.0802572 1.4572709 0.20229383 4293400320
3.1165228 1.4745553 0.18535955 4293530880
3.12029 1.476478 0.16604115 4293661440
3.1115375 1.4724813 0.14590453 4293530880
3.0748596 1.4552783 0.12458715 4293400320
3.0924289 1.4637277 0.10544457 4293530880
3.0844774 1.460108 0.085253857 4293400320
3.0980718 1.4666795 0.065523364 4293530880
3.0669811 1.4521129 0.044890046 4293400320
3.0785458 1.4577247 0.024951788 4293400320
3.0949559 1.4656302 0.0048381132 4293530880
3.047044 1.4430994 -0.015175615 4293269760
3.0768518 1.4573455 -0.035451133 4293400320
3.0870342 1.4623057 -0.055727113 4293530880
3.0922754 1.4649277 -0.075958751 4293530880
3.0701733 1.4546059 -0.09533076 4293400320
3.086992 1.4627088 -0.11578017 4293530880
3.0995603 1.4688005 -0.13613853 4293530880
3.0943246 1.4664626 -0.15561873 4293530880
3.0740554 1.4570043 -0.17401694 4293400320
3.0790608 1.4595147 -0.19356593 4293400320
3.0888627 1.4642973 -0.21330276 4293530880
3.0805283 1.4604892 -0.23156859 4293530880
3.0816832 1.4611756 -0.25025591 4293530880
3.1004138 1.4701892 -0.27022025 4293530880
3.109895 1.4748214 -0.28925353 4293530880
3.1109231 1.4754483 -0.30724862 4293661440
3.0520561 1.4476882 -0.31866717 4293400320
3.09165 1.4665914 -0.33990693 4293530880
3.0972166 1.4693679 -0.35728261 4293530880
3.0945034 1.468219 -0.37332684 4293530880
3.0967035 1.469399 -0.38954994 4293530880
3.0313108 1.4385289 -0.39652336 4293400320
3.1315866 1.4862133 -0.42488885 4293661440
3.1275203 1.484422 -0.43909407 4293661440
3.1230252 1.4824262 -0.4527097 4293661440
3.1251466 1.4835681 -0.46676686 4293661440
3.0988274 1.4712179 -0.47595057 4293661440
3.1083524 1.4758701 -0.49003088 4293661440
3.1032341 1.4735748 -0.50126839 4293661440
3.1075811 1.4757698 -0.51346332 4293661440
3.1102808 1.4771827 -0.52482867 4293661440
3.1074982 1.4759934 -0.53467172 4293661440
3.109637 1.4771391 -0.54474854 4293661440
3.0956831 1.4706454 -0.55134916 4293661440
3.103616 1.47454 -0.56119579 4293661440
3.0815713 1.4642023 -0.56494367 4293661440
3.0849545 1.4659352 -0.57265437 4293661440
3.0605998 1.4544966 -0.57451284 4293530880
3.0607259 1.4546809 -0.5802514 4293530880
3.0452583 1.4474584 -0.58233684 4293530880
3.0534515 1.451472 -0.58825719 4293530880
2.9928946 1.4228293 -0.58019054 4293269760
2.9968483 1.424826 -0.58388442 4293269760
2.9964569 1.424758 -0.58605617 4293269760
2.9961703 1.424739 -0.58756578 4293269760
2.9959896 1.4247696 -0.58841169 4293269760
3.0513902 1.4512115 -0.59948999 4293530880
3.046977 1.4492311 -0.5981248 4293530880
3.0573199 1.454263 -0.59895575 4293530880
3.0645483 1.4578143 -0.59847057 4293530880
3.0771072 1.4638994 -0.59831446 4293661440
3.0886846 1.4695181 -0.59724855 4293661440
3.0905919 1.4705395 -0.59360415 4293661440
3.0969164 1.4736602 -0.59010673 4293661440
3.0985041 1.4745286 -0.58501029 4293661440
3.0962105 1.4735506 -0.57850564 4293661440
3.1028402 1.4768152 -0.57298928 4293661440
3.0966139 1.4739653 -0.56443852 4293661440
3.0986679 1.4750526 -0.55675632 4293661440
3.1012828 1.4764062 -0.54852229 4293661440
3.0860422 1.4692652 -0.53654003 4293661440
3.0816698 1.467293 -0.52589309 4293530880
3.0785768 1.4659286 -0.51488882 4293530880
3.099848 1.4761559 -0.50730693 4293661440
3.0992198 1.4759635 -0.49549147 4293661440
3.0983596 1.4756598 -0.48308364 4293661440
3.0719655 1.4632035 -0.46626207 4293530880
3.0628788 1.4589825 -0.45169064 4293530880
3.0755904 1.4651357 -0.43980899 4293530880
3.088536 1.4714007 -0.42735186 4293530880
3.0676541 1.4615625 -0.40977749 4293530880
3.0555561 1.4559041 -0.39308026 4293400320
3.0574322 1.456898 -0.37779516 4293400320
3.0761325 1.4659021 -0.36406446 4293530880
3.083699 1.4696054 -0.34847695 4293530880
3.0463519 1.4519203 -0.32759449 4293400320
3.0554771 1.4563645 -0.31150457 4293400320
3.0602891 1.4587548 -0.29455653 4293400320
3.0676754 1.4623711 -0.27746546 4293400320
3.0389669 1.4487941 -0.25693446 4293269760
3.0577648 1.4578458 -0.24019998 4293400320
3.0687838 1.4631925 -0.22241572 4293400320
3.0781784 1.4677657 -0.20414992 4293530880
3.0900962 1.4735415 -0.18570089 4293530880
3.0595624 1.4590895 -0.16461873 4293400320
3.0748038 1.4664488 -0.14592145 4293400320
3.0909011 1.4742168 -0.12691063 4293530880
3.0550482 1.4572264 -0.10575844 4293400320
3.0734503 1.4660932 -0.086487956 4293400320
3.0828445 1.4706671 -0.066693351 4293530880
3.0940943 1.4761262 -0.046735983 4293530880
3.066571 1.463102 -0.026250385 4293400320
3.0929263 1.4757627 -0.0062119146 4293530880
3.0956323 1.4771496 0.014069137 4293530880
3.0969265 1.4778634 0.03435142 4293530880
3.1030433 1.480877 0.054694753 4293530880
3.1353674 1.4963887 0.075685993 4293661440
3.149828 1.5033833 0.096466377 4293661440
3.1236825 1.4910123 0.11582378 4293661440
3.1083345 1.4837899 0.1351849 4293530880
3.126265 1.4924405 0.15585625 4293661440
3.1234365 1.4911897 0.17541826 4293661440
3.0786982 1.4699454 0.19213933 4293530880
3.1269426 1.4930602 0.21446042 4293661440
3.1383567 1.4986055 0.23438941 4293661440
3.1293182 1.4943926 0.25254872 4293661440
3.0785487 1.4702659 0.26670945 4293530880
3.143512 1.5013665 0.29066592 4293792000
3.1525116 1.5057628 0.3095611 4293792000
3.1485562 1.5039768 0.32687026 4293792000
3.1314416 1.4959097 0.34233373 4293661440
3.0321238 1.4486021 0.34780917 4293400320
3.1520286 1.505942 0.37810943 4293792000
3.1394393 1.5000354 0.39267299 4293792000
3.1401505 1.5004785 0.40839547 4293792000
3.1023533 1.4825351 0.41847473 4293661440
3.0675611 1.4660248 0.42814022 4293530880
3.1397161 1.5005853 0.45239547 4293792000
3.150995 1.5060779 0.46774811 4293792000
3.1444538 1.5030606 0.47994629 4293792000
3.1367288 1.4994777 0.49135691 4293792000
3.1072977 1.4855266 0.4986636 4293661440
3.0885499 1.4766775 0.50692922 4293661440
3.1387382 1.5007626 0.52602065 4293792000
3.1466126 1.5046346 0.53761905 4293792000
3.1455519 1.5042385 0.54709256 4293792000
3.1382945 1.5008818 0.55483091 4293792000
3.1362481 1.5000156 0.56281883 4293792000
3.1302032 1.4972391 0.56941438 4293792000
3.1247072 1.4947251 0.57541841 4293792000
3.1161675 1.4907566 0.58016068 4293792000
3.1075373 1.4867449 0.58417434 4293792000
3.1067576 1.4864867 0.5889613 4293792000
3.1149676 1.4905273 0.59477007 4293792000
3.0985222 1.4827801 0.59516907 4293661440
3.098047 1.4826694 0.59791434 4293661440
3.1056757 1.4864348 0.6015237 4293792000
3.1018577 1.484727 0.60221344 4293661440
3.1052566 1.4864719 0.60359311 4293792000
3.11307 1.4903291 0.60512006 4293792000
3.1086891 1.4883544 0.603567 4293792000
3.1166053 1.4922634 0.60368621 4293792000
3.1200001 1.4940104 0.60221374 4293792000
3.1079412 1.488364 0.59706104 4293792000
3.1305487 1.4993066 0.59784579 4293792000
3.1263447 1.4974203 0.59279221 4293792000
3.1323044 1.5003991 0.58896488 4293792000
3.1265881 1.4977902 0.58225435 4293792000
3.1311653 1.5001091 0.57677865 4293792000
3.1313102 1.5003074 0.56980342 4293792000
3.1162624 1.4932323 0.55943739 4293792000
3.108727 1.4897538 0.54982406 4293661440
3.1084003 1.4897274 0.54086614 4293661440
3.1196926 1.4952662 0.53326684 4293792000
3.1362717 1.5033388 0.5258643 4293792000
3.1391499 1.5048507 0.51549482 4293792000
3.1159525 1.4938724 0.50032741 4293661440
3.0863276 1.480547 0.40989909 4293530880
3.1256406 1.4995285 0.39980301 4293661440
3.1370792 1.5051508 0.38544327 4293792000
3.1182432 1.4962592 0.36697304 4293661440
3.087842 1.4818211 0.34698954 4293530880
3.1077018 1.491483 0.33231205 4293661440
3.119817 1.4974327 0.31625977 4293661440
3.097867 1.4870453 0.29646182 4293530880
3.0762043 1.4767941 0.27661011 4293530880
3.0982604 1.4875141 0.26037192 4293530880
3.1122732 1.4943776 0.24295554 4293661440
3.1042378 1.4906636 0.22351506 4293530880
3.0753169 1.476927 0.20255062 4293530880
3.1078811 1.4926951 0.18537983 4293530880
3.1116374 1.49464 0.16606146 4293661440
3.1119151 1.494916 0.14634757 4293661440
3.0789437 1.4792309 0.12511861 4293530880
3.0964658 1.4877844 0.10589506 4293530880
3.0906603 1.4851393 0.085681371 4293530880
3.0838339 1.4820035 0.065424241 4293530880
3.0629783 1.4721299 0.044975854 4293400320
3.0820851 1.4814475 0.02506925 4293530880
3.0863671 1.483646 0.0048582586 4293530880
3.0512068 1.4668984 -0.015219537 4293400320
3.0683117 1.4752563 -0.035431106 4293400320
3.078465 1.4802759 -0.055707015 4293530880
3.0791852 1.4807636 -0.07582742 4293530880
3.0616493 1.4724784 -0.09531077 4293400320
3.0820873 1.4824414 -0.11589812 4293530880
3.0909531 1.4868443 -0.13611835 4293530880
3.0947349 1.4888039 -0.15605295 4293530880
3.0655177 1.4749 -0.17399693 4293400320
3.0750072 1.4796027 -0.19382963 4293530880
3.0774012 1.4808942 -0.21308306 4293530880
3.0719702 1.4784229 -0.23154852 4293530880
3.0700622 1.4776452 -0.24998669 4293530880
3.0998845 1.4921279 -0.27090687 4293530880
3.101253 1.4929266 -0.28923327 4293530880
3.0938039 1.4894832 -0.30638906 4293530880
3.0570304 1.4719312 -0.32005641 4293400320
3.0880749 1.4870054 -0.34044012 4293530880
3.1032655 1.4944532 -0.35895813 4293661440
3.1084061 1.4970657 -0.37602937 4293661440
3.0880938 1.4874282 -0.38952976 4293530880
3.0398839 1.464361 -0.39873368 4293400320
3.1259222 1.5059109 -0.42528254 4293792000
3.1256602 1.5059224 -0.44003627 4293792000
3.1300533 1.5081745 -0.4549734 4293792000
3.12449 1.5056326 -0.46794999 4293792000
3.1043959 1.4960924 -0.47811547 4293661440
3.0976083 1.4929582 -0.48967922 4293661440
3.1035151 1.4959366 -0.50269204 4293661440
3.1078448 1.4981551 -0.51491928 4293661440
3.0971727 1.4931469 -0.52405494 4293661440
3.09885 1.4940866 -0.53465146 4293661440
3.1054313 1.4973884 -0.54550976 4293661440
3.0959609 1.4929556 -0.5529173 4293661440
3.0949767 1.4926107 -0.56117558 4293661440
3.0871227 1.4889544 -0.56752086 4293661440
3.0852499 1.4881794 -0.57428771 4293661440
3.060071 1.4761699 -0.57599723 4293530880
3.0477636 1.4703623 -0.57938761 4293530880
3.0456541 1.4694691 -0.58401883 4293530880
3.0405102 1.4671118 -0.58738017 4293530880
2.9889946 1.442395 -0.58103329 4293269760
2.9885004 1.4422758 -0.58386487 4293269760
2.9881094 1.4422054 -0.58603662 4293269760
2.9878228 1.4421848 -0.58754623 4293269760
2.987642 1.4422145 -0.58839214 4293269760
3.0384533 1.4668398 -0.59859663 4293530880
3.038486 1.4669727 -0.59810495 4293530880
3.0532341 1.4742041 -0.59980685 4293530880
3.0480244 1.4718066 -0.59688759 4293530880
3.0552242 1.4753958 -0.59570038 4293530880
3.0720899 1.4836491 -0.59568036 4293661440
3.0864129 1.4906758 -0.59443837 4293661440
3.09272 1.493834 -0.59093434 4293661440
3.089865 1.4925697 -0.58499008 4293661440
3.0964572 1.4958647 -0.58014894 4293661440
3.0906343 1.4931663 -0.57231116 4293661440
3.0947752 1.4952767 -0.56566054 4293661440
3.0989149 1.4973862 -0.55833745 4293661440
3.0970788 1.49661 -0.54929054 4293661440
3.0891795 1.4929053 -0.53856742 4293661440
3.0686228 1.4830867 -0.52511156 4293530880
3.0700653 1.4838905 -0.51488167 4293530880
3.100107 1.4985067 -0.50874841 4293661440
3.1114297 1.5040826 -0.49881476 4293661440
3.1054509 1.5013012 -0.48552367 4293661440
3.0759592 1.4871602 -0.46815455 4293530880
3.0632558 1.4811273 -0.45299044 4293530880
3.0705779 1.4847682 -0.44030109 4293530880
3.0858085 1.4922304 -0.42814943 4293661440
3.0701354 1.4847597 -0.41123685 4293530880
3.0605519 1.4802305 -0.39480519 4293530880
3.0625877 1.4813155 -0.37947172 4293530880
3.0735943 1.4867358 -0.36476249 4293530880
3.0840452 1.4918878 -0.34947187 4293530880
3.0423253 1.4718218 -0.3280578 4293400320
3.039243 1.4704305 -0.31069729 4293400320
3.0622885 1.48167 -0.29555464 4293400320
3.0680797 1.4845686 -0.27825943 4293530880
3.0268872 1.4647501 -0.25661013 4293269760
3.0508363 1.4764274 -0.24030714 4293400320
3.065537 1.4836336 -0.22278294 4293400320
3.0695779 1.4856855 -0.2041298 4293530880
3.0895522 1.4954432 -0.18616849 4293530880
3.0600045 1.4812497 -0.16508418 4293400320
3.0752048 1.4886988 -0.1463297 4293530880
3.0867608 1.4943858 -0.12707581 4293530880
3.0465093 1.4750109 -0.10573848 4293400320
3.0693588 1.4861612 -0.086595044 4293400320
3.0853896 1.4940139 -0.066915914 4293530880
3.0936153 1.4980909 -0.046839949 4293530880
3.0717704 1.4876174 -0.026349334 4293400320
3.0903623 1.4967108 -0.0062043015 4293530880
3.1040788 1.5034459 0.014166268 4293530880
3.1053677 1.5041671 0.034560781 4293530880
3.1039023 1.5035554 0.054882966 4293530880
3.122999 1.5128965 0.075619616 4293661440
3.1238446 1.5134043 0.095960811 4293661440
3.1023645 1.5031039 0.1153774 4293530880
3.1048186 1.5043899 0.13543069 4293530880
3.1211154 1.5123785 0.15605621 4293661440
3.128181 1.5158985 0.1761969 4293661440
3.0745771 1.4900407 0.19244024 4293530880
3.1226845 1.5134354 0.21478938 4293661440
3.1445253 1.5241125 0.23552825 4293792000
3.1286392 1.516519 0.25322223 4293661440
3.0833914 1.4947028 0.26789749 4293530880
3.1391976 1.5218346 0.29110184 4293792000
3.1517553 1.5280193 0.31037533 4293792000
3.1478066 1.5262085 0.32772952 4293792000
3.1271529 1.5163045 0.34284464 4293661440
3.0281103 1.468418 0.34834334 4293400320
3.1432028 1.5242866 0.37813005 4293792000
3.1387742 1.5222443 0.39371178 4293792000
3.126888 1.5165881 0.40783373 4293792000
3.0936649 1.5005904 0.41849506 4293661440
3.0634336 1.4860413 0.42878455 4293530880
3.1398454 1.5231832 0.45370424 4293792000
3.1421683 1.5244157 0.46776873 4293792000
3.1356449 1.5213603 0.47996685 4293792000
3.1279407 1.5177325 0.49137744 4293792000
3.103044 1.5057689 0.4993999 4293661440
3.0834558 1.4963782 0.50753492 4293661440
3.1388392 1.5233431 0.52753514 4293792000
3.1377943 1.5229465 0.53763962 4293792000
3.1322913 1.5203885 0.54633862 4293792000
3.1357067 1.5221565 0.55595124 4293792000
3.1233664 1.5162828 0.56210381 4293792000
3.1249797 1.5171781 0.57008219 4293792000
3.1203847 1.5150621 0.57625771 4293792000
3.115416 1.5127654 0.58167076 4293792000
3.0988235 1.504829 0.58419466 4293792000
3.1069138 1.5088695 0.59066617 4293792000
3.1142113 1.5125269 0.59631717 4293792000
3.0898318 1.5008116 0.59518939 4293661440
3.1061974 1.5088717 0.60119122 4293792000
3.1058259 1.5088096 0.60326397 4293792000
3.101131 1.5066495 0.60378522 4293792000
3.100975 1.5066934 0.60447633 4293792000
3.1123099 1.5123172 0.60669369 4293792000
3.1043966 1.5085964 0.60444933 4293792000
3.1158347 1.5142729 0.60525453 4293792000
3.116112 1.5145311 0.6031757 4293792000
3.1204901 1.5167817 0.60117614 4293792000
3.1165323 1.5149845 0.59686565 4293792000
3.1353011 1.5242276 0.59618181 4293922560
3.1279449 1.5207813 0.58982086 4293792000
3.1302285 1.5220187 0.58459222 4293792000
3.1272547 1.5207025 0.57770014 4293792000
3.1225173 1.5185299 0.56982398 4293792000
3.1332593 1.5238801 0.56408942 4293792000
3.1079898 1.5117301 0.55126101 4293792000
3.1085548 1.5121356 0.54243565 4293792000
3.1242626 1.5199027 0.53557098 4293792000
3.1452465 1.5302366 0.52887285 4293922560
3.1347787 1.5252819 0.51624733 4293792000
3.1241086 1.5202287 0.50306857 4293792000
3.0905986 1.5048082 0.41164216 4293661440
3.1144905 1.51657 0.39952078 4293661440
3.1371958 1.5277572 0.38656399 4293792000
3.1146579 1.5169297 0.36760461 4293661440
3.0885525 1.5043646 0.3480674 4293530880
3.1123865 1.5161043 0.33377054 4293661440
3.1244726 1.5221282 0.31764415 4293661440
3.0936315 1.5072558 0.29691151 4293530880
3.0800965 1.5008067 0.2777603 4293530880
3.0964012 1.508886 0.26096952 4293661440
3.1035161 1.5124919 0.24297597 4293661440
3.1002586 1.5110476 0.22387841 4293661440
3.0756366 1.4991977 0.20316273 4293530880
3.1081111 1.5151571 0.18593642 4293661440
3.1170297 1.5196447 0.16683801 4293661440
3.1122484 1.517459 0.14679609 4293661440
3.0715427 1.4977697 0.12519036 4293530880
3.0848353 1.5043887 0.10581574 4293530880
3.092422 1.5082287 0.085991822 4293530880
3.0978529 1.5110186 0.065925911 4293530880
3.0657218 1.4955008 0.045162618 4293400320
3.0769997 1.5011405 0.025118588 4293530880
3.081347 1.5034025 0.0048841042 4293530880
3.0471056 1.4868507 -0.015222238 4293400320
3.0731492 1.4996909 -0.035567805 4293530880
3.0733862 1.4999489 -0.055752214 4293530880
3.0839875 1.5052615 -0.076140694 4293530880
3.0575135 1.4924918 -0.095431104 4293400320
3.0742362 1.5007904 -0.1159094 4293530880
3.0903237 1.5087805 -0.13645528 4293530880
3.0865138 1.5070645 -0.15605804 4293530880
3.0568757 1.4927456 -0.17397678 4293400320
3.0759914 1.5022143 -0.19441991 4293530880
3.0732088 1.5009979 -0.21337435 4293530880
3.076757 1.5028706 -0.23254523 4293530880
3.0614045 1.4955178 -0.24996652 4293530880
3.0971971 1.5131299 -0.27141723 4293661440
3.1066515 1.517887 -0.29053608 4293661440
3.102978 1.5162346 -0.30814672 4293661440
3.0404928 1.4858646 -0.3192054 4293400320
3.0927753 1.5115335 -0.34190273 4293661440
3.1013417 1.5158566 -0.35973024 4293661440
3.0986309 1.514672 -0.37588713 4293661440
3.0883069 1.5097679 -0.39063877 4293661440
3.0232735 1.4781362 -0.39765739 4293400320
3.1304767 1.5306456 -0.42708701 4293792000
3.1168373 1.5241201 -0.4400157 4293792000
3.121217 1.5263979 -0.45495281 4293792000
3.1167545 1.5243543 -0.46809247 4293792000
3.1036398 1.5180811 -0.47933191 4293661440
3.0977561 1.5153404 -0.49106872 4293661440
3.0947509 1.5140059 -0.5026716 4293661440
3.094625 1.5140779 -0.51416075 4293661440
3.1008584 1.5172584 -0.52614409 4293661440
3.098974 1.5164695 -0.53616673 4293661440
3.1091504 1.5215775 -0.5476895 4293792000
3.0872142 1.5109814 -0.55289692 4293661440
3.0862319 1.5106308 -0.5611552 4293661440
3.0767167 1.5061058 -0.56719035 4293661440
3.0765314 1.5061431 -0.57426739 4293661440
3.0469947 1.4918208 -0.57514137 4293530880
3.0480034 1.4924395 -0.5810551 4293530880
3.0326195 1.485037 -0.58314788 4293530880
3.0407646 1.4891455 -0.58907425 4293530880
2.9805446 1.4597987 -0.58101356 4293269760
2.980051 1.4596766 -0.5838452 4293269760
2.9920433 1.4656647 -0.58845192 4293400320
2.9917557 1.4656425 -0.58996779 4293400320
2.979193 1.4596103 -0.58837247 4293269760
2.9746966 1.4575253 -0.58768034 4293269760
3.029892 1.4846644 -0.59808493 4293530880
3.0445976 1.4919816 -0.5997867 4293530880
3.0562065 1.4977827 -0.60016704 4293661440
3.059849 1.4996827 -0.59827417 4293661440
3.0757837 1.5076022 -0.59806812 4293661440
3.0821042 1.5108132 -0.59527236 4293661440
3.0875087 1.5135753 -0.59159219 4293661440
3.0811207 1.5105603 -0.58496976 4293661440
3.0921214 1.5160626 -0.58096033 4293661440
3.0942876 1.5172369 -0.57459331 4293792000
3.0916421 1.5160528 -0.56667143 4293661440
3.0812783 1.5110857 -0.55671573 4293661440
3.0913286 1.5161211 -0.54980677 4293661440
3.0759978 1.5087177 -0.5377717 4293661440
3.0599341 1.5009532 -0.52509135 4293530880
3.0649233 1.5035061 -0.5154587 4293530880
3.0981226 1.5198869 -0.50984609 4293661440
3.1061726 1.5239406 -0.49936572 4293792000
3.0922096 1.517202 -0.48480627 4293661440
3.0784457 1.5105597 -0.46984342 4293661440
3.0545785 1.4989619 -0.45297027 4293530880
3.0707839 1.5070118 -0.44156125 4293530880
3.0815206 1.5123806 -0.42874888 4293661440
3.0739157 1.5087543 -0.41289285 4293530880
3.0474205 1.4958619 -0.39420819 4293530880
3.0551677 1.499763 -0.37960795 4293530880
3.0773818 1.5107605 -0.36622968 4293530880
3.0753043 1.5098425 -0.34945154 4293530880
3.0380924 1.4916874 -0.32851252 4293400320
3.0395679 1.4925104 -0.31159383 4293400320
3.061657 1.5034473 -0.29631361 4293530880
3.0593817 1.5024298 -0.27823919 4293530880
3.0308371 1.4885211 -0.2576558 4293400320
3.0466633 1.4963853 -0.24064079 4293400320
3.0523653 1.4992814 -0.2224362 4293400320
3.068938 1.5075132 -0.20464762 4293530880
3.0807903 1.5134287 -0.18614812 4293530880
3.0513256 1.499063 -0.16506401 4293400320
3.0619981 1.5043991 -0.14609529 4293400320
3.081593 1.5141162 -0.12720372 4293530880
3.0333807 1.4905427 -0.10556205 4293400320
3.0732138 1.5101968 -0.086930819 4293530880
3.0811231 1.5141776 -0.066993378 4293530880
3.0884278 1.5178617 -0.04687424 4293530880
3.0618858 1.5049244 -0.02631896 4293400320
3.0845017 1.5161283 -0.0061899438 4293530880
3.0997572 1.5237185 0.014207008 4293530880
3.09026 1.5191511 0.034511425 4293530880
3.0870152 1.5176547 0.054760769 4293530880
3.1266966 1.537246 0.075944386 4293661440
3.1284347 1.5381986 0.096395016 4293661440
3.1105869 1.5295285 0.11603168 4293661440
3.1004875 1.5246648 0.13564697 4293661440
3.1257024 1.5371534 0.15675004 4293661440
3.12378 1.5363081 0.17647031 4293661440
3.0906818 1.5201415 0.1940172 4293530880
3.113816 1.5316103 0.21480998 4293661440
3.1355941 1.5424143 0.235549 4293792000
3.1197526 1.5347282 0.25324285 4293661440
3.0746326 1.5126487 0.26791784 4293530880
3.1361794 1.5430051 0.29167059 4293792000
3.1538415 1.5517905 0.31148529 4293792000
3.1486216 1.5493268 0.32876813 4293792000
3.1138155 1.5323154 0.34237632 4293661440
3.0195053 1.4860415 0.34836331 4293400320
3.1342704 1.5425797 0.37815079 4293792000
3.1306679 1.5409118 0.3938348 4293792000
3.1304779 1.5409226 0.40948486 4293792000
3.089325 1.5207856 0.41911912 4293661440
3.0591767 1.5060594 0.42942902 4293530880
3.1309192 1.541456 0.45372498 4293792000
3.1501329 1.5510153 0.47030997 4293922560
3.1400628 1.5461686 0.48203254 4293922560
3.1234887 1.5381215 0.49209732 4293792000
3.0897799 1.5216423 0.4987044 4293661440
3.0746868 1.5143225 0.50755531 4293661440
3.1299121 1.5416094 0.52755588 4293792000
3.1377368 1.5455711 0.53918284 4293922560
3.1233814 1.5386165 0.5463593 4293792000
3.1188123 1.536479 0.5545553 4293792000
3.123337 1.5388187 0.5637216 4293792000
3.1249418 1.5397221 0.5717212 4293792000
3.111506 1.5332206 0.57627833 4293792000
3.1153984 1.5352516 0.58334666 4293792000
3.1068106 1.5311378 0.58738983 4293792000
3.1024926 1.529127 0.59152901 4293792000
3.0939906 1.525056 0.59415865 4293792000
3.1022508 1.5292413 0.59930468 4293792000
3.0973549 1.5269475 0.60121173 4293792000
3.0969837 1.5268832 0.60328448 4293792000
3.0967195 1.5268724 0.60466766 4293792000
3.0965631 1.5269154 0.60535979 4293792000
3.0920973 1.5248359 0.60449725 4293792000
3.0955555 1.5266616 0.60446984 4293792000
3.1001418 1.5290444 0.60394788 4293792000
3.1072364 1.5326645 0.60319632 4293792000
3.1160202 1.5371187 0.60204983 4293792000
3.1200292 1.5392207 0.59926116 4293792000
3.1263688 1.5424727 0.59620255 4293922560
3.12257 1.5407276 0.59050989 4293792000
3.1301544 1.5445956 0.58626825 4293922560
3.1218822 1.5406461 0.57837594 4293792000
3.126894 1.5432477 0.57227224 4293922560
3.1243289 1.5421135 0.56411016 4293792000
3.1124156 1.5363692 0.55364269 4293792000
3.1041234 1.5324107 0.54323077 4293792000
3.1153557 1.538084 0.5355916 4293792000
3.1398258 1.55029 0.52949131 4293922560
3.1293888 1.5452754 0.51685363 4293792000
3.1196375 1.5405991 0.50380522 4293792000
3.0862322 1.5249925 0.41225666 4293661440
3.1269815 1.5452515 0.40228897 4293792000
3.1362641 1.5499758 0.38757494 4293792000
3.1057689 1.5350566 0.36762524 4293661440
3.08375 1.5243217 0.3485409 4293661440
3.1014001 1.5331799 0.33356529 4293661440
3.111089 1.5381073 0.31721017 4293661440
3.0892656 1.5274674 0.2973614 4293661440
3.0587916 1.5125518 0.27665058 4293530880
3.0964992 1.5313249 0.26174471 4293661440
3.0991249 1.5327647 0.24334715 4293661440
3.1092966 1.5379347 0.22519298 4293661440
3.0758009 1.5215222 0.20377509 4293530880
3.0947571 1.5310348 0.18568888 4293661440
3.1045437 1.5360163 0.1666667 4293661440
3.1033568 1.5355736 0.1468167 4293661440
3.0740445 1.521224 0.12567078 4293530880
3.0914681 1.529983 0.10636639 4293530880
3.0835848 1.5262283 0.086012304 4293530880
3.0934803 1.5312663 0.066041753 4293530880
3.0569592 1.5133455 0.045182928 4293400320
3.0726857 1.5212679 0.025175376 4293530880
3.0815015 1.5257728 0.0049182256 4293530880
3.0505738 1.510614 -0.015263774 4293400320
3.0554001 1.5131446 -0.035442933 4293400320
3.0645978 1.517839 -0.055731848 4293530880
3.070688 1.5209961 -0.076009117 4293530880
3.0577278 1.5147243 -0.095691659 4293400320
3.065443 1.5186859 -0.11588902 4293530880
3.0791156 1.5255975 -0.13632984 4293530880
3.0821602 1.527248 -0.15626471 4293530880
3.0547087 1.5137981 -0.17433222 4293400320
3.0716636 1.522336 -0.19468321 4293530880
3.0781002 1.5256658 -0.21430722 4293530880
3.0675693 1.5205921 -0.2324958 4293530880
3.0627866 1.5183645 -0.25077704 4293530880
3.0883322 1.5311604 -0.2713967 4293661440
3.0989208 1.5365481 -0.29062447 4293661440
3.0920773 1.5332992 -0.30792516 4293661440
3.0496292 1.5124062 -0.32106379 4293530880
3.0883782 1.5317479 -0.34237647 4293661440
3.0924611 1.5339118 -0.35970968 4293661440
3.0986643 1.5371264 -0.37695017 4293661440
3.0919251 1.5339255 -0.39219922 4293661440
3.0270708 1.5019128 -0.3992804 4293400320
3.1215096 1.5488708 -0.42706627 4293792000
3.1153772 1.5459695 -0.44105238 4293792000
3.1255996 1.551177 -0.45687973 4293792000
3.1113758 1.5442612 -0.46860662 4293792000
3.0991833 1.5383512 -0.47999847 4293792000
3.0933132 1.5355755 -0.49175307 4293661440
3.0903139 1.5342226 -0.50337297 4293661440
3.0901852 1.5342929 -0.51487827 4293661440
3.0875423 1.5331153 -0.52537012 4293661440
3.0900903 1.5345123 -0.53614616 4293661440
3.087781 1.5334986 -0.54546875 4293661440
3.0827847 1.5311505 -0.55367047 4293661440
3.0729625 1.5264059 -0.56032884 4293661440
3.0723124 1.5262125 -0.56798667 4293661440
3.0557766 1.5181327 -0.5720138 4293661440
3.0382557 1.5095615 -0.57512116 4293530880
3.0392606 1.5101861 -0.5810349 4293530880
3.0239203 1.502694 -0.5831278 4293530880
3.0276291 1.5046593 -0.58819705 4293530880
2.979933 1.4810959 -0.58254576 4293400320
2.979439 1.4809706 -0.58538491 4293400320
2.9834576 1.4830859 -0.58843201 4293400320
2.9708238 1.4769291 -0.58750677 4293269760
2.9706428 1.4769566 -0.58835268 4293269760
3.0211637 1.5021725 -0.59855652 4293530880
3.0211949 1.5023057 -0.59806484 4293530880
3.0393851 1.5114613 -0.60046327 4293530880
3.0474327 1.5155772 -0.60014671 4293661440
3.0545921 1.5192517 -0.5989455 4293661440
3.0669522 1.5255107 -0.59804767 4293661440
3.0776656 1.5309511 -0.59610623 4293661440
3.0751121 1.5297972 -0.59089345 4293661440
3.081099 1.5328877 -0.58662969 4293661440
3.0832403 1.534066 -0.58093977 4293661440
3.0853996 1.5352527 -0.57457274 4293792000
3.0851018 1.5352172 -0.56708109 4293661440
3.0856841 1.5356183 -0.55909711 4293661440
3.075017 1.5304246 -0.5484612 4293661440
3.0627367 1.5244272 -0.53697592 4293661440
3.0555661 1.5209694 -0.52583236 4293530880
3.0693955 1.5279559 -0.51767784 4293661440
3.0892191 1.5379244 -0.50982547 4293661440
3.1045482 1.5456579 -0.50052238 4293792000
3.0952046 1.541117 -0.48665392 4293661440
3.0651615 1.5262759 -0.4691442 4293661440
3.0536745 1.5206652 -0.45412132 4293530880
3.0767343 1.5322438 -0.44367188 4293661440
3.0836794 1.5358043 -0.43026581 4293661440
3.0650771 1.5266502 -0.4128724 4293530880
3.0644462 1.5264388 -0.39753342 4293530880
3.0588377 1.5237495 -0.38113973 4293530880
3.0699527 1.5293837 -0.36637884 4293530880
3.0758965 1.532444 -0.35050657 4293661440
3.0355875 1.5124778 -0.32916838 4293400320
3.0396609 1.5146053 -0.31248218 4293400320
3.0462468 1.5179836 -0.29565236 4293530880
3.060034 1.5249479 -0.27908131 4293530880
3.0238986 1.5070525 -0.25778762 4293400320
3.0378966 1.5141213 -0.24062052 4293400320
3.0569801 1.5237232 -0.22339541 4293530880
3.0645738 1.5276036 -0.2049261 4293530880
3.0719237 1.5313628 -0.18612762 4293530880
3.0514836 1.521279 -0.16552903 4293400320
3.0576556 1.524451 -0.14628902 4293530880
3.0691442 1.5302719 -0.12703496 4293530880
3.0335944 1.5126575 -0.10585448 4293400320
3.0674112 1.5296032 -0.086996891 4293530880
3.0767262 1.5343421 -0.067070663 4293530880
3.0884843 1.5402988 -0.046990376 4293530880
3.0575438 1.5249773 -0.026337409 4293530880
3.084569 1.538543 -0.0061879531 4293530880
3.0953047 1.5439916 0.014247932 4293661440
3.0938885 1.5433836 0.034671504 4293661440
3.0995998 1.5463287 0.055161923 4293661440
3.1147897 1.5539992 0.075894758 4293661440
3.1238952 1.5586375 0.096553728 4293661440
3.0971665 1.5454104 0.11588594 4293661440
3.106972 1.5503981 0.13634284 4293661440
3.124742 1.559358 0.15717484 4293792000
3.1183534 1.5562719 0.17669335 4293661440
3.0704126 1.5324636 0.19332348 4293530880
3.1003759 1.5475059 0.21452215 4293661440
3.1265566 1.5606637 0.23556988 4293792000
3.1241477 1.559563 0.25435218 4293792000
3.0737987 1.5345484 0.26863915 4293530880
3.1346319 1.5649959 0.2923896 4293792000
3.1447489 1.5701454 0.3115063 4293792000
3.1395435 1.5676513 0.32878911 4293792000
3.1137419 1.5548804 0.34337801 4293792000
3.0232584 1.5098324 0.34982368 4293400320
3.1442292 1.5703005 0.38046813 4293922560
3.1269705 1.5617921 0.39452767 4293792000
3.1210682 1.558951 0.40945584 4293792000
3.0892956 1.5431975 0.42034703 4293661440
3.0627799 1.5300664 0.4311974 4293530880
3.126323 1.5618911 0.45439002 4293792000
3.1366105 1.5671338 0.46966764 4293922560
3.1345482 1.5662121 0.48259881 4293922560
3.1144757 1.5562984 0.49211815 4293792000
3.0976868 1.5480236 0.50144589 4293792000
3.0746634 1.5366348 0.5090397 4293661440
3.1252325 1.5619977 0.52831209 4293922560
3.1331012 1.5660385 0.53996497 4293922560
3.1344626 1.5668304 0.54990292 4293922560
3.1265943 1.5630127 0.55756688 4293922560
3.1143198 1.5569942 0.5637424 4293792000
3.1247473 1.562317 0.5733605 4293922560
3.1192887 1.5597044 0.57941097 4293922560
3.09758 1.5489726 0.58171207 4293792000
3.0943103 1.547454 0.58674216 4293792000
3.097059 1.5489435 0.59222358 4293792000
3.0938694 1.547466 0.59587568 4293792000
3.0976965 1.5494964 0.60017848 4293792000
3.0972195 1.5493762 0.60294652 4293792000
3.1003723 1.5510715 0.60571319 4293792000
