# .PCD v0.7 - Point Cloud Data file format
VERSION 0.7
FIELDS x y z rgba
SIZE 4 4 4 4
TYPE F F F U
COUNT 1 1 1 1
WIDTH 1130
HEIGHT 1
VIEWPOINT 0 0 0 1 0 0 0
POINTS 1130
DATA ascii
3.1303098 1.5282027 0.50508106 4293792000
3.0834482 1.5061851 0.41164491 4293530880
3.1207125 1.5245079 0.40124905 4293661440
3.1344743 1.5313603 0.38714254 4293792000
3.1119471 1.5204967 0.36819109 4293661440
3.0769138 1.503525 0.34765914 4293530880
3.1051991 1.5174706 0.33387992 4293661440
3.1143727 1.5220854 0.31748024 4293661440
3.0953982 1.5129535 0.29793298 4293530880
3.0773921 1.5042931 0.27835873 4293530880
3.0913103 1.5112265 0.261363 4293530880
3.105273 1.5181831 0.24391499 4293661440
3.102016 1.5167278 0.22479141 4293530880
3.0737495 1.503052 0.20381679 4293530880
3.0978351 1.514957 0.18607672 4293530880
3.1031532 1.5176923 0.16683181 4293530880
3.0977633 1.5151945 0.14683387 4293530880
3.0696385 1.5015836 0.12582442 4293400320
3.0790436 1.5063167 0.10630839 4293530880
3.0844269 1.5090843 0.086441435 4293530880
3.0702212 1.5022749 0.065998271 4293400320
3.0708086 1.5026978 0.045877349 4293400320
3.0733101 1.5040569 0.025710013 4293400320
3.0777292 1.5063541 0.0054802382 4293530880
3.042496 1.489257 -0.014602837 4293400320
3.064961 1.5003806 -0.034902651 4293400320
3.0703673 1.503161 -0.055147525 4293400320
3.0735209 1.5048394 -0.075351305 4293400320
3.0519466 1.4944191 -0.094736725 4293400320
3.0735855 1.5051427 -0.11539071 4293530880
3.0867846 1.5117377 -0.13582782 4293530880
3.0861924 1.511584 -0.15558854 4293530880
3.05546 1.4966774 -0.1734488 4293400320
3.0701606 1.5040081 -0.19362727 4293530880
3.0751805 1.5066005 -0.21310696 4293530880
3.0691073 1.5037621 -0.23157746 4293530880
3.0635543 1.5011777 -0.24976766 4293400320
3.0913453 1.5149207 -0.27055824 4293530880
3.091579 1.5151701 -0.28879702 4293530880
3.090091 1.5145763 -0.30655354 4293530880
3.0511262 1.495625 -0.32000855 4293400320
3.0852311 1.5124643 -0.34078568 4293530880
3.093297 1.5165496 -0.35853323 4293661440
3.0923481 1.5162185 -0.37487608 4293661440
3.0899491 1.5151764 -0.39061159 4293661440
3.0329781 1.4873916 -0.39868852 4293400320
3.11568 1.5280521 -0.42487368 4293661440
3.1160865 1.5283848 -0.43972909 4293661440
3.1183674 1.5296357 -0.4543713 4293792000
3.1050072 1.5232191 -0.46616912 4293661440
3.1007967 1.5212867 -0.4787443 4293661440
3.090209 1.5162266 -0.48973098 4293661440
3.093328 1.5178863 -0.502312 4293661440
3.0849891 1.513927 -0.51243848 4293661440
3.0907288 1.5168707 -0.52431709 4293661440
3.088063 1.5156921 -0.53417939 4293661440
3.0982425 1.5208136 -0.54568255 4293661440
3.0932326 1.518484 -0.55389518 4293661440
3.0833859 1.513781 -0.56056184 4293661440
3.0755572 1.5100665 -0.56690443 4293661440
3.073689 1.5092756 -0.57367069 4293661440
3.0485957 1.4970872 -0.5753715 4293530880
3.0407531 1.4933621 -0.57960302 4293530880
3.0209568 1.4837689 -0.58083081 4293400320
3.0335193 1.4900564 -0.58760643 4293530880
2.9777596 1.4628072 -0.580383 4293269760
2.9772658 1.4626833 -0.58321452 4293269760
2.9804106 1.4643452 -0.58608311 4293269760
2.9845428 1.4664917 -0.5884679 4293269760
2.9843612 1.4665197 -0.58931607 4293269760
3.0270412 1.4875948 -0.59796381 4293530880
3.0226541 1.4855582 -0.59659797 4293400320
3.0497234 1.4989699 -0.60074985 4293530880
3.0401123 1.4943668 -0.59695411 4293530880
3.0570111 1.5027843 -0.59767222 4293530880
3.0685151 1.5085523 -0.59661031 4293661440
3.0792525 1.5139441 -0.59467846 4293661440
3.0811162 1.5149763 -0.59032071 4293661440
3.0782709 1.513694 -0.58437556 4293661440
3.0945718 1.5218197 -0.58136952 4293661440
3.0837309 1.5166074 -0.5725705 4293661440
3.0829046 1.5163157 -0.565 4293661440
3.0774996 1.5137731 -0.55595291 4293661440
3.0786827 1.5144677 -0.54747009 4293661440
3.067039 1.5088564 -0.53610349 4293530880
3.0633111 1.5071355 -0.52555758 4293530880
3.0629034 1.5070463 -0.51499569 4293530880
3.0929208 1.5219165 -0.50887024 4293661440
3.1091778 1.530022 -0.49972537 4293792000
3.0971026 1.5241953 -0.4854328 4293661440
3.0705645 1.5112542 -0.46847594 4293530880
3.0525837 1.5025197 -0.45248917 4293530880
3.0740092 1.5131665 -0.44183642 4293530880
3.0887988 1.5205503 -0.42956609 4293661440
3.0694008 1.5111161 -0.41206846 4293530880
3.0458872 1.4996555 -0.39376739 4293400320
3.0612028 1.5072975 -0.38010749 4293530880
3.0780871 1.5157121 -0.36605561 4293530880
3.0795856 1.5165564 -0.34966528 4293530880
3.0299859 1.4922539 -0.3273263 4293400320
3.0367055 1.4956657 -0.31097779 4293400320
3.0498755 1.5022525 -0.29483995 4293400320
3.054754 1.5047586 -0.27747056 4293400320
3.0307875 1.4930656 -0.25727734 4293400320
3.041837 1.4986088 -0.23987281 4293400320
3.0606468 1.5079733 -0.22264373 4293400320
3.063019 1.5092456 -0.20384008 4293400320
3.0776231 1.5165409 -0.18553218 4293530880
3.0477958 1.5019575 -0.16441903 4293400320
3.0618653 1.5089897 -0.14562273 4293400320
3.0686898 1.5124545 -0.12618898 4293530880
3.034255 1.4955982 -0.1050799 4293400320
3.0656939 1.5111865 -0.086198889 4293400320
3.0818889 1.5192678 -0.066479109 4293530880
3.0909634 1.5238423 -0.046366997 4293530880
3.0623813 1.5098652 -0.02574876 4293400320
3.0847442 1.5209868 -0.0056058187 4293530880
3.0896249 1.5234959 0.014762351 4293530880
3.1000524 1.5287386 0.035235692 4293530880
3.0989199 1.5282851 0.055605169 4293530880
3.1210084 1.5392759 0.076451257 4293661440
3.1301382 1.5438812 0.097106881 4293661440
3.1078348 1.5329938 0.1166141 4293661440
3.1066937 1.5325366 0.13662082 4293661440
3.1184533 1.538439 0.15710367 4293661440
3.1209452 1.5397735 0.17704348 4293661440
3.0765522 1.5179921 0.19389589 4293530880
3.1155391 1.5373204 0.21569748 4293661440
3.1259854 1.542578 0.23561038 4293661440
3.1339979 1.5466361 0.25519389 4293792000
3.0754883 1.5178882 0.26882243 4293530880
3.1378927 1.5487722 0.29265681 4293792000
3.1555448 1.557587 0.31249073 4293792000
3.1503286 1.555123 0.32980046 4293792000
3.1155441 1.5380723 0.34344548 4293661440
3.0257514 1.4938815 0.35000271 4293400320
3.1359868 1.5483751 0.37925977 4293792000
3.1359513 1.5484672 0.39541468 4293792000
3.127743 1.5445267 0.41005906 4293792000
3.1168849 1.5392784 0.4238019 4293792000
3.056489 1.5095817 0.43002856 4293530880
3.132637 1.5472734 0.45494145 4293792000
3.1428404 1.5524211 0.47019887 4293792000
3.1428945 1.55256 0.48345464 4293792000
3.1215684 1.5421447 0.49279919 4293792000
3.115231 1.5391283 0.50382459 4293792000
3.0954809 1.5294894 0.51201552 4293661440
3.1227615 1.5430722 0.52738446 4293792000
3.1345718 1.549018 0.5396778 4293792000
3.1334627 1.5485851 0.54916805 4293792000
3.1258569 1.5449439 0.55686313 4293792000
3.1272831 1.5457639 0.56549615 4293792000
3.1106417 1.5376598 0.57018065 4293792000
3.1167538 1.5407951 0.57832736 4293792000
3.1166828 1.5408767 0.58467013 4293792000
3.1193411 1.5423074 0.59084421 4293792000
3.1198771 1.5426903 0.59593213 4293792000
3.1059384 1.5359211 0.59754938 4293792000
3.1020741 1.53413 0.60037267 4293792000
3.1060135 1.536196 0.60399461 4293792000
3.097693 1.5322032 0.60452986 4293792000
3.109792 1.5383037 0.60832369 4293792000
3.1008046 1.5339819 0.60729659 4293792000
3.1040382 1.5357019 0.60793728 4293792000
3.1173441 1.5424026 0.60982472 4293792000
3.12061 1.5441405 0.60903376 4293792000
3.1085224 1.5382869 0.60454857 4293792000
3.1168399 1.5425241 0.60330653 4293792000
3.1181202 1.5432822 0.59998989 4293792000
3.1262343 1.5474211 0.5972665 4293792000
3.1246607 1.546769 0.59199071 4293792000
3.1136875 1.5414674 0.5842703 4293792000
3.1231515 1.5462766 0.57968694 4293792000
3.1197588 1.5447259 0.57203841 4293792000
3.1075284 1.5388023 0.5621469 4293792000
3.1099029 1.5401057 0.55425602 4293792000
3.1113911 1.540971 0.54555345 4293792000
3.1245499 1.5476135 0.53821141 4293792000
3.133553 1.5522004 0.52946383 4293792000
3.1186857 1.5449723 0.51611155 4293792000
3.1249006 1.5481803 0.50566721 4293792000
3.083518 1.5285419 0.41284424 4293661440
3.1178279 1.5456716 0.40203959 4293792000
3.1335144 1.5535781 0.38814452 4293792000
3.1119459 1.5430274 0.36925676 4293661440
3.0890505 1.5318176 0.35003269 4293661440
3.0963049 1.5355473 0.33389443 4293661440
3.1128051 1.5438602 0.3182416 4293661440
3.0901015 1.5327433 0.29828972 4293661440
3.0685751 1.5222085 0.27837315 4293530880
3.0949605 1.5354235 0.26242957 4293661440
3.1008437 1.5384766 0.24427857 4293661440
3.0899172 1.5331957 0.22457483 4293530880
3.0694118 1.5231643 0.20412557 4293530880
3.1009464 1.5389385 0.1868057 4293661440
3.1023116 1.5397528 0.16727534 4293661440
3.1018624 1.5396676 0.147457 4293661440
3.0680776 1.5230464 0.12613173 4293530880
3.0822165 1.5301969 0.10673071 4293530880
3.0845375 1.5314854 0.086701915 4293530880
3.0784333 1.5285939 0.066368781 4293530880
3.0563085 1.5177522 0.045810003 4293400320
3.0644948 1.5219508 0.025724411 4293400320
3.0778577 1.5287195 0.0055051595 4293530880
3.0418286 1.5109733 -0.014632345 4293400320
3.0561671 1.5182264 -0.034888286 4293400320
3.066035 1.5232614 -0.05521648 4293530880
3.0691781 1.5249584 -0.075449638 4293530880
3.0431876 1.5121897 -0.09472242 4293400320
3.0647638 1.5230395 -0.11537631 4293530880
3.0868733 1.5341557 -0.13621344 4293530880
3.0862799 1.533998 -0.15603152 4293530880
3.0502656 1.5162462 -0.17364019 4293400320
3.0679178 1.5251503 -0.19403228 4293530880
3.0631421 1.5229136 -0.21286778 4293530880
3.0584955 1.5207404 -0.23142597 4293530880
3.0672596 1.5252301 -0.25078252 4293530880
3.0890286 1.536183 -0.27112326 4293530880
3.1009116 1.5422246 -0.29049855 4293661440
3.0892415 1.5365604 -0.30734196 4293661440
3.0468178 1.5156085 -0.32046548 4293400320
3.0867424 1.5355887 -0.34192601 4293661440
3.0961673 1.540409 -0.35989165 4293661440
3.0923629 1.5386523 -0.37594834 4293661440
3.0810688 1.5331708 -0.39059708 4293661440
3.0331523 1.5094763 -0.39985108 4293400320
3.1111677 1.5484064 -0.42546895 4293792000
3.1071289 1.5465317 -0.43971446 4293661440
3.1138411 1.5500038 -0.45500746 4293792000
3.1173739 1.5518947 -0.4693712 4293792000
3.0918806 1.5393449 -0.47872972 4293661440
3.0892994 1.5381923 -0.49098817 4293661440
3.0888612 1.5381052 -0.50302094 4293661440
3.0973666 1.5424682 -0.51597422 4293661440
3.0951135 1.5414773 -0.5265674 4293661440
3.0791795 1.5336767 -0.53416491 4293661440
3.0804875 1.5344565 -0.54410201 4293661440
3.0878682 1.5382588 -0.55451721 4293661440
3.0789311 1.5339377 -0.56135482 4293661440
3.0482507 1.5187898 -0.56346959 4293530880
3.0604293 1.5249791 -0.57282799 4293661440
3.0398214 1.5148426 -0.5753572 4293530880
3.0320008 1.5110719 -0.57958871 4293530880
3.0356078 1.5129914 -0.58532947 4293530880
3.0159681 1.503332 -0.58587497 4293400320
2.9691863 1.4801505 -0.580369 4293269760
2.9686933 1.4800239 -0.58320051 4293269760
2.9718282 1.481704 -0.58606911 4293269760
2.9715414 1.4816791 -0.58758044 4293269760
2.97136 1.481706 -0.58842736 4293269760
3.0227287 1.5074207 -0.59882456 4293530880
3.0139475 1.5031627 -0.59658372 4293400320
3.0330067 1.5127791 -0.59916496 4293530880
3.0357609 1.5142694 -0.59780967 4293530880
3.0517292 1.5223463 -0.59835076 4293661440
3.0640817 1.5286212 -0.59745741 4293661440
3.0703797 1.531878 -0.59466398 4293661440
3.0722373 1.532921 -0.59030622 4293661440
3.0782208 1.5360208 -0.58604467 4293661440
3.0812407 1.5376426 -0.58052164 4293661440
3.0748425 1.5345671 -0.57255602 4293661440
3.0819643 1.5382339 -0.56644976 4293661440
3.0798006 1.5372691 -0.5579679 4293661440
3.0698068 1.5323979 -0.54745555 4293661440
3.0670357 1.5311284 -0.5376429 4293661440
3.0500565 1.5227702 -0.52478021 4293530880
3.0709579 1.5333096 -0.51783705 4293661440
3.0795755 1.5377209 -0.50812328 4293661440
3.1002107 1.5481292 -0.49971074 4293792000
3.0905128 1.5434012 -0.48578766 4293661440
3.0732341 1.534889 -0.47023088 4293661440
3.0553765 1.5260861 -0.45420486 4293530880
3.0715325 1.5342588 -0.44274646 4293661440
3.0887649 1.5429698 -0.43079421 4293661440
3.0649855 1.531208 -0.41265422 4293530880
3.045985 1.5218302 -0.39490986 4293530880
3.0568147 1.5273441 -0.380649 4293530880
3.0736518 1.535858 -0.3665739 4293530880
3.0808036 1.5395366 -0.35080692 4293661440
3.0256922 1.5121222 -0.32779676 4293400320
3.043081 1.5209113 -0.3125267 4293400320
3.0535483 1.5262445 -0.29604205 4293530880
3.0524931 1.5258229 -0.27805716 4293530880
3.0184689 1.5089321 -0.25695732 4293400320
3.0398262 1.5197049 -0.24039783 4293400320
3.0518088 1.5257956 -0.22262931 4293400320
3.0631032 1.5315429 -0.20442662 4293530880
3.0723078 1.5362468 -0.1857357 4293530880
3.055969 1.5281872 -0.16533288 4293400320
3.0708954 1.5357504 -0.14647117 4293530880
3.0731561 1.5369848 -0.12673202 4293530880
3.0416524 1.5213438 -0.10563655 4293400320
3.0681438 1.5346882 -0.086509965 4293530880
3.0753541 1.5383966 -0.066517234 4293530880
3.0780091 1.5398281 -0.046289481 4293530880
3.0616598 1.5317589 -0.025807792 4293530880
3.0788741 1.5404692 -0.0055986666 4293530880
3.0932178 1.5477455 0.014829253 4293530880
3.0929596 1.5477213 0.035270449 4293530880
3.0980115 1.5503523 0.055759631 4293661440
3.120929 1.5619184 0.076680094 4293661440
3.1184046 1.5607619 0.097039789 4293661440
3.0988503 1.5510875 0.11662877 4293661440
3.1057551 1.5546467 0.13698508 4293661440
3.1153305 1.5595424 0.15741239 4293661440
3.1163869 1.5601771 0.17730941 4293661440
3.0756917 1.5399238 0.19441305 4293530880
3.1109922 1.5576911 0.21601915 4293661440
3.1169446 1.5607761 0.23562513 4293661440
3.1249332 1.5648807 0.25520867 4293792000
3.0755081 1.5402541 0.26961246 4293530880
3.1354134 1.5703411 0.29328433 4293792000
3.1499791 1.5777398 0.31285712 4293792000
3.1492276 1.5774729 0.33065122 4293792000
3.1189888 1.5624455 0.34482902 4293792000
3.0294487 1.5177295 0.35145277 4293400320
3.1334515 1.5699041 0.38006321 4293792000
3.1242073 1.5653857 0.39509386 4293792000
3.1271918 1.5669901 0.41118559 4293792000
3.0909982 1.5489765 0.42152876 4293661440
3.0476418 1.5273738 0.43004298 4293530880
3.1271155 1.5672846 0.45547032 4293792000
3.138283 1.5729897 0.47089186 4293922560
3.1373384 1.5726291 0.48401359 4293922560
3.1249249 1.5665238 0.4947674 4293792000
3.1026709 1.5554882 0.50326777 4293792000
3.0988996 1.5537114 0.51407516 4293792000
3.1225586 1.5656785 0.52889013 4293792000
3.1254933 1.5672635 0.53969264 4293792000
3.1204646 1.5648584 0.54849637 4293792000
3.1132708 1.5613686 0.5562495 4293792000
3.1156533 1.5626783 0.56504667 4293792000
3.1183925 1.5641675 0.57326436 4293792000
3.1244807 1.5673361 0.58144796 4293922560
3.115587 1.5629954 0.58617181 4293792000
3.1028037 1.5567046 0.58944017 4293792000
3.1020238 1.5564315 0.5942654 4293792000
3.1136761 1.5623927 0.60078126 4293792000
3.0895596 1.5504189 0.59970611 4293792000
3.1058173 1.5586913 0.60572022 4293792000
3.1010416 1.5564165 0.60694814 4293792000
3.1007764 1.5564044 0.60833842 4293792000
3.091814 1.5520302 0.60731131 4293792000
3.1117668 1.5621611 0.61122525 4293792000
3.1083045 1.5605471 0.60983944 4293792000
3.09483 1.55391 0.6057865 4293792000
3.1074324 1.560357 0.60610318 4293792000
3.1166067 1.5650853 0.60502434 4293792000
3.1090753 1.5614313 0.60000467 4293792000
3.1215703 1.5678283 0.59812206 4293922560
3.1155956 1.5649562 0.59200549 4293792000
3.1178749 1.5662277 0.58676332 4293792000
3.1273146 1.5710944 0.5821538 4293922560
3.1264715 1.5707999 0.57494068 4293922560
3.1240952 1.5697362 0.56678432 4293922560
3.1008768 1.5582073 0.55427074 4293792000
3.1058915 1.5608549 0.54618663 4293792000
3.1154797 1.5658005 0.53822619 4293792000
3.1324086 1.5744343 0.53082055 4293922560
3.1175873 1.5671217 0.51744103 4293792000
3.1078675 1.5623711 0.50439602 4293792000
3.0869803 1.5527341 0.41451779 4293661440
3.1151628 1.5670346 0.40287673 4293792000
3.1332901 1.576283 0.38925645 4293792000
3.1057487 1.5625733 0.36960822 4293661440
3.0756285 1.5475651 0.34954533 4293530880
3.0961988 1.5580436 0.3348648 4293661440
3.1082058 1.5642179 0.31870946 4293661440
3.0900195 1.5552086 0.29916 4293661440
3.0641065 1.5423115 0.27878973 4293530880
3.0823987 1.5516485 0.26214364 4293530880
3.0918272 1.5565282 0.24429329 4293661440
3.088589 1.5550364 0.22514254 4293661440
3.0604851 1.5410334 0.20414014 4293530880
3.0924597 1.5572591 0.18685222 4293661440
3.1007855 1.561587 0.16769066 4293661440
3.101316 1.5619924 0.14787044 4293661440
3.0555809 1.5391114 0.12600139 4293530880
3.085748 1.5544332 0.10717145 4293530880
3.075562 1.5494437 0.086716563 4293530880
3.0694749 1.5465169 0.066383407 4293530880
3.059917 1.541842 0.046004623 4293530880
3.0645068 1.5442904 0.025808612 4293530880
3.076937 1.5506877 0.0055292705 4293530880
3.0374391 1.530933 -0.014642185 4293400320
3.0597723 1.5423181 -0.035024505 4293530880
3.0615728 1.5433624 -0.05528523 4293530880
3.0638125 1.5446279 -0.075525232 4293530880
3.0375297 1.5315235 -0.09480989 4293400320
3.0692258 1.5476301 -0.11587504 4293530880
3.0701203 1.5482183 -0.13585079 4293530880
3.0769079 1.5517761 -0.15599726 4293530880
3.0380809 1.5323449 -0.17343548 4293400320
3.0589797 1.5430144 -0.19401769 4293530880
3.068399 1.5478989 -0.21384959 4293530880
3.06651 1.5470831 -0.23270537 4293530880
3.0514653 1.5396343 -0.25020197 4293530880
3.0924876 1.5604541 -0.2722123 4293661440
3.100771 1.5647681 -0.29132453 4293661440
3.0846832 1.556792 -0.30777332 4293661440
3.0459356 1.5373858 -0.32129917 4293530880
3.0866277 1.5580449 -0.34290302 4293661440
3.0974801 1.563655 -0.36108774 4293661440
3.0912235 1.5606344 -0.3768982 4293661440
3.0826509 1.5564445 -0.39193138 4293661440
3.0154402 1.5226665 -0.39865988 4293400320
3.1144989 1.5727841 -0.42716184 4293792000
3.1004119 1.5658101 -0.44003388 4293792000
3.1136088 1.5726047 -0.45629421 4293792000
3.0994325 1.5655836 -0.46801612 4293792000
3.0872805 1.5595826 -0.4794037 4293661440
3.0802851 1.5561833 -0.49097347 4293661440
3.0798473 1.5560939 -0.50300622 4293661440
3.0839128 1.5582776 -0.51521987 4293661440
3.0728436 1.5528189 -0.52428788 4293661440
3.0790117 1.5560635 -0.535689 4293661440
3.0759029 1.554623 -0.54487032 4293661440
3.0709221 1.5522362 -0.55307031 4293661440
3.0699415 1.551869 -0.56134009 4293661440
3.060483 1.5472184 -0.56738287 4293661440
3.0475252 1.5407988 -0.57206684 4293661440
3.044143 1.5392154 -0.57785451 4293530880
3.0275438 1.5309529 -0.5804196 4293530880
3.0078592 1.5211294 -0.58165467 4293400320
3.02826 1.5315617 -0.58998173 4293530880
2.9640284 1.4992207 -0.58104587 4293269760
2.9679301 1.5013124 -0.58474863 4293269760
2.980721 1.5078971 -0.58953959 4293400320
2.9804327 1.5078703 -0.59105992 4293400320
2.9670701 1.501233 -0.58928782 4293269760
3.0182879 1.5272467 -0.59968507 4293530880
3.0095317 1.5229379 -0.59744358 4293530880
3.0241413 1.5304437 -0.59915048 4293530880
3.0400681 1.5386162 -0.60040468 4293530880
3.0472021 1.5423422 -0.59920239 4293661440
3.0639133 1.5509125 -0.5991658 4293661440
3.065798 1.5519836 -0.59550524 4293661440
3.0667713 1.552593 -0.59097099 4293661440
3.0690265 1.5538507 -0.58599305 4293661440
3.0687106 1.5538069 -0.5798403 4293661440
3.0702498 1.5547014 -0.57336521 4293661440
3.0773516 1.5584104 -0.56724858 4293661440
3.0575814 1.5485201 -0.55554664 4293661440
3.0652316 1.5525055 -0.54823089 4293661440
3.0580628 1.5489904 -0.53762823 4293661440
3.0455413 1.5427649 -0.52552855 4293530880
3.0655007 1.5529804 -0.51842082 4293661440
3.0873325 1.5641447 -0.51089162 4293661440
3.0941434 1.5677052 -0.50018317 4293792000
3.0814679 1.5613993 -0.48577291 4293661440
3.0598199 1.5505486 -0.46953586 4293661440
3.0498607 1.5456151 -0.454703 4293530880
3.0713887 1.5566267 -0.44401529 4293661440
3.077642 1.5599033 -0.43048736 4293661440
3.0672588 1.5547534 -0.41416395 4293661440
3.0370667 1.5395683 -0.39489532 4293530880
3.0522966 1.5473906 -0.3811903 4293530880
3.0747232 1.5588595 -0.36776921 4293661440
3.0733762 1.5582848 -0.35097513 4293661440
3.0297055 1.536265 -0.32918814 4293400320
3.0421622 1.5426825 -0.31333989 4293530880
3.0422542 1.5428349 -0.29579768 4293530880
3.057595 1.5507149 -0.27933323 4293530880
3.0180764 1.5307918 -0.25766906 4293400320
3.0410724 1.5425515 -0.24119417 4293400320
3.0517676 1.5480776 -0.22327089 4293530880
3.0541279 1.5493789 -0.20441198 4293530880
3.0552895 1.5500727 -0.18523048 4293530880
3.0425591 1.543723 -0.16507402 4293400320
3.0529847 1.5491132 -0.14602509 4293530880
3.0596926 1.5526189 -0.12653042 4293530880
3.0291014 1.5372107 -0.10549323 4293400320
3.0567923 1.5513568 -0.086427219 4293530880
3.067543 1.5569134 -0.066529371 4293530880
3.0814698 1.5640814 -0.046470556 4293530880
3.0651684 1.5559177 -0.025906298 4293530880
3.0778728 1.5624666 -0.0056034755 4293530880
3.0841477 1.5657547 0.014844051 4293530880
3.0909457 1.5693085 0.035361588 4293661440
3.0853593 1.5665795 0.055712286 4293530880
3.1117756 1.5800883 0.076695025 4293661440
3.117281 1.582988 0.097300068 4293661440
3.0897603 1.5691285 0.1166436 4293661440
3.1010997 1.5749888 0.13719417 4293661440
3.1097546 1.5794876 0.15760559 4293661440
3.1121433 1.5808065 0.17760074 4293661440
3.0711188 1.560089 0.19470704 4293530880
3.1018636 1.5758018 0.21603404 4293661440
3.1146035 1.5823764 0.23615153 4293792000
3.1157625 1.5830723 0.25522363 4293792000
3.0709267 1.5604148 0.27001497 4293530880
3.1262107 1.5885932 0.29329935 4293792000
3.1407332 1.5960766 0.3128722 4293792000
3.1355443 1.5935509 0.33020189 4293792000
3.1098323 1.5806017 0.34484395 4293792000
3.0205545 1.5353647 0.35146728 4293400320
3.1286833 1.5903953 0.38061431 4293792000
3.1327531 1.592573 0.39734387 4293792000
3.1197686 1.5860873 0.4114314 4293792000
3.0987365 1.5755125 0.42383152 4293792000
3.0599208 1.5559008 0.43304664 4293530880
3.1223514 1.5877333 0.45612791 4293792000
3.1334832 1.5935022 0.47156864 4293922560
3.1270089 1.5903248 0.48385713 4293922560
3.1201584 1.5869563 0.49548009 4293792000
3.101496 1.577584 0.50456864 4293792000
3.0897944 1.5717491 0.51409 4293792000
3.116909 1.585646 0.52950144 4293792000
3.1039739 1.5791848 0.53758049 4293792000
3.1236236 1.5892899 0.55067581 4293922560
3.1252484 1.5902321 0.56003481 4293922560
3.1144152 1.5848402 0.56649625 4293922560
3.1136243 1.5845548 0.57408696 4293922560
3.1152956 1.5855221 0.58146292 4293922560
3.1064274 1.5811296 0.58618677 4293792000
3.1143396 1.5852723 0.59337562 4293922560
3.0972958 1.5767213 0.59512103 4293792000
3.1045201 1.5805155 0.60079622 4293792000
3.0971606 1.5768912 0.60295683 4293792000
3.0922923 1.5745344 0.60487962 4293792000
3.0919206 1.5744658 0.60696304 4293792000
3.0872657 1.5722182 0.60749286 4293792000
3.0827188 1.5700258 0.60732615 4293792000
3.0791578 1.5683354 0.60663736 4293792000
3.0947697 1.5764043 0.60899395 4293792000
3.1111841 1.5848836 0.61078042 4293922560
3.1026783 1.5806783 0.60697359 4293792000
3.1074347 1.5832251 0.6050393 4293792000
3.1130989 1.586235 0.60255957 4293922560
3.1158962 1.5877862 0.59880966 4293922560
3.1108177 1.5853275 0.59285438 4293922560
3.1086965 1.584375 0.58677828 4293792000
3.130415 1.5955651 0.5844574 4293922560
3.1138577 1.5872613 0.57432961 4293922560
3.1148963 1.58792 0.56679934 4293922560
3.1040649 1.5825323 0.55648506 4293792000
3.101146 1.5811756 0.5469746 4293792000
3.0983779 1.5798959 0.5368737 4293792000
3.118777 1.5904219 0.53009009 4293922560
3.1084037 1.585268 0.517456 4293792000
3.1162713 1.5894105 0.50725645 4293792000
3.082304 1.5729588 0.41512513 4293661440
3.11483 1.5896813 0.40403345 4293792000
3.1224954 1.5937275 0.38907856 4293792000
3.1010211 1.5829114 0.37014875 4293792000
3.0754223 1.5699898 0.35056418 4293661440
3.0994823 1.5824001 0.33621767 4293661440
3.1041479 1.5849179 0.31924626 4293661440
3.0764685 1.5709323 0.29874703 4293661440
3.0466349 1.5558455 0.27804068 4293530880
3.0878327 1.577006 0.26338774 4293661440
3.0878224 1.5771387 0.24471022 4293661440
3.0887294 1.5777397 0.22582775 4293661440
3.0514545 1.5588503 0.20415486 4293530880
3.0966747 1.5820729 0.1876668 4293661440
3.093055 1.5803639 0.16778171 4293661440
3.0966117 1.5823191 0.14809527 4293661440
3.0590217 1.5632633 0.12652335 4293530880
3.0766387 1.5723981 0.10718631 4293530880
3.0753851 1.5718964 0.086977489 4293530880
3.0658324 1.5671558 0.066512339 4293530880
3.0545793 1.5615458 0.046072792 4293530880
3.0599096 1.5644069 0.025858212 4293530880
3.0678499 1.568602 0.0055440906 4293530880
3.0284679 1.5486178 -0.014627554 4293400320
3.0439274 1.5566547 -0.034927487 4293400320
3.0496769 1.5597304 -0.055217117 4293530880
3.059212 1.5647416 -0.075623162 4293530880
3.0341835 1.5520865 -0.094974808 4293400320
3.0613585 1.566115 -0.11590646 4293530880
3.0703099 1.5708294 -0.1362524 4293530880
3.0722616 1.5719655 -0.15621112 4293530880
3.0303557 1.5506762 -0.17349337 4293400320
3.0555871 1.563715 -0.19436552 4293530880
3.0717685 1.5721277 -0.21471132 4293530880
3.0504158 1.5613443 -0.23215176 4293530880
3.0673037 1.5701191 -0.25224549 4293530880
3.0833435 1.5784614 -0.27219737 4293661440
3.1040208 1.5891775 -0.29248652 4293661440
3.0844274 1.579291 -0.30865049 4293661440
3.041358 1.5573902 -0.32175568 4293530880
3.0842736 1.5794863 -0.34364671 4293661440
3.0927439 1.5839577 -0.36159268 4293661440
3.0891604 1.5822601 -0.37775299 4293661440
3.0947568 1.5852607 -0.39463416 4293661440
3.0422916 1.5585396 -0.40340754 4293530880
3.1052825 1.5909208 -0.42714679 4293792000
3.1035986 1.5901943 -0.4417848 4293792000
3.1043935 1.5907365 -0.45627916 4293792000
3.1034892 1.5904082 -0.47001147 4293792000
3.0825493 1.5798188 -0.48007748 4293661440
3.071166 1.5741217 -0.4909586 4293661440
3.0639923 1.5705792 -0.50188458 4293661440
3.0791826 1.5784917 -0.5159446 4293661440
3.0725422 1.5752213 -0.52578282 4293661440
3.0698934 1.5739948 -0.5356741 4293661440
3.066793 1.5725363 -0.54485548 4293661440
3.0642331 1.5713539 -0.55349135 4293661440
3.0652392 1.5719981 -0.56213272 4293661440
3.0601957 1.5695416 -0.56900465 4293661440
3.0349858 1.5567479 -0.57138956 4293530880
3.02635 1.5524471 -0.57616532 4293530880
3.0308516 1.5548798 -0.58277178 4293530880
3.01999 1.5494359 -0.58573169 4293530880
3.0192852 1.5491982 -0.58996713 4293530880
2.96839 1.5232246 -0.58362269 4293400320
2.9635141 1.5208446 -0.58560222 4293269760
2.9631228 1.5207636 -0.58778292 4293269760
2.9628356 1.5207353 -0.58929873 4293269760
2.9670336 1.5230069 -0.59102279 4293400320
3.0093384 1.5448252 -0.59967047 4293530880
2.9962273 1.5382184 -0.59655482 4293400320
3.0230579 1.5521014 -0.60070634 4293530880
3.0310521 1.5563215 -0.60038996 4293530880
3.0381644 1.560089 -0.59918767 4293661440
3.0548253 1.5687565 -0.59915102 4293661440
3.0567038 1.5698384 -0.5954904 4293661440
3.0572979 1.5702609 -0.59088343 4293661440
3.0557287 1.5695723 -0.58517337 4293661440
3.0675004 1.575731 -0.58132535 4293661440
3.0734241 1.5788882 -0.57565701 4293792000
3.0769973 1.5808384 -0.56886059 4293792000
3.067255 1.5759521 -0.55895716 4293661440
3.0605264 1.5726118 -0.54900604 4293661440
3.048986 1.5667998 -0.53761345 4293661440
3.0408967 1.5627586 -0.52627671 4293530880
3.0528824 1.5690261 -0.51780754 4293661440
3.078167 1.5821241 -0.51087666 4293661440
3.0893586 1.587985 -0.500884 4293792000
3.0811265 1.5838687 -0.48715493 4293661440
3.05514 1.5706309 -0.47020137 4293661440
3.045212 1.5656407 -0.45534965 4293530880
3.0578566 1.5722467 -0.44335869 4293661440
3.0685012 1.5778255 -0.43047246 4293661440
3.0537331 1.5703464 -0.41354892 4293530880
3.0404136 1.5636102 -0.39649999 4293530880
3.0556037 1.5715246 -0.38273197 4293530880
3.0700104 1.5790368 -0.36828706 4293661440
3.0810556 1.5848221 -0.35289451 4293661440
3.0339813 1.5607327 -0.33062756 4293530880
3.0341177 1.560909 -0.31342852 4293530880
3.0456173 1.5669268 -0.29699931 4293530880
3.0496614 1.5691122 -0.27942473 4293530880
3.0133455 1.5505456 -0.2580198 4293400320
3.0363915 1.5625004 -0.24152856 4293530880
3.0572054 1.5733086 -0.22432891 4293530880
3.0497546 1.5695825 -0.20471573 4293530880
3.0626974 1.576344 -0.18622781 4293530880
3.0302279 1.559749 -0.16487861 4293400320
3.0483491 1.5691743 -0.14622597 4293530880
3.0505946 1.570434 -0.12651558 4293530880
3.0200937 1.5548476 -0.10547854 4293400320
3.0521462 1.5714413 -0.086541079 4293530880
3.062865 1.5770606 -0.066613846 4293530880
3.07675 1.5843099 -0.046525523 4293530880
3.052417 1.5718939 -0.025858421 4293530880
3.0701368 1.581117 -0.0055920081 4293530880
3.08831 1.5905747 0.014915198 4293661440
3.0817499 1.587304 0.035376582 4293661440
3.090981 1.5921608 0.05598608 4293661440
3.1060722 1.6000348 0.076795802 4293661440
3.1035609 1.5988483 0.097178854 4293661440
3.0974491 1.5958083 0.11728709 4293661440
3.0888469 1.5914856 0.13707699 4293661440
3.1025867 1.5986662 0.15772547 4293661440
3.1108713 1.6030389 0.17806806 4293792000
3.0664153 1.5802531 0.19500123 4293530880
3.100616 1.5979719 0.21660168 4293661440
3.1118512 1.6038656 0.23665816 4293792000
3.1064861 1.60121 0.25523877 4293792000
3.0662143 1.5805743 0.27041766 4293530880
3.1257613 1.6113552 0.29414219 4293792000
3.1381543 1.6178488 0.31355968 4293922560
3.1262064 1.6118031 0.33021712 4293792000
3.1129425 1.6050787 0.34622654 4293792000
3.0203998 1.5575039 0.35250756 4293400320
3.1384933 1.6184646 0.38295031 4293922560
3.123421 1.6108084 0.3973591 4293792000
3.1166656 1.6074378 0.41226113 4293792000
3.097446 1.597643 0.42493036 4293792000
3.0631506 1.5800765 0.43480515 4293661440
3.1266317 1.6129099 0.45812374 4293922560
3.1249578 1.6121597 0.47170588 4293922560
3.1308985 1.6153356 0.48591271 4293922560
3.1108592 1.6051174 0.49549523 4293792000
3.0966501 1.5979044 0.5052982 4293792000
3.0893767 1.5942675 0.51556581 4293792000
3.1164057 1.6083202 0.53100759 4293922560
3.1237087 1.6122018 0.54260969 4293922560
3.118701 1.6097351 0.55146402 4293922560
3.1159298 1.6084223 0.56005001 4293922560
3.1120706 1.6065484 0.56777275 4293922560
3.1087244 1.6049395 0.57490981 4293922560
3.1147721 1.6081774 0.58311284 4293922560
3.1015446 1.6014712 0.58702797 4293792000
3.0932155 1.5972918 0.59113801 4293792000
3.0924363 1.5970088 0.59597689 4293792000
3.1083956 1.6053646 0.60335129 4293922560
3.0879202 1.5949175 0.60297191 4293792000
3.0874434 1.5947919 0.6057502 4293792000
3.0870714 1.5947211 0.60783654 4293792000
3.0911827 1.5969651 0.61008918 4293792000
3.0778952 1.5902275 0.60820258 4293792000
3.0898511 1.596523 0.61056614 4293792000
3.0977864 1.6007441 0.61141825 4293922560
3.1062739 1.6052514 0.61165398 4293922560
3.093416 1.5987368 0.60698867 4293792000
3.1060371 1.6053809 0.60658729 4293922560
3.1160631 1.6106861 0.60494542 4293922560
3.1153505 1.6104457 0.60050642 4293922560
3.1146681 1.6102215 0.59537137 4293922560
3.1072984 1.6065428 0.5882805 4293922560
3.1210651 1.613785 0.58447266 4293922560
3.117708 1.6121805 0.5767678 4293922560
3.1099765 1.6083159 0.56761158 4293922560
3.0945992 1.6004997 0.55646574 4293792000
3.0918808 1.5992255 0.54698974 4293792000
3.1019039 1.6045377 0.53910106 4293792000
3.1148369 1.6113554 0.53101838 4293922560
3.1170509 1.6126333 0.5204528 4293922560
3.1069577 1.6075488 0.50727159 4293792000
3.0770543 1.5929527 0.41567326 4293661440
3.1011031 1.6055297 0.40347776 4293792000
3.1235375 1.6172739 0.3903839 4293792000
3.0873296 1.5986772 0.36963826 4293661440
3.0750592 1.5924647 0.35158324 4293661440
3.0857897 1.5981547 0.3357549 4293661440
3.0948608 1.6029874 0.3192614 4293661440
3.084075 1.5975429 0.30038789 4293661440
3.055222 1.5827452 0.27966386 4293530880
3.0741644 1.5926888 0.26302698 4293661440
3.0874398 1.5997003 0.2454235 4293661440
3.0794845 1.5957204 0.22584282 4293661440
3.0547307 1.5830408 0.20499425 4293530880
3.0859885 1.5993668 0.18759678 4293661440
3.0992308 1.606365 0.16862659 4293661440
3.0829041 1.5980487 0.14790046 4293661440
3.0586581 1.5856286 0.1268975 4293530880
3.0644047 1.5887445 0.10709772 4293530880
3.0753181 1.5945382 0.087246083 4293661440
3.0699654 1.5919044 0.066808648 4293530880
3.0482728 1.580803 0.04612894 4293530880
3.0507429 1.5822216 0.025873153 4293530880
3.0586586 1.5864631 0.00555907 4293530880
3.0238326 1.5685509 -0.014637014 4293400320
3.0348063 1.5743769 -0.034912623 4293400320
3.0449758 1.5797874 -0.055285502 4293530880
3.0498486 1.5824523 -0.075603284 4293530880
3.0312977 1.5729719 -0.095158614 4293400320
3.06758 1.5919243 -0.11648527 4293530880
3.0707858 1.5937262 -0.13667388 4293661440
3.0648129 1.5907677 -0.156287 4293530880
3.0469785 1.581656 -0.17496969 4293530880
3.0641489 1.5907011 -0.19549146 4293530880
3.0598958 1.5886332 -0.21450828 4293530880
3.062521 1.5901333 -0.2337711 4293530880
3.0669558 1.5925727 -0.25296554 4293661440
3.0864823 1.6028435 -0.2732859 4293661440
3.0855014 1.6024733 -0.2915962 4293661440
3.0831299 1.6013808 -0.30943823 4293661440
3.0410686 1.5796866 -0.32268316 4293530880
3.0829673 1.6015722 -0.34452406 4293661440
3.0878763 1.6042582 -0.36209741 4293661440
3.0878296 1.6043712 -0.37871587 4293661440
3.0819409 1.6014506 -0.39416611 4293661440
3.0410914 1.5803746 -0.40445167 4293530880
3.1091731 1.6158652 -0.42896113 4293792000
3.0942807 1.6082674 -0.44176963 4293792000
3.099472 1.6110995 -0.45691472 4293792000
3.0985672 1.610765 -0.47066635 4293792000
3.0732925 1.5977699 -0.4800624 4293661440
3.066335 1.5942886 -0.49164999 4293661440
3.0626917 1.5925283 -0.50317174 4293661440
3.0655456 1.5941433 -0.51518995 4293661440
3.072084 1.5976728 -0.52727753 4293792000
3.0773289 1.6005301 -0.53858256 4293792000
3.066782 1.5951796 -0.54648477 4293661440
3.0594058 1.5914756 -0.554272 4293661440
3.0569804 1.5903442 -0.56229329 4293661440
3.0588768 1.5914588 -0.57046258 4293661440
3.0337391 1.5785173 -0.57286543 4293661440
3.0294995 1.5764394 -0.57849467 4293661440
3.0173688 1.5702573 -0.58191168 4293530880
3.0065401 1.5647507 -0.5848645 4293530880
3.0145779 1.5690548 -0.59081084 4293530880
2.963834 1.5427849 -0.58447188 4293400320
2.9633398 1.5426487 -0.58732349 4293400320
2.9629478 1.5425651 -0.58951062 4293400320
2.9748888 1.5488971 -0.59347636 4293400320
2.9493756 1.5357424 -0.58925897 4293269760
2.9492986 1.5358204 -0.58944082 4293269760
2.9959486 1.5602132 -0.59828848 4293530880
3.0139637 1.5697073 -0.6006915 4293530880
3.0185738 1.5722255 -0.59970611 4293530880
3.0333912 1.5800563 -0.60003889 4293661440
3.0377829 1.5824606 -0.597588 4293661440
3.0469763 1.5873646 -0.59537178 4293661440
3.0568383 1.5926166 -0.59256703 4293661440
3.0585809 1.5936414 -0.58747834 4293661440
3.0636234 1.596384 -0.58233082 4293792000
3.0697811 1.5997071 -0.57669818 4293792000
3.0589833 1.5942005 -0.5672186 4293661440
3.0623982 1.5960944 -0.5597443 4293661440
3.0489957 1.5892289 -0.5485732 4293661440
3.0476906 1.5886631 -0.53899682 4293661440
3.0361226 1.5827504 -0.52702469 4293661440
3.0515811 1.590916 -0.51913899 4293661440
3.0645103 1.5977645 -0.51012921 4293661440
3.0814555 1.6067059 -0.50109744 4293792000
3.0674553 1.5995235 -0.48644134 4293661440
3.0459373 1.5884223 -0.47018638 4293661440
3.0360384 1.5833741 -0.45533469 4293530880
3.0597646 1.5958492 -0.44496647 4293661440
3.0666504 1.5995481 -0.43150157 4293661440
3.0605571 1.596482 -0.41571885 4293661440
3.0475454 1.5898086 -0.39862475 4293530880
3.0711472 1.602221 -0.38583943 4293661440
3.0719066 1.6027259 -0.36961922 4293661440
3.0761802 1.6050626 -0.3533884 4293661440
3.0283666 1.5802404 -0.33100042 4293530880
3.037333 1.5850223 -0.31470105 4293530880
3.0424399 1.5877922 -0.29757482 4293530880
3.0493045 1.5914786 -0.28022671 4293530880
3.0166371 1.5745471 -0.25907487 4293400320
3.0334241 1.583408 -0.24201079 4293530880
3.0500708 1.5921967 -0.22446842 4293530880
3.0505795 1.5925679 -0.20538116 4293530880
3.0516794 1.5932472 -0.18610309 4293530880
3.0267656 1.5803545 -0.16517682 4293400320
3.0412414 1.5880117 -0.14631258 4293530880
3.0537961 1.5946677 -0.1270238 4293530880
3.0198445 1.5770557 -0.10577939 4293400320
3.0452824 1.5904348 -0.086594127 4293530880
3.0624878 1.599519 -0.066797443 4293530880
3.0670226 1.6019912 -0.046503387 4293530880
3.0432069 1.5896653 -0.025843415 4293530880
3.0629561 1.6000791 -0.0055819973 4293530880
3.0836897 1.6110078 0.014950262 4293661440
3.0822775 1.6103765 0.035498802 4293661440
3.074872 1.606616 0.055882331 4293661440
3.1011283 1.6204312 0.076918192 4293661440
3.105715 1.6229329 0.097548723 4293792000
3.0880988 1.6138403 0.11730233 4293661440
3.0839505 1.6117804 0.13728647 4293661440
3.0999932 1.6202656 0.15808174 4293792000
3.1054611 1.6232285 0.17830941 4293792000
3.0537527 1.5963262 0.19480148 4293530880
3.1000996 1.620643 0.21723098 4293792000
3.1059911 1.6238284 0.23694097 4293792000
3.1057503 1.6238108 0.25596082 4293792000
3.0604877 1.60027 0.27074301 4293661440
3.1119034 1.6272428 0.29374373 4293792000
3.1286747 1.6361158 0.31357512 4293922560
3.1335976 1.6387986 0.3320047 4293922560
3.1079478 1.6255037 0.3467308 4293792000
3.0024581 1.5704781 0.35149676 4293400320
3.1290102 1.6367331 0.38296574 4293922560
3.1166277 1.6303716 0.39771011 4293792000
3.1160493 1.6301806 0.41343811 4293922560
3.0924835 1.617972 0.42554778 4293792000
3.0415826 1.59147 0.43307653 4293530880
3.1215754 1.6334063 0.45878181 4293922560
3.1234169 1.6344824 0.47291249 4293922560
3.1293347 1.6376909 0.48715243 4293922560
3.1050527 1.6251061 0.49608284 4293792000
3.108336 1.6269373 0.50874299 4293922560
3.0966909 1.6209607 0.51835668 4293792000
3.1113632 1.6287504 0.53176844 4293922560
3.1068194 1.6264892 0.54133373 4293922560
3.1259017 1.6365887 0.55441713 4293922560
3.1100059 1.6283891 0.56069374 4293922560
3.116729 1.6320244 0.57035267 4293922560
3.0993204 1.6230329 0.57492512 4293922560
3.1140902 1.6308804 0.58476299 4293922560
3.1008992 1.624096 0.58869559 4293922560
3.0917184 1.61941 0.59265435 4293922560
3.0996728 1.6236931 0.5991872 4293922560
3.0913782 1.6194715 0.60189056 4293922560
3.0829401 1.6151749 0.60383874 4293792000
3.0946834 1.6214441 0.60901648 4293922560
3.0820913 1.6149732 0.60871023 4293792000
3.0896797 1.6190689 0.61165327 4293922560
3.0851576 1.6168239 0.61149126 4293792000
3.0816162 1.6150929 0.61080247 4293792000
3.1014967 1.6256293 0.61401492 4293922560
3.0842083 1.6166992 0.60917854 4293792000
3.0884123 1.6190268 0.60785949 4293792000
3.1097236 1.6303176 0.60915744 4293922560
3.1022606 1.6265352 0.60411406 4293922560
3.1077371 1.6295325 0.60087281 4293922560
3.1083527 1.6299839 0.59598249 4293922560
3.1149719 1.6335821 0.5915277 4293922560
3.1076787 1.6298901 0.58375263 4293922560
3.1204989 1.6367401 0.57904482 4293922560
3.1013591 1.6268393 0.56777388 4293922560
3.1018405 1.6272231 0.55946606 4293922560
3.0901575 1.6212302 0.54835624 4293792000
3.1003809 1.6267223 0.54048389 4293922560
3.1141529 1.6340767 0.53252482 4293922560
3.1163633 1.6353699 0.52192909 4293922560
3.1133921 1.6339467 0.5098716 4293922560
3.0633245 1.6085565 0.41509593 4293661440
3.100493 1.6281966 0.40463489 4293792000
3.1096609 1.6331458 0.38985074 4293792000
3.0918727 1.6239485 0.3713142 4293792000
3.0652895 1.6101336 0.35154837 4293661440
3.0868232 1.6215748 0.33689767 4293792000
3.0898774 1.623317 0.31972986 4293792000
3.0762997 1.6163276 0.30055693 4293661440
3.0499184 1.6026146 0.28004074 4293530880
3.0759957 1.6164459 0.26399264 4293661440
3.0860155 1.6218473 0.24606718 4293661440
3.0821409 1.6199524 0.22673321 4293661440
3.0454552 1.6008235 0.20500936 4293530880
3.0859854 1.6222523 0.18817709 4293661440
3.078851 1.618645 0.16805048 4293661440
3.0907896 1.6250578 0.14873454 4293661440
3.0599806 1.6090112 0.12734739 4293530880
3.0674834 1.6130936 0.10753917 4293661440
3.0692487 1.6141617 0.087352358 4293661440
3.0676413 1.6134574 0.066972293 4293661440
3.0448918 1.6016407 0.04622959 4293530880
3.047358 1.6030766 0.025934646 4293530880
3.0493631 1.6042705 0.0055742082 4293530880
3.0200627 1.5890056 -0.01465172 4293400320
3.0395629 1.5993971 -0.03506748 4293530880
3.0536857 1.6069628 -0.055608474 4293530880
3.0490358 1.6046574 -0.07580357 4293530880
3.0344672 1.5971351 -0.095540993 4293530880
3.0662134 1.6139717 -0.11677794 4293661440
3.0614479 1.6116053 -0.13665867 4293661440
3.0687537 1.6155885 -0.15695775 4293661440
3.0385184 1.5998216 -0.17500155 4293530880
3.0599508 1.6112369 -0.19580695 4293661440
3.062953 1.6129562 -0.21536954 4293661440
3.0532043 1.6079652 -0.23375593 4293530880
3.0697143 1.6167932 -0.25395718 4293661440
3.0882499 1.6266885 -0.2742677 4293792000
3.1005361 1.6332957 -0.29390922 4293792000
3.083672 1.6245579 -0.31042737 4293661440
3.0387247 1.6010332 -0.32340738 4293530880
3.07658 1.6211017 -0.34484625 4293661440
3.0896089 1.6281004 -0.36339724 4293792000
3.0784297 1.6223516 -0.37870055 4293661440
3.0681624 1.6170819 -0.3935847 4293661440
3.0195313 1.5916045 -0.40278929 4293530880
3.095315 1.6316574 -0.42833591 4293792000
3.0848579 1.6262859 -0.44175428 4293792000
3.0935414 1.6309968 -0.45741993 4293792000
3.0891299 1.6288087 -0.47065097 4293792000
3.0761991 1.6221308 -0.48197529 4293792000
3.0657523 1.6167601 -0.4930476 4293792000
3.0621147 1.6149768 -0.50460333 4293661440
3.0582664 1.6130815 -0.51552314 4293661440
3.0629869 1.6157018 -0.52730781 4293792000
3.0653262 1.6170671 -0.53810519 4293792000
3.0609307 1.6148814 -0.54709589 4293792000
3.0588148 1.6138965 -0.55584794 4293792000
3.0520275 1.6104481 -0.5630855 4293661440
3.0539157 1.6115732 -0.57126564 4293661440
3.0332141 1.6007849 -0.57450676 4293661440
3.0246234 1.5963818 -0.57931685 4293661440
3.0212455 1.5947267 -0.58443248 4293661440
3.0060878 1.5868572 -0.58655429 4293530880
3.0140984 1.5912075 -0.59251291 4293530880
2.9582798 1.5618842 -0.5851481 4293400320
2.9577856 1.5617449 -0.5880031 4293400320
2.9573939 1.561659 -0.59019279 4293400320
2.9571056 1.5616273 -0.59171486 4293400320
2.9612763 1.5639478 -0.59344238 4293400320
2.944654 1.5552944 -0.59030104 4293269760
3.0077055 1.5886911 -0.6024695 4293530880
2.9869416 1.5778509 -0.59710473 4293530880
3.0180709 1.5944021 -0.60143065 4293661440
3.016542 1.593714 -0.5985139 4293661440
3.0363512 1.604291 -0.59912348 4293661440
3.0463889 1.6097094 -0.59706825 4293661440
3.0475073 1.6104184 -0.59255183 4293661440
3.0623188 1.618358 -0.58998823 4293792000
3.0586298 1.6165277 -0.58314884 4293792000
3.0560477 1.6152811 -0.57585913 4293792000
3.059063 1.6169902 -0.56895989 4293792000
3.0486829 1.6116232 -0.55892694 4293661440
3.0519083 1.6134421 -0.55076987 4293661440
3.0383828 1.6064113 -0.53898168 4293661440
3.0268493 1.6004313 -0.52700955 4293661440
3.037889 1.6063771 -0.51837581 4293661440
3.0595224 1.6179212 -0.51084626 4293661440
3.0785203 1.6280736 -0.50214195 4293792000
3.0624611 1.6196996 -0.48712453 4293661440
3.0401344 1.6080115 -0.47071546 4293661440
3.0390303 1.6075386 -0.45717141 4293661440
3.0460308 1.6113495 -0.44430959 4293661440
3.0651739 1.6215793 -0.43260458 4293661440
3.0591025 1.61848 -0.41678387 4293661440
3.0339088 1.6052697 -0.39804029 4293530880
3.056128 1.6171263 -0.38511148 4293661440
3.0727563 1.6260281 -0.37084511 4293661440
3.0675218 1.6233691 -0.35345939 4293661440
3.0318644 1.6046203 -0.3323907 4293530880
3.0368488 1.6073637 -0.31560549 4293530880
3.0419436 1.6101655 -0.29842842 4293530880
3.0399804 1.6092339 -0.28021154 4293530880
3.024158 1.6009705 -0.26051173 4293530880
3.0408993 1.6099329 -0.24334565 4293530880
3.0530906 1.6164889 -0.22537169 4293661440
3.0580895 1.6192402 -0.20651273 4293661440
3.0458751 1.6128834 -0.18630585 4293530880
3.0306721 1.6049443 -0.16589005 4293530880
3.0326409 1.6060913 -0.1463318 4293530880
3.050633 1.6157181 -0.12727003 4293530880
3.0185552 1.5988461 -0.10604843 4293400320
3.0336275 1.6069281 -0.086510919 4293530880
3.0575347 1.6196878 -0.066881493 4293530880
3.0620553 1.6221864 -0.04655797 4293661440
3.038312 1.6097221 -0.025868598 4293530880
3.068296 1.6257017 -0.0056026592 4293661440
3.0742509 1.6289605 0.014965629 4293661440
3.068424 1.625981 0.035465855 4293661440
3.0763769 1.6302984 0.056089841 4293661440
3.0842099 1.6345527 0.076753579 4293661440
3.1023872 1.6442863 0.097755037 4293792000
3.0830595 1.6341566 0.11748315 4293661440
3.0868697 1.6362815 0.13784587 4293661440
3.0993283 1.6429881 0.15854304 4293792000
3.1052189 1.6462162 0.17885266 4293792000
3.0601447 1.6224444 0.19581367 4293661440
3.0920126 1.6394353 0.21734448 4293792000
3.1073704 1.6476806 0.23778275 4293792000
3.1041684 1.6460924 0.2566267 4293792000
3.0397959 1.6120886 0.26976186 4293530880
3.1161034 1.6526353 0.29505029 4293792000
3.1211579 1.6554239 0.31379732 4293922560
3.1204085 1.6551371 0.33164147 4293922560
3.111614 1.6505858 0.3482132 4293792000
3.0020456 1.5926139 0.35253745 4293400320
3.1238129 1.6572744 0.38351753 4293922560
3.1149771 1.6527016 0.39873156 4293922560
3.1156492 1.6531698 0.41466507 4293922560
3.0873895 1.6382973 0.42616537 4293792000
3.0445306 1.6156816 0.43483549 4293661440
3.1207666 1.6562215 0.46008271 4293922560
3.1261685 1.6592001 0.4747915 4293922560
3.1197398 1.6559047 0.48716804 4293922560
3.1173124 1.6547318 0.49957302 4293922560
3.1075473 1.6496668 0.51018757 4293922560
3.0828242 1.6366663 0.51764166 4293792000
3.1104872 1.6514574 0.53326339 4293922560
3.1051478 1.6487408 0.5427168 4293922560
3.1163132 1.6547819 0.55443275 4293922560
3.1179125 1.6557484 0.56385148 4293922560
3.1071672 1.6501641 0.57036823 4293922560
3.1020153 1.6475483 0.5772022 4293922560
3.1080208 1.6508547 0.58543247 4293922560
3.0992241 1.6463051 0.59019816 4293922560
3.0909395 1.6420271 0.59433776 4293922560
3.0979958 1.6458935 0.60071617 4293922560
3.0818899 1.6374636 0.601906 4293922560
3.0856614 1.6395872 0.60623866 4293922560
3.0851836 1.6394553 0.60903192 4293922560
3.0891609 1.6416899 0.61198801 4293922560
3.0888939 1.6416713 0.61338973 4293922560
3.0843844 1.6394001 0.61322963 4293922560
3.0756335 1.6348763 0.61150706 4293792000
3.0832729 1.6390588 0.61230946 4293922560
3.0877864 1.6415821 0.6117695 4293922560
3.0911078 1.643473 0.6102705 4293922560
3.1080036 1.6525773 0.61070591 4293922560
3.0970826 1.6469027 0.6049763 4293922560
3.1060243 1.6517828 0.60240185 4293922560
3.098803 1.6480746 0.59599799 4293922560
3.1019175 1.6498599 0.5908823 4293922560
3.1024852 1.6502922 0.58458561 4293922560
3.102999 1.6506965 0.57759386 4293922560
3.1040313 1.6513772 0.57002127 4293922560
3.0966671 1.6475943 0.56026715 4293922560
3.0841484 1.6410708 0.54899019 4293792000
3.1039405 1.6517279 0.54277873 4293922560
3.1201859 1.6605011 0.5352059 4293922560
3.1099172 1.6551752 0.52246904 4293922560
3.1125576 1.656715 0.51131624 4293922560
3.0631056 1.6312855 0.41635582 4293661440
3.0988467 1.6504439 0.40567806 4293792000
3.1014936 1.6519916 0.3900415 4293792000
3.0835006 1.6425534 0.37146649 4293792000
3.055856 1.6279761 0.35156372 4293661440
3.0836518 1.6429121 0.33760163 4293792000
3.0891573 1.645983 0.32065171 4293792000
3.0668302 1.6342345 0.30057234 4293661440
3.0444896 1.6224772 0.28041804 4293530880
3.0700459 1.6362263 0.26430875 4293661440
3.0765135 1.6398112 0.24608265 4293661440
3.0738926 1.6385558 0.2268395 4293661440
3.0528166 1.6274693 0.20614374 4293661440
3.0829594 1.6436677 0.18858455 4293661440
3.0902658 1.6477022 0.16919643 4293792000
3.0766668 1.6405982 0.14853086 4293661440
3.056807 1.6301569 0.12761973 4293661440
3.0575066 1.6306704 0.10753638 4293661440
3.064203 1.6343805 0.087490879 4293661440
3.0581884 1.6313159 0.066987671 4293661440
3.0419986 1.6228269 0.046339612 4293530880
3.0421188 1.6230314 0.025982788 4293530880
3.0456324 1.6250452 0.0055963891 4293530880
3.0195084 1.6112564 -0.014684602 4293400320
3.0233998 1.6134709 -0.034969471 4293530880
3.0542614 1.6300691 -0.055781659 4293661440
3.0473437 1.6265206 -0.075985134 4293530880
3.0339301 1.6195065 -0.095809571 4293530880
3.0627513 1.6350209 -0.11699503 4293661440
3.0687563 1.6383656 -0.13740304 4293661440
3.0734675 1.6410204 -0.15767792 4293661440
3.0450821 1.6260161 -0.17591614 4293530880
3.0577366 1.6329088 -0.19625945 4293661440
3.0526259 1.6303217 -0.21529178 4293661440
3.0586698 1.6336874 -0.23489209 4293661440
3.0586615 1.6338229 -0.25380972 4293661440
3.081713 1.6462677 -0.27452043 4293792000
3.0865722 1.6490024 -0.29347339 4293792000
3.0829408 1.647204 -0.31130379 4293792000
3.0259676 1.6169238 -0.32302976 4293530880
3.0635717 1.6371411 -0.34443417 4293661440
3.0812554 1.6467234 -0.36352211 4293792000
3.0645406 1.6379354 -0.37814182 4293661440
3.0630708 1.6372881 -0.39413539 4293661440
2.9914005 1.5991416 -0.40024796 4293400320
3.0901332 1.6520197 -0.42893013 4293792000
3.0817621 1.6476853 -0.44266585 4293792000
3.0729768 1.6431285 -0.45576602 4293792000
3.0872622 1.650898 -0.47181213 4293792000
