# .PCD v0.7 - Point Cloud Data file format
VERSION 0.7
FIELDS x y z rgba
SIZE 4 4 4 4
TYPE F F F U
COUNT 1 1 1 1
WIDTH 1103
HEIGHT 1
VIEWPOINT 0 0 0 1 0 0 0
POINTS 1103
DATA ascii
3.1160109 0.3154034 -0.417844 4292616960
2.897671 0.29343218 -0.37679589 4291833600
2.7847047 0.28209868 -0.35039094 4291441920
2.6543694 0.26900229 -0.32245183 4291050240
2.5743363 0.26098537 -0.30119091 4290789120
2.5430307 0.25789309 -0.28580126 4290658560
2.5255239 0.25619513 -0.27187479 4290528000
2.503026 0.2539908 -0.25730431 4290528000
2.4804759 0.25177968 -0.24266787 4290397440
2.4578688 0.24956137 -0.22798763 4290266880
2.4153776 0.24532719 -0.21154886 4290136320
2.4075096 0.24459903 -0.19817537 4290136320
2.3936338 0.24326131 -0.18420881 4290136320
2.3707621 0.24101053 -0.16954999 4290005760
2.4008076 0.24412534 -0.15845457 4290136320
2.344655 0.23849691 -0.14164488 4289875200
2.3029859 0.23433498 -0.12610894 4289744640
2.34149 0.23830871 -0.11484926 4289875200
2.3132744 0.2355102 -0.10013486 4289744640
2.2607367 0.23023973 -0.08472836 4289614080
2.2373176 0.22792448 -0.070768334 4289483520
2.2861142 0.23294644 -0.058874387 4289744640
2.3124821 0.23569129 -0.045898579 4289744640
2.2877824 0.23324519 -0.031849749 4289744640
2.3007035 0.23462392 -0.018366138 4289744640
2.3706138 0.24180104 -0.0048335311 4290005760
2.3621473 0.24100637 0.0092324726 4290005760
2.2485299 0.22950798 0.022158572 4289614080
2.4145844 0.24647875 0.038095821 4290136320
2.4565926 0.25082532 0.053275239 4290266880
2.4541769 0.25064862 0.06766846 4290266880
2.3905542 0.24423471 0.079917081 4290005760
2.484596 0.2538881 0.097504288 4290397440
2.5118213 0.25673431 0.11307117 4290528000
2.4362092 0.24909405 0.12361833 4290266880
2.386744 0.24411699 0.13463895 4290005760
2.5770724 0.2636067 0.15979335 4290658560
2.5863633 0.26462841 0.17468281 4290789120
2.5370648 0.25966871 0.18521008 4290528000
2.46854 0.25274274 0.19349258 4290397440
2.7445588 0.28101096 0.22961184 4291311360
2.9413559 0.30119967 0.26133826 4291964160
3.2558877 0.33343419 0.30584425 4293008640
3.3054969 0.33860016 0.32700023 4293269760
3.2619066 0.3342374 0.33861426 4293008640
3.34166 0.34249064 0.36280501 4293400320
3.3429973 0.34272435 0.37846786 4293400320
3.3402658 0.3425419 0.39323691 4293400320
3.3101258 0.33955327 0.40419286 4293269760
3.2825489 0.33682561 0.41475382 4293139200
3.3314834 0.34193504 0.4345845 4293400320
3.3414199 0.34305125 0.44907671 4293400320
3.3400931 0.34301379 0.4615773 4293400320
3.3346317 0.3425526 0.47295305 4293400320
3.3198004 0.34113041 0.48238632 4293269760
3.2914529 0.33832097 0.48915654 4293269760
3.3244894 0.34180969 0.50448638 4293400320
3.3292403 0.34239712 0.5150615 4293400320
3.3309023 0.34266797 0.5245806 4293400320
3.3111022 0.34073478 0.53006601 4293269760
3.3278213 0.34255299 0.54076451 4293400320
3.3281767 0.3426908 0.54821646 4293400320
3.3148046 0.3414177 0.55274194 4293400320
3.3119509 0.34122589 0.55834067 4293269760
3.3257706 0.34274942 0.56611061 4293400320
3.3161654 0.34186381 0.56924069 4293400320
3.3012555 0.34043199 0.57075971 4293269760
3.3006785 0.34047538 0.5740642 4293269760
3.3149128 0.34204459 0.57927769 4293400320
3.3047574 0.34110239 0.57955539 4293269760
3.2996173 0.34067681 0.58002019 4293269760
3.3043911 0.34127331 0.58154094 4293269760
3.3225152 0.34324721 0.58472425 4293400320
3.313803 0.34245443 0.58250046 4293400320
3.3179297 0.34298632 0.58184469 4293400320
3.315227 0.34281397 0.57930619 4293400320
3.3290119 0.34434417 0.57895392 4293400320
3.3236065 0.34389365 0.5745793 4293400320
3.3178446 0.34340641 0.56947976 4293400320
3.3242095 0.34417239 0.56578851 4293400320
3.3288097 0.34475678 0.56111628 4293400320
3.3178904 0.34373701 0.55318475 4293400320
3.3215818 0.34422827 0.54705215 4293400320
3.3152823 0.34368631 0.53864253 4293269760
3.3057427 0.34280896 0.5291155 4293269760
3.2986195 0.34218153 0.51940024 4293269760
3.3123562 0.34371459 0.51234341 4293269760
3.3366699 0.34634477 0.50621676 4293400320
3.3229241 0.34503236 0.49370626 4293400320
3.3192654 0.34476516 0.4821783 4293269760
3.2090037 0.33423248 0.38548693 4292878080
2.9664443 0.3091189 0.34319893 4292094720
2.7585275 0.28759253 0.30655366 4291311360
2.6395936 0.27531162 0.28094804 4290919680
2.5994678 0.27122623 0.26415497 4290789120
2.5658977 0.26782086 0.24808912 4290658560
2.5796783 0.26934555 0.23641273 4290789120
2.511894 0.2623724 0.21728666 4290528000
2.5090029 0.26215875 0.20388614 4290528000
2.5066171 0.2619977 0.19032682 4290528000
2.5070956 0.26213539 0.17678253 4290528000
2.4379914 0.25501305 0.15852036 4290266880
2.4313376 0.25440416 0.14455098 4290266880
2.453018 0.25675324 0.13201666 4290266880
2.429867 0.25442159 0.11693735 4290266880
2.3361597 0.24471666 0.099010073 4289875200
2.3649166 0.24780451 0.08651989 4290005760
2.3638661 0.24777813 0.072684914 4290005760
2.3282366 0.24413522 0.057923432 4289875200
2.1909084 0.22985007 0.04159506 4289352960
2.3070617 0.24208362 0.030126331 4289744640
2.3032255 0.24176355 0.016401833 4289744640
2.1674001 0.22762039 0.0025584705 4289352960
2.290767 0.24062118 -0.010935791 4289744640
2.2996035 0.2416282 -0.024651065 4289744640
2.2711895 0.23873074 -0.037824817 4289614080
2.290112 0.24079537 -0.051696621 4289744640
2.3663862 0.24887767 -0.067376286 4290005760
2.3987465 0.25235704 -0.082372569 4290136320
2.3037417 0.24246866 -0.092537776 4289744640
2.3206885 0.24432945 -0.10665452 4289875200
2.377703 0.25040025 -0.12292802 4290005760
2.3958318 0.25238889 -0.13748932 4290136320
2.3625686 0.24897669 -0.14886904 4290005760
2.3891311 0.25185272 -0.16382313 4290136320
2.4844687 0.26196456 -0.18399087 4290397440
2.5022826 0.263926 -0.198836 4290528000
2.4727609 0.26090619 -0.20964329 4290397440
2.4603879 0.25968984 -0.22145681 4290266880
2.4515879 0.25884876 -0.23324206 4290266880
2.6445189 0.27926114 -0.26489487 4290919680
2.7434151 0.28977609 -0.28829268 4291311360
2.8925095 0.30559 -0.31785208 4291833600
3.0913765 0.32666323 -0.3541781 4292486400
3.1177144 0.32954854 -0.37139571 4292616960
3.3013668 0.34903714 -0.40787521 4293269760
3.3094893 0.35000801 -0.42306161 4293269760
3.3133023 0.35052413 -0.43727657 4293269760
3.3202143 0.35136753 -0.45145544 4293269760
3.3019335 0.34954903 -0.46166033 4293269760
3.2757297 0.34689146 -0.47007176 4293139200
3.2920434 0.34872749 -0.48401526 4293269760
3.2904415 0.34866935 -0.49482965 4293269760
3.2823575 0.34792492 -0.50407708 4293269760
3.2911854 0.34896955 -0.51534921 4293269760
3.2972412 0.3497209 -0.52564359 4293269760
3.2807004 0.34807923 -0.5317086 4293269760
3.2686992 0.346917 -0.53782672 4293139200
3.2661729 0.34675768 -0.54485101 4293139200
3.2733934 0.34763101 -0.55288363 4293269760
3.2723866 0.34763202 -0.55890262 4293269760
3.2506599 0.34543487 -0.56069928 4293139200
3.2323546 0.34359887 -0.56237346 4293139200
3.2355621 0.34404457 -0.5671156 4293139200
3.2149067 0.34195662 -0.56699985 4293008640
3.2281239 0.34346423 -0.5721885 4293008640
3.2238231 0.34311128 -0.5736165 4293008640
3.2235522 0.34318593 -0.57509178 4293008640
3.2185001 0.34275189 -0.57504392 4293008640
3.2433949 0.34550133 -0.57967716 4293139200
3.2336771 0.34457061 -0.57745367 4293139200
3.2513382 0.34655169 -0.57944226 4293139200
3.2552812 0.34707355 -0.57830405 4293139200
3.2787044 0.34966907 -0.57993382 4293269760
3.2611196 0.34789884 -0.57363665 4293139200
3.2812781 0.35014743 -0.57330573 4293269760
3.2743139 0.349507 -0.56755781 4293269760
3.2837849 0.35061738 -0.5639962 4293269760
3.2852809 0.35087773 -0.55839556 4293269760
3.2809784 0.35051945 -0.551171 4293269760
3.2824013 0.35077128 -0.5442788 4293269760
3.2787135 0.35047749 -0.53591919 4293269760
3.28492 0.35123911 -0.52855492 4293269760
3.2584996 0.34851751 -0.51539278 4293139200
3.2505455 0.34776595 -0.5046581 4293139200
3.2588141 0.34874651 -0.49586481 4293139200
3.2858667 0.35173428 -0.48925248 4293269760
3.2963903 0.35295674 -0.47950056 4293269760
3.255625 0.3486962 -0.4618572 4293139200
3.1589253 0.33845136 -0.4362686 4292747520
2.9278982 0.31383175 -0.39290568 4291964160
2.7806561 0.29816315 -0.36184788 4291441920
2.6528053 0.28456101 -0.33404538 4291050240
2.5526628 0.27391756 -0.31033349 4290658560
2.5450983 0.2731818 -0.29800215 4290658560
2.5128093 0.26979703 -0.28262895 4290528000
2.4854116 0.26693431 -0.26777315 4290397440
2.4777453 0.26618442 -0.25491631 4290397440
2.4551971 0.26383862 -0.24039824 4290266880
2.4226916 0.26042363 -0.22491954 4290266880
2.3861544 0.25657421 -0.20917572 4290136320
2.4341483 0.26179162 -0.20055403 4290266880
2.3643997 0.25437605 -0.18213175 4290005760
2.3365722 0.25145638 -0.16726914 4289875200
2.380477 0.25623706 -0.15727429 4290005760
2.3624423 0.2543678 -0.14287502 4290005760
2.2727747 0.24480197 -0.12459551 4289614080
2.3112466 0.24900049 -0.11350241 4289744640
2.283041 0.24603425 -0.098954171 4289744640
2.2354968 0.2409872 -0.083901189 4289483520
2.1981745 0.23703668 -0.069639154 4289352960
2.2695138 0.24477281 -0.058553889 4289614080
2.2921691 0.24727455 -0.045595884 4289744640
2.2963133 0.24778527 -0.03206398 4289744640
2.2992849 0.24816999 -0.018442074 4289744640
2.3691523 0.25575837 -0.0049125971 4290005760
2.3696392 0.25587767 0.0091868686 4290005760
2.2421727 0.24221131 0.022033937 4289614080
2.4031546 0.25962326 0.03785773 4290136320
2.4451382 0.26421678 0.05297656 4290266880
2.4526644 0.26509732 0.067583956 4290266880
2.389081 0.25830901 0.079834573 4290005760
2.4920061 0.26948026 0.097768314 4290397440
2.5102735 0.27152202 0.11298445 4290528000
2.4486094 0.26493731 0.12423813 4290266880
2.3803101 0.25763276 0.1342776 4290005760
2.5479798 0.2758078 0.15800293 4290658560
2.5798099 0.27931863 0.17426056 4290789120
2.5315351 0.27417603 0.18483552 4290528000
2.4670188 0.26727539 0.19341023 4290397440
2.6804516 0.29041979 0.22430594 4291050240
2.8079336 0.3042821 0.24956131 4291572480
3.0653524 0.33220658 0.28804547 4292355840
3.260025 0.35335726 0.32260254 4293008640
3.2411065 0.35140386 0.33656418 4293008640
3.3396003 0.36215976 0.36270371 4293400320
3.3310568 0.36133143 0.37725106 4293269760
3.3332689 0.36166784 0.39255953 4293269760
3.313019 0.35957113 0.4047021 4293269760
3.280524 0.35614651 0.41466439 4293139200
3.3294277 0.36154374 0.43449673 4293400320
3.3344302 0.36218405 0.44832999 4293400320
3.3380306 0.3626729 0.46149579 4293400320
3.3237119 0.36121827 0.4716191 4293400320
3.3177488 0.36066988 0.48231241 4293269760
3.2894182 0.35769355 0.48908702 4293269760
3.3224332 0.36137652 0.5044201 4293400320
3.3134236 0.36049771 0.5128718 4293269760
3.3248346 0.36183712 0.52389199 4293400320
3.3227961 0.36171609 0.53221244 4293400320
3.320431 0.36155981 0.53985012 4293400320
3.321207 0.3617453 0.54736429 4293400320
3.3127475 0.36092675 0.55270261 4293400320
3.319699 0.36178464 0.5599587 4293400320
3.3139019 0.36125606 0.56441301 4293400320
3.3043034 0.36031377 0.56753469 4293269760
3.2992013 0.35986084 0.57074082 4293269760
3.3035209 0.36043414 0.5749023 4293269760
3.3030524 0.36048648 0.57755834 4293269760
3.3075929 0.36108506 0.58041143 4293400320
3.302454 0.36062923 0.5808838 4293269760
3.2974308 0.3601861 0.58068824 4293269760
3.2974195 0.36028969 0.5806886 4293269760
3.3068333 0.36142203 0.58166045 4293400320
3.3109555 0.36197788 0.58101267 4293400320
3.3219645 0.3632862 0.58087885 4293400320
3.3181083 0.36297241 0.57745963 4293400320
3.3215206 0.3634527 0.57462406 4293400320
3.3206604 0.36346683 0.57037145 4293400320
3.3172193 0.3631992 0.56501156 4293400320
3.322794 0.36391747 0.56051862 4293400320
3.3207052 0.36379841 0.55407155 4293400320
3.3155653 0.3633458 0.54648149 4293400320
3.3171177 0.36362562 0.53936189 4293400320
3.3036573 0.36226255 0.52920306 4293269760
3.3053761 0.36256102 0.52088541 4293269760
3.3102639 0.36320707 0.51244342 4293269760
3.3345609 0.36598027 0.50632358 4293400320
3.3208225 0.36458701 0.49381867 4293400320
3.3122456 0.36375901 0.48158196 4293269760
3.0711932 0.33819687 0.36919206 4292486400
2.8196044 0.31064218 0.32644546 4291572480
2.7050154 0.29813737 0.30081448 4291180800
2.6291852 0.2898888 0.28002936 4290919680
2.5879383 0.28544101 0.26316261 4290789120
2.578131 0.28445145 0.24943998 4290789120
2.5731003 0.28398743 0.23597287 4290658560
2.5152595 0.277706 0.21772844 4290528000
2.5024643 0.27638417 0.20349853 4290528000
2.5010686 0.27631804 0.19004148 4290528000
2.5005531 0.27634901 0.17644955 4290397440
2.43645 0.2693668 0.15853699 4290266880
2.4248385 0.26817152 0.14427382 4290136320
2.4554362 0.2716338 0.13224845 4290266880
2.4372647 0.26971433 0.11738579 4290266880
2.3297155 0.25792333 0.098819211 4289875200
2.3673923 0.26216778 0.086685188 4290005760
2.3623691 0.26169643 0.072705992 4290005760
2.3178186 0.25685546 0.05772322 4289875200
2.1984637 0.24373984 0.041785158 4289352960
2.2966547 0.25467864 0.030033184 4289744640
2.291811 0.25422409 0.01635541 4289744640
2.1885848 0.24288012 0.0026062164 4289352960
2.2555206 0.2503686 -0.010746795 4289614080
2.2603776 0.25098643 -0.024217453 4289614080
2.2409284 0.2489118 -0.037316397 4289614080
2.2508991 0.25009617 -0.050814264 4289614080
2.3410397 0.2601687 -0.066666968 4289875200
2.3594768 0.26229614 -0.081043936 4290005760
2.3585851 0.26228067 -0.094774634 4290005760
2.2804925 0.25369856 -0.10484223 4289744640
2.35237 0.26175749 -0.12166359 4290005760
2.3704944 0.26385292 -0.13608913 4290005760
2.3422198 0.26079601 -0.14764829 4289875200
2.3677804 0.26371843 -0.16242927 4290005760
2.4442322 0.27229854 -0.18109116 4290266880
2.4719584 0.27546686 -0.19651605 4290397440
2.4335542 0.27128258 -0.20641541 4290266880
2.4311049 0.27109534 -0.21892539 4290266880
2.4124289 0.26910201 -0.22962761 4290136320
2.5485096 0.28433406 -0.25540251 4290658560
2.6464627 0.2953299 -0.27824253 4290919680
2.7073596 0.30220488 -0.29765525 4291180800
2.7954457 0.31211329 -0.32043532 4291441920
2.921241 0.32623041 -0.34817037 4291964160
3.2814381 0.36648914 -0.40562564 4293139200
3.2984374 0.36849797 -0.42187202 4293269760
3.306263 0.36948428 -0.4365806 4293269760
3.303324 0.36926958 -0.44940078 4293269760
3.2998273 0.36899212 -0.46161634 4293269760
3.283478 0.36727902 -0.47144145 4293139200
3.2791944 0.3669121 -0.48239201 4293139200
3.2834263 0.36749601 -0.49404895 4293269760
3.2704368 0.36615518 -0.50252748 4293139200
3.2792628 0.36725199 -0.51377177 4293269760
3.2813921 0.36760014 -0.5234139 4293269760
3.2786028 0.3673979 -0.53167218 4293269760
3.280339 0.36770147 -0.54005218 4293269760
3.2640829 0.36599094 -0.54481769 4293139200
3.2663977 0.36635813 -0.55202371 4293139200
3.2702911 0.3669019 -0.55887252 4293269760
3.2512386 0.36487499 -0.56113034 4293139200
3.2253869 0.36208448 -0.56149507 4293008640
3.2383823 0.36364642 -0.56794977 4293139200
3.2128441 0.36088818 -0.56697774 4293008640
3.2172437 0.36148566 -0.57060635 4293008640
3.2217529 0.36209527 -0.57359862 4293008640
3.2253954 0.36260754 -0.57577473 4293008640
3.2164316 0.3617045 -0.57503062 4293008640
3.2462013 0.36514974 -0.58054096 4293139200
3.2276831 0.36317286 -0.57674587 4293139200
3.2404389 0.36470801 -0.57786596 4293139200
3.2580776 0.36679229 -0.57917029 4293139200
3.2629046 0.36743709 -0.57751083 4293139200
3.2682133 0.36813596 -0.57525712 4293269760
3.2742665 0.36891848 -0.57245475 4293269760
3.2722008 0.36878756 -0.5675655 4293269760
3.2728488 0.36896148 -0.56249183 4293269760
3.2782595 0.36967117 -0.55757594 4293269760
3.2788577 0.36983895 -0.55118752 4293269760
3.2753766 0.36954689 -0.54348499 4293269760
3.2716882 0.36923093 -0.53513968 4293139200
3.2641504 0.36848056 -0.52557898 4293139200
3.2603161 0.36814684 -0.51604277 4293139200
3.2386189 0.3657985 -0.50316405 4293008640
3.2574847 0.36802316 -0.4960188 4293139200
3.2739062 0.36997285 -0.48782608 4293139200
3.2617288 0.36869612 -0.47480786 4293139200
3.1810501 0.35968673 -0.45161411 4292878080
2.9722359 0.33620614 -0.41079578 4292094720
2.7920833 0.31594959 -0.37496695 4291572480
2.6497004 0.29994851 -0.345074 4291050240
2.5309412 0.28660801 -0.31895074 4290658560
2.5085843 0.28415519 -0.3052187 4290528000
2.5148201 0.28493312 -0.29469651 4290528000
2.4775994 0.28079745 -0.27889946 4290397440
2.4551423 0.27832922 -0.26473531 4290397440
2.4474661 0.27753171 -0.25201809 4290266880
2.4298632 0.2756103 -0.23812741 4290266880
2.3924203 0.27144203 -0.22230957 4290136320
2.4176414 0.27436608 -0.212134 4290136320
2.4087949 0.27343345 -0.19865441 4290136320
2.3291743 0.26448333 -0.17959456 4289875200
2.3162181 0.26308179 -0.16598132 4289875200
2.3551297 0.26755759 -0.15576476 4290005760
2.3460252 0.26659244 -0.14204004 4289875200
2.2474818 0.25548545 -0.12335283 4289614080
2.2998157 0.26148465 -0.11308196 4289744640
2.2626915 0.25733826 -0.098203078 4289614080
2.2102094 0.25144696 -0.083072439 4289483520
2.2512131 0.25616339 -0.071440056 4289614080
2.271518 0.25853217 -0.058716103 4289614080
2.3006094 0.2618998 -0.045868408 4289744640
2.2799139 0.25961402 -0.031928912 4289744640
2.2977865 0.26170892 -0.018517893 4289744640
2.3527043 0.26801467 -0.0049588587 4290005760
2.3591528 0.26881397 0.0090735843 4290005760
2.2506471 0.25654364 0.022054343 4289614080
2.4115236 0.274903 0.037931096 4290136320
2.4385784 0.27804866 0.052785713 4290266880
2.4510665 0.27953845 0.067499571 4290266880
2.3825593 0.27181083 0.079586864 4290005760
2.4764833 0.28257042 0.097138576 4290397440
2.5086384 0.28630194 0.11289785 4290528000
2.4420531 0.27878922 0.12390266 4290266880
2.392648 0.27323008 0.13497773 4290136320
2.5512791 0.29137444 0.15822285 4290658560
2.5880432 0.29563743 0.1748416 4290789120
2.5338504 0.28953266 0.1850393 4290528000
2.475318 0.28293008 0.19410346 4290397440
2.6463115 0.30250549 0.22151007 4290919680
2.7151294 0.31043309 0.24139301 4291180800
2.8616669 0.32723448 0.26901188 4291703040
3.1580491 0.36114961 0.31262627 4292747520
3.2251589 0.36890337 0.3350282 4293008640
3.3186562 0.379675 0.36056548 4293269760
3.3239498 0.38037592 0.37659371 4293269760
3.3212285 0.38016158 0.39130184 4293269760
3.3019829 0.37805864 0.40352538 4293269760
3.283314 0.37602082 0.41519782 4293139200
3.3272562 0.38114214 0.43440908 4293400320
3.3322551 0.3818118 0.44824538 4293400320
3.3407738 0.38288477 0.46209452 4293400320
3.3254774 0.38123307 0.47209972 4293400320
3.3155823 0.38019913 0.48223862 4293269760
3.2872691 0.37705597 0.48901764 4293269760
3.3241913 0.38138312 0.50495034 4293400320
3.3200946 0.3810136 0.51417744 4293400320
3.3217547 0.38130385 0.52369159 4293400320
3.3117907 0.3802622 0.53074509 4293269760
3.3182564 0.38110402 0.5398013 4293400320
3.3239329 0.38185614 0.54812789 4293400320
3.3154757 0.38098767 0.5534808 4293400320
3.3175209 0.38132414 0.5599243 4293400320
3.3166239 0.38132349 0.56521773 4293400320
3.3021328 0.37976244 0.5675106 4293269760
3.3112361 0.38091049 0.57317877 4293400320
3.2925372 0.37886584 0.57335585 4293269760
3.2959838 0.37936503 0.57669473 4293269760
3.2956269 0.37942767 0.57869184 4293269760
3.2953837 0.37950379 0.58002645 4293269760
3.2952554 0.37959352 0.58069718 4293269760
3.2864351 0.37868387 0.57915252 4293269760
3.3095415 0.38144755 0.58254164 4293400320
3.3136597 0.38202772 0.58189785 4293400320
3.3002894 0.38059527 0.57750612 4293269760
3.3016133 0.38085446 0.57501036 4293269760
3.3144238 0.38243732 0.57382214 4293400320
3.3135614 0.38244602 0.56958151 4293400320
3.3199151 0.38328671 0.56590283 4293400320
3.3156881 0.38290846 0.55975568 4293400320
3.3135979 0.38277671 0.55332351 4293400320
3.3172815 0.38331127 0.54720342 4293400320
3.3060837 0.38212937 0.53800863 4293269760
3.2965517 0.38113937 0.52850491 4293269760
3.2982662 0.38144752 0.52020591 4293269760
3.3129659 0.38325584 0.5133034 4293269760
3.3323359 0.38560501 0.50643045 4293400320
3.3136921 0.38356316 0.49320048 4293269760
3.3149493 0.38382074 0.4824149 4293269760
2.8779175 0.33376634 0.34621781 4291833600
2.7216332 0.31577086 0.31532991 4291311360
2.6586013 0.30856502 0.2958599 4291050240
2.6185815 0.304021 0.27909029 4290919680
2.5610785 0.29744837 0.260611 4290658560
2.5764501 0.29931962 0.24944563 4290789120
2.5714226 0.29882669 0.23597772 4290658560
2.5185673 0.292786 0.21816038 4290528000
2.5008316 0.29081655 0.20350169 4290528000
2.5033984 0.29120234 0.19034456 4290528000
2.4855368 0.28921676 0.17550766 4290397440
2.4308939 0.28295854 0.15827994 4290266880
2.4143305 0.28112018 0.14374335 4290136320
2.4399455 0.28418201 0.13150059 4290266880
2.430711 0.28319493 0.11714536 4290266880
2.3192606 0.27032223 0.098438494 4289875200
2.3569102 0.2747834 0.086355329 4290005760
2.3657877 0.27589983 0.072853997 4290005760
2.3202739 0.27068686 0.057816714 4289875200
2.192059 0.25584304 0.041685693 4289352960
2.2901847 0.26734772 0.029962109 4289744640
2.2714529 0.26524708 0.016215235 4289614080
2.2401705 0.26168269 0.0026564971 4289614080
2.2351701 0.26117948 -0.010663789 4289483520
2.2489631 0.26286706 -0.024119517 4289614080
2.2205889 0.25963771 -0.03701039 4289483520
2.2355199 0.26145849 -0.050509803 4289483520
2.3196456 0.27135527 -0.066111431 4289875200
2.3390665 0.27370468 -0.080406867 4289875200
2.2531281 0.26375258 -0.09060283 4289614080
2.2551808 0.26407221 -0.1037584 4289614080
2.3849247 0.27931148 -0.12344456 4290005760
2.3550527 0.27590451 -0.13530555 4290005760
2.3168879 0.27152583 -0.14616129 4289875200
2.3384762 0.27413228 -0.16053884 4289875200
2.4188497 0.28361702 -0.17934401 4290136320
2.4416161 0.28636625 -0.19424756 4290266880
2.413146 0.28311959 -0.2048355 4290136320
2.40576 0.28233948 -0.21680216 4290136320
2.3821628 0.27966002 -0.22691251 4290136320
2.4993892 0.2934773 -0.25066197 4290528000
2.5593898 0.30059615 -0.26928237 4290658560
2.6054795 0.30608827 -0.28666064 4290789120
2.5369704 0.29814532 -0.29101437 4290658560
2.6963301 0.3169257 -0.32159379 4291180800
3.1780856 0.37354401 -0.3931312 4292878080
3.2546389 0.38263848 -0.41656739 4293139200
3.282763 0.38605228 -0.43378597 4293139200
3.2924032 0.38729712 -0.44823271 4293269760
3.2927256 0.38744774 -0.46094838 4293269760
3.2714732 0.38506293 -0.47004852 4293139200
3.2877645 0.38708916 -0.48399189 4293269760
3.2812521 0.38643512 -0.49406683 4293269760
3.2869246 0.38721326 -0.50541234 4293269760
3.2918105 0.38789892 -0.51609504 4293269760
3.2929504 0.38814372 -0.52562022 4293269760
3.2813325 0.3868866 -0.53248078 4293269760
3.2781646 0.3866232 -0.54006392 4293269760
3.2668176 0.38539594 -0.54564595 4293139200
3.2691288 0.38577655 -0.55286038 4293269760
3.2730176 0.38634282 -0.55971652 4293269760
3.2366343 0.38216203 -0.55898589 4293139200
3.2320542 0.38172817 -0.56303233 4293139200
3.2362337 0.38232669 -0.56795102 4293139200
3.2156031 0.37999827 -0.56784058 4293008640
3.2199988 0.38062122 -0.57147133 4293008640
3.2196145 0.38067985 -0.57359362 4293008640
3.2193429 0.38075137 -0.57506889 4293008640
3.2094073 0.37968114 -0.57414657 4293008640
3.2044754 0.37920094 -0.57344848 4293008640
3.2392292 0.38340935 -0.57917881 4293139200
3.247088 0.38444075 -0.57941914 4293139200
3.2559142 0.38558659 -0.57915056 4293139200
3.2783282 0.38833946 -0.5806033 4293269760
3.2715263 0.38763738 -0.5761975 4293269760
3.258394 0.38618547 -0.57003057 4293139200
3.2798138 0.3888216 -0.56923282 4293269760
3.2832792 0.38933316 -0.56462526 4293269760
3.2809777 0.38916168 -0.5583722 4293269760
3.2864745 0.38991329 -0.55279505 4293269760
3.2780995 0.38902143 -0.54425544 4293269760
3.2695143 0.38810378 -0.53509384 4293139200
3.2708066 0.388356 -0.52695185 4293139200
3.2542255 0.38648883 -0.51536959 4293139200
3.2280366 0.38348088 -0.50179917 4293008640
3.2366641 0.384601 -0.49311876 4293008640
3.2263057 0.3834686 -0.48099297 4293008640
3.1488523 0.37437218 -0.45862001 4292747520
2.965771 0.35273147 -0.42127067 4292094720
2.8276825 0.3364222 -0.39101622 4291703040
2.6603446 0.31663051 -0.35745275 4291050240
2.5141523 0.29934087 -0.32758 4290528000
2.505609 0.29839924 -0.31590724 4290528000
2.4881833 0.29640117 -0.30287486 4290528000
2.4845414 0.29604062 -0.29127666 4290397440
2.4522645 0.29227445 -0.27616447 4290397440
2.4209237 0.28861755 -0.26115102 4290266880
2.4122481 0.28765529 -0.24848673 4290136320
2.3995819 0.28621742 -0.23524439 4290136320
2.3621497 0.28183076 -0.21956997 4290005760
2.3823943 0.28430882 -0.20910473 4290136320
2.3794763 0.28402951 -0.19628972 4290005760
2.3088074 0.2756795 -0.17806593 4289875200
2.2908995 0.27361163 -0.16419813 4289744640
2.3248215 0.2777195 -0.15378132 4289875200
2.3206682 0.27729049 -0.14051573 4289875200
2.2221823 0.26561365 -0.12196469 4289483520
2.2695148 0.27132154 -0.11158206 4289614080
2.2423277 0.26814264 -0.097299822 4289614080
2.1799529 0.26076367 -0.081905805 4289352960
2.223747 0.26605189 -0.070528686 4289483520
2.2650313 0.27104294 -0.058499329 4289614080
2.2941015 0.27457789 -0.045678757 4289744640
2.2883115 0.27395111 -0.03197784 4289744640
2.2962427 0.27496308 -0.018425683 4289744640
2.361052 0.28277165 -0.0048850132 4290005760
2.3665023 0.28348956 0.0092037637 4290005760
2.2392035 0.26833865 0.022049924 4289614080
2.4098997 0.28881207 0.038030602 4290136320
2.4518256 0.29389438 0.053208467 4290266880
2.4404809 0.29260644 0.067355804 4290266880
2.3809519 0.28555241 0.079686083 4290005760
2.483741 0.2979219 0.097591691 4290397440
2.5069439 0.30076984 0.11300235 4290528000
2.4503191 0.29406059 0.12450697 4290266880
2.3870647 0.28655419 0.13485342 4290136320
2.5671108 0.30819094 0.15941653 4290658560
2.5763845 0.3093752 0.17427897 4290789120
2.5370858 0.30473849 0.18550414 4290658560
2.4736404 0.29720491 0.1942037 4290397440
2.654412 0.31895214 0.22244421 4291050240
2.6908197 0.32339492 0.23950382 4291180800
2.7431183 0.32974634 0.25816461 4291311360
2.9601896 0.35587323 0.29337516 4292094720
3.1465468 0.3783263 0.32721269 4292747520
3.3075173 0.39774254 0.35972452 4293269760
3.3078775 0.39788169 0.37515092 4293269760
3.3138235 0.39869204 0.39081508 4293269760
3.2849526 0.39532003 0.40183493 4293139200
3.2810802 0.39495075 0.41531068 4293139200
3.3249919 0.40032518 0.43452048 4293400320
3.3260503 0.40055025 0.44782427 4293400320
3.3291564 0.40102196 0.46090758 4293400320
3.3192801 0.39993253 0.47164285 4293400320
3.3172545 0.39978746 0.4829078 4293269760
3.2850299 0.39600819 0.48911053 4293269760
3.3179996 0.40007535 0.50444382 4293400320
3.3178327 0.40015489 0.51426315 4293400320
3.3105867 0.39938223 0.52236933 4293269760
3.3232608 0.40100926 0.53302187 4293400320
3.3159952 0.40023473 0.53987384 4293400320
3.3118703 0.39983866 0.54658026 4293400320
3.3034222 0.39892155 0.55190879 4293269760
3.2917609 0.39761683 0.55601633 4293269760
3.3094699 0.39985451 0.56443667 4293400320
3.2998831 0.3988004 0.56755829 4293269760
3.2996788 0.3988784 0.57161123 4293269760
3.2990992 0.39891151 0.57492596 4293269760
3.29863 0.39895833 0.57758194 4293269760
3.2982731 0.39901912 0.57957649 4293269760
3.2931404 0.3985033 0.58004683 4293269760
3.2979021 0.3991833 0.58157343 4293269760
3.2841985 0.39763206 0.57916135 4293269760
3.3023999 0.39993781 0.58168411 4293400320
3.3114054 0.40113306 0.58189493 4293400320
3.3175082 0.40197819 0.58090258 4293400320
3.3087647 0.40102768 0.57663167 4293400320
3.3170624 0.4021396 0.57464784 4293400320
3.3162022 0.40214378 0.57039523 4293400320
3.3078701 0.40124348 0.56420124 4293400320
3.3085396 0.40143341 0.55888987 4293400320
3.3064494 0.40128946 0.55246025 4293269760
3.3150277 0.40243873 0.54715151 4293400320
3.308738 0.40178651 0.53874791 4293269760
3.2943125 0.40014768 0.52844101 4293269760
3.2921028 0.39999002 0.5195173 4293269760
3.3018851 0.40128762 0.51185918 4293269760
3.3212383 0.40374783 0.5050053 4293400320
3.3163517 0.40326703 0.49384245 4293400320
3.307785 0.40233934 0.48160568 4293269760
2.7902119 0.34010655 0.33592081 4291441920
2.6692333 0.32548138 0.30948979 4291050240
2.6468937 0.32285482 0.29477206 4291050240
2.6118319 0.3186779 0.27857399 4290919680
2.5642424 0.31297293 0.26112244 4290658560
2.5657716 0.31324893 0.24859451 4290658560
2.5696402 0.31381029 0.23598701 4290658560
2.5069308 0.30625629 0.21731348 4290528000
2.4990971 0.30538923 0.2035107 4290528000
2.4878039 0.30409986 0.18930092 4290397440
2.4971867 0.30533239 0.17646007 4290397440
2.4242537 0.29651982 0.1579666 4290266880
2.4126539 0.29518956 0.14375207 4290136320
2.4481628 0.29961106 0.13204286 4290266880
2.4250562 0.29687548 0.1169633 4290266880
2.3315332 0.28553468 0.099035032 4289875200
2.3641994 0.28960991 0.086690217 4290005760
2.3542213 0.28847411 0.072557814 4290005760
2.31866 0.28420913 0.057825096 4289875200
2.1954961 0.26922566 0.041787531 4289352960
2.2885909 0.28069496 0.029970383 4289744640
2.2748346 0.27909276 0.016258445 4289744640
2.2286847 0.2735236 0.0026536889 4289483520
2.2062881 0.27086017 -0.01052295 4289483520
2.214643 0.27196229 -0.023757264 4289483520
2.1952229 0.26966146 -0.036603279 4289352960
2.2002225 0.27035248 -0.049736459 4289483520
2.2902474 0.28146869 -0.065308906 4289744640
2.3086677 0.28380933 -0.079407066 4289744640
2.3028276 0.28317496 -0.092660904 4289744640
2.2298105 0.27429643 -0.10265332 4289483520
2.3446016 0.28846636 -0.12143169 4289875200
2.315753 0.2850073 -0.13313037 4289875200
2.2815895 0.28089333 -0.14402527 4289744640
2.3130767 0.28484252 -0.15889677 4289875200
2.4551482 0.30238387 -0.18215516 4290266880
2.4211102 0.29828629 -0.19274148 4290266880
2.3728874 0.29244199 -0.20154937 4290005760
2.3704665 0.29222772 -0.21376157 4290005760
2.3469009 0.28941163 -0.22370084 4290005760
2.482826 0.30622205 -0.24916594 4290397440
2.5102162 0.30968076 -0.26428375 4290528000
2.4855585 0.30673212 -0.27364767 4290397440
2.5016656 0.30880272 -0.28715625 4290528000
2.5164003 0.31070513 -0.30033329 4290528000
2.9336543 0.36221597 -0.3631376 4291964160
3.0900033 0.38159177 -0.39576113 4292486400
3.2264359 0.3985222 -0.42663026 4293008640
3.2629724 0.40313989 -0.44452584 4293139200
3.2777231 0.40507182 -0.45915836 4293139200
3.2691782 0.40412945 -0.47003666 4293139200
3.2707269 0.40443218 -0.48181015 4293139200
3.2838569 0.40616477 -0.4947944 4293269760
3.2806926 0.40588531 -0.50479662 4293269760
3.2845955 0.4064784 -0.51531392 4293269760
3.2857361 0.40673006 -0.52482551 4293269760
3.2888248 0.40722221 -0.53405982 4293269760
3.2807577 0.40633476 -0.54085928 4293269760
3.2596257 0.40383044 -0.54481602 4293139200
3.2717235 0.40543547 -0.55367661 4293269760
3.2619095 0.4043293 -0.55819792 4293139200
3.2343569 0.40102631 -0.55897415 4293139200
3.2209785 0.39947611 -0.56148654 4293008640
3.2388439 0.40179414 -0.56879771 4293139200
3.2182262 0.39934561 -0.56869251 4293008640
3.2079573 0.39817762 -0.56972408 4293008640
3.2212551 0.39992961 -0.57427877 4293008640
3.2209828 0.39999965 -0.57575577 4293008640
3.2169161 0.39959866 -0.57588387 4293008640
3.2071013 0.39848402 -0.57431161 4293008640
3.2271736 0.40107656 -0.57741898 4293139200
3.231117 0.40166825 -0.5769648 4293139200
3.2536166 0.40456331 -0.57913876 4293139200
3.2584362 0.40526405 -0.5774765 4293139200
3.2598269 0.4055388 -0.57453096 4293139200
3.2697811 0.40687707 -0.57241476 4293269760
3.2774971 0.40793741 -0.56922096 4293269760
3.268364 0.40690359 -0.56244612 4293269760
3.2786589 0.40828419 -0.55836028 4293269760
3.265554 0.40675512 -0.54965317 4293139200
3.272608 0.40773231 -0.54371637 4293269760
3.2623043 0.40654999 -0.53428 4293139200
3.2547741 0.4057118 -0.52472854 4293139200
3.2421198 0.40423495 -0.51380432 4293139200
3.207118 0.39997455 -0.49888903 4293008640
3.1859272 0.39743164 -0.48572156 4292878080
3.0909123 0.38569114 -0.46112427 4292616960
2.9080913 0.3630043 -0.42384514 4291964160
2.8059983 0.3503671 -0.3988491 4291572480
2.6746371 0.33407512 -0.37010595 4291180800
2.5248377 0.31547615 -0.33947721 4290658560
2.473989 0.30920875 -0.32256669 4290397440
2.4664159 0.3083365 -0.3111774 4290397440
2.444057 0.30561873 -0.29770562 4290266880
2.4453235 0.30584794 -0.28687331 4290266880
2.4179804 0.30250567 -0.27248782 4290266880
2.4620037 0.30807245 -0.26576287 4290397440
2.4533553 0.30706343 -0.25289273 4290397440
2.3741741 0.29724297 -0.23290986 4290005760
2.3416975 0.29325336 -0.21781465 4290005760
2.3668613 0.29646537 -0.20788015 4290005760
2.3491044 0.29431343 -0.19391267 4290005760
2.2735267 0.28493086 -0.17546019 4289744640
2.2655153 0.28399378 -0.16248514 4289614080
2.2895026 0.2870588 -0.15154311 4289744640
2.2902927 0.28722271 -0.13876557 4289744640
2.1918674 0.27497014 -0.12037703 4289352960
2.2351933 0.28045553 -0.10996295 4289614080
2.237231 0.28077397 -0.097139515 4289614080
2.223861 0.27916288 -0.083610073 4289483520
2.2082775 0.27727371 -0.070078999 4289483520
2.2683761 0.28486565 -0.058619615 4289614080
2.2924657 0.28794843 -0.045670412 4289744640
2.276758 0.28604424 -0.03183002 4289744640
2.2946045 0.28834587 -0.01841733 4289744640
2.3643284 0.29715389 -0.0048870998 4290005760
2.3648131 0.29728132 0.0092123728 4290005760
2.2336361 0.280891 0.022019336 4289483520
2.4081788 0.30285636 0.038039371 4290136320
2.4500744 0.30818275 0.053217389 4290266880
2.4427047 0.30732667 0.067473873 4290266880
2.3792505 0.29942778 0.079694748 4290005760
2.4819655 0.31239575 0.097600736 4290397440
2.5101075 0.31600133 0.11323451 4290528000
2.4436121 0.307717 0.1242645 4290266880
2.3754506 0.29921961 0.13430323 4290005760
2.565274 0.32314986 0.15942587 4290658560
2.5844402 0.32563278 0.17495733 4290789120
2.5263631 0.3184022 0.18486279 4290528000
2.4718692 0.31161916 0.1942127 4290397440
2.6386681 0.33267725 0.22129467 4290919680
2.6673012 0.3363564 0.23759313 4291050240
2.6257205 0.33119875 0.24731731 4290919680
2.7765343 0.35026336 0.27540293 4291441920
3.0034592 0.37892228 0.31258413 4292225280
3.2854168 0.41452688 0.35759148 4293139200
3.3072767 0.4173764 0.37536383 4293269760
3.3025773 0.41688031 0.38978145 4293269760
3.2924445 0.41569933 0.40305144 4293269760
3.273803 0.41344523 0.41469976 4293139200
3.3226047 0.41969585 0.43453261 4293400320
3.3236618 0.419927 0.44783637 4293400320
3.3179188 0.41930053 0.45969519 4293269760
3.3208249 0.41976559 0.47221324 4293400320
3.3148706 0.41911268 0.48291987 4293269760
3.2875757 0.41576529 0.48985305 4293269760
3.3107088 0.41878524 0.50371027 4293269760
3.3203492 0.42010257 0.51503515 4293400320
3.3180068 0.41990677 0.52392781 4293400320
3.3159707 0.41974992 0.53224832 4293400320
3.3136084 0.41955212 0.53988588 4293400320
3.3094859 0.41913199 0.5465923 4293400320
3.3108306 0.41940349 0.55355585 4293400320
3.294282 0.41741183 0.55685461 4293269760
3.3119764 0.4197526 0.56528288 4293400320
3.2975049 0.41802374 0.56757033 4293269760
3.2836115 0.41636756 0.56925213 4293269760
3.2918324 0.41751128 0.57408625 4293269760
3.2913637 0.41755527 0.5767383 4293269760
3.2958937 0.41823298 0.57958847 4293269760
3.2956502 0.41830647 0.58091944 4293269760
3.2906356 0.41777563 0.58072382 4293269760
3.2906222 0.41787902 0.58072418 4293269760
3.2902424 0.41793635 0.57997495 4293269760
3.3139 0.42104325 0.58276564 4293400320
3.3063145 0.42018789 0.57937449 4293400320
3.3014855 0.41968232 0.57579201 4293400320
3.3048873 0.42022175 0.57296628 4293400320
3.3089147 0.42084125 0.56956637 4293400320
3.3054776 0.42051336 0.56421328 4293400320
3.3110378 0.42132872 0.55972821 4293400320
3.3089499 0.42117298 0.55328989 4293400320
3.3003032 0.42018378 0.54512954 4293269760
3.3014457 0.42043903 0.53796273 4293269760
3.2919266 0.41933885 0.52845305 4293269760
3.2848175 0.41854501 0.51875609 4293269760
3.3034143 0.42102209 0.51247919 4293269760
3.3139265 0.42247176 0.50427175 4293400320
3.3090405 0.42196214 0.49312398 4293269760
3.29655 0.42048407 0.48033139 4293269760
2.7257471 0.34839806 0.32841697 4291311360
2.6546347 0.33941838 0.30803245 4291050240
2.6498995 0.33890647 0.29533046 4291050240
2.6148651 0.33452597 0.2791093 4290919680
2.5623775 0.32791424 0.26113179 4290658560
2.5639052 0.32819924 0.2486039 4290658560
2.5638189 0.3282783 0.23563378 4290658560
2.5199306 0.32275891 0.2186067 4290528000
2.4972775 0.31995156 0.20351985 4290528000
2.4958832 0.31986147 0.19006197 4290528000
2.4770553 0.31754124 0.17517646 4290397440
2.4363451 0.31241986 0.15887743 4290266880
2.4108956 0.30924892 0.1437609 4290136320
2.4414256 0.31324327 0.13178506 4290266880
2.4371586 0.31278363 0.11764014 4290266880
2.3159583 0.29734465 0.098455355 4289875200
2.3585095 0.30287948 0.086553797 4290005760
2.3525031 0.30219373 0.072566427 4290005760
2.3080432 0.2965776 0.05761176 4289744640
2.1849675 0.28087649 0.041626483 4289352960
2.2869194 0.29403266 0.029978763 4289744640
2.2771249 0.29285762 0.016294684 4289744640
2.2220967 0.28587613 0.0026563797 4289483520
2.2310212 0.2871013 -0.010642869 4289483520
2.2321813 0.28732997 -0.023956362 4289483520
2.1787417 0.28054506 -0.036345866 4289352960
2.1847308 0.2813924 -0.049413338 4289352960
2.2647769 0.29175857 -0.064619914 4289614080
2.2831876 0.29420632 -0.078578271 4289744640
2.2773566 0.29353786 -0.091693334 4289744640
2.2093525 0.28487134 -0.10177681 4289483520
2.3379316 0.30149427 -0.12116616 4289875200
2.3421566 0.30212122 -0.13473985 4289875200
2.2561603 0.29113317 -0.14251512 4289614080
2.2727902 0.29335478 -0.15623385 4289744640
2.4296091 0.3136355 -0.18038282 4290266880
2.3906617 0.30870318 -0.19044746 4290136320
2.362252 0.30512616 -0.20078439 4290005760
2.3450186 0.30298781 -0.21161281 4290005760
2.302721 0.297616 -0.21964145 4289875200
2.4484355 0.31649241 -0.24588554 4290266880
2.4748349 0.31998447 -0.26074055 4290397440
2.4600711 0.31816569 -0.27103135 4290397440
2.471251 0.31969494 -0.28386429 4290397440
2.3520279 0.30438599 -0.28091189 4290005760
2.7889452 0.3609013 -0.34546807 4291572480
2.8761561 0.37226546 -0.36863202 4291833600
3.0213687 0.3911311 -0.3997972 4292355840
3.1928368 0.41340041 -0.43527961 4292878080
3.2365062 0.41915676 -0.45370659 4293008640
3.257936 0.42203939 -0.46875337 4293139200
3.2594874 0.42235154 -0.48049629 4293139200
3.2733555 0.42425725 -0.49356359 4293139200
3.270777 0.42403474 -0.50362992 4293139200
3.277276 0.42498702 -0.51453269 4293269760
3.2852705 0.42613298 -0.52512598 4293269760
3.2812905 0.42572799 -0.53321743 4293269760
3.2730262 0.42476717 -0.53997087 4293269760
3.2624993 0.42351222 -0.54568672 4293139200
3.2458527 0.42146277 -0.54969245 4293139200
3.2550964 0.42276907 -0.5574314 4293139200
3.2319698 0.41987699 -0.55896229 4293139200
3.2322812 0.42002377 -0.56386095 4293139200
3.2066841 0.41680801 -0.56355482 4293008640
3.2197564 0.41860956 -0.56937152 4293008640
3.1446667 0.40896499 -0.55888653 4292747520
3.1579614 0.41079342 -0.56340092 4292878080
3.1528118 0.41022637 -0.56397682 4292878080
3.2184429 0.41885537 -0.57657164 4293008640
3.214493 0.41844502 -0.57604927 4293008640
3.2096813 0.41792196 -0.57470286 4293008640
3.2249711 0.42001194 -0.57628202 4293139200
3.2290249 0.42064112 -0.57517576 4293139200
3.2560241 0.4242551 -0.57746452 4293139200
3.2604423 0.42493209 -0.57505316 4293269760
3.2751629 0.42694983 -0.57376969 4293269760
3.2795248 0.42761949 -0.56998324 4293269760
3.2756405 0.42721522 -0.56410408 4293269760
3.2727191 0.42693576 -0.55775017 4293269760
3.2742393 0.42723432 -0.55151176 4293269760
3.2701809 0.42680562 -0.54370433 4293269760
3.2647784 0.42620108 -0.53507 4293139200
3.2393939 0.42299083 -0.52262497 4293139200
3.2211018 0.42070347 -0.51084095 4293008640
3.169369 0.41405299 -0.49337187 4292878080
3.0218303 0.39490032 -0.46103632 4292355840
2.8730216 0.3755728 -0.42892754 4291833600
2.7727315 0.36256862 -0.40440801 4291441920
2.6477311 0.34633231 -0.37662363 4291050240
2.5167534 0.32930782 -0.34850886 4290658560
2.4895427 0.32582814 -0.33497158 4290528000
2.4534647 0.32118818 -0.32011968 4290397440
2.5023413 0.32764655 -0.31593591 4290528000
2.4274724 0.3179346 -0.29589662 4290266880
2.4198656 0.31701094 -0.284089 4290266880
2.3974576 0.31415126 -0.27036723 4290136320
2.4365087 0.31932786 -0.26319742 4290266880
2.4278543 0.31826615 -0.25044122 4290266880
2.3299694 0.30552885 -0.2287342 4289875200
2.3073699 0.30263826 -0.21477236 4289875200
2.3364511 0.30651107 -0.20535287 4289875200
2.3285768 0.305547 -0.19235238 4289875200
2.2629335 0.29701719 -0.17476432 4289614080
2.2489901 0.29525539 -0.16141143 4289614080
2.268996 0.29794037 -0.1502887 4289744640
2.2697787 0.29810742 -0.13761608 4289744640
2.1615198 0.28398252 -0.11878949 4289352960
2.2186692 0.29153585 -0.10922256 4289483520
2.2155957 0.29119563 -0.096262619 4289483520
2.2200654 0.29184446 -0.083521441 4289483520
2.2066276 0.29014441 -0.070070863 4289483520
2.2577603 0.2969158 -0.058379944 4289614080
2.2996738 0.3024801 -0.045840476 4289744640
2.2750556 0.29931343 -0.031821627 4289744640
2.2839653 0.30054733 -0.018336488 4289744640
2.3576024 0.31028187 -0.0048677283 4290005760
2.3590777 0.31054211 0.0092059653 4290005760
2.2319643 0.29390863 0.022027571 4289483520
2.4063759 0.31689039 0.038048249 4290136320
2.4383276 0.32115778 0.053011876 4290266880
2.4408753 0.32156155 0.067482874 4290266880
2.3824227 0.31394446 0.079869092 4290005760
2.4761431 0.32633784 0.097454339 4290397440
2.503274 0.32997692 0.11302071 4290528000
2.4368291 0.32130525 0.1240221 4290266880
2.3687198 0.31241086 0.13403253 4290005760
2.56335 0.33809781 0.15943533 4290658560
2.5775554 0.34004101 0.17463236 4290789120
2.5333672 0.3342953 0.18552274 4290658560
2.4601295 0.32472089 0.19344589 4290397440
2.6455796 0.34922367 0.22204964 4290919680
2.6652985 0.35189795 0.23760298 4291050240
2.6188128 0.34584749 0.2468624 4290919680
2.6474671 0.34970045 0.26282433 4291050240
2.7809258 0.36737493 0.28967857 4291441920
3.196557 0.42227322 0.348203 4292878080
3.2860718 0.43417469 0.373252 4293139200
3.3000941 0.43612051 0.3897936 4293269760
3.2850475 0.43423095 0.40246129 4293269760
3.2624872 0.43134895 0.41359061 4293139200
3.3151889 0.43840325 0.43390206 4293269760
3.316247 0.43864059 0.44718671 4293269760
3.3247502 0.4398618 0.46099982 4293400320
3.3143978 0.43859255 0.47166717 4293400320
3.2986519 0.43661025 0.48093328 4293269760
3.2762723 0.43375051 0.48855016 4293269760
3.299794 0.43695858 0.50244153 4293269760
3.3129475 0.43879732 0.51428753 4293400320
3.3155053 0.43923569 0.52394009 4293400320
3.3046587 0.43790111 0.5308463 4293269760
3.3062158 0.43820775 0.53910089 4293400320
3.3118806 0.43905857 0.5474124 4293400320
3.2985523 0.43739551 0.55193299 4293269760
3.3103719 0.43906236 0.56000674 4293400320
3.2958064 0.43723541 0.56296211 4293269760
3.2999008 0.43788025 0.56842345 4293400320
3.2948093 0.43730843 0.57163543 4293269760
3.2893455 0.43668732 0.57409841 4293269760
3.2937598 0.43737605 0.57760614 4293269760
3.2885191 0.43678507 0.57874203 4293269760
3.2882757 0.43685704 0.58007103 4293269760
3.2881467 0.43694466 0.58073604 4293269760
3.2881331 0.43704799 0.58073634 4293269760
3.2926354 0.4377512 0.58084774 4293269760
3.301626 0.43905112 0.58106059 4293400320
3.2970736 0.43855339 0.578206 4293269760
3.3081622 0.4401336 0.57740456 4293400320
3.3072691 0.4401229 0.57382536 4293400320
3.2966361 0.4388181 0.56789672 4293269760
3.3029728 0.43976894 0.56422555 4293400320
3.3085282 0.44061673 0.55974048 4293400320
3.3015516 0.43979853 0.55248457 4293269760
3.3066046 0.44058067 0.54659587 4293400320
3.2989414 0.43967137 0.53797495 4293269760
3.2845342 0.4378643 0.52767956 4293269760
3.2872212 0.43833256 0.5195415 4293269760
3.3058054 0.44091845 0.5132513 4293269760
3.3163111 0.44242984 0.50502968 4293400320
3.3065274 0.44123903 0.49313623 4293269760
3.3077807 0.44151881 0.48234466 4293269760
2.6748927 0.35776719 0.32255197 4291180800
2.6476905 0.35422805 0.30747125 4291050240
2.652808 0.35500407 0.29588902 4291050240
2.6079452 0.34910324 0.27859318 4290919680
2.5604255 0.34284443 0.2611413 4290658560
2.5708313 0.34432539 0.24947387 4290789120
2.5569293 0.34255716 0.23518996 4290658560
2.4992464 0.3349328 0.2169895 4290528000
2.4904335 0.33384225 0.20312685 4290397440
2.4979331 0.334934 0.19037201 4290528000
2.4796214 0.33257163 0.17550047 4290397440
2.4295404 0.32595474 0.15856431 4290266880
2.4229074 0.32515284 0.14459482 4290266880
2.4445102 0.32813296 0.13206089 4290266880
2.4214373 0.32512856 0.11698116 4290266880
2.314189 0.31084099 0.098463945 4289875200
2.3567073 0.31662375 0.086562544 4290005760
2.3606119 0.31723157 0.072879955 4290005760
2.3112328 0.31069267 0.057743575 4289875200
2.1832967 0.29361039 0.041634586 4289352960
2.2990446 0.30922243 0.030167954 4289744640
2.2852936 0.30745888 0.016373208 4289744640
2.2253516 0.29949197 0.0026701118 4289483520
2.2104826 0.29757464 -0.010543105 4289483520
2.2103708 0.2976388 -0.023730569 4289483520
2.1493263 0.28951463 -0.035872389 4289222400
2.1543229 0.29026324 -0.048752718 4289352960
2.2580881 0.30429211 -0.06446974 4289614080
2.2576659 0.3043161 -0.07774955 4289614080
2.2518442 0.30361366 -0.090725832 4289614080
2.1739972 0.29321888 -0.10021487 4289352960
2.3123844 0.31192309 -0.11992428 4289875200
2.3314548 0.31457308 -0.13421807 4289875200
2.2306902 0.30108631 -0.14100505 4289614080
2.2473156 0.3034052 -0.15459199 4289614080
2.3951278 0.32340127 -0.17794932 4290136320
2.4178503 0.32654873 -0.19275345 4290266880
2.3268614 0.3143681 -0.19791862 4289875200
2.3145914 0.31279585 -0.20901828 4289875200
2.2772725 0.30784395 -0.21737209 4289744640
2.4130247 0.32623947 -0.24250616 4290266880
2.4492764 0.3312166 -0.25823683 4290397440
2.4207435 0.32745099 -0.26689428 4290266880
2.436857 0.32971147 -0.28011963 4290266880
2.3354561 0.31610176 -0.27913865 4290005760
2.6210902 0.35476997 -0.32491526 4290919680
2.7298772 0.36956114 -0.35014272 4291311360
2.8129218 0.38088021 -0.37249109 4291572480
2.9626968 0.40122646 -0.40420526 4292094720
3.1179867 0.42232853 -0.43741781 4292616960
3.2282536 0.43735096 -0.46482894 4293008640
3.2429595 0.43945131 -0.47841659 4293139200
3.2623084 0.44218066 -0.49226528 4293139200
3.2638013 0.44249392 -0.50293154 4293139200
3.2655654 0.44284359 -0.5130778 4293139200
3.2705483 0.44362894 -0.52316433 4293269760
3.2629788 0.44271383 -0.53063923 4293139200
3.2748706 0.44443485 -0.54068023 4293269760
3.2542288 0.4417468 -0.54471189 4293139200
3.2314007 0.43876058 -0.54765606 4293139200
3.2315168 0.43888369 -0.55380958 4293139200
3.2154911 0.43681702 -0.55653054 4293008640
3.1576757 0.42907938 -0.55126196 4292878080
3.1667402 0.43041316 -0.55695444 4292878080
3.1749287 0.43162823 -0.56186783 4292878080
3.0908091 0.42031109 -0.54972941 4292616960
3.0904384 0.42036107 -0.55177116 4292616960
3.1048112 0.42241323 -0.55580997 4292616960
3.0900228 0.420504 -0.55398566 4292616960
3.1696844 0.43142867 -0.56844854 4292878080
3.1648748 0.43087611 -0.56710839 4292878080
3.1601772 0.43033803 -0.56513101 4292878080
3.2027967 0.43623391 -0.57093465 4293008640
3.2192769 0.43857655 -0.57137877 4293139200
3.2398663 0.44147885 -0.57185566 4293139200
3.2536683 0.44345835 -0.57043451 4293139200
3.2587202 0.44424728 -0.56679511 4293139200
3.2592714 0.44442332 -0.56170887 4293139200
3.2642748 0.4452053 -0.55673093 4293269760
3.2486556 0.44317818 -0.54761559 4293139200
3.2413437 0.44228148 -0.53931671 4293139200
3.2222056 0.4397724 -0.5284915 4293008640
3.2115376 0.43841621 -0.51852179 4293008640
3.1498656 0.43010563 -0.49992085 4292747520
2.9999936 0.40976399 -0.46735916 4292225280
2.8373988 0.3876777 -0.43322578 4291703040
2.7207105 0.37184396 -0.40649536 4291311360
2.6180325 0.35791463 -0.38213328 4290919680
2.5707982 0.35154587 -0.3659558 4290789120
2.4863293 0.3400912 -0.34455472 4290528000
2.4601068 0.33658418 -0.33125952 4290397440
2.4230597 0.33159703 -0.31638968 4290266880
2.4718828 0.33833715 -0.31232414 4290397440
2.3970568 0.32818618 -0.29240766 4290136320
2.389441 0.32721525 -0.28072661 4290136320
2.3719585 0.32489505 -0.26769102 4290136320
2.4060409 0.32962331 -0.26009947 4290136320
2.3934362 0.32796922 -0.2470739 4290136320
2.3133614 0.31708628 -0.22727197 4289875200
2.281893 0.31284788 -0.21255754 4289744640
2.3109403 0.31688786 -0.2032599 4289875200
2.2981241 0.3152 -0.1899755 4289744640
2.2325196 0.30628529 -0.17254069 4289614080
2.2096813 0.30322206 -0.15870425 4289483520
2.2736213 0.31204107 -0.1507045 4289744640
2.2393265 0.30740827 -0.13586611 4289614080
2.1410353 0.29400599 -0.11774667 4289222400
2.1892283 0.30067042 -0.10784769 4289352960
2.2309127 0.30644548 -0.096996628 4289614080
2.2269602 0.30596673 -0.083838612 4289483520
2.2098536 0.30368412 -0.070220299 4289483520
2.255995 0.31007433 -0.058371518 4289614080
2.2840078 0.31398046 -0.045554258 4289744640
