# .PCD v0.7 - Point Cloud Data file format
VERSION 0.7
FIELDS x y z rgba
SIZE 4 4 4 4
TYPE F F F U
COUNT 1 1 1 1
WIDTH 1073
HEIGHT 1
VIEWPOINT 0 0 0 1 0 0 0
POINTS 1073
DATA ascii
0.73658109 -1.13943 -0.084717616 4286480640
0.73987353 -1.1444288 -0.092619777 4286611200
0.73548716 -1.1375861 -0.099458762 4286480640
0.73427898 -1.1356448 -0.10656005 4286480640
0.74556053 -1.1529602 -0.11544046 4286611200
0.74837273 -1.1572162 -0.12303022 4286611200
0.73425621 -1.1353749 -0.12761809 4286480640
0.74067384 -1.1451892 -0.1355352 4286611200
0.74835593 -1.156951 -0.14366074 4286611200
0.75010127 -1.1595613 -0.15058009 4286611200
0.73926663 -1.1427836 -0.15474707 4286611200
0.62662435 -0.96911949 -0.13654357 4285827840
0.61876321 -0.95693934 -0.13984877 4285827840
0.53667498 -0.83039021 -0.12564297 4285305600
0.52959639 -0.81942689 -0.12801394 4285305600
0.53635246 -0.82977891 -0.13355303 4285305600
0.51772124 -0.80102032 -0.13259102 4285175040
0.49274009 -0.76248437 -0.12956873 4285044480
0.49521449 -0.76624316 -0.13340516 4285044480
0.50254059 -0.77747393 -0.13844696 4285175040
0.51794392 -0.80114269 -0.1456724 4285175040
0.4908165 -0.75931215 -0.14080583 4285044480
0.513762 -0.7945928 -0.14999363 4285175040
0.5005129 -0.77413768 -0.14858022 4285175040
0.53421271 -0.82597047 -0.16090906 4285305600
0.52394557 -0.81010693 -0.16001698 4285305600
0.52201617 -0.80708092 -0.16141792 4285305600
0.47475567 -0.7342757 -0.14855121 4284913920
0.49505326 -0.76546782 -0.15637805 4285044480
0.45506954 -0.7038753 -0.14508571 4284783360
0.46299627 -0.71602625 -0.14868054 4284913920
0.48118347 -0.74396551 -0.15542482 4285044480
-3.2581081 5.0101275 1.0479375 4278190335
-3.2578909 5.009449 1.0518471 4278190335
-3.2577872 5.0089445 1.0545648 4278190335
-3.257798 5.0086164 1.0560877 4278190335
0.45534709 -0.70396364 -0.14907604 4284783360
0.4752886 -0.73459083 -0.15541092 4284913920
0.47139654 -0.72855371 -0.15383139 4284913920
0.5242703 -0.80982691 -0.17039445 4285305600
0.53241998 -0.8223052 -0.17226297 4285305600
0.49601379 -0.76626128 -0.15967347 4285044480
0.5027495 -0.77656651 -0.16072978 4285175040
0.51567423 -0.79638678 -0.16351594 4285175040
0.52620333 -0.81252098 -0.16529568 4285305600
0.50057364 -0.77306134 -0.15566324 4285175040
0.53035229 -0.81878775 -0.16292267 4285305600
0.51011509 -0.78762245 -0.15471663 4285175040
0.49741086 -0.7680406 -0.14873526 4285044480
0.49494022 -0.7641905 -0.14568537 4285044480
0.50056046 -0.77277583 -0.1448146 4285044480
0.50565696 -0.78055507 -0.14357319 4285175040
0.50591338 -0.78089559 -0.14077684 4285175040
0.54160047 -0.83567834 -0.14738491 4285305600
0.57324994 -0.88424981 -0.15232487 4285566720
0.68912119 -1.062211 -0.17834739 4286219520
0.70527357 -1.0869526 -0.17765124 4286350080
0.71918535 -1.1082488 -0.17598481 4286480640
0.73017377 -1.1250517 -0.17322987 4286480640
0.73557395 -1.1332691 -0.16884133 4286611200
0.73816061 -1.1371641 -0.16356146 4286611200
0.72534144 -1.1173991 -0.15479286 4286480640
0.72369897 -1.1148003 -0.14834145 4286480640
0.73723567 -1.13551 -0.14471401 4286611200
0.73763818 -1.1360502 -0.13824703 4286611200
0.73259974 -1.1282368 -0.13065854 4286480640
0.7252605 -1.1168921 -0.12263396 4286480640
0.72834486 -1.1215503 -0.11626423 4286480640
0.73619628 -1.1335255 -0.11041933 4286480640
0.72631592 -1.1182824 -0.10183872 4286480640
0.72663766 -1.1186998 -0.094660275 4286480640
0.73172605 -1.1264322 -0.087941654 4286480640
0.73769432 -1.1355139 -0.081122279 4286480640
0.73022056 -1.1239678 -0.07276985 4286480640
0.71751869 -1.1044014 -0.064034432 4286350080
0.72305429 -1.1128188 -0.056913685 4286480640
0.72325432 -1.1130496 -0.049258981 4286480640
0.71116078 -1.0944211 -0.040855128 4286350080
0.71007651 -1.092683 -0.033171173 4286350080
0.71758717 -1.1041285 -0.02577766 4286350080
0.71562529 -1.1010437 -0.017967608 4286350080
0.72349054 -1.1130309 -0.010314421 4286480640
0.73093081 -1.1243646 -0.0024811677 4286480640
0.72627413 -1.117147 0.0054135988 4286480640
0.72903752 -1.1213077 0.013340971 4286480640
0.7317462 -1.1253839 0.021309702 4286480640
0.73658478 -1.132725 0.029397994 4286480640
0.73924249 -1.1367217 0.037444144 4286480640
0.73475432 -1.129764 0.045061398 4286480640
0.72580814 -1.1159741 0.052208833 4286480640
0.73069 -1.1233801 0.060257401 4286480640
0.7332533 -1.1272316 0.068123698 4286480640
0.73705733 -1.1329842 0.076095589 4286480640
0.71747464 -1.1028984 0.081395075 4286350080
0.72594905 -1.1158081 0.089686908 4286480640
0.7274816 -1.1180799 0.097118057 4286480640
0.73270065 -1.1259992 0.10500076 4286480640
0.72422445 -1.112937 0.11076709 4286480640
0.73069698 -1.1227758 0.11868148 4286480640
0.74073607 -1.1380763 0.12719765 4286611200
0.75039089 -1.1527863 0.13568556 4286611200
0.74424696 -1.1432977 0.1411923 4286611200
0.72363192 -1.1116488 0.14355743 4286480640
0.73181337 -1.1241013 0.15137193 4286480640
0.7390759 -1.1351448 0.15895344 4286611200
0.73959041 -1.135855 0.16496561 4286611200
0.74252778 -1.1402743 0.17135802 4286611200
0.72231156 -1.109247 0.17207986 4286480640
0.7246865 -1.1128067 0.17785771 4286480640
0.72963881 -1.120311 0.18411618 4286480640
0.73161048 -1.1232522 0.18945815 4286480640
0.72727591 -1.1165411 0.19293424 4286480640
0.72753632 -1.1168633 0.19738172 4286480640
0.70881951 -1.0881448 0.19634628 4286350080
0.71705258 -1.1006684 0.20248836 4286480640
0.71755391 -1.1013601 0.20625859 4286480640
0.71459961 -1.0967647 0.20878433 4286480640
0.7219252 -1.1078967 0.21408878 4286480640
0.72170538 -1.1074845 0.21693698 4286480640
0.71587843 -1.0984955 0.21782398 4286480640
0.71206027 -1.0925801 0.21903323 4286480640
0.71167523 -1.0919164 0.22102794 4286480640
0.70680368 -1.0843914 0.22135627 4286350080
0.70952785 -1.0884829 0.22379655 4286350080
0.70796257 -1.0860149 0.2246241 4286350080
0.70789796 -1.0858417 0.22566037 4286350080
0.7022742 -1.0771689 0.22465278 4286350080
0.71269429 -1.0930256 0.2285134 4286480640
0.70785093 -1.0855466 0.22721764 4286350080
0.70666552 -1.0836601 0.22682638 4286350080
0.71197784 -1.0917057 0.22825107 4286480640
0.71163297 -1.0911038 0.22759181 4286480640
0.71807671 -1.1008768 0.22882819 4286480640
0.71857303 -1.1015599 0.22789231 4286480640
0.718732 -1.1017272 0.22658046 4286480640
0.71662259 -1.0984285 0.22429194 4286480640
0.71682745 -1.0986663 0.22246881 4286480640
0.71178699 -1.0908903 0.21877182 4286350080
0.71653354 -1.0980664 0.21782595 4286480640
0.71045458 -1.0887053 0.21334146 4286350080
0.71051079 -1.0887165 0.21047284 4286350080
0.72009903 -1.1032864 0.21014069 4286480640
0.73377264 -1.1240935 0.21064997 4286480640
0.73682475 -1.1286775 0.20778547 4286611200
0.73411423 -1.1244609 0.20305456 4286480640
0.72184348 -1.1056472 0.19552912 4286480640
0.71277809 -1.0917301 0.1887718 4286350080
0.73773873 -1.1293401 0.1615278 4286480640
0.7382887 -1.1301018 0.15567337 4286480640
0.73933476 -1.1316205 0.14973545 4286480640
0.72175586 -1.1047204 0.13999388 4286480640
0.72783208 -1.1139151 0.13478766 4286480640
0.73680985 -1.1275353 0.12983568 4286480640
0.73873812 -1.1303996 0.12339647 4286480640
0.7158826 -1.0954578 0.11286723 4286350080
0.72361958 -1.1071838 0.10718809 4286480640
0.73184103 -1.1196473 0.1013092 4286480640
0.73466861 -1.1238827 0.094462059 4286480640
0.72576779 -1.1102319 0.086058259 4286480640
0.73823464 -1.1291661 0.080066897 4286480640
0.74219877 -1.135133 0.072894521 4286480640
0.73919183 -1.1304704 0.064944163 4286480640
0.72877735 -1.1145152 0.056407042 4286480640
0.74169874 -1.1341369 0.049601175 4286480640
0.74188149 -1.1343377 0.041743226 4286480640
0.74060488 -1.1323138 0.033767924 4286480640
0.72609282 -1.1101174 0.025311543 4286480640
0.72637427 -1.1104701 0.017505677 4286480640
0.72671664 -1.1109155 0.0096749412 4286480640
0.7245214 -1.107494 0.0018171605 4286480640
0.7244662 -1.1073339 -0.0060120104 4286480640
0.71898413 -1.0989052 -0.013735443 4286350080
0.72528398 -1.1084278 -0.02166819 4286480640
0.72813523 -1.1126953 -0.029576752 4286480640
0.7343207 -1.1220413 -0.037683114 4286480640
0.7369675 -1.125996 -0.045665525 4286480640
0.73811722 -1.1276698 -0.053548336 4286480640
0.74660063 -1.1405127 -0.061999686 4286611200
0.73630649 -1.1247574 -0.068826519 4286480640
0.73952734 -1.1295849 -0.076754555 4286480640
0.74320507 -1.1351074 -0.084717497 4286480640
0.75200385 -1.1484264 -0.093292989 4286611200
0.73936278 -1.1291018 -0.099094927 4286480640
0.7485438 -1.1430013 -0.1076529 4286611200
0.75499898 -1.1527494 -0.11585686 4286611200
0.75510025 -1.1528244 -0.1230301 4286611200
0.74382436 -1.1355827 -0.12812538 4286611200
0.74459922 -1.1366841 -0.13504307 4286611200
0.75235093 -1.148403 -0.14314455 4286611200
0.75957239 -1.1593136 -0.15111952 4286611200
0.75136751 -1.146749 -0.15587167 4286611200
0.63771272 -0.97373968 -0.13771257 4285958400
0.629233 -0.96077156 -0.14093958 4285827840
0.5573054 -0.85127974 -0.12927873 4285436160
0.55015558 -0.84034485 -0.1317662 4285436160
0.54879797 -0.83822215 -0.13541856 4285305600
0.54632139 -0.83439779 -0.13861783 4285305600
0.51294625 -0.78357977 -0.13364407 4285175040
0.51271707 -0.7831775 -0.13685937 4285175040
0.52010286 -0.79435545 -0.14197871 4285175040
0.53563839 -0.81792438 -0.14927764 4285305600
0.51369256 -0.78449976 -0.14601161 4285175040
0.54226422 -0.82788628 -0.15685005 4285305600
0.52346146 -0.79924387 -0.15396465 4285175040
0.50766659 -0.77517796 -0.15162039 4285175040
0.50354266 -0.76885611 -0.15247288 4285044480
0.49309626 -0.75292522 -0.15119426 4285044480
0.49745038 -0.75949138 -0.15421866 4285044480
0.49699259 -0.75874364 -0.15559824 4285044480
0.48516369 -0.74071574 -0.15323247 4285044480
-3.2880259 4.9929347 1.0365595 4278190335
-3.2875819 4.9919181 1.0428395 4278190335
-3.2872481 4.9910698 1.047937 4278190335
-3.2870271 4.9903922 1.0518466 4278190335
-3.2869205 4.9898887 1.0545644 4278190335
-3.2869294 4.9895606 1.0560873 4278190335
-3.2870543 4.989409 1.0564139 4278190335
0.48005038 -0.73254424 -0.15556893 4284913920
0.4644469 -0.70879668 -0.15024319 4284913920
0.51016682 -0.77817982 -0.16437908 4285175040
0.53178132 -0.81094873 -0.17053773 4285305600
0.52430987 -0.79954857 -0.16722132 4285175040
0.53327936 -0.81311244 -0.16890989 4285305600
0.53602582 -0.81722653 -0.16841987 4285305600
0.49985707 -0.7622627 -0.15569395 4285044480
0.52079976 -0.7940017 -0.16047415 4285175040
0.54813665 -0.83544225 -0.16685881 4285436160
0.51957959 -0.79204136 -0.15617396 4285175040
0.50947928 -0.77665806 -0.15097065 4285175040
0.50698966 -0.77282679 -0.1478866 4285175040
0.51266336 -0.78138387 -0.14697915 4285175040
0.51835269 -0.78996342 -0.14585043 4285175040
0.5131734 -0.78205115 -0.14152101 4285175040
0.55408061 -0.84406126 -0.14942479 4285436160
0.58601665 -0.8924529 -0.15431847 4285566720
0.70020175 -1.0656073 -0.17959771 4286350080
0.71308649 -1.0850791 -0.17802176 4286350080
0.72344565 -1.1007174 -0.17545861 4286480640
0.73877883 -1.1238976 -0.17371218 4286480640
0.74216235 -1.1289523 -0.16884121 4286611200
0.7425853 -1.1295167 -0.16308424 4286611200
0.73730642 -1.121435 -0.15594184 4286480640
0.73017991 -1.110553 -0.14834131 4286480640
0.73562443 -1.1187321 -0.14312704 4286480640
0.74793708 -1.1373223 -0.13892835 4286611200
0.73915875 -1.1239374 -0.13065842 4286480640
0.73175347 -1.1126357 -0.12263384 4286480640
0.73486495 -1.117276 -0.1162641 4286480640
0.74278599 -1.1292052 -0.11041921 4286480640
0.73281693 -1.11402 -0.1018386 4286480640
0.73588818 -1.1185983 -0.095011629 4286480640
0.7382744 -1.122138 -0.087941535 4286480640
0.74429548 -1.1311848 -0.081122153 4286480640
0.74225509 -1.1280165 -0.073307075 4286480640
0.72889107 -1.107693 -0.064467035 4286480640
0.73172504 -1.1119108 -0.057083044 4286480640
0.73192704 -1.1121411 -0.049405303 4286480640
0.72578335 -1.1027595 -0.041317143 4286350080
0.72193658 -1.0968583 -0.033420764 4286350080
0.72951478 -1.1082606 -0.025968581 4286480640
0.72478074 -1.101016 -0.018033564 4286350080
0.73271596 -1.1129574 -0.010350859 4286480640
0.73746693 -1.1200753 -0.0024810408 4286480640
0.73772818 -1.1203947 0.0054543247 4286480640
0.73831135 -1.1212014 0.013393185 4286480640
0.73553264 -1.1169184 0.021228274 4286480640
0.74868 -1.1367445 0.029619966 4286611200
0.74860531 -1.136554 0.037584428 4286611200
0.74427211 -1.1299181 0.045242775 4286480640
0.73504949 -1.1158831 0.052407041 4286480640
0.73873144 -1.1213794 0.060381949 4286480640
0.73980588 -1.1229289 0.068123832 4286480640
0.74639565 -1.1328238 0.076378815 4286480640
0.72321492 -1.0976733 0.081319436 4286350080
0.73243511 -1.1115482 0.089687034 4286480640
0.73618066 -1.117139 0.097410262 4286480640
0.73924589 -1.1216998 0.10500088 4286480640
0.7306937 -1.1086872 0.11076722 4286480640
0.73722345 -1.1184882 0.1186816 4286480640
0.74735147 -1.1337299 0.12719777 4286611200
0.7598362 -1.1525338 0.13617842 4286611200
0.75308722 -1.1422493 0.14160573 4286611200
0.73283553 -1.1115485 0.14409748 4286480640
0.73560679 -1.1156632 0.15080947 4286480640
0.74293476 -1.1266664 0.15836899 4286480640
0.75536233 -1.1453779 0.16699485 4286611200
0.74627787 -1.1315669 0.17069931 4286611200
0.72875923 -1.1050085 0.17208 4286480640
0.7284205 -1.1044214 0.17719229 4286480640
0.73888379 -1.1201603 0.18480024 4286480640
0.73813951 -1.1189593 0.18945828 4286480640
0.73649651 -1.1164001 0.19365263 4286480640
0.73129874 -1.1084698 0.19664766 4286480640
0.72373539 -1.0969663 0.19870573 4286480640
0.72345024 -1.0964607 0.20248848 4286480640
0.72613657 -1.1004444 0.20688018 4286480640
0.72097456 -1.0925714 0.20878446 4286480640
0.72836488 -1.1036606 0.2140889 4286480640
0.72555339 -1.0993387 0.21616568 4286480640
0.7222634 -1.0942947 0.21782412 4286480640
0.71568871 -1.0842906 0.21820346 4286350080
0.72074348 -1.0918502 0.22186579 4286480640
0.71582764 -1.0843526 0.22220095 4286350080
0.71313399 -1.0802114 0.22294624 4286350080
0.71427494 -1.0818604 0.22462422 4286350080
0.71420932 -1.0816876 0.2256605 4286350080
0.71688801 -1.0856577 0.22730091 4286350080
0.71415186 -1.0814533 0.22695796 4286350080
0.70872098 -1.073182 0.2254874 4286350080
0.72057998 -1.0910081 0.22924908 4286480640
0.71832329 -1.0875278 0.2282512 4286480640
0.71774489 -1.0865808 0.22751902 4286480640
0.72447544 -1.0966632 0.22882833 4286480640
0.72497582 -1.0973434 0.22789243 4286480640
0.72772354 -1.1014143 0.22738908 4286480640
0.72790796 -1.1016175 0.22581227 4286480640
0.72539216 -1.097747 0.22313912 4286480640
0.72085208 -1.0908232 0.21960185 4286480640
0.7201907 -1.0897511 0.21700493 4286480640
0.71460164 -1.0812466 0.21269242 4286350080
0.70920235 -1.0730295 0.20823063 4286350080
0.72924042 -1.1031758 0.21093011 4286480640
0.73539293 -1.1123785 0.20925179 4286480640
0.74065429 -1.120236 0.20702212 4286480640
0.74374896 -1.1248257 0.20390444 4286611200
0.72827005 -1.1014116 0.19552925 4286480640
0.73101848 -1.1054797 0.19189556 4286480640
0.74430317 -1.1250113 0.16152793 4286480640
0.753097 -1.1381851 0.15739754 4286611200
0.74866056 -1.1314229 0.15028796 4286611200
0.72542769 -1.0963426 0.1394646 4286480640
0.73650771 -1.1129599 0.13519248 4286480640
0.74336392 -1.123212 0.12983581 4286480640
0.73980117 -1.1177686 0.12248274 4286480640
0.72225022 -1.0912569 0.11286736 4286350080
0.73281193 -1.1070893 0.10759411 4286480640
0.74110717 -1.1195062 0.10168897 4286480640
0.74120152 -1.1195718 0.094462201 4286480640
0.73222136 -1.105973 0.086058401 4286480640
0.74755961 -1.128992 0.080365308 4286480640
0.75059593 -1.1334863 0.073070735 4286611200
0.74797374 -1.1294611 0.065138072 4286480640
0.7352559 -1.1102387 0.05640718 4286480640
0.75326818 -1.1372762 0.049934309 4286611200
0.75345337 -1.1374772 0.04202424 4286611200
0.74442089 -1.1238048 0.033641171 4286480640
0.74029249 -1.1175148 0.025584955 4286480640
0.73571754 -1.1105539 0.017576979 4286480640
0.73594171 -1.1108153 0.0097137596 4286480640
0.73317331 -1.1065738 0.001824603 4286480640
0.72813553 -1.0989186 -0.0059914375 4286350080
0.7309075 -1.1030136 -0.013835261 4286480640
0.73172736 -1.1041716 -0.02166805 4286480640
0.73313975 -1.1062207 -0.029519035 4286480640
0.7408433 -1.1177323 -0.037682973 4286480640
0.74051231 -1.1171581 -0.045483995 4286480640
0.74743897 -1.127499 -0.053744361 4286480640
0.75544333 -1.1394591 -0.062179428 4286611200
0.74561018 -1.1245948 -0.06907966 4286480640
0.74609387 -1.1252453 -0.076754414 4286480640
0.75201476 -1.1340705 -0.08496473 4286611200
0.75868005 -1.1440138 -0.09329284 4286611200
0.74592662 -1.1247631 -0.099094786 4286480640
0.75518852 -1.1386089 -0.10765275 4286611200
0.76170039 -1.1483192 -0.11585671 4286611200
0.76676792 -1.1558573 -0.12382593 4286611200
0.75594127 -1.1395068 -0.12905999 4286611200
0.75672019 -1.1405995 -0.13602695 4286611200
0.76386601 -1.1512598 -0.14405075 4286611200
0.77360529 -1.1658154 -0.15254816 4286741760
0.76023626 -1.1456488 -0.15632142 4286611200
0.64557433 -0.97330284 -0.13818008 4285958400
0.58896649 -0.88819474 -0.13083494 4285566720
0.57269931 -0.86369771 -0.13166073 4285436160
0.56328297 -0.84949452 -0.13370696 4285436160
0.57509112 -0.86717224 -0.14061558 4285566720
0.55336761 -0.83448684 -0.13916562 4285305600
0.52518338 -0.79210335 -0.13561141 4285175040
0.52769095 -0.79581487 -0.13959391 4285175040
0.53787851 -0.81105798 -0.14551045 4285305600
0.50530881 -0.7621001 -0.1396606 4285044480
0.52866107 -0.79710859 -0.14892067 4285175040
0.50968051 -0.76855928 -0.14620826 4285175040
0.538508 -0.81178176 -0.15697354 4285305600
0.53351402 -0.80423021 -0.15788858 4285305600
0.53153485 -0.80120462 -0.1594775 4285305600
0.53137994 -0.80091757 -0.16141734 4285305600
0.51498699 -0.77626121 -0.15821916 4285175040
0.4687959 -0.70689136 -0.14555848 4284913920
-3.3176236 4.9748797 1.0291029 4278190335
-3.3170652 4.9737029 1.0365589 4278190335
-3.3166153 4.9726892 1.0428388 4278190335
-3.3162768 4.9718428 1.0479363 4278190335
-3.316052 4.9711666 1.0518459 4278190335
-3.3159423 4.9706635 1.0545636 4278190335
-3.3159492 4.9703355 1.0560865 4278190335
-3.3160732 4.9701834 1.0564132 4278190335
-3.3163147 4.9702072 1.0555431 4278190335
0.4947919 -0.74539483 -0.15858278 4285044480
0.49849781 -0.75090134 -0.1592464 4285044480
0.48854855 -0.73593205 -0.15540677 4285044480
0.50217044 -0.75630569 -0.15881515 4285044480
0.51596487 -0.77693516 -0.16204004 4285175040
0.50698042 -0.76341361 -0.15797058 4285044480
0.52015382 -0.78310895 -0.16055411 4285175040
0.54402286 -0.81883353 -0.16611454 4285305600
0.51794392 -0.77969033 -0.15635914 4285175040
0.54554403 -0.82100207 -0.16248932 4285305600
0.5298838 -0.79747772 -0.15560119 4285175040
0.53011984 -0.79777724 -0.15323257 4285175040
0.53585196 -0.8063122 -0.15223606 4285305600
0.5306263 -0.79842776 -0.14797585 4285175040
0.5363844 -0.8070004 -0.14658189 4285305600
0.52073568 -0.78350222 -0.13927703 4285175040
0.60164595 -0.90465301 -0.15702406 4285697280
0.69789022 -1.0487561 -0.17744818 4286219520
0.71915895 -1.0805413 -0.17796367 4286350080
0.73058808 -1.0975853 -0.17563608 4286480640
0.74322993 -1.1164433 -0.17322959 4286480640
0.7536853 -1.1320244 -0.16995257 4286611200
0.74915171 -1.1251591 -0.16308409 4286611200
0.74106717 -1.112978 -0.15536714 4286480640
0.73663598 -1.1062682 -0.14834116 4286480640
0.750413 -1.1268185 -0.14471373 4286611200
0.75952244 -1.140379 -0.13983758 4286611200
0.7494216 -1.1251818 -0.1313069 4286480640
0.73822159 -1.1083416 -0.12263368 4286480640
0.74136001 -1.1129637 -0.11626396 4286480640
0.74935037 -1.1248466 -0.11041905 4286480640
0.73929298 -1.1097198 -0.10183845 4286480640
0.74239087 -1.1142801 -0.09501148 4286480640
0.7475701 -1.1219542 -0.088265628 4286480640
0.75364482 -1.1309671 -0.081418633 4286611200
0.75103211 -1.1269817 -0.073521867 4286480640
0.7303344 -1.0959421 -0.064034164 4286350080
0.73818874 -1.107617 -0.057082895 4286480640
0.73827052 -1.1076643 -0.049397141 4286480640
0.72941601 -1.0943459 -0.041162945 4286350080
0.73109102 -1.096777 -0.033545468 4286350080
0.73595715 -1.1039798 -0.025968431 4286480640
0.73396015 -1.1009189 -0.018099494 4286480640
0.73640609 -1.1045017 -0.010314143 4286480640
0.7439779 -1.115748 -0.0024808871 4286480640
0.74702084 -1.1202219 0.0054770345 4286480640
0.74983251 -1.1243495 0.013487098 4286480640
0.75258815 -1.1283927 0.021538338 4286480640
0.75751144 -1.1356754 0.02970886 4286611200
0.75521201 -1.1321616 0.037584584 4286611200
0.75917685 -1.1380107 0.045750584 4286611200
0.7415359 -1.1115701 0.052407194 4286480640
0.74747217 -1.1203657 0.060563464 4286480640
0.74633324 -1.1185881 0.068123981 4286480640
0.7585336 -1.1367416 0.076945178 4286611200
0.72749627 -1.0902933 0.081084542 4286350080
0.74167114 -1.1113961 0.09002535 4286480640
0.74045509 -1.1095042 0.09711834 4286480640
0.7506144 -1.1246046 0.10568574 4286480640
0.73713815 -1.1043997 0.11076736 4286480640
0.74871236 -1.1216116 0.11947954 4286480640
0.75380486 -1.1291411 0.12717484 4286611200
0.76653552 -1.1480758 0.13617858 4286611200
0.76526129 -1.1460954 0.14263915 4286611200
0.74206251 -1.1113788 0.14463755 4286480640
0.74485642 -1.1154749 0.15137221 4286480640
0.75501055 -1.1305588 0.15953833 4286611200
0.75925773 -1.1368227 0.16638909 4286611200
0.76058567 -1.138728 0.17245376 4286611200
0.73518205 -1.1007326 0.17208014 4286480640
0.7457372 -1.1164119 0.17982185 4286480640
0.74263763 -1.1117104 0.18411647 4286480640
0.74243879 -1.1113384 0.18889724 4286480640
0.74023092 -1.1079684 0.19293453 4286480640
0.74269783 -1.1115743 0.19796935 4286480640
0.73011136 -1.0927197 0.1987059 4286480640
0.72982329 -1.0922159 0.20248865 4286480640
0.73528296 -1.1002867 0.20765717 4286480640
0.73502278 -1.0998241 0.2109946 4286480640
0.73752803 -1.1034864 0.2148899 4286480640
0.73194313 -1.0950816 0.21616583 4286480640
0.73173881 -1.0947026 0.21875553 4286480640
0.72748297 -1.0882816 0.21986341 4286480640
0.72708964 -1.0876212 0.22186594 4286480640
0.72487509 -1.0842453 0.22304566 4286480640
0.72215694 -1.0801189 0.22379683 4286350080
0.72330713 -1.0817605 0.22547972 4286350080
0.72543532 -1.0848598 0.22720736 4286480640
0.72045439 -1.0773612 0.22643884 4286350080
0.72318119 -1.0813526 0.22782232 4286350080
0.72044593 -1.0772023 0.22721794 4286350080
0.72198242 -1.0794193 0.22769187 4286350080
0.7246443 -1.083313 0.22825137 4286480640
0.72978115 -1.0908945 0.22931658 4286480640
0.72810483 -1.0883225 0.2279692 4286480640
0.73409915 -1.0971801 0.22874795 4286480640
0.73151481 -1.0932552 0.22658074 4286480640
0.73156434 -1.0932547 0.22496788 4286480640
0.72957474 -1.0902166 0.22246911 4286480640
0.73213905 -1.0939623 0.22109585 4286480640
0.72927386 -1.0896202 0.21782623 4286480640
0.72858661 -1.0885227 0.21496467 4286480640
0.72864521 -1.0885359 0.2120748 4286480640
0.73565245 -1.0988971 0.21093027 4286480640
0.74406141 -1.1113442 0.20987342 4286480640
0.7471655 -1.1158906 0.20702228 4286480640
0.74753058 -1.1163583 0.20315532 4286480640
0.73742956 -1.1012441 0.19626361 4286480640
0.73744398 -1.1011907 0.19189572 4286480640
0.75361133 -1.1247648 0.16212441 4286611200
0.75971282 -1.1337668 0.15739772 4286611200
0.7582435 -1.1315036 0.15088721 4286611200
0.73457378 -1.0962125 0.13999417 4286480640
0.74297684 -1.1086385 0.13519265 4286480640
0.74989265 -1.1188505 0.12983598 4286480640
0.7518543 -1.1216921 0.12339678 4286480640
0.73137259 -1.0911528 0.11329919 4286350080
0.73948216 -1.1031393 0.1076286 4286480640
0.7476145 -1.115158 0.10168913 4286480640
0.75049245 -1.1193616 0.094815277 4286480640
0.73865002 -1.1016767 0.086058564 4286480640
0.76192153 -1.1362021 0.081200637 4286611200
0.75718462 -1.1290823 0.073070906 4286611200
0.75230908 -1.1217574 0.064944468 4286480640
0.74170947 -1.1059245 0.056407344 4286480640
0.75708985 -1.1287109 0.049749479 4286480640
0.76006538 -1.1330565 0.042024411 4286611200
0.75374371 -1.123584 0.033768233 4286480640
0.74957925 -1.1173187 0.025682719 4286480640
0.75054675 -1.1186804 0.017781688 4286480640
0.74239874 -1.106497 0.0097139264 4286480640
0.73960567 -1.1022717 0.0018247685 4286480640
0.74010718 -1.1029418 -0.00603214 4286480640
0.73452729 -1.0945772 -0.013785118 4286350080
0.73814583 -1.099878 -0.021667885 4286480640
0.74942154 -1.116552 -0.02990303 4286480640
0.74231625 -1.1059225 -0.037434168 4286480640
0.74700642 -1.112813 -0.045483824 4286480640
0.75678372 -1.1272576 -0.053940352 4286480640
0.76485711 -1.1391698 -0.062404107 4286611200
0.75214756 -1.1202198 -0.069079489 4286480640
0.75263506 -1.1208675 -0.076754242 4286480640
0.75860727 -1.1296581 -0.084964558 4286611200
0.76533037 -1.1395622 -0.093292668 4286611200
0.75246507 -1.1203862 -0.099094614 4286480640
0.7618075 -1.1341778 -0.10765258 4286611200
0.77115983 -1.1479822 -0.11627305 4286611200
0.77348727 -1.1513585 -0.12382575 4286611200
0.75676376 -1.126461 -0.12808503 4286611200
0.76335078 -1.1361594 -0.13602677 4286611200
0.77333802 -1.150902 -0.14456664 4286611200
0.77858174 -1.1586044 -0.15219824 4286741760
0.76619619 -1.1401494 -0.15617946 4286611200
0.59441131 -0.88521469 -0.12621275 4285566720
0.59967774 -0.89296716 -0.13204692 4285566720
0.57771981 -0.86033446 -0.1316606 4285436160
0.5787527 -0.86180806 -0.13616526 4285436160
0.54229563 -0.80767721 -0.1315151 4285305600
0.5331257 -0.79402256 -0.13295911 4285175040
0.5430724 -0.80871934 -0.13898407 4285305600
0.54061604 -0.80502194 -0.1417527 4285305600
0.55088866 -0.82019925 -0.14771771 4285305600
0.52300614 -0.77880281 -0.14326581 4285175040
0.54931968 -0.81776178 -0.15336083 4285305600
0.53292888 -0.79340726 -0.15150635 4285175040
0.51683694 -0.76949918 -0.14940479 4285175040
0.51538551 -0.76729554 -0.1512488 4285175040
0.5097031 -0.75882119 -0.15165776 4285044480
0.5168767 -0.76940149 -0.15569076 4285175040
0.50867122 -0.75718904 -0.15494642 4285044480
0.48884434 -0.7277568 -0.15042374 4284913920
-3.3465571 4.9554758 1.0291021 4278190335
-3.3459921 4.9543023 1.036558 4278190335
-3.3455362 4.9532914 1.0428381 4278190335
-3.3451929 4.9524465 1.0479356 4278190335
-3.344964 4.9517717 1.0518452 4278190335
-3.3448515 4.9512696 1.0545629 4278190335
-3.3448565 4.9509416 1.0560858 4278190335
-3.3449798 4.9507885 1.0564125 4278190335
-3.3452213 4.9508109 1.0555423 4278190335
0.47644427 -0.70890111 -0.15143265 4284913920
0.48596716 -0.72295433 -0.15393719 4284913920
0.51653188 -0.76816159 -0.16282296 4285175040
0.53027731 -0.78846061 -0.1661914 4285175040
0.52544481 -0.78125286 -0.1635737 4285175040
0.54065794 -0.80372107 -0.16693296 4285305600
0.5511955 -0.81926513 -0.16859856 4285305600
0.51936311 -0.77209246 -0.15727369 4285175040
0.53296888 -0.79217774 -0.15947519 4285175040
0.51218534 -0.76136529 -0.15131274 4285044480
0.55054784 -0.81808513 -0.16023169 4285305600
0.54526311 -0.81020975 -0.15621994 4285305600
0.54551768 -0.81053168 -0.15362749 4285305600
0.54578334 -0.81086999 -0.15086032 4285305600
0.55159658 -0.81941575 -0.14940995 4285305600
0.53858691 -0.80011433 -0.142774 4285305600
0.55641526 -0.82643318 -0.14405358 4285305600
0.67715418 -1.0049702 -0.17072652 4286088960
0.73486751 -1.0902642 -0.180262 4286480640
0.74382913 -1.1034446 -0.17726092 4286480640
0.75472033 -1.1194768 -0.17437768 4286611200
0.75748664 -1.123492 -0.16933489 4286611200
0.7579174 -1.1240531 -0.16356102 4286611200
0.74475461 -1.1045152 -0.15479241 4286480640
0.75141943 -1.1142944 -0.1499972 4286480640
0.75417775 -1.1182972 -0.1441846 4286480640
0.76336455 -1.1318023 -0.13933219 4286611200
0.74941236 -1.1111023 -0.13017718 4286480640
0.74466455 -1.1040099 -0.12263351 4286480640
0.75341284 -1.1168652 -0.11712497 4286480640
0.7558893 -1.1204498 -0.11041887 4286480640
0.74574393 -1.1053817 -0.10183827 4286480640
0.75166363 -1.1140547 -0.095362775 4286480640
0.75688863 -1.1216999 -0.088589691 4286480640
0.75438738 -1.1179287 -0.080800101 4286480640
0.75534439 -1.1192673 -0.073306747 4286480640
0.74454397 -1.1032368 -0.064707115 4286480640
0.7474277 -1.1074224 -0.057294566 4286480640
0.74975151 -1.1107802 -0.04972646 4286480640
0.73577732 -1.090066 -0.04116277 4286350080
0.73746645 -1.0924871 -0.033545293 4286350080
0.74237442 -1.0996616 -0.025968252 4286480640
0.7403596 -1.0966123 -0.018099315 4286480640
0.74563009 -1.1043206 -0.010350527 4286480640
0.75046355 -1.1113828 -0.0024807062 4286480640
0.75633645 -1.1199787 0.0054997732 4286480640
0.75132096 -1.112499 0.01339352 4286480640
0.75914729 -1.1239772 0.02153852 4286480640
0.76691657 -1.1353695 0.029819967 4286611200
0.76179302 -1.1277308 0.037584767 4286611200
0.76278955 -1.1291257 0.04556952 4286611200
0.74799711 -1.1072193 0.052407376 4286480640
0.75678653 -1.1201152 0.060790349 4286480640
0.76123935 -1.1266103 0.068889335 4286611200
0.76514113 -1.1322914 0.076945364 4286611200
0.73875093 -1.0932796 0.081630588 4286480640
0.74813122 -1.1070446 0.090025529 4286480640
0.75473875 -1.1167173 0.098140799 4286480640
0.75715125 -1.1202008 0.10568593 4286480640
0.74076146 -1.0959507 0.11034989 4286480640
0.75020093 -1.109799 0.11868194 4286480640
0.76329952 -1.129042 0.12766635 4286611200
0.7704162 -1.1394608 0.13568604 4286611200
0.76913166 -1.1374899 0.14212272 4286611200
0.75075436 -1.1103163 0.14506967 4286480640
0.75134003 -1.111105 0.15137239 4286480640
0.76436931 -1.130239 0.16012309 4286611200
0.76586545 -1.1323684 0.16638929 4286611200
0.76497656 -1.1309819 0.17195272 4286611200
0.74436343 -1.1005222 0.17272675 4286480640
0.7495811 -1.1081382 0.17918929 4286480640
0.75188023 -1.1114521 0.18480058 4286480640
0.751122 -1.1102598 0.18945862 4286480640
0.74944925 -1.10772 0.19365297 4286480640
0.74693674 -1.1039431 0.19738218 4286480640
0.73368633 -1.0843457 0.1979568 4286480640
0.73931867 -1.0925707 0.20335469 4286480640
0.74167812 -1.0959729 0.20765737 4286480640
0.73864216 -1.0914267 0.21020551 4286480640
0.74394172 -1.0991594 0.21489008 4286480640
0.73830795 -1.0907872 0.216166 4286480640
0.74087191 -1.0944899 0.21957685 4286480640
0.7375443 -1.0895154 0.22098298 4286480640
0.73064184 -1.0792774 0.22102842 4286480640
0.73117685 -1.0799924 0.22304584 4286480640
0.73120296 -1.079958 0.22464745 4286480640
0.72682655 -1.0734416 0.22462456 4286350080
0.7267589 -1.0732696 0.22566083 4286350080
0.72948366 -1.0772082 0.22730125 4286350080
0.72946614 -1.0771097 0.2278225 4286350080
0.72822237 -1.0752062 0.22769195 4286350080
0.72825611 -1.0751833 0.22769205 4286350080
0.73094064 -1.0790614 0.22825155 4286480640
0.73335344 -1.0825392 0.22845452 4286480640
0.73443031 -1.0840507 0.22796938 4286480640
0.74324518 -1.0969477 0.22960348 4286480640
0.73786896 -1.0889635 0.22658093 4286480640
0.74068886 -1.0930384 0.22581261 4286480640
0.74089932 -1.0932741 0.22397718 4286480640
0.73849732 -1.0896668 0.22109602 4286480640
0.73560691 -1.0853416 0.21782643 4286480640
0.73310697 -1.0815912 0.21443646 4286480640
0.72942173 -1.0760982 0.21047331 4286350080
0.74203944 -1.0945811 0.21093045 4286480640
0.75052083 -1.106979 0.20987362 4286480640
0.75643015 -1.1155932 0.20778596 4286611200
0.75679934 -1.1160605 0.20390479 4286611200
0.74383026 -1.0969177 0.19626379 4286480640
0.74384439 -1.0968641 0.1918959 4286480640
0.76014888 -1.1203437 0.1621246 4286611200
0.7663027 -1.12931 0.15739791 4286611200
0.76482028 -1.1270554 0.1508874 4286611200
0.74598104 -1.099301 0.14094731 4286480640
0.7494207 -1.1042795 0.13519283 4286480640
0.75639594 -1.1144511 0.12983617 4286480640
0.75557202 -1.1131654 0.12294003 4286480640
0.74051827 -1.0909793 0.11373104 4286480640
0.75094271 -1.1062155 0.10835938 4286480640
0.75129026 -1.1066508 0.1013097 4286480640
0.7598061 -1.1190811 0.095168389 4286480640
0.74505353 -1.097343 0.086058751 4286480640
0.76571625 -1.127607 0.080902562 4286611200
0.76880658 -1.1320677 0.073557824 4286611200
0.76389021 -1.1247733 0.065380648 4286611200
0.75320005 -1.1090043 0.056792255 4286480640
0.76927704 -1.1325279 0.050119672 4286611200
0.7722792 -1.1368576 0.042336691 4286611200
0.76590365 -1.1274234 0.034022223 4286611200
0.74973422 -1.103617 0.025463106 4286480640
0.75423396 -1.1101454 0.017713701 4286480640
0.75164622 -1.1062729 0.0097527998 4286480640
0.74601293 -1.0979322 0.0018249608 4286480640
0.74583191 -1.0975922 -0.006026967 4286480640
0.74877465 -1.101835 -0.01392486 4286480640
0.7473551 -1.0996779 -0.021747157 4286480640
0.75442261 -1.1099706 -0.029845258 4286480640
0.75381261 -1.1090004 -0.037682611 4286480640
0.76215839 -1.1211659 -0.045999508 4286480640
0.7689656 -1.1310732 -0.05433248 4286611200
0.772273 -1.1358467 -0.062467344 4286611200
0.75584584 -1.1116813 -0.068826012 4286480640
0.76421356 -1.1238753 -0.077260591 4286611200
0.77079785 -1.1334529 -0.0855828 4286611200
0.77476579 -1.1391934 -0.093629129 4286611200
0.76740825 -1.1283301 -0.10018556 4286611200
0.77120966 -1.1338261 -0.10804272 4286611200
0.78064126 -1.1475739 -0.11668936 4286611200
0.78018028 -1.1468205 -0.12382555 4286611200
0.76611775 -1.1261331 -0.12855221 4286611200
0.77275997 -1.1357909 -0.13651858 4286611200
0.78071171 -1.1473663 -0.14469223 4286611200
0.78251487 -1.1499308 -0.15165851 4286741760
0.7697835 -1.131199 -0.15556872 4286611200
0.62139225 -0.91371566 -0.13077208 4285697280
0.61550105 -0.90502322 -0.13434979 4285697280
0.60397601 -0.88807899 -0.13642465 4285566720
0.5502066 -0.80925781 -0.12839931 4285305600
0.56040204 -0.82413632 -0.13471317 4285305600
0.5237754 -0.7704373 -0.12953427 4285175040
0.56117254 -0.82515311 -0.14235668 4285305600
0.56092089 -0.82472885 -0.14578255 4285305600
0.51436746 -0.75650489 -0.13682511 4285044480
0.54370284 -0.79940659 -0.14762211 4285305600
0.51656789 -0.7596243 -0.14305761 4285044480
0.55091202 -0.80985284 -0.15524611 4285305600
0.53467625 -0.78603047 -0.15320547 4285175040
0.53320742 -0.78382736 -0.15510607 4285175040
0.52747154 -0.77537876 -0.15556723 4285175040
0.53192073 -0.78183824 -0.15882352 4285175040
0.49268383 -0.72436202 -0.14883673 4284913920
-3.3760564 4.9372311 1.0204772 4278190335
-3.3753774 4.935904 1.0291013 4278190335
-3.3748055 4.9347334 1.0365572 4278190335
-3.3743439 4.9337254 1.0428371 4278190335
-3.3739955 4.9328823 1.0479347 4278190335
-3.3737626 4.932209 1.0518442 4278190335
-3.3736472 4.9317074 1.054562 4278190335
-3.3736503 4.9313793 1.0560849 4278190335
-3.3737726 4.9312258 1.0564115 4278190335
-3.3740144 4.9312468 1.0555414 4278190335
-3.3743751 4.9314418 1.0534755 4278190335
0.4979524 -0.73148036 -0.15636195 4285044480
0.49117458 -0.72152042 -0.15357265 4284913920
0.55098891 -0.80892789 -0.17116602 4285305600
0.54333693 -0.79768604 -0.16766365 4285305600
0.55311996 -0.81193435 -0.16930026 4285305600
0.51877999 -0.76168054 -0.15740448 4285175040
0.52941889 -0.77718055 -0.15893252 4285175040
0.54815662 -0.80451596 -0.16259122 4285305600
0.52998424 -0.77790231 -0.15519905 4285175040
0.5603202 -0.82218403 -0.16166864 4285305600
0.56056899 -0.82249236 -0.1592073 4285305600
0.56083035 -0.82281893 -0.15656507 4285305600
0.56947672 -0.83539724 -0.15602212 4285436160
0.56976396 -0.83576077 -0.15298225 4285436160
0.55664897 -0.81654441 -0.14627095 4285305600
0.56904644 -0.83460027 -0.1460471 4285436160
0.68859017 -1.0091676 -0.1721157 4286088960
0.73677653 -1.0794833 -0.17919117 4286350080
0.75452489 -1.1053331 -0.17826614 4286480640
0.76122802 -1.1150486 -0.17437747 4286611200
0.76962441 -1.1272354 -0.17056969 4286611200
0.76220775 -1.1163296 -0.1630837 4286611200
0.7595948 -1.1124394 -0.15651587 4286480640
0.7578969 -1.1098857 -0.14999701 4286480640
0.76348817 -1.1179743 -0.14471334 4286611200
0.76994383 -1.1273236 -0.13933198 4286611200
0.75868392 -1.1108112 -0.13065788 4286480640
0.75952446 -1.1119636 -0.12400132 4286480640
0.75708967 -1.1083354 -0.11669417 4286480640
0.76465595 -1.1193038 -0.11074241 4286480640
0.76062393 -1.1133446 -0.10297297 4286480640
0.76095897 -1.1137589 -0.095714048 4286480640
0.76566547 -1.1205518 -0.088848874 4286480640
0.76902509 -1.1253787 -0.081655547 4286611200
0.76693141 -1.1222486 -0.073790148 4286611200
0.75223416 -1.1007318 -0.064815655 4286480640
0.756001 -1.1061531 -0.057454575 4286480640
0.75689697 -1.1073859 -0.049770873 4286480640
0.75002629 -1.0972903 -0.041593887 4286480640
0.74099022 -1.0840377 -0.033420235 4286350080
0.74876648 -1.0953059 -0.025968047 4286480640
0.74956137 -1.0963918 -0.01816519 4286480640
0.75487691 -1.1040695 -0.010386882 4286480640
0.7654075 -1.1193503 -0.0025015119 4286480640
0.76001847 -1.1114181 0.0054774252 4286480640
0.76287806 -1.1155126 0.01348749 4286480640
0.7713365 -1.1277688 0.021701844 4286611200
0.77068835 -1.1267484 0.029709257 4286611200
0.76834804 -1.1232617 0.037584979 4286611200
0.76935267 -1.1246508 0.045569733 4286611200
0.76291275 -1.1151898 0.053001825 4286480640
0.76612329 -1.1197939 0.061017264 4286480640
0.76778781 -1.1221445 0.068889543 4286611200
0.77172256 -1.1278028 0.076945581 4286611200
0.74792939 -1.0930599 0.081941605 4286480640
0.75738883 -1.1067685 0.090363897 4286480640
0.75840753 -1.1081784 0.097775906 4286480640
0.76930439 -1.1239781 0.10646936 4286611200
0.74995148 -1.0957125 0.11076776 4286480640
0.75665146 -1.1053979 0.11868215 4286480640
0.769723 -1.1243619 0.12764348 4286611200
0.78267211 -1.143145 0.13667171 4286611200
0.77574319 -1.1329781 0.14212292 4286611200
0.75720787 -1.105912 0.14506988 4286480640
0.75498539 -1.1026019 0.15081002 4286480640
0.77093858 -1.1257551 0.16012332 4286611200
0.77525711 -1.1319668 0.16699541 4286611200
0.77155012 -1.1264944 0.17195295 4286611200
0.75075984 -1.0961553 0.17272696 4286480640
0.76093441 -1.1108916 0.18035468 4286480640
0.75834018 -1.1070412 0.18480079 4286480640
0.75757504 -1.1058534 0.18945883 4286480640
0.7530852 -1.0992453 0.19293493 4286480640
0.75839502 -1.1068983 0.19870393 4286480640
0.74278861 -1.0841155 0.19870628 4286480640
0.75126648 -1.096378 0.20488189 4286480640
0.74804795 -1.0916219 0.20765758 4286480640
0.74778241 -1.0911622 0.210995 4286480640
0.74753422 -1.0907279 0.21408945 4286480640
0.74464762 -1.0864559 0.21616621 4286480640
0.74443889 -1.0860794 0.21875592 4286480640
0.74667013 -1.0892515 0.2218131 4286480640
0.74250042 -1.0831145 0.22270404 4286480640
0.7346614 -1.0716422 0.2222015 4286350080
0.73454374 -1.0713991 0.22375336 4286350080
0.73738581 -1.0754595 0.22594854 4286480640
0.73578805 -1.0730642 0.22652033 4286350080
0.74076843 -1.0802326 0.22885349 4286480640
0.73795915 -1.076076 0.22851408 4286480640
0.73447144 -1.0709339 0.22769216 4286350080
0.73952931 -1.0782137 0.22924961 4286480640
0.73932314 -1.0778415 0.22890532 4286480640
0.73964512 -1.0782369 0.22845472 4286480640
0.74631524 -1.0878576 0.22968817 4286480640
0.74962068 -1.0925876 0.22960369 4286480640
0.74685359 -1.0884935 0.22738965 4286480640
0.74704158 -1.0886933 0.22581284 4286480640
0.74725342 -1.0889277 0.22397739 4286480640
0.74483043 -1.0853344 0.22109625 4286480640
0.74191487 -1.0810262 0.21782663 4286480640
0.7421909 -1.0813541 0.21524812 4286480640
0.74151039 -1.0802929 0.21214293 4286480640
0.74840117 -1.090228 0.21093068 4286480640
0.76241899 -1.1105118 0.21138921 4286611200
0.7627759 -1.1109552 0.20774853 4286611200
0.76608992 -1.1156924 0.20465431 4286611200
0.75581634 -1.1007005 0.19773242 4286480640
0.75527167 -1.0998355 0.19318901 4286480640
0.76947737 -1.1199722 0.16272114 4286611200
0.77793962 -1.1321764 0.15843254 4286611200
0.77701092 -1.1307524 0.15199237 4286611200
0.75011325 -1.0916497 0.140524 4286480640
0.75866205 -1.1039788 0.13569888 4286480640
0.76569796 -1.1141114 0.13031806 4286480640
0.76486808 -1.1128323 0.12339719 4286480640
0.7519486 -1.094017 0.11450826 4286480640
0.76020116 -1.1059129 0.10876548 4286480640
0.76055253 -1.1063479 0.10168954 4286480640
0.76631063 -1.1146238 0.095168605 4286480640
0.75709659 -1.1011869 0.086710542 4286480640
0.77510393 -1.127224 0.081201062 4286611200
0.77822125 -1.1316677 0.073828459 4286611200
0.77042788 -1.1202921 0.065380871 4286611200
0.76248252 -1.1086977 0.05700621 4286480640
0.77869707 -1.1321281 0.050304897 4286611200
0.78172511 -1.136441 0.04249296 4286611200
0.77809387 -1.1311009 0.034274455 4286611200
0.76182693 -1.1074479 0.025658526 4286480640
0.76283401 -1.1088326 0.017765487 4286480640
0.75807649 -1.1018633 0.0097530205 4286480640
0.76091444 -1.1059011 0.0018525766 4286480640
0.75221175 -1.0932165 -0.0060267476 4286480640
0.75505495 -1.0972621 -0.013922454 4286480640
0.75942707 -1.1035222 -0.021905862 4286480640
0.76237649 -1.1077204 -0.029902613 4286480640
0.76309836 -1.1086913 -0.037820522 4286480640
0.7684353 -1.1163468 -0.04598514 4286480640
0.77554029 -1.1265621 -0.054332253 4286611200
0.78091282 -1.134267 -0.06262853 4286611200
0.76514524 -1.111356 -0.069079064 4286480640
0.77074641 -1.1193919 -0.077260368 4286611200
0.78022236 -1.1330373 -0.085891791 4286611200
0.77855277 -1.1305435 -0.093292244 4286611200
0.77396709 -1.1238281 -0.10018533 4286611200
0.77496743 -1.1252004 -0.10765215 4286611200
0.7895776 -1.1462741 -0.11702234 4286611200
0.79250842 -1.150439 -0.12470973 4286741760
0.77492768 -1.124915 -0.12892589 4286611200
0.7765339 -1.1271638 -0.13602634 4286611200
0.78455418 -1.1386948 -0.14417593 4286611200
0.78727603 -1.1425568 -0.15129104 4286611200
0.78313106 -1.1364819 -0.15691674 4286611200
0.62670326 -0.91006786 -0.13077189 4285697280
0.5744366 -0.83438629 -0.12440055 4285436160
0.57267249 -0.83177781 -0.12832013 4285436160
0.57408118 -0.83375967 -0.13279843 4285436160
0.5787183 -0.84041113 -0.13791123 4285436160
0.54177308 -0.78691602 -0.1328215 4285175040
0.57722992 -0.83814526 -0.14516716 4285436160
0.5240562 -0.76118731 -0.13512912 4285175040
0.53732914 -0.78033048 -0.14168121 4285175040
0.5562219 -0.80759752 -0.14972506 4285305600
0.53447354 -0.77609634 -0.14673217 4285175040
0.52595621 -0.76372945 -0.14701949 4285175040
0.55834222 -0.81049991 -0.15858981 4285305600
0.54337823 -0.78881276 -0.15671316 4285175040
0.55330837 -0.80311418 -0.16175728 4285305600
0.51478606 -0.74737805 -0.15245321 4285044480
0.48113418 -0.69868892 -0.14415392 4284913920
-3.4047697 4.9174871 1.0204761 4278190335
-3.404083 4.9161644 1.0291002 4278190335
-3.4035041 4.9149971 1.0365561 4278190335
-3.4030368 4.9139915 1.0428362 4278190335
-3.4026835 4.9131508 1.0479337 4278190335
-3.4024467 4.9124789 1.0518433 4278190335
-3.4023285 4.9119778 1.054561 4278190335
-3.4023297 4.9116497 1.0560839 4278190335
-3.402451 4.9114952 1.0564106 4278190335
-3.402693 4.9115148 1.0555404 4278190335
-3.403055 4.9117084 1.0534745 4278190335
0.48754066 -0.70737839 -0.15183198 4284913920
0.51723826 -0.75021702 -0.16029891 4285044480
0.51489776 -0.74678713 -0.15868968 4285044480
0.52889711 -0.76695073 -0.16186878 4285175040
0.52680004 -0.76387149 -0.15994689 4285175040
0.53387278 -0.77403134 -0.16058864 4285175040
0.54965931 -0.79676908 -0.16357745 4285305600
0.5719322 -0.82886696 -0.16816735 4285436160
0.54799289 -0.79425704 -0.15908532 4285305600
0.53191894 -0.77100408 -0.15224466 4285175040
0.5765987 -0.83543533 -0.16235186 4285436160
0.58193159 -0.84307539 -0.1610488 4285436160
0.58221418 -0.84342688 -0.15814744 4285436160
0.58814019 -0.85192126 -0.15655454 4285436160
0.56928486 -0.82465917 -0.14831075 4285436160
0.59024936 -0.85485035 -0.15017669 4285436160
0.6596489 -0.95491189 -0.16354355 4285958400
0.74502474 -1.0780067 -0.17966393 4286480640
0.75945657 -1.0987519 -0.17791809 4286480640
0.77336097 -1.1187335 -0.17565309 4286611200
0.77334988 -1.1186429 -0.16995195 4286611200
0.77095997 -1.1151215 -0.16356057 4286611200
0.76606143 -1.107983 -0.15651564 4286480640
0.76434863 -1.1054393 -0.14999677 4286480640
0.77508718 -1.1208491 -0.14566521 4286611200
0.78216696 -1.1309817 -0.14034216 4286611200
0.76797748 -1.1104496 -0.13113853 4286480640
0.76315022 -1.1034166 -0.12354509 4286480640
0.76637167 -1.1079867 -0.11712453 4286480640
0.77400309 -1.1189126 -0.11114686 4286611200
0.76709563 -1.1088823 -0.10297273 4286480640
0.76743305 -1.1092947 -0.095713817 4286480640
0.76990342 -1.1127807 -0.088589244 4286480640
0.77817166 -1.1246212 -0.081926852 4286611200
0.77060813 -1.1136478 -0.073521242 4286480640
0.76588708 -1.1067713 -0.065427884 4286480640
0.77097613 -1.1140295 -0.058089893 4286480640
0.75763535 -1.0947362 -0.049404535 4286480640
0.75640446 -1.0928901 -0.041593656 4286480640
0.75527275 -1.0911871 -0.033769596 4286480640
0.75798404 -1.0950196 -0.026063336 4286480640
0.75821531 -1.0952797 -0.018217821 4286480640
0.75844264 -1.0955341 -0.010350088 4286480640
0.77191377 -1.1148602 -0.0025012745 4286480640
0.76933068 -1.1110663 0.0055002193 4286480640
0.77506602 -1.1192504 0.013591907 4286611200
0.76933587 -1.1109258 0.021457411 4286480640
0.78008926 -1.126333 0.02982042 4286611200
0.78286099 -1.1302481 0.037977658 4286611200
0.78122425 -1.1278167 0.045886602 4286611200
0.77167511 -1.1139969 0.053160526 4286480640
0.77548194 -1.1194017 0.061244208 4286611200
0.77146077 -1.1135398 0.068634726 4286480640
0.77827775 -1.1232759 0.076945819 4286611200
0.75713038 -1.0927702 0.082252659 4286480640
0.76609921 -1.1056026 0.090634659 4286480640
0.76484853 -1.1037295 0.097776145 4286480640
0.7758373 -1.1194655 0.10646959 4286611200
0.76428282 -1.1027685 0.11193743 4286480640
0.77387869 -1.1164987 0.12036659 4286611200
0.78421438 -1.1312914 0.1289548 4286611200
0.78931636 -1.1385542 0.13667195 4286611200
0.79069906 -1.1404669 0.1436464 4286611200
0.76136529 -1.0982052 0.14463818 4286480640
0.76933604 -1.1095941 0.15238549 4286480640
0.77974975 -1.1244944 0.16059123 4286611200
0.7875039 -1.1355686 0.16820748 4286611200
0.77809739 -1.1219687 0.17195319 4286611200
0.7599619 -1.0958215 0.17337361 4286480640
0.76512706 -1.1031735 0.17982247 4286480640
0.76986575 -1.1099116 0.1860321 4286611200
0.76669008 -1.1052729 0.19012597 4286480640
0.75947398 -1.0948277 0.19293517 4286480640
0.76482826 -1.1024497 0.19870418 4286480640
0.74908942 -1.0797582 0.19870651 4286480640
0.75199354 -1.0838592 0.20335513 4286480640
0.75439239 -1.0872338 0.20765781 4286480640
0.7541241 -1.0867757 0.21099524 4286480640
0.75951248 -1.0944445 0.21569136 4286480640
0.75646031 -1.0899866 0.21774934 4286480640
0.75356895 -1.0857604 0.2195773 4286480640
0.75300074 -1.0848715 0.22181334 4286480640
0.75691986 -1.0904281 0.22512069 4286480640
0.74652159 -1.0754211 0.22389084 4286480640
0.74640161 -1.075177 0.22545448 4286480640
0.74588829 -1.0743679 0.22663306 4286480640
0.74709135 -1.0760235 0.22806726 4286480640
0.74423182 -1.0718457 0.22799149 4286480640
0.7442131 -1.0717471 0.22851431 4286480640
0.74351019 -1.0706662 0.22855759 4286480640
0.7462135 -1.0744753 0.22937828 4286480640
0.75065452 -1.0807781 0.23046114 4286480640
0.74872702 -1.0779392 0.2293172 4286480640
0.75545353 -1.0875211 0.23054768 4286480640
0.7559706 -1.0881903 0.22960393 4286480640
0.75895256 -1.0923966 0.22913271 4286480640
0.75618654 -1.0883543 0.22665763 4286480640
0.75640053 -1.0885885 0.22481534 4286480640
0.75113827 -1.0809653 0.22109649 4286480640
0.75101793 -1.0807202 0.21864802 4286480640
0.74847555 -1.0770004 0.21524836 4286480640
0.74778891 -1.0759432 0.21214317 4286480640
0.75982004 -1.0931282 0.21235165 4286480640
0.76604831 -1.101988 0.21061261 4286480640
0.76923269 -1.106481 0.20774877 4286611200
0.77540183 -1.1152538 0.20540383 4286611200
0.7565555 -1.0881534 0.19626425 4286480640
0.75656897 -1.0880996 0.19189636 4286480640
0.77314615 -1.1113875 0.16212507 4286611200
0.78167778 -1.1235402 0.15785812 4286611200
0.78073925 -1.1221195 0.15144023 4286611200
0.75873423 -1.0905112 0.14094777 4286480640
0.76223171 -1.0954493 0.13519329 4286480640
0.77502161 -1.113701 0.13079998 4286611200
0.77646565 -1.1156949 0.12421993 4286611200
0.75830716 -1.089606 0.1145085 4286480640
0.77233404 -1.1096263 0.1095775 4286480640
0.76698285 -1.1018865 0.10168979 4286480640
0.77278906 -1.1101288 0.095168859 4286480640
0.76349694 -1.0967457 0.086710788 4286480640
0.78165567 -1.1226774 0.081201307 4286611200
0.7819404 -1.1230096 0.073558301 4286611200
0.78265828 -1.1239619 0.065865554 4286611200
0.76892662 -1.1042249 0.05700646 4286480640
0.78813851 -1.1316569 0.050490152 4286611200
0.78833055 -1.1318556 0.042493213 4286611200
0.77898377 -1.1183991 0.034022696 4286611200
0.77184868 -1.1081103 0.025780985 4286480640
0.769279 -1.1043577 0.017765734 4286480640
0.76734459 -1.1015147 0.0097919516 4286480640
0.76447862 -1.0973389 0.0018436919 4286480640
0.7644192 -1.0971801 -0.0060682576 4286480640
0.76658785 -1.1002095 -0.014012161 4286480640
0.76870513 -1.1031649 -0.021985076 4286480640
