# .PCD v0.7 - Point Cloud Data file format
VERSION 0.7
FIELDS x y z rgba
SIZE 4 4 4 4
TYPE F F F U
COUNT 1 1 1 1
WIDTH 1103
HEIGHT 1
VIEWPOINT 0 0 0 1 0 0 0
POINTS 1103
DATA ascii
2.6549253 -1.3807821 0.31065738 4292094720
2.5728261 -1.3380101 0.31485939 4291703040
2.546006 -1.3239638 0.32484832 4291703040
2.4774368 -1.2882327 0.32869464 4291441920
2.5096896 -1.3048774 0.3452684 4291572480
2.4406457 -1.2689079 0.34743562 4291311360
2.195384 -1.1414279 0.32283121 4290397440
2.1855104 -1.1362054 0.33106434 4290266880
2.1630719 -1.1244599 0.33689097 4290266880
2.1285799 -1.1064581 0.34023246 4290136320
2.1729476 -1.1294011 0.35573742 4290266880
2.2008674 -1.143802 0.36843473 4290397440
2.3316708 -1.2116059 0.39838666 4290919680
2.3052487 -1.197793 0.4015424 4290789120
2.3677921 -1.2301553 0.4197486 4291050240
2.4177325 -1.2559723 0.43558651 4291180800
2.5088754 -1.303166 0.45869344 4291572480
2.5331116 -1.3156368 0.46940261 4291703040
2.5997641 -1.3501126 0.48759717 4291964160
2.6331823 -1.3673418 0.49923906 4292094720
2.6491549 -1.3755187 0.50710291 4292094720
2.6695757 -1.3860022 0.51528269 4292225280
2.6813235 -1.3919861 0.52124113 4292225280
2.6852818 -1.3939296 0.5251013 4292225280
2.6937015 -1.3981869 0.52922571 4292355840
2.6890926 -1.3956882 0.53018445 4292355840
2.6933224 -1.397773 0.5322535 4292355840
2.6889002 -1.3953725 0.53199536 4292355840
2.6679564 -1.3844074 0.52785623 4292225280
2.6724668 -1.3866396 0.52810889 4292225280
2.6552048 -1.3775864 0.52346438 4292225280
2.6310327 -1.3649533 0.51687348 4292094720
2.5894458 -1.3432971 0.50632548 4291964160
2.5727632 -1.3345509 0.50008833 4291833600
2.4980605 -1.2957408 0.48216316 4291572480
2.4102693 -1.2501553 0.4614048 4291180800
2.3522785 -1.220017 0.44603091 4291050240
2.2983701 -1.1919984 0.43112382 4290789120
2.3201818 -1.2032099 0.42990184 4290919680
2.3376865 -1.2121892 0.42729244 4290919680
2.2921224 -1.1885004 0.412801 4290789120
2.1755123 -1.1280193 0.38557097 4290266880
2.1680138 -1.1240543 0.37748021 4290266880
2.1859589 -1.1332662 0.37332067 4290266880
2.1836102 -1.1319687 0.36523545 4290266880
2.255451 -1.1690849 0.3688038 4290528000
2.7189772 -1.4083493 0.36747089 4292355840
2.7310424 -1.4144945 0.35549161 4292355840
2.7370727 -1.4175165 0.34224075 4292355840
2.7364049 -1.4170729 0.32774633 4292355840
2.7037368 -1.400074 0.30925745 4292225280
2.7271371 -1.4120831 0.29683858 4292355840
2.7339828 -1.4155272 0.28213221 4292355840
2.7107353 -1.4034055 0.2641255 4292225280
2.7088287 -1.4023234 0.24803349 4292225280
2.7196887 -1.4078443 0.23277219 4292225280
2.7263346 -1.4111855 0.21679103 4292355840
2.725054 -1.4104275 0.19991386 4292355840
2.6741569 -1.384014 0.179539 4292094720
2.5184388 -1.3034077 0.15330839 4291441920
2.4301286 -1.2576628 0.1325027 4291180800
2.4266162 -1.255762 0.11668976 4291180800
2.1267838 -1.1006832 0.088711366 4290005760
2.1375337 -1.1061655 0.075173907 4290005760
2.1322458 -1.1033579 0.060969125 4290005760
2.1199038 -1.096905 0.046618097 4290005760
2.1091244 -1.0912603 0.032401193 4289875200
2.1128309 -1.0931023 0.018404074 4290005760
2.1146429 -1.0939651 0.004334277 4290005760
2.0850804 -1.0786169 -0.0095930295 4289875200
2.1048529 -1.08876 -0.023717567 4289875200
2.1058679 -1.0892111 -0.037728164 4289875200
2.1171546 -1.0949682 -0.051973939 4290005760
2.098552 -1.0852853 -0.065357409 4289875200
2.1303623 -1.1016428 -0.080371439 4290005760
2.1307013 -1.1017435 -0.094296992 4290005760
2.1277053 -1.1001219 -0.10795432 4290005760
2.1192527 -1.0956824 -0.12114096 4290005760
2.1282561 -1.1002573 -0.13521276 4290005760
2.1291509 -1.1006447 -0.14868006 4290005760
2.1206741 -1.0961934 -0.16127774 4290005760
2.1164353 -1.0939304 -0.17394783 4290005760
2.1443875 -1.1082857 -0.18924357 4290136320
2.1495214 -1.1108601 -0.20250121 4290136320
2.1396899 -1.1057093 -0.21408941 4290136320
2.0927985 -1.0814313 -0.22138008 4289875200
2.1338329 -1.1025347 -0.23775923 4290005760
2.1437292 -1.1075655 -0.25066835 4290136320
2.1439304 -1.1075927 -0.26221529 4290136320
2.125443 -1.0979766 -0.27107647 4290005760
2.0652161 -1.0668257 -0.27387848 4289875200
2.158529 -1.1148931 -0.29700893 4290136320
2.1630309 -1.1171373 -0.30800587 4290266880
2.1526852 -1.111722 -0.31650642 4290136320
2.1553288 -1.1130072 -0.32653424 4290136320
2.1439872 -1.1070787 -0.33402833 4290136320
2.1279857 -1.0987475 -0.34030089 4290136320
2.1330314 -1.1012712 -0.34952229 4290136320
2.1399429 -1.1047564 -0.35869926 4290136320
2.1329083 -1.1010497 -0.36512083 4290136320
2.1384094 -1.1038064 -0.37327325 4290136320
2.1274602 -1.0980816 -0.37809905 4290136320
2.1301978 -1.0994128 -0.38490596 4290136320
2.1238298 -1.09605 -0.38960901 4290136320
2.1094952 -1.0885808 -0.3923417 4290005760
2.1092625 -1.0883807 -0.39721653 4290005760
2.0818603 -1.0741781 -0.39643794 4290005760
2.0633767 -1.0645732 -0.39681125 4289875200
2.0707788 -1.0683079 -0.40169722 4289875200
2.0279958 -1.0461839 -0.39629689 4289744640
2.0407887 -1.0526961 -0.40128824 4289744640
2.0361373 -1.0502201 -0.40238056 4289744640
2.0359342 -1.0500356 -0.40388092 4289744640
2.0358026 -1.0498875 -0.40492389 4289744640
2.0313666 -1.0475223 -0.40463355 4289744640
2.0235021 -1.0433911 -0.40318349 4289744640
2.0270886 -1.0451573 -0.40355113 4289744640
2.0739744 -1.0692189 -0.41207817 4289875200
2.0842509 -1.0744267 -0.41279987 4290005760
2.0870512 -1.075784 -0.41154516 4290005760
2.1068947 -1.0859149 -0.41315898 4290005760
2.121263 -1.0932252 -0.41317347 4290136320
2.1345212 -1.0999627 -0.41245088 4290136320
2.1282201 -1.0966318 -0.40744719 4290136320
2.1322079 -1.0985961 -0.40395087 4290136320
2.1425478 -1.1038288 -0.40116367 4290136320
2.1330576 -1.0988562 -0.39418656 4290136320
2.1367054 -1.100644 -0.38920495 4290136320
2.1268797 -1.0954993 -0.38133034 4290136320
2.1134281 -1.0884898 -0.37243426 4290005760
2.104768 -1.0839458 -0.36402851 4290005760
2.1233199 -1.0933987 -0.35989624 4290136320
2.1371913 -1.1004425 -0.35444221 4290136320
2.1538048 -1.1088951 -0.34892741 4290136320
2.139385 -1.1013879 -0.33796191 4290136320
2.1092756 -1.0858144 -0.32430929 4290005760
2.1068101 -1.084456 -0.31469876 4290005760
2.1276455 -1.0950762 -0.30814815 4290005760
2.1383727 -1.1004984 -0.29963577 4290136320
2.1343696 -1.0983479 -0.28868291 4290136320
2.1029847 -1.0821242 -0.27386171 4290005760
2.1133525 -1.0873607 -0.26430902 4290005760
2.1385436 -1.1002133 -0.25614205 4290136320
2.1520402 -1.1070546 -0.24607645 4290136320
2.0945435 -1.0774187 -0.22781506 4289875200
2.1080453 -1.084263 -0.21732418 4290005760
2.1280646 -1.0944539 -0.20708045 4290005760
2.129041 -1.0948613 -0.19462164 4290005760
2.0984571 -1.0790588 -0.17921908 4289875200
2.1188109 -1.0894188 -0.16807321 4290005760
2.1251695 -1.09259 -0.15546152 4290005760
2.1331887 -1.0966133 -0.14271609 4290005760
2.1257603 -1.0927043 -0.12876841 4290005760
2.1075897 -1.0832809 -0.11418648 4289875200
2.1182938 -1.0886818 -0.10111851 4290005760
2.1273789 -1.0932508 -0.087736748 4290005760
2.0863433 -1.0720938 -0.072362192 4289875200
2.1163936 -1.0874228 -0.059509512 4290005760
2.1317506 -1.0952089 -0.045870256 4290005760
2.1346412 -1.0965967 -0.031784318 4290005760
2.1139104 -1.0858648 -0.017412612 4290005760
2.1402924 -1.099305 -0.0034165143 4290005760
2.1510391 -1.1047223 0.010866387 4290136320
2.2944002 -1.1781622 0.026710864 4290658560
2.4277771 -1.2464685 0.044251308 4291180800
2.5257506 -1.2966062 0.062654637 4291441920
2.6929424 -1.382231 0.084397241 4292094720
2.6447656 -1.3574073 0.10023719 4291964160
2.7398171 -1.4060243 0.121589 4292355840
2.7516572 -1.4119724 0.13986759 4292355840
2.7530451 -1.4125613 0.15755259 4292355840
2.6547127 -1.3620349 0.16881606 4291964160
2.7498441 -1.4106759 0.19201927 4292355840
2.7613561 -1.416454 0.2098999 4292355840
2.7539573 -1.41254 0.2261506 4292355840
2.6554806 -1.3619578 0.23410363 4291964160
2.7621403 -1.4164892 0.25975752 4292486400
2.7789016 -1.4249548 0.2774646 4292486400
2.7649565 -1.4176887 0.29183799 4292486400
2.732147 -1.4007612 0.30364671 4292355840
2.6665132 -1.3670247 0.31095296 4292094720
2.5850482 -1.3251861 0.31528622 4291833600
2.5537217 -1.309031 0.32474232 4291703040
2.4849446 -1.2737019 0.32859355 4291441920
2.5049233 -1.2838237 0.34348285 4291441920
2.4144795 -1.2374104 0.34260923 4291180800
2.2265036 -1.1410757 0.32630908 4290397440
2.2009556 -1.1279023 0.33230683 4290397440
2.2075469 -1.1311817 0.34266102 4290397440
2.1694057 -1.1115667 0.34559938 4290266880
2.1751239 -1.1144006 0.35495064 4290266880
2.1652608 -1.109261 0.36135408 4290266880
2.3390644 -1.1981003 0.39837134 4290919680
2.3503978 -1.2038003 0.40806401 4290919680
2.3916717 -1.2248169 0.42261934 4291050240
2.4716494 -1.2656293 0.44384685 4291441920
2.5718393 -1.3167741 0.46867129 4291833600
2.5794356 -1.3205526 0.47644931 4291833600
2.6243179 -1.3433996 0.49064597 4291964160
2.6578312 -1.3604298 0.50232476 4292094720
2.6650677 -1.3640209 0.50855505 4292225280
2.6776478 -1.3703444 0.5152384 4292225280
2.6850424 -1.3740159 0.52035493 4292225280
2.6890118 -1.3759364 0.52421498 4292225280
2.6930697 -1.3779023 0.52748501 4292225280
2.6884463 -1.3754308 0.52844298 4292225280
2.688302 -1.3752495 0.52965295 4292225280
2.688251 -1.3751165 0.53025836 4292225280
2.6839085 -1.3727907 0.52939731 4292225280
2.6805365 -1.3709618 0.52810502 4292225280
2.6597118 -1.3602164 0.52277923 4292094720
2.6389747 -1.3495176 0.51688027 4292094720
2.626219 -1.3428984 0.51195663 4291964160
2.5889714 -1.3237695 0.50173444 4291833600
2.5644152 -1.3111266 0.49344894 4291833600
2.4596889 -1.2575393 0.46943486 4291311360
2.3927505 -1.2232591 0.45233846 4291180800
2.3390214 -1.19573 0.4374308 4290919680
2.3398151 -1.1960466 0.43226361 4290919680
2.2726369 -1.1616571 0.41426879 4290658560
2.2656078 -1.1579829 0.40688136 4290658560
2.2111077 -1.1300746 0.39072272 4290397440
2.2035983 -1.1261586 0.38254821 4290397440
2.2180867 -1.1334724 0.37770349 4290397440
2.214725 -1.1316745 0.36936659 4290397440
2.2366798 -1.1427979 0.36473206 4290528000
2.7359812 -1.3969858 0.36864355 4292355840
2.7482808 -1.4031615 0.35664594 4292355840
2.7452846 -1.4015349 0.34222868 4292355840
2.7446144 -1.4010952 0.32773426 4292355840
2.7203615 -1.3886286 0.31020963 4292225280
2.7497373 -1.4035125 0.29837999 4292355840
2.7416866 -1.39931 0.28206947 4292355840
2.7268541 -1.3916501 0.26488334 4292225280
2.7125125 -1.3842421 0.24761969 4292225280
2.7334063 -1.3947988 0.23323053 4292355840
2.7428999 -1.3995426 0.21743776 4292355840
2.7376704 -1.3967807 0.20022362 4292355840
2.7026174 -1.3788179 0.18087988 4292225280
2.5947764 -1.3237593 0.15741639 4291703040
2.4329648 -1.2412025 0.13225383 4291180800
2.4730597 -1.2615505 0.1185245 4291311360
2.1554339 -1.0996104 0.089607403 4290136320
2.1573007 -1.1004868 0.075620539 4290136320
2.1484327 -1.0958936 0.061229967 4290005760
2.1307261 -1.0867981 0.04670262 4290005760
2.1368294 -1.0898334 0.032699838 4290005760
2.1369841 -1.0898381 0.018533379 4290005760
2.1294985 -1.0859512 0.0043347231 4290005760
2.1127145 -1.0773289 -0.0097196298 4289875200
2.1236348 -1.0828173 -0.023878049 4290005760
2.142837 -1.0925227 -0.038312048 4290005760
2.1400433 -1.0910257 -0.052402571 4290005760
2.129858 -1.0857652 -0.066165224 4290005760
2.1492131 -1.0955461 -0.080860376 4290005760
2.1592672 -1.1005903 -0.095303841 4290136320
2.1509929 -1.0963027 -0.10883342 4290136320
2.1380601 -1.0896444 -0.12187073 4290005760
2.1402848 -1.0907022 -0.13558494 4290005760
2.1542025 -1.0977114 -0.15000482 4290136320
2.1398234 -1.0903178 -0.16226786 4290005760
2.1441042 -1.0924215 -0.17572227 4290005760
2.1573386 -1.099081 -0.18983275 4290136320
2.1696429 -1.1052661 -0.20380679 4290136320
2.1670203 -1.1038553 -0.21620245 4290136320
2.0897732 -1.0644773 -0.22040217 4289875200
2.1570711 -1.0986404 -0.2396535 4290136320
2.172127 -1.1062229 -0.25325704 4290136320
2.1681774 -1.1041366 -0.26441234 4290136320
2.1445515 -1.0920422 -0.27271634 4290136320
2.0330002 -1.0352308 -0.26878145 4289744640
2.1838808 -1.1118898 -0.29962406 4290266880
2.178345 -1.108996 -0.30927712 4290266880
2.1855624 -1.1125873 -0.32041028 4290266880
2.1711044 -1.1051568 -0.3279593 4290266880
2.1575532 -1.0981882 -0.33515388 4290136320
2.1467056 -1.0925946 -0.34228888 4290136320
2.1561699 -1.0973271 -0.35228145 4290136320
2.1567435 -1.0975393 -0.36045408 4290136320
2.1604366 -1.0993367 -0.36875466 4290136320
2.1632988 -1.1007113 -0.37651423 4290266880
2.1593556 -1.098627 -0.38265055 4290266880
2.1576898 -1.0976998 -0.38873526 4290136320
2.1512949 -1.0943693 -0.39349484 4290136320
2.1492224 -1.0932353 -0.39857143 4290136320
2.1331518 -1.0849894 -0.40053949 4290136320
2.1091781 -1.0727295 -0.40046674 4290005760
2.1029356 -1.0694779 -0.40324607 4290005760
2.0388587 -1.0368507 -0.3943094 4289744640
2.0516233 -1.0432553 -0.39974076 4289875200
2.0635729 -1.0492445 -0.40458012 4289875200
2.0720761 -1.0534825 -0.40829271 4289875200
2.0630891 -1.0488383 -0.40807232 4289875200
2.0629551 -1.0486895 -0.40912601 4289875200
2.0628943 -1.0485774 -0.40971652 4289875200
2.0541282 -1.0440457 -0.40809298 4289875200
2.0463128 -1.0399969 -0.40618321 4289744640
2.1012409 -1.0677956 -0.41627619 4290005760
2.1115501 -1.0729438 -0.41698501 4290005760
2.114361 -1.0742855 -0.41571271 4290005760
2.1342673 -1.0843017 -0.41730434 4290136320
2.1521969 -1.093313 -0.41797683 4290136320
2.1531968 -1.0937327 -0.41483882 4290136320
2.1556704 -1.0948997 -0.41149792 4290266880
2.1640728 -1.0990736 -0.40879428 4290266880
2.162137 -1.0980026 -0.40364516 4290266880
2.160542 -1.0971042 -0.39810145 4290266880
2.159807 -1.0966418 -0.39226332 4290266880
2.1467013 -1.0899055 -0.38375777 4290136320
2.1382327 -1.0855213 -0.3757067 4290136320
2.127795 -1.0801392 -0.36693749 4290136320
2.1472914 -1.0899343 -0.36289856 4290136320
2.1647415 -1.0986902 -0.35796785 4290266880
2.177001 -1.104813 -0.35165772 4290266880
2.1641333 -1.0981981 -0.34087735 4290136320
2.1367738 -1.0842391 -0.32758507 4290136320
2.1298912 -1.0806595 -0.31722209 4290005760
2.1507971 -1.0911623 -0.31059676 4290136320
2.1659904 -1.0987682 -0.3026284 4290136320
2.1454272 -1.0882561 -0.28932881 4290136320
2.118114 -1.074326 -0.27502805 4290005760
2.1453612 -1.0880369 -0.26754355 4290136320
2.1617701 -1.0962554 -0.25817668 4290136320
2.1561065 -1.0932927 -0.24581653 4290136320
2.1265345 -1.0782219 -0.2306367 4290005760
2.1312048 -1.0804942 -0.21908152 4290005760
2.1468477 -1.0883216 -0.2083067 4290136320
2.1522777 -1.0909767 -0.19618405 4290136320
2.1265037 -1.0778334 -0.18110178 4290005760
2.1340213 -1.0815454 -0.16879348 4290005760
2.1549625 -1.0920515 -0.15720117 4290136320
2.1540596 -1.0914993 -0.14370565 4290136320
2.1383154 -1.083436 -0.12915881 4290005760
2.1307976 -1.0795372 -0.11512455 4290005760
2.1459951 -1.0871328 -0.10216403 4290005760
2.1506538 -1.0893948 -0.088456996 4290005760
2.1139586 -1.0707346 -0.073130101 4289875200
2.1364396 -1.0820135 -0.059916027 4290005760
2.1521883 -1.0898848 -0.046194118 4290005760
2.1577511 -1.0926027 -0.032057021 4290136320
2.1371551 -1.0820907 -0.017576134 4290005760
2.1652193 -1.0961877 -0.0034718041 4290136320
2.1766779 -1.1018856 0.010936833 4290136320
2.2886605 -1.158408 0.026565542 4290528000
2.4778295 -1.2539432 0.044984858 4291311360
2.5975034 -1.3143307 0.064182721 4291703040
2.7412951 -1.3868984 0.085616626 4292225280
2.6615489 -1.3464708 0.10055601 4291964160
2.7484612 -1.3902771 0.12159877 4292355840
2.7558775 -1.3939033 0.13965784 4292355840
2.7559698 -1.393828 0.15724441 4292355840
2.5906892 -1.3101981 0.16430047 4291703040
2.7479839 -1.3895504 0.19131637 4292355840
2.7604237 -1.3957134 0.2092022 4292355840
2.7657909 -1.3983033 0.22643474 4292355840
2.6589208 -1.3442042 0.23370448 4291964160
2.7663958 -1.398366 0.25937814 4292355840
2.7780693 -1.40414 0.27655488 4292486400
2.7750242 -1.4024811 0.29201972 4292486400
2.7288492 -1.3790463 0.30237928 4292225280
2.6788719 -1.3536962 0.31145397 4292094720
2.5927248 -1.3100915 0.31527492 4291833600
2.5657403 -1.2963583 0.32528976 4291703040
2.4923229 -1.2591916 0.32858273 4291441920
2.4777963 -1.251753 0.3387771 4291311360
2.3879864 -1.2063246 0.33786756 4291050240
2.236655 -1.1298604 0.32681334 4290397440
2.2287278 -1.1257652 0.3354727 4290397440
2.2317898 -1.1272151 0.34537107 4290397440
2.2471888 -1.1348888 0.35684708 4290528000
2.2428737 -1.132617 0.36484963 4290528000
2.2106216 -1.1162548 0.367782 4290397440
2.3292296 -1.1759814 0.39552912 4290789120
2.3842618 -1.2036369 0.41268218 4291050240
2.4724016 -1.247983 0.43551075 4291441920
2.5380638 -1.2809883 0.45435899 4291572480
2.6341212 -1.3293135 0.47854087 4291964160
2.6117597 -1.3179315 0.48095986 4291964160
2.6453142 -1.334739 0.49308604 4292094720
2.6657119 -1.3449122 0.5023132 4292094720
2.6773715 -1.3506802 0.50937718 4292225280
2.6767831 -1.3502749 0.51354563 4292225280
2.6930015 -1.3583398 0.52034324 4292225280
2.6925824 -1.3580201 0.52335191 4292225280
2.6966522 -1.3599627 0.526618 4292225280
2.6964138 -1.3597349 0.5284313 4292225280
2.7006671 -1.3617705 0.53050148 4292225280
2.6839004 -1.3532176 0.52783525 4292225280
2.6962595 -1.359337 0.53024685 4292225280
2.6796801 -1.350881 0.52637291 4292225280
2.6675913 -1.3446881 0.52276772 4292094720
2.654712 -1.3380985 0.51840836 4292094720
2.6427991 -1.3319972 0.51364797 4292094720
2.6054423 -1.313086 0.50341612 4291964160
2.6098704 -1.3152153 0.50066668 4291964160
2.5303836 -1.2750999 0.48142979 4291572480
2.461036 -1.2400949 0.46380338 4291311360
2.3807299 -1.1995796 0.44387135 4291050240
2.3480396 -1.1830363 0.43249086 4290919680
2.2920454 -1.1547676 0.41655037 4290658560
2.2894108 -1.1533561 0.40991509 4290658560
2.2691755 -1.1430883 0.39973664 4290658560
2.2233655 -1.1199543 0.38481715 4290397440
2.2290692 -1.1227418 0.37843913 4290397440
2.2369375 -1.1266181 0.37194431 4290528000
2.2578621 -1.1370623 0.36707518 4290528000
2.7311165 -1.3744961 0.36690152 4292355840
2.7389591 -1.3783416 0.35439023 4292355840
2.7492652 -1.3834254 0.34170574 4292355840
2.7429457 -1.3801508 0.32656518 4292355840
2.728756 -1.3729209 0.31023741 4292225280
2.7341304 -1.3755257 0.29581851 4292355840
2.7491684 -1.3829876 0.28199407 4292355840
2.7278714 -1.3721877 0.26419479 4292225280
2.710824 -1.3635252 0.24673198 4292225280
2.7359078 -1.3760347 0.23274839 4292225280
2.7370117 -1.3764939 0.21633032 4292225280
2.735503 -1.3756405 0.19947146 4292225280
2.7150645 -1.3652771 0.1811624 4292225280
2.6267366 -1.3208101 0.15885539 4291833600
2.5258422 -1.2700369 0.13681611 4291441920
2.5875058 -1.3009225 0.12354627 4291703040
2.1589248 -1.0855749 0.089481391 4290136320
2.1773429 -1.09475 0.076076329 4290136320
2.1681817 -1.0900742 0.061589196 4290136320
2.1450632 -1.0783902 0.046861771 4290005760
2.1601207 -1.0858768 0.032934278 4290136320
2.1569712 -1.084221 0.018630097 4290136320
2.1593697 -1.0853508 0.0043523079 4290136320
2.1266241 -1.0688374 -0.0097708041 4290005760
2.1554854 -1.0832518 -0.024196515 4290005760
2.1580241 -1.0844518 -0.038486909 4290136320
2.1642334 -1.0874938 -0.052863486 4290136320
2.1494708 -1.0800101 -0.066598527 4290005760
2.1746347 -1.0925641 -0.081601292 4290136320
2.1826108 -1.0964913 -0.096073993 4290136320
2.1701956 -1.0901861 -0.10950171 4290136320
2.1624932 -1.0862464 -0.1229248 4290136320
2.1680193 -1.0889437 -0.13696441 4290136320
2.1775105 -1.0936298 -0.15120454 4290136320
2.1595156 -1.0845271 -0.16329925 4290136320
2.1673694 -1.0883912 -0.17712902 4290136320
2.1931109 -1.1012266 -0.19244501 4290266880
2.1938596 -1.1015253 -0.2054984 4290266880
2.1858792 -1.0974461 -0.2174613 4290266880
2.1128478 -1.0607469 -0.22220258 4289875200
2.1847835 -1.0967427 -0.24204382 4290266880
2.178535 -1.0935327 -0.25326645 4290136320
2.1870143 -1.0977067 -0.26594368 4290266880
2.1757469 -1.0919803 -0.27589741 4290136320
2.0647416 -1.0362577 -0.27220398 4289744640
2.2071803 -1.107581 -0.3019518 4290266880
2.1971848 -1.102492 -0.31105304 4290266880
2.2044168 -1.1060375 -0.32224247 4290266880
2.1987689 -1.1031275 -0.33118621 4290266880
2.1683421 -1.0878009 -0.33585209 4290136320
2.1742764 -1.0906955 -0.34569019 4290266880
2.176501 -1.091731 -0.35457706 4290266880
2.1878595 -1.0973418 -0.36460632 4290266880
2.1804249 -1.093537 -0.3710914 4290266880
2.1820431 -1.094267 -0.37867838 4290266880
2.1867199 -1.0965288 -0.38638467 4290266880
2.1804423 -1.0933034 -0.39170063 4290266880
2.1743996 -1.0901958 -0.39657313 4290266880
2.1564505 -1.0811259 -0.39874691 4290136320
2.1405683 -1.0730919 -0.40076134 4290136320
2.1365492 -1.0709985 -0.40449566 4290136320
2.1258755 -1.0655736 -0.40646812 4290005760
2.0704169 -1.0377288 -0.39926341 4289875200
2.078809 -1.0418504 -0.40387172 4289875200
2.0863857 -1.045563 -0.40787199 4289875200
2.0905077 -1.0475456 -0.41073248 4289875200
2.0192385 -1.0117965 -0.39820042 4289614080
2.0857596 -1.045007 -0.41245463 4289875200
2.0901003 -1.0470973 -0.41392475 4289875200
2.0813079 -1.0426159 -0.41230246 4289875200
2.0690672 -1.0364096 -0.40951481 4289875200
2.1118293 -1.0577203 -0.41715795 4290005760
2.1433055 -1.0733818 -0.42204025 4290136320
2.1382008 -1.0707426 -0.41918728 4290136320
2.1660969 -1.0846092 -0.42231148 4290266880
2.1761537 -1.0895513 -0.4214105 4290266880
2.174505 -1.0886389 -0.4177343 4290266880
2.1875806 -1.0950887 -0.41639066 4290266880
2.183599 -1.0930089 -0.41129103 4290266880
2.1772428 -1.0897417 -0.40528825 4290266880
2.1724584 -1.0872604 -0.39913622 4290266880
2.1845207 -1.0932003 -0.39561009 4290266880
2.1742127 -1.0879577 -0.38755995 4290266880
2.16131 -1.0814188 -0.37866887 4290136320
2.1508484 -1.0761007 -0.36984652 4290136320
2.1544862 -1.0778285 -0.36305696 4290136320
2.1859691 -1.0934688 -0.36043817 4290266880
2.1978807 -1.099328 -0.35400936 4290266880
2.1882107 -1.0944042 -0.34368145 4290266880
2.1562793 -1.0783608 -0.32962531 4290136320
2.1529992 -1.0766307 -0.31974545 4290136320
2.173975 -1.0870154 -0.31304544 4290136320
2.1767936 -1.08833 -0.30325925 4290266880
2.1730473 -1.0863661 -0.29222 4290136320
2.1501083 -1.0748188 -0.27839297 4290136320
2.1623302 -1.0808284 -0.26888707 4290136320
2.1746638 -1.0868924 -0.25897005 4290136320
2.1882513 -1.0935811 -0.24877948 4290266880
2.1541524 -1.076466 -0.23297353 4290136320
2.1507585 -1.0746785 -0.22046366 4290136320
2.1672328 -1.0828066 -0.20968914 4290136320
2.1682258 -1.0832076 -0.19707592 4290136320
2.1407766 -1.0694166 -0.18179917 4290005760
2.1493223 -1.0735867 -0.16952254 4290005760
2.1693244 -1.0834714 -0.15780137 4290136320
2.1773531 -1.0873815 -0.14485753 4290136320
2.1660357 -1.0816408 -0.1304771 4290136320
2.1558177 -1.0764494 -0.11616028 4290005760
2.1663697 -1.081617 -0.10285319 4290136320
2.1289864 -1.06288 -0.087295488 4290005760
2.1102469 -1.0534422 -0.07278873 4289875200
2.1677871 -1.0820377 -0.060647998 4290136320
2.1755023 -1.0857884 -0.046581782 4290136320
2.1900313 -1.092935 -0.032473106 4290136320
2.1604271 -1.0780824 -0.017739689 4290136320
2.1849937 -1.0902312 -0.0035143103 4290136320
2.1969171 -1.0960768 0.010984747 4290266880
2.4197741 -1.2070324 0.027890909 4291050240
2.5113847 -1.2525725 0.04542955 4291441920
2.5477934 -1.2706015 0.062802449 4291572480
2.684907 -1.3387967 0.083645046 4292094720
2.6389315 -1.3157766 0.099421479 4291833600
2.7353146 -1.3636683 0.12066723 4292225280
2.7534988 -1.3726047 0.1391255 4292355840
2.7434945 -1.3675017 0.15607874 4292225280
2.5982785 -1.2950695 0.16428936 4291703040
2.7493844 -1.3701941 0.19084804 4292355840
2.757396 -1.3740625 0.20835902 4292355840
2.7359509 -1.3632662 0.22335455 4292225280
2.6116405 -1.3012669 0.22891079 4291833600
2.7604985 -1.3752462 0.25806844 4292355840
2.7807364 -1.3851987 0.27600458 4292486400
2.7648702 -1.3771822 0.29010421 4292355840
2.7141433 -1.3518202 0.29987821 4292225280
2.703634 -1.3464739 0.31339028 4292225280
2.5958624 -1.2927381 0.31472793 4291703040
2.5652418 -1.2773932 0.32427335 4291703040
2.4951701 -1.2424266 0.32799149 4291441920
2.4726031 -1.2310952 0.33708122 4291311360
2.3010719 -1.1456777 0.32469794 4290658560
2.2565191 -1.1234231 0.32873091 4290528000
2.260987 -1.1255492 0.33930001 4290528000
2.2808998 -1.1353548 0.35188854 4290658560
2.2750428 -1.1323465 0.36018533 4290528000
2.2574105 -1.1234851 0.36612564 4290528000
2.3245976 -1.1567894 0.38549554 4290789120
2.4257538 -1.2069732 0.41062039 4291180800
2.5097008 -1.2485955 0.43300253 4291441920
2.577837 -1.2823538 0.45265681 4291703040
2.6440687 -1.3151602 0.47185501 4291964160
2.6550822 -1.320524 0.48092002 4292094720
2.6709881 -1.328318 0.49037611 4292094720
2.6486278 -1.3170999 0.49225757 4292094720
2.6602528 -1.3227673 0.49982411 4292094720
2.6772475 -1.3311013 0.50786501 4292094720
2.6846042 -1.3346473 0.51353413 4292225280
2.6885116 -1.33648 0.51796168 4292225280
2.7004483 -1.3423003 0.5233404 4292225280
2.7001171 -1.3420283 0.52575117 4292225280
2.7042897 -1.3439928 0.52841973 4292225280
2.6962023 -1.3398707 0.52808136 4292225280
2.6917386 -1.3375485 0.52782375 4292225280
2.6829574 -1.3330839 0.52610153 4292225280
2.6786811 -1.3308567 0.52464104 4292225280
2.6709678 -1.3269242 0.52189803 4292094720
2.6501069 -1.3164675 0.51600224 4292094720
2.6416876 -1.3121874 0.51193398 4291964160
2.6760643 -1.3291446 0.51548839 4292094720
2.6342664 -1.3083029 0.50384963 4291964160
2.6194448 -1.3008492 0.4968375 4291964160
2.5723369 -1.2773794 0.48325858 4291703040
2.4971313 -1.2399752 0.46410111 4291441920
2.4131052 -1.1982018 0.44311422 4291180800
2.355752 -1.1696646 0.42681485 4290919680
2.2996304 -1.1417429 0.41053352 4290658560
2.2793369 -1.1315938 0.40034521 4290658560
2.2635016 -1.1236571 0.39057973 4290528000
2.2780957 -1.1308104 0.38558415 4290658560
2.2603033 -1.1219052 0.37470943 4290528000
2.2644482 -1.1238776 0.36706552 4290528000
2.7249324 -1.3515404 0.36500654 4292225280
2.7365375 -1.3571938 0.35304451 4292355840
2.7379613 -1.3578023 0.33931547 4292355840
2.7353294 -1.3564016 0.32471275 4292225280
2.7145233 -1.3459977 0.30772844 4292225280
2.7377045 -1.3573853 0.29533634 4292225280
2.7416146 -1.3592261 0.28040257 4292225280
2.7175126 -1.3471925 0.26242954 4292225280
2.7062304 -1.3415099 0.2455965 4292094720
2.7372289 -1.3567668 0.23217779 4292225280
2.7383327 -1.3572183 0.21579947 4292225280
2.6925094 -1.3344336 0.19579306 4292094720
2.5682039 -1.2727938 0.1709711 4291572480
2.6084347 -1.2926227 0.1572994 4291703040
2.5380132 -1.2576702 0.13706149 4291441920
2.6243186 -1.3003054 0.12490635 4291833600
2.196698 -1.0885496 0.090744287 4290266880
2.1930099 -1.0866486 0.076383464 4290136320
2.1959987 -1.0880524 0.062169522 4290136320
2.1772962 -1.0787213 0.047395092 4290136320
2.1801231 -1.0800453 0.033121262 4290136320
2.1778815 -1.0788611 0.018733891 4290136320
2.1542618 -1.0670998 0.0043302216 4290005760
2.0935924 -1.0370101 -0.0095654326 4289875200
2.1808753 -1.0801177 -0.02443625 4290136320
2.1858141 -1.0824859 -0.038897075 4290136320
2.1830778 -1.0810573 -0.053188924 4290136320
2.1772301 -1.0780898 -0.067290261 4290136320
2.197984 -1.0882791 -0.082261555 4290266880
2.1997068 -1.0890554 -0.096563712 4290266880
2.1935236 -1.085922 -0.11038086 4290136320
2.1822133 -1.0802536 -0.12370607 4290136320
2.1877511 -1.0829161 -0.13783008 4290136320
2.1937973 -1.0858297 -0.15191083 4290266880
2.1810918 -1.0794725 -0.1644738 4290136320
2.187084 -1.0823588 -0.17824158 4290136320
2.2060628 -1.091664 -0.19303454 4290266880
2.2135618 -1.0952934 -0.20676215 4290266880
2.2074039 -1.0921727 -0.21898676 4290266880
2.1359494 -1.0567834 -0.22400302 4290005760
2.2021582 -1.0894257 -0.24327895 4290266880
2.224102 -1.1001912 -0.25785276 4290397440
2.2111273 -1.0937022 -0.26811883 4290266880
2.1954336 -1.0858704 -0.27760592 4290266880
2.0921118 -1.0347502 -0.27503803 4289875200
2.2305033 -1.1030381 -0.3042796 4290397440
2.2140632 -1.094838 -0.31255093 4290266880
2.2321584 -1.1036962 -0.32537663 4290397440
2.2220402 -1.0986189 -0.33374283 4290397440
2.1959567 -1.0856578 -0.33916807 4290266880
2.1987112 -1.0869385 -0.34858423 4290266880
2.2085538 -1.0917187 -0.35878363 4290266880
2.2030835 -1.0889374 -0.3660953 4290266880
2.2080324 -1.0913 -0.37472531 4290397440
2.2017813 -1.0881331 -0.38101554 4290266880
2.2054701 -1.0898728 -0.38858685 4290266880
2.1991689 -1.0866811 -0.3939383 4290266880
2.1854882 -1.0798475 -0.39745378 4290266880
2.1874828 -1.0807502 -0.40333977 4290266880
2.1635869 -1.0688765 -0.40391859 4290136320
2.1639709 -1.0689847 -0.4085246 4290136320
2.1488409 -1.061438 -0.4096902 4290136320
2.0932171 -1.0339142 -0.40251225 4289875200
2.1016297 -1.0379846 -0.40714395 4290005760
2.1056917 -1.0399079 -0.41047275 4290005760
2.0376673 -1.0062747 -0.39916056 4289744640
2.0374627 -1.0060952 -0.40064889 4289744640
2.1130061 -1.0432715 -0.41665688 4290005760
2.1085279 -1.0409809 -0.4163833 4290005760
2.1005926 -1.0369858 -0.41493675 4290005760
2.1006796 -1.0369463 -0.41459531 4290005760
2.1515155 -1.0619259 -0.42379966 4290136320
2.1618884 -1.0669543 -0.4244855 4290136320
2.1735542 -1.0726188 -0.42491445 4290266880
2.1728148 -1.0721678 -0.42240569 4290266880
2.1896236 -1.0803648 -0.42280683 4290266880
2.2020254 -1.0863885 -0.42182133 4290397440
2.2067969 -1.0886508 -0.41885176 4290397440
2.203197 -1.0867876 -0.41380084 4290397440
2.2047892 -1.0874825 -0.409253 4290397440
2.2123895 -1.0911367 -0.40532956 4290397440
2.1952798 -1.0826178 -0.39642176 4290266880
2.1929154 -1.081363 -0.38978177 4290266880
2.1888421 -1.0792662 -0.3824082 4290266880
2.1739266 -1.0718299 -0.37275556 4290136320
2.195323 -1.082276 -0.36890277 4290266880
2.2091644 -1.0889999 -0.36323133 4290266880
2.2299974 -1.0991647 -0.35817185 4290397440
2.2114286 -1.0899295 -0.34634587 4290266880
2.1794131 -1.0740761 -0.33222061 4290136320
2.1685741 -1.0686488 -0.32114425 4290136320
2.1947758 -1.0814532 -0.31514764 4290266880
2.2101219 -1.0889125 -0.30704197 4290266880
2.1927009 -1.0802456 -0.29403046 4290266880
2.1730719 -1.0704933 -0.28057542 4290136320
2.1899915 -1.0787252 -0.27156565 4290266880
2.2068322 -1.0869166 -0.26207069 4290266880
2.2079749 -1.087384 -0.25031656 4290266880
2.1818213 -1.0744244 -0.23531041 4290136320
2.1828952 -1.0748584 -0.22314118 4290136320
2.1904895 -1.078499 -0.21135004 4290136320
2.1914926 -1.0788975 -0.19863836 4290136320
2.1603918 -1.0635098 -0.18295535 4290136320
2.1859746 -1.0759944 -0.17194936 4290136320
2.1970913 -1.0813646 -0.15938647 4290266880
2.1917136 -1.0786254 -0.14540802 4290136320
2.1857421 -1.0755948 -0.13130452 4290136320
2.1835656 -1.0744298 -0.1173429 4290136320
2.1860139 -1.0755376 -0.10350677 4290136320
2.1338241 -1.0497954 -0.087249488 4290005760
2.1423628 -1.0538979 -0.07371477 4290005760
2.1829565 -1.0737487 -0.060913034 4290136320
2.1952515 -1.0796934 -0.046889797 4290136320
2.2008488 -1.082347 -0.03255254 4290266880
2.1751993 -1.0696518 -0.017826067 4290136320
2.2095304 -1.0864183 -0.0035685659 4290266880
2.2105367 -1.0868158 0.011005383 4290266880
2.4833839 -1.2207035 0.028486364 4291311360
2.4984186 -1.2279772 0.04506981 4291311360
2.587513 -1.2716109 0.063562199 4291703040
2.5432498 -1.2497677 0.079102114 4291441920
2.4611745 -1.2093669 0.092585929 4291180800
2.7316301 -1.3420105 0.12015463 4292225280
2.7480636 -1.3499569 0.1384493 4292225280
2.734822 -1.3433387 0.15513816 4292225280
2.6102612 -1.2820963 0.16455738 4291703040
2.74575 -1.3484628 0.19004424 4292225280
2.7537878 -1.3522872 0.20748457 4292355840
2.7235055 -1.3373119 0.22170269 4292225280
2.6111214 -1.2820653 0.22820218 4291703040
2.7551095 -1.3525778 0.2568222 4292355840
2.7690721 -1.3593069 0.27405947 4292355840
2.7558613 -1.3527091 0.28832865 4292355840
2.7219729 -1.3359729 0.29986674 4292225280
2.6989286 -1.3245571 0.31194365 4292094720
2.6033497 -1.2775811 0.31471696 4291703040
2.5681787 -1.2602278 0.32370397 4291572480
2.4898801 -1.2217368 0.32635543 4291311360
2.4538827 -1.2039868 0.33357996 4291180800
2.2084875 -1.083612 0.31082401 4290266880
2.2843983 -1.1207201 0.33180475 4290528000
2.285445 -1.1211369 0.34195691 4290528000
2.3088274 -1.1324978 0.35514233 4290658560
2.3073888 -1.1316962 0.36422095 4290658560
2.3065808 -1.1312041 0.37297261 4290658560
2.3694992 -1.1619292 0.39176503 4290919680
2.4833617 -1.2176028 0.41910586 4291311360
2.5764048 -1.2630706 0.4431687 4291703040
2.6516743 -1.2998265 0.46421415 4291964160
2.6649902 -1.3062384 0.47419962 4292094720
2.6627305 -1.305023 0.48090881 4292094720
2.6999536 -1.3231393 0.49424046 4292225280
2.656256 -1.3016367 0.49224639 4292094720
2.6812012 -1.3137407 0.50229049 4292094720
2.684957 -1.3154712 0.50785375 4292094720
2.6879072 -1.3168075 0.51268226 4292225280
2.7051046 -1.3251168 0.51964319 4292225280
2.7082226 -1.326535 0.52332902 4292225280
2.7167399 -1.3305955 0.52745032 4292225280
2.7209229 -1.332535 0.53012478 4292355840
2.7207749 -1.3323557 0.53133869 4292355840
2.707449 -1.32573 0.5293625 4292225280
2.6995268 -1.3217492 0.5278126 4292225280
2.6863892 -1.3152183 0.52462977 4292225280
2.6830781 -1.313495 0.52274501 4292094720
2.6701226 -1.307056 0.51838577 4292094720
2.6448615 -1.2946004 0.5110715 4291964160
2.6881893 -1.3156862 0.51632351 4292225280
2.6595552 -1.3015836 0.50720066 4292094720
2.6526673 -1.2981155 0.50166184 4291964160
2.6266959 -1.285319 0.49200207 4291964160
2.5681283 -1.2565907 0.47585717 4291703040
2.4714692 -1.2092483 0.45247024 4291311360
2.4095347 -1.1788853 0.43525106 4291050240
2.3488331 -1.14913 0.41806233 4290919680
2.3284984 -1.1391062 0.4077546 4290789120
2.3081954 -1.1290996 0.39710161 4290658560
2.2936666 -1.1219161 0.38708803 4290658560
2.2970223 -1.123472 0.37966499 4290658560
2.294831 -1.122318 0.37089077 4290658560
2.7167518 -1.3277155 0.36286467 4292225280
2.7301416 -1.3341568 0.35120621 4292225280
2.7315617 -1.3347535 0.33754942 4292225280
2.7334843 -1.335596 0.32355833 4292225280
2.7134163 -1.3257041 0.30671656 4292225280
2.7330811 -1.3352073 0.29399151 4292225280
2.7343891 -1.3357503 0.27886409 4292225280
2.7128179 -1.3251277 0.26122662 4292094720
2.7140384 -1.3256289 0.24559186 4292094720
2.7335534 -1.3350573 0.23120421 4292225280
2.7372665 -1.3367742 0.2150991 4292225280
2.6316588 -1.2851549 0.19086865 4291833600
2.4554012 -1.1990764 0.16308661 4291180800
2.6346045 -1.2864103 0.15840657 4291833600
2.5237868 -1.2322646 0.13591979 4291441920
2.553761 -1.2467977 0.12126053 4291572480
2.231354 -1.0894674 0.091888219 4290266880
2.22351 -1.0855654 0.077205211 4290266880
2.2204142 -1.0839795 0.062668569 4290266880
2.1885114 -1.0683473 0.047503296 4290136320
2.2124739 -1.0799559 0.033499461 4290266880
2.2057331 -1.0765938 0.018907169 4290266880
2.1730571 -1.0605885 0.0043522189 4290136320
2.1167071 -1.0330448 -0.0096501689 4289875200
2.2002492 -1.0736942 -0.024584167 4290136320
2.2100909 -1.0784158 -0.039220966 4290266880
2.2091305 -1.077872 -0.053674582 4290266880
2.1888943 -1.0679344 -0.067449287 4290136320
2.2222874 -1.084132 -0.082934462 4290266880
2.2231131 -1.084458 -0.097311623 4290266880
2.2133157 -1.0796081 -0.11105413 4290266880
2.1965821 -1.0713794 -0.12415536 4290136320
2.2127211 -1.0791662 -0.13900298 4290266880
2.2171664 -1.0812553 -0.15308629 4290266880
2.2053151 -1.075406 -0.16582137 4290266880
2.2071047 -1.0762013 -0.17935137 4290266880
2.2339284 -1.0891888 -0.19491149 4290397440
2.232481 -1.0884063 -0.20792332 4290397440
2.2307773 -1.087499 -0.22066593 4290397440
2.1635845 -1.0547035 -0.22624964 4290136320
2.2299733 -1.0869519 -0.2456432 4290397440
2.2385564 -1.0910524 -0.25877205 4290397440
2.2309027 -1.0872478 -0.26973274 4290397440
2.2097967 -1.0768952 -0.27860889 4290266880
2.1070662 -1.0268131 -0.27619958 4289875200
2.250313 -1.0964588 -0.30609342 4290397440
2.254334 -1.0983356 -0.31732965 4290397440
2.2537384 -1.0979656 -0.32757375 4290397440
2.2409129 -1.091644 -0.33560446 4290397440
2.2361226 -1.0892328 -0.34438899 4290397440
2.2175033 -1.0800934 -0.35054892 4290397440
2.2273679 -1.0848123 -0.36079642 4290397440
2.223033 -1.0826228 -0.3683466 4290397440
2.2321661 -1.0869845 -0.37773386 4290397440
2.2338855 -1.0877393 -0.38546798 4290397440
2.2295802 -1.0855634 -0.39170933 4290397440
2.2312438 -1.0862905 -0.39854506 4290397440
2.2130761 -1.0773734 -0.40132236 4290397440
2.2070837 -1.0743775 -0.40578839 4290266880
2.1866617 -1.064366 -0.40706107 4290266880
2.1870413 -1.0644689 -0.41170254 4290266880
2.1638851 -1.0531297 -0.41137818 4290136320
2.1293676 -1.0362694 -0.40830851 4290005760
2.1289372 -1.0359796 -0.41126579 4290005760
2.1409795 -1.0417514 -0.41617605 4290136320
2.069212 -1.0067922 -0.4041985 4289875200
2.073432 -1.0087634 -0.40657842 4289875200
2.0688677 -1.0064658 -0.40675622 4289875200
2.1358409 -1.0389256 -0.42059031 4290005760
2.1358526 -1.0388483 -0.42072207 4290005760
2.1279697 -1.0349356 -0.41880369 4290005760
2.1148477 -1.0284783 -0.41536832 4290005760
2.1623664 -1.0514753 -0.42337471 4290136320
2.1772752 -1.0586306 -0.42443854 4290266880
2.1879146 -1.063711 -0.42414844 4290266880
2.212749 -1.0756832 -0.42608169 4290397440
2.2260761 -1.0820659 -0.42524332 4290397440
2.2299788 -1.0838712 -0.42207745 4290397440
2.2219377 -1.0798779 -0.41616285 4290397440
2.2244251 -1.0809954 -0.41175568 4290397440
2.2356017 -1.0863302 -0.40845451 4290397440
2.2273288 -1.0822239 -0.40111083 4290397440
2.2205257 -1.0788313 -0.39361206 4290397440
2.207562 -1.0724494 -0.3846235 4290266880
2.1894979 -1.0635935 -0.37439972 4290266880
2.2061758 -1.0715948 -0.36971363 4290266880
2.2279577 -1.0820708 -0.36532936 4290397440
2.2452943 -1.0903882 -0.3596535 4290397440
2.2224901 -1.0792332 -0.34713805 4290397440
2.2034867 -1.0699234 -0.33499616 4290266880
2.2042198 -1.0701865 -0.32556671 4290266880
2.2260499 -1.08068 -0.31880111 4290397440
2.2253821 -1.0802623 -0.30834582 4290397440
2.2204218 -1.0777632 -0.29697537 4290266880
2.1873407 -1.0616313 -0.28168109 4290136320
2.2053177 -1.070253 -0.2727586 4290266880
2.2346261 -1.0843655 -0.2646991 4290397440
2.2409723 -1.087346 -0.25342384 4290397440
2.2006085 -1.0676886 -0.23674142 4290266880
2.1931796 -1.0639944 -0.22363034 4290136320
2.2149618 -1.0744548 -0.21319258 4290266880
2.2157054 -1.0747199 -0.20035306 4290266880
2.1834292 -1.058988 -0.18447199 4290136320
2.2011392 -1.0674729 -0.17273781 4290136320
2.2220571 -1.0775101 -0.16083752 4290266880
2.2208154 -1.0768126 -0.14702338 4290266880
2.2216547 -1.077123 -0.13319346 4290266880
2.1953208 -1.0642748 -0.11773167 4290136320
2.2093554 -1.0709752 -0.10441868 4290266880
2.1993229 -1.066022 -0.089813195 4290136320
2.1804042 -1.0567677 -0.074929357 4290136320
2.2107987 -1.0713863 -0.06162731 4290266880
2.2186325 -1.0750819 -0.047365163 4290266880
2.2242479 -1.0777034 -0.032917321 4290266880
2.2075274 -1.0695148 -0.018160176 4290266880
2.2297254 -1.0801605 -0.0037029611 4290266880
2.2393801 -1.0847352 0.010996409 4290266880
2.5223205 -1.2215284 0.028710963 4291441920
2.6396801 -1.278194 0.047257707 4291833600
2.6462164 -1.2812411 0.064658508 4291833600
2.5336835 -1.2266958 0.078475818 4291441920
2.4169307 -1.1701195 0.09059158 4291050240
2.722353 -1.3177162 0.1192915 4292094720
2.7388372 -1.3255693 0.13747668 4292225280
2.7087326 -1.3108948 0.15311989 4292094720
2.6222231 -1.2689533 0.16471571 4291703040
2.7225983 -1.3173639 0.18780263 4292094720
2.7261777 -1.3189766 0.20472068 4292225280
2.7026987 -1.3075111 0.21928081 4292094720
2.6955175 -1.3039242 0.23472327 4292094720
2.7356186 -1.3231875 0.25417712 4292225280
2.7434323 -1.326846 0.27065232 4292225280
2.7256486 -1.3181362 0.28426528 4292225280
2.6604178 -1.2865052 0.29219016 4291964160
2.6558638 -1.2841918 0.30601916 4291964160
2.610795 -1.2623091 0.3146084 4291703040
2.5665748 -1.2408401 0.32248214 4291572480
2.4835842 -1.2006508 0.32451448 4291311360
2.4439142 -1.1813889 0.33119726 4291180800
2.2148027 -1.0706547 0.31073943 4290266880
2.3045788 -1.1139083 0.33368254 4290658560
2.3165529 -1.1195928 0.34551543 4290658560
2.3150897 -1.1187898 0.3550097 4290658560
2.2973104 -1.1101112 0.36153495 4290658560
2.3515012 -1.1361718 0.37903801 4290789120
2.3536739 -1.1371232 0.38798741 4290789120
2.521764 -1.2181431 0.42426959 4291441920
2.6150587 -1.2630577 0.44843319 4291833600
2.6296027 -1.2699683 0.45899296 4291833600
2.6623983 -1.2856835 0.47232935 4291964160
2.6317632 -1.2707963 0.47393194 4291964160
2.6646597 -1.2865583 0.48636732 4292094720
2.6762788 -1.2920551 0.49447757 4292094720
2.6932952 -1.3001546 0.50306368 4292094720
2.7174861 -1.311713 0.51247376 4292225280
2.7302053 -1.3177379 0.5191943 4292355840
2.6491714 -1.2785569 0.50746793 4291964160
2.665621 -1.2863832 0.51364183 4292094720
2.6652923 -1.2861197 0.51601285 4292094720
2.6650541 -1.2859002 0.51779461 4292094720
2.6693447 -1.2878643 0.51984543 4292094720
2.652431 -1.2796084 0.51717234 4291964160
2.6524704 -1.2795246 0.5171777 4291964160
2.724215 -1.3139962 0.53047568 4292225280
2.6987081 -1.3016007 0.52429181 4292225280
2.691041 -1.2978033 0.52095896 4292094720
2.6781368 -1.2914836 0.51602197 4292094720
2.6528869 -1.279218 0.50815189 4291964160
2.6365938 -1.2712692 0.5014447 4291964160
2.6589103 -1.2819192 0.50144565 4291964160
2.6125634 -1.2594973 0.48801944 4291833600
2.589793 -1.2484336 0.47853601 4291703040
2.5177588 -1.2136484 0.45964348 4291441920
2.4546349 -1.1831594 0.44215047 4291180800
2.3982236 -1.1559075 0.42565161 4291050240
2.3912005 -1.1524383 0.41754752 4291050240
2.3753159 -1.1447036 0.40749034 4290919680
2.3202596 -1.1181142 0.39050934 4290658560
2.3136084 -1.1148285 0.38138044 4290658560
2.2988145 -1.1076244 0.37055615 4290658560
2.6660035 -1.2839341 0.35512793 4291964160
2.7033982 -1.3018312 0.34680945 4292094720
2.7048037 -1.3024124 0.33332253 4292094720
2.6782234 -1.2895311 0.31616601 4291964160
2.6715028 -1.2862049 0.30115747 4291964160
2.6882684 -1.2941755 0.2883856 4292094720
2.6805797 -1.2903842 0.27264002 4291964160
2.6492944 -1.2752459 0.25443044 4291833600
2.6630487 -1.2817682 0.240326 4291964160
2.6877329 -1.2935452 0.22670832 4291964160
2.6888158 -1.2939731 0.21071588 4291964160
2.6025467 -1.252405 0.18822925 4291703040
2.4773705 -1.1921394 0.16404389 4291180800
2.6304195 -1.2656248 0.15768856 4291833600
2.6469872 -1.2734979 0.14202811 4291833600
2.7166982 -1.3069125 0.12847616 4292094720
2.3253944 -1.1187608 0.095380202 4290658560
2.2478642 -1.0814233 0.077781111 4290397440
2.2482548 -1.0815341 0.063220665 4290397440
2.1968334 -1.0567498 0.047510561 4290136320
2.2216582 -1.0686022 0.03350161 4290266880
2.2290311 -1.0720686 0.018996533 4290266880
2.2208028 -1.0680398 0.0043554986 4290266880
2.2323112 -1.0734922 -0.010291496 4290266880
2.2353492 -1.0748752 -0.024978211 4290266880
2.2306905 -1.0725615 -0.039536595 4290266880
2.2324321 -1.0733218 -0.054153543 4290266880
2.2211471 -1.0678263 -0.068324938 4290266880
2.2427332 -1.0781158 -0.083528452 4290266880
2.2509465 -1.0819829 -0.098326862 4290397440
2.2411163 -1.077186 -0.11220799 4290266880
2.2210979 -1.0674988 -0.12526155 4290266880
2.2405064 -1.0767398 -0.14043038 4290266880
2.2404578 -1.0766394 -0.1543348 4290266880
2.2330639 -1.0730134 -0.16751547 4290266880
2.2393451 -1.0759511 -0.18154393 4290266880
2.261739 -1.086621 -0.19686532 4290397440
2.2692616 -1.0901527 -0.21084458 4290397440
2.2459874 -1.0789062 -0.22161974 4290397440
2.1956565 -1.0546789 -0.22904399 4290136320
2.2532461 -1.0822325 -0.24759009 4290397440
2.2582574 -1.084558 -0.26039448 4290397440
2.2586417 -1.0846634 -0.27240384 4290397440
2.233882 -1.0727077 -0.28093562 4290397440
2.1380184 -1.0266497 -0.2795538 4290005760
2.2707305 -1.0902228 -0.30808228 4290528000
2.2776198 -1.0934464 -0.31978798 4290528000
2.2814837 -1.0952183 -0.33075869 4290528000
2.2674842 -1.0884246 -0.33871201 4290528000
2.2388024 -1.0745919 -0.34389731 4290397440
2.2495773 -1.0796773 -0.35470402 4290397440
2.2436645 -1.0767621 -0.36248705 4290397440
2.2595558 -1.0842985 -0.37343121 4290528000
2.2516859 -1.0804445 -0.38003826 4290397440
2.2525904 -1.0807961 -0.38767329 4290397440
2.2532191 -1.0810152 -0.39482158 4290528000
2.2499304 -1.0793568 -0.40081999 4290397440
2.2486167 -1.0786445 -0.40669712 4290397440
2.2301419 -1.0697097 -0.40894046 4290397440
2.2096574 -1.059813 -0.41024819 4290266880
2.2100329 -1.0599108 -0.4149214 4290266880
2.1956964 -1.0529608 -0.41631585 4290266880
2.1566334 -1.0341679 -0.41243148 4290136320
2.1473126 -1.0296226 -0.41369775 4290136320
2.0921414 -1.0031195 -0.40553901 4289875200
2.0962994 -1.0050312 -0.40838653 4289875200
2.0960882 -1.00485 -0.40990743 4289875200
2.08707 -1.0004519 -0.40921682 4289875200
2.0958872 -1.0045929 -0.41155556 4289875200
2.167562 -1.0388236 -0.42580605 4290136320
2.1552179 -1.0328308 -0.42300537 4290136320
2.1509426 -1.0307004 -0.42130363 4290136320
2.1852732 -1.047047 -0.42667773 4290266880
2.204668 -1.0562427 -0.42859 4290266880
2.2233381 -1.0650898 -0.42982465 4290397440
2.2526917 -1.079047 -0.4325726 4290528000
2.2376957 -1.0717827 -0.42625761 4290397440
2.2519717 -1.078523 -0.42504027 4290528000
2.249928 -1.0774554 -0.42021847 4290397440
2.2528703 -1.0787723 -0.41584215 4290528000
2.2519934 -1.0782621 -0.41027346 4290528000
2.2516179 -1.0779914 -0.40432629 4290397440
2.2368836 -1.0708539 -0.39536843 4290397440
2.2315431 -1.0682092 -0.38768059 4290397440
2.2214615 -1.0632977 -0.37877029 4290397440
2.2337377 -1.0690755 -0.37324473 4290397440
2.265677 -1.0842516 -0.37043557 4290528000
2.2701263 -1.0862849 -0.3625606 4290528000
2.2679973 -1.0851732 -0.35321122 4290528000
2.2435982 -1.0734185 -0.34008899 4290397440
2.2282531 -1.0659921 -0.32812932 4290397440
2.2456794 -1.0742257 -0.32063758 4290397440
2.2575507 -1.0798037 -0.31185663 4290397440
2.2448959 -1.0736631 -0.29932794 4290397440
2.2149491 -1.059263 -0.28435689 4290266880
2.2285035 -1.0656439 -0.27476516 4290266880
2.2534156 -1.0774482 -0.26607907 4290397440
2.2561944 -1.0786798 -0.25432533 4290397440
2.228296 -1.0652616 -0.23894976 4290266880
2.217262 -1.0598983 -0.22534756 4290266880
2.2427084 -1.0719531 -0.21515055 4290397440
2.238966 -1.0700707 -0.20177403 4290266880
2.2156048 -1.0588232 -0.18655539 4290266880
2.2207713 -1.0611945 -0.17366563 4290266880
2.2498562 -1.0749809 -0.1622695 4290397440
2.2486179 -1.0742933 -0.14831945 4290397440
2.2413552 -1.070731 -0.13386127 4290266880
2.2275715 -1.0640577 -0.11899749 4290266880
2.2316909 -1.0659273 -0.10503823 4290266880
2.2668619 -1.0826099 -0.092202701 4290397440
2.2193804 -1.0598625 -0.075923458 4290266880
2.2431114 -1.0710859 -0.062210958 4290266880
2.2407043 -1.0698411 -0.047549531 4290266880
2.2452805 -1.0719268 -0.032979004 4290266880
2.2306116 -1.0648351 -0.018142909 4290266880
2.2584057 -1.0779911 -0.0035846704 4290397440
2.25507 -1.0763032 0.011210542 4290397440
2.2774868 -1.0868924 0.026222272 4290397440
2.3640721 -1.128067 0.042600021 4290789120
2.4071751 -1.1485093 0.059027154 4290919680
2.4889896 -1.1873972 0.077116564 4291180800
2.4223354 -1.1555263 0.090737514 4290919680
2.5282338 -1.2058827 0.11082856 4291441920
2.5628438 -1.2222642 0.12862624 4291572480
2.629395 -1.25386 0.14849876 4291703040
2.62498 -1.251644 0.16464542 4291703040
2.6452458 -1.2611846 0.18223611 4291833600
2.6659772 -1.2709454 0.19990802 4291964160
2.6782396 -1.2766714 0.21692996 4291964160
2.6303387 -1.2537465 0.22867508 4291833600
2.6968567 -1.2853075 0.25012606 4292094720
2.7294497 -1.3007108 0.26875278 4292225280
2.7082701 -1.2905117 0.28189486 4292094720
2.6677749 -1.2711201 0.29238564 4291964160
2.6497345 -1.2624201 0.30467275 4291833600
2.613524 -1.2450739 0.31425717 4291703040
2.590718 -1.2341104 0.32478276 4291703040
2.4859643 -1.1841531 0.32410175 4291311360
2.3568153 -1.1225971 0.31875303 4290789120
2.2594504 -1.0761744 0.31623548 4290397440
2.3366344 -1.1127994 0.33751127 4290789120
2.3655791 -1.1264713 0.35195571 4290789120
2.44137 -1.1624234 0.37336683 4291180800
2.4324265 -1.1580688 0.38175172 4291050240
2.478662 -1.1799569 0.39844894 4291311360
2.4504099 -1.1664202 0.40285695 4291180800
2.6303957 -1.2519014 0.44136038 4291833600
2.6721315 -1.2716373 0.45703444 4291964160
2.6890378 -1.279566 0.46814206 4292094720
2.6786716 -1.2745293 0.47400475 4292094720
2.6991086 -1.2841355 0.48476568 4292094720
2.6631074 -1.2669158 0.4848409 4291964160
2.6756527 -1.2727712 0.49308702 4292094720
2.6829202 -1.2761179 0.49983209 4292094720
2.7036207 -1.2858474 0.5085355 4292225280
2.7074766 -1.2875723 0.51353306 4292225280
2.7158673 -1.2914517 0.51880223 4292225280
