# .PCD v0.7 - Point Cloud Data file format
VERSION 0.7
FIELDS x y z rgba
SIZE 4 4 4 4
TYPE F F F U
COUNT 1 1 1 1
WIDTH 1103
HEIGHT 1
VIEWPOINT 0 0 0 1 0 0 0
POINTS 1103
DATA ascii
3.4175189 0.28073251 -0.59285831 4293530880
3.3994911 0.27935913 -0.59342629 4293530880
3.4078119 0.28015068 -0.59788793 4293530880
3.4074121 0.28022557 -0.60012734 4293530880
3.4022226 0.27990642 -0.60081816 4293530880
3.3981347 0.27967757 -0.60099643 4293530880
3.4154816 0.28121328 -0.60426176 4293530880
3.41556 0.28132778 -0.60376519 4293530880
3.4290016 0.28254336 -0.60491902 4293661440
3.4400196 0.28356004 -0.60492611 4293661440
3.4340942 0.28318024 -0.60124427 4293661440
3.4321353 0.28312728 -0.59756029 4293661440
3.4484386 0.28458127 -0.59634048 4293661440
3.4438925 0.28431502 -0.59080625 4293661440
3.4417138 0.284244 -0.5849992 4293661440
3.4414027 0.28432718 -0.57883263 4293661440
3.4412112 0.28442019 -0.57201439 4293661440
3.4276395 0.28340688 -0.56233805 4293530880
3.4315715 0.28384054 -0.55490226 4293530880
3.4172027 0.28276014 -0.54389304 4293530880
3.4096797 0.28224549 -0.5334031 4293530880
3.4219551 0.28336987 -0.52538139 4293530880
3.4396417 0.28494325 -0.51749706 4293661440
3.4542706 0.28626442 -0.5084579 4293661440
3.4254503 0.28398433 -0.49249327 4293530880
3.4087486 0.28270754 -0.47786835 4293530880
3.3996763 0.28206265 -0.46386376 4293400320
3.4226077 0.28407347 -0.45364472 4293530880
3.42698 0.2845448 -0.44034594 4293530880
3.4341416 0.28524804 -0.42686152 4293530880
3.3788826 0.280765 -0.40534794 4293400320
3.4089642 0.2833724 -0.39372304 4293400320
3.422776 0.28462881 -0.37958106 4293530880
3.4357381 0.28581539 -0.36479712 4293530880
3.43328 0.28571951 -0.3479211 4293530880
3.389251 0.28216261 -0.32667661 4293400320
3.4168515 0.28456849 -0.31205338 4293400320
3.4117873 0.28425464 -0.29398939 4293400320
3.4067636 0.28394386 -0.27565795 4293400320
3.3902314 0.28267321 -0.2562075 4293400320
3.427556 0.28589371 -0.24043237 4293400320
3.4229887 0.28562102 -0.22127852 4293400320
3.4266434 0.28603438 -0.20241965 4293400320
3.4186511 0.2854754 -0.18267709 4293400320
3.4072692 0.28463274 -0.16266473 4293400320
3.4127326 0.28519708 -0.14331348 4293400320
3.4156671 0.28555039 -0.12365234 4293400320
3.4145153 0.2855621 -0.10369913 4293400320
3.4258583 0.28661913 -0.08395344 4293400320
3.4301648 0.28708795 -0.06385269 4293400320
3.4370923 0.28777647 -0.043665424 4293530880
3.4294145 0.28724211 -0.023249961 4293400320
3.4489174 0.28898478 -0.0029234022 4293530880
3.4536686 0.28949213 0.017562797 4293530880
3.3982093 0.28495097 0.037423447 4293400320
3.476794 0.29165053 0.058856182 4293661440
3.4804926 0.29207093 0.079444543 4293661440
3.4747472 0.29169869 0.099719763 4293661440
3.2753191 0.27506068 0.11313023 4292878080
3.4718072 0.29167157 0.14006901 4293530880
3.4762383 0.29215381 0.16027381 4293661440
3.4255216 0.28799981 0.17749822 4293400320
3.1122465 0.26175976 0.17886411 4292355840
3.4889731 0.29355526 0.22002594 4293661440
3.4856877 0.29338908 0.23907194 4293661440
3.4356589 0.28928688 0.25436032 4293530880
3.1225014 0.26301742 0.24793617 4292486400
3.5023038 0.29512009 0.29658809 4293792000
3.5041707 0.29538828 0.31492439 4293792000
3.4754949 0.29308099 0.33003271 4293661440
3.3747516 0.28469229 0.33728504 4293269760
3.1390584 0.26490864 0.32902592 4292486400
3.5052509 0.29592294 0.38408256 4293792000
3.4888053 0.29464495 0.39845029 4293661440
3.4497576 0.29145634 0.40953964 4293530880
3.4189689 0.28896332 0.42084032 4293530880
3.29849 0.2788851 0.41998357 4293139200
3.5012493 0.296139 0.46013007 4293792000
3.4985294 0.29601967 0.4735724 4293792000
3.4854653 0.29502457 0.48501807 4293792000
3.4627964 0.29321533 0.49444464 4293661440
3.4459965 0.29190183 0.50400573 4293661440
3.303344 0.2799226 0.49405503 4293139200
3.4923127 0.29604614 0.53325754 4293792000
3.4937916 0.29628208 0.54381603 4293792000
3.489903 0.29606274 0.55290729 4293792000
3.4948702 0.29659471 0.56276643 4293792000
3.473001 0.29484865 0.56761444 4293792000
3.4820812 0.29572973 0.57683122 4293792000
3.4635229 0.29426318 0.58078319 4293661440
3.4587016 0.29396302 0.58631748 4293661440
3.4626734 0.29441014 0.59265792 4293661440
3.4368281 0.29232144 0.5931738 4293661440
3.4498549 0.2935386 0.59968573 4293661440
3.4492474 0.29359606 0.60314274 4293661440
3.4536631 0.29408121 0.60677606 4293661440
3.4532895 0.29415867 0.60886157 4293661440
3.4530361 0.29424635 0.61025518 4293661440
3.4342601 0.29275504 0.60765666 4293661440
3.4440622 0.29369962 0.6093992 4293661440
3.469167 0.29595026 0.61313051 4293792000
3.4507551 0.29448876 0.60845536 4293661440
3.4637153 0.29570439 0.60859919 4293792000
3.4717629 0.29650131 0.60715318 4293792000
3.4718695 0.29662028 0.60360187 4293792000
3.4774694 0.29720876 0.60029364 4293792000
3.4836926 0.29785088 0.59637684 4293792000
3.4855275 0.29811805 0.59100193 4293792000
3.4837358 0.29807505 0.58432472 4293792000
3.4836791 0.29818046 0.57726306 4293792000
3.4798598 0.29796368 0.5689171 4293792000
3.4773524 0.29785901 0.5601415 4293792000
3.4740179 0.29768333 0.55060029 4293792000
3.4661815 0.29712155 0.53974134 4293661440
3.4865749 0.29898 0.53261888 4293792000
3.4941237 0.2997379 0.52283931 4293792000
3.4894524 0.29944763 0.51062453 4293792000
3.4354687 0.29531351 0.41626585 4293530880
3.461437 0.29765528 0.40406242 4293661440
3.4789162 0.29926845 0.39022109 4293661440
3.4793832 0.29941875 0.37395427 4293661440
3.4468713 0.29673001 0.35388112 4293530880
3.4415469 0.29638058 0.33638927 4293530880
3.4632266 0.29835719 0.32108176 4293661440
3.4621711 0.29837584 0.30320838 4293661440
3.4199538 0.29484573 0.28162262 4293400320
3.4466629 0.29725751 0.26548207 4293530880
3.4628003 0.29875886 0.24800694 4293530880
3.4677677 0.29929721 0.22934616 4293661440
3.4251742 0.29572943 0.20749897 4293400320
3.4579313 0.2986671 0.19004303 4293530880
3.4524646 0.29830423 0.17012663 4293530880
3.4714956 0.30005845 0.15115461 4293530880
3.4100285 0.29485348 0.12875997 4293400320
3.4382672 0.29740399 0.10980408 4293530880
3.4438169 0.29799303 0.089807853 4293530880
3.4406087 0.29782432 0.069472522 4293530880
3.4165835 0.29585281 0.048802603 4293400320
3.4209218 0.29633677 0.028601328 4293400320
3.4277732 0.29703876 0.0083237756 4293400320
3.3974109 0.29451519 -0.011913669 4293269760
3.4127564 0.29595348 -0.032209482 4293400320
3.4147778 0.29623687 -0.052447915 4293400320
3.4329498 0.29792199 -0.07299722 4293400320
3.3966494 0.29487923 -0.092203356 4293400320
3.4354136 0.29835328 -0.11336103 4293530880
3.4486301 0.29961023 -0.13385698 4293530880
3.4503284 0.299867 -0.15384778 4293530880
3.3965328 0.29529914 -0.17089926 4293400320
3.4156289 0.29706749 -0.19123322 4293400320
3.4257967 0.29806027 -0.21102487 4293400320
3.4230528 0.29792988 -0.22983326 4293400320
3.394881 0.29558536 -0.24651434 4293400320
3.4245229 0.29827464 -0.26712969 4293400320
3.4419322 0.29989994 -0.28675038 4293530880
3.4590347 0.30149958 -0.30621213 4293530880
3.4329121 0.29933134 -0.32146582 4293530880
3.4174995 0.29809564 -0.33715671 4293400320
3.4354939 0.29977396 -0.35578129 4293530880
3.4441278 0.30063635 -0.37317136 4293530880
3.4432325 0.30066723 -0.38915101 4293530880
3.4228771 0.29899812 -0.40240043 4293530880
3.4576008 0.30214077 -0.42173558 4293661440
3.4594548 0.3024123 -0.43674949 4293661440
3.4727707 0.30368626 -0.45278201 4293661440
3.4791901 0.30435777 -0.46748507 4293661440
3.4681599 0.30350262 -0.47929788 4293661440
3.4381754 0.30098751 -0.48779491 4293530880
3.4420781 0.30143812 -0.50044823 4293661440
3.4472234 0.30199781 -0.51274228 4293661440
3.4505401 0.30239764 -0.52420574 4293661440
3.4559767 0.30298349 -0.5354172 4293661440
3.4558761 0.30308408 -0.54517144 4293661440
3.4485903 0.30255428 -0.55314469 4293661440
3.4523721 0.30299535 -0.56224453 4293661440
3.4504306 0.3029342 -0.56976682 4293661440
3.4458885 0.30264449 -0.57618535 4293661440
3.4374392 0.30201125 -0.58125615 4293661440
3.4208794 0.3006646 -0.58423555 4293530880
3.416584 0.30039525 -0.58859462 4293530880
3.4158406 0.30043805 -0.59287173 4293530880
3.401747 0.29930612 -0.59412313 4293530880
3.4061377 0.29980031 -0.59789699 4293530880
3.4106438 0.30030489 -0.60099858 4293530880
3.4103615 0.30038801 -0.60255593 4293530880
3.4052939 0.30004945 -0.6025607 4293530880
3.4187078 0.30133963 -0.60512936 4293530880
3.4320369 0.30262315 -0.60697293 4293661440
3.4312403 0.30266154 -0.60560578 4293661440
3.4383283 0.30339563 -0.60491747 4293661440
3.4412377 0.3037613 -0.60277981 4293661440
3.4402626 0.30378416 -0.59925556 4293661440
3.446743 0.30446553 -0.59632313 4293661440
3.4460046 0.3045094 -0.59143913 4293661440
3.4489455 0.30487847 -0.58649349 4293661440
3.4620094 0.3061429 -0.58255857 4293661440
3.4564245 0.30575848 -0.57479626 4293661440
3.4438479 0.30475497 -0.56524259 4293661440
3.433413 0.30394027 -0.55543751 4293661440
3.4155214 0.30246457 -0.54385424 4293530880
3.4129226 0.3023425 -0.53413129 4293530880
3.425194 0.30353805 -0.52609217 4293530880
3.4527247 0.30608711 -0.51967216 4293661440
3.4582829 0.30668935 -0.50924683 4293661440
3.4290984 0.30420977 -0.4932054 4293530880
3.4070697 0.30236337 -0.47781017 4293530880
3.4029362 0.30210429 -0.46447611 4293400320
3.4226952 0.30396685 -0.45381507 4293530880
3.4252908 0.30430579 -0.44027773 4293530880
3.4324484 0.30505037 -0.42678994 4293530880
3.3821611 0.3006883 -0.40586782 4293400320
3.4086778 0.30315369 -0.39380696 4293400320
3.4323239 0.30536535 -0.3807469 4293530880
3.4363744 0.30583453 -0.36496079 4293530880
3.4315839 0.30551684 -0.34783405 4293530880
3.3964994 0.30250078 -0.32744804 4293400320
3.406234 0.30347565 -0.31114545 4293400320
3.4140687 0.30428177 -0.29423639 4293400320
3.4189768 0.30482745 -0.27668512 4293400320
3.3935184 0.30266511 -0.25648299 4293400320
3.4169149 0.30486003 -0.23970151 4293400320
3.4401767 0.30704442 -0.22239353 4293530880
3.424943 0.30579323 -0.20231126 4293400320
3.4318731 0.30652064 -0.1833638 4293530880
3.4195049 0.30552426 -0.16321734 4293400320
3.4329326 0.3068327 -0.14411825 4293530880
3.4288983 0.30658069 -0.12407606 4293400320
3.4230707 0.30616805 -0.10389204 4293400320
3.4304795 0.30693933 -0.083987907 4293400320
3.4343517 0.30739456 -0.063840091 4293400320
3.4174652 0.30599135 -0.043314464 4293400320
3.4340267 0.30758297 -0.023167644 4293400320
3.4571536 0.30976391 -0.0028045853 4293530880
3.4668808 0.31074527 0.017767487 4293530880
3.396508 0.30454513 0.037550401 4293400320
3.4750519 0.31169775 0.058986831 4293661440
3.487709 0.31294349 0.079780921 4293661440
3.4779811 0.31218079 0.099994488 4293661440
3.3589773 0.30160546 0.11620566 4293269760
3.4816554 0.31273112 0.14066929 4293661440
3.4928944 0.31385124 0.16125548 4293661440
3.4463923 0.309782 0.17880031 4293530880
3.1206219 0.28059867 0.17955382 4292486400
3.49616 0.31447685 0.22072197 4293661440
3.4839287 0.31348699 0.23920229 4293661440
3.4289577 0.30864924 0.25411984 4293530880
3.1298592 0.28182575 0.24876133 4292486400
3.5144269 0.31656516 0.29789338 4293792000
3.5063655 0.31595007 0.31540751 4293792000
3.4826589 0.31392422 0.33100435 4293661440
3.2930665 0.29693881 0.32940328 4293008640
3.1463821 0.28381178 0.33006918 4292486400
3.5074332 0.31649062 0.38463527 4293792000
3.4870348 0.31476042 0.39856574 4293661440
3.4430609 0.31090009 0.40906373 4293530880
3.3694086 0.30435619 0.41505712 4293269760
3.2055583 0.28965726 0.40845698 4292747520
3.5044069 0.31677249 0.46088383 4293792000
3.4967504 0.31619117 0.47367343 4293792000
3.4935575 0.31601307 0.48648897 4293792000
3.4649785 0.31353769 0.49510115 4293661440
3.4442427 0.31177047 0.50409448 4293661440
3.310528 0.29977155 0.49546316 4293139200
3.4954576 0.3166278 0.53409159 4293792000
3.4969335 0.31687227 0.54466003 4293792000
3.4920609 0.31654134 0.55360413 4293792000
3.488174 0.3162995 0.56204277 4293792000
3.4810619 0.31576487 0.56928527 4293792000
3.4714644 0.31500423 0.57542396 4293792000
3.4617593 0.31423321 0.58083647 4293661440
3.4569407 0.31390533 0.58636558 4293661440
3.456002 0.31392956 0.59186023 4293661440
3.4448934 0.31302962 0.59490603 4293661440
3.4530056 0.31387612 0.60057104 4293661440
3.4523976 0.31393021 0.60402733 4293661440
3.4705446 0.31569025 0.61007315 4293792000
3.4662459 0.31540903 0.61147189 4293792000
3.4463761 0.31371018 0.60939705 4293661440
3.4423215 0.31345013 0.60939592 4293661440
3.4511383 0.31436232 0.61095881 4293661440
3.4674039 0.31595376 0.61312139 4293792000
3.4529254 0.31474385 0.60913217 4293661440
3.4668608 0.3161239 0.60943979 4293792000
3.4749053 0.31696752 0.60798347 4293792000
3.4750133 0.31708744 0.6044209 4293792000
3.4796302 0.31761897 0.60093081 4293792000
3.4730899 0.31713197 0.59481639 4293792000
3.4925969 0.31902382 0.59244722 4293792000
3.490809 0.3189711 0.58574778 4293792000
3.4926436 0.31924939 0.57897526 4293792000
3.4880462 0.31893966 0.57047141 4293792000
3.4795222 0.31827047 0.56069577 4293792000
3.4673383 0.31726584 0.54973465 4293661440
3.4681041 0.31744578 0.54022247 4293661440
3.4951463 0.32003176 0.53409982 4293792000
3.4971917 0.32032982 0.52345812 4293792000
3.4926107 0.32002085 0.5112341 4293792000
3.4337087 0.31512037 0.41626585 4293530880
3.4646087 0.31806591 0.40463918 4293661440
3.4784694 0.31944859 0.39036936 4293661440
3.4713061 0.3189007 0.37327495 4293661440
3.458972 0.31787717 0.35530216 4293661440
3.4546478 0.31758922 0.33783853 4293530880
3.4763224 0.31969196 0.32245576 4293661440
3.4603934 0.3183367 0.30320168 4293661440
3.4365563 0.31625271 0.28312743 4293530880
3.4399278 0.31667194 0.26509058 4293530880
3.4610205 0.31872335 0.24799682 4293530880
3.4570422 0.31846651 0.22874314 4293530880
3.4283824 0.31593499 0.20778784 4293530880
3.4524744 0.31826451 0.18982717 4293530880
3.4656062 0.31958485 0.17084725 4293530880
3.4697082 0.32007307 0.15113847 4293530880
3.4271784 0.31625834 0.12945707 4293400320
3.4338634 0.31698406 0.1097016 4293530880
3.4394093 0.31760496 0.089719564 4293530880
3.4428165 0.31802869 0.069532163 4293530880
3.4127398 0.31535846 0.048751075 4293400320
3.416523 0.31581631 0.028556352 4293400320
3.4309821 0.31726161 0.0083117038 4293400320
3.3911736 0.31368798 -0.011922915 4293269760
3.4145665 0.31596005 -0.032269437 4293400320
3.4319291 0.31767538 -0.05276598 4293400320
3.4411292 0.31863603 -0.073237449 4293530880
3.3989508 0.31483817 -0.092342637 4293400320
3.433635 0.31815967 -0.11339127 4293530880
3.432914 0.31820163 -0.13334711 4293530880
3.4395876 0.31892923 -0.15348034 4293530880
3.403722 0.3157115 -0.1713822 4293400320
3.4228046 0.31758997 -0.19176766 4293400320
3.4339573 0.3187336 -0.21167135 4293530880
3.4262431 0.31812611 -0.23020144 4293400320
3.3990726 0.31571108 -0.24698168 4293400320
3.4326704 0.31894046 -0.26793993 4293530880
3.4451041 0.32020485 -0.28719985 4293530880
3.4572353 0.32144195 -0.30624849 4293530880
3.4450049 0.32041398 -0.32280263 4293530880
3.4259279 0.31874824 -0.33820063 4293530880
3.4548557 0.32154912 -0.35800955 4293661440
3.4427392 0.32053053 -0.37325191 4293530880
3.4451783 0.32086679 -0.38961035 4293530880
3.417151 0.31836477 -0.40197274 4293530880
3.4696343 0.32336441 -0.42346036 4293661440
3.4746437 0.32394138 -0.43893188 4293661440
3.4795463 0.3245087 -0.45393765 4293661440
3.4724381 0.32395583 -0.46685624 4293661440
3.4685774 0.32370555 -0.47964001 4293661440
3.4413073 0.32126963 -0.48852736 4293661440
3.4488497 0.32208306 -0.50172698 4293661440
3.4552689 0.32279205 -0.51423895 4293661440
3.4536567 0.32275087 -0.52498382 4293661440
3.4627273 0.32370827 -0.53677273 4293661440
3.4589844 0.323468 -0.54597509 4293661440
3.4605486 0.32372394 -0.55537963 4293661440
3.4505634 0.32289919 -0.56226903 4293661440
3.4525523 0.32319474 -0.57043898 4293661440
3.4440823 0.32251102 -0.57620651 4293661440
3.4405463 0.3222889 -0.58210605 4293661440
3.4426277 0.322593 -0.58827579 4293661440
3.4098859 0.31963295 -0.58776426 4293530880
3.4189544 0.32059139 -0.59373695 4293530880
3.3999624 0.31891829 -0.59413433 4293530880
3.4092546 0.31989792 -0.59876722 4293530880
3.4186604 0.32088885 -0.60273427 4293530880
3.4134746 0.32051027 -0.60342699 4293530880
3.3946822 0.31885332 -0.60100031 4293530880
3.4257379 0.32187888 -0.6066916 4293661440
3.4169915 0.32116538 -0.60462636 4293530880
3.4392445 0.32336596 -0.60733145 4293661440
3.436523 0.323219 -0.60490882 4293661440
3.4443345 0.32406285 -0.60362774 4293661440
3.4472845 0.32444966 -0.60077977 4293661440
3.4449329 0.32433754 -0.59630579 4293661440
3.4541302 0.32531291 -0.59312481 4293661440
3.4569502 0.32568806 -0.58814013 4293661440
3.4601908 0.32610306 -0.58253199 4293661440
3.4408576 0.32439008 -0.57247877 4293661440
3.4420385 0.3246105 -0.56520981 4293661440
3.441438 0.32466292 -0.55699247 4293661440
3.4126213 0.32205254 -0.5436393 4293530880
3.4151404 0.32239854 -0.53471732 4293530880
3.4332347 0.3242155 -0.52755898 4293661440
3.4548476 0.32636601 -0.52021605 4293661440
3.4645448 0.32739189 -0.51038468 4293661440
3.4420774 0.32537788 -0.49527714 4293661440
3.4146457 0.32289299 -0.47906634 4293530880
3.4069877 0.32227683 -0.4652124 4293530880
3.4359961 0.32512975 -0.45575327 4293530880
3.4356885 0.32520953 -0.44177833 4293530880
3.4409266 0.32581443 -0.42799774 4293530880
3.3952072 0.32159296 -0.40757412 4293400320
3.420728 0.3241187 -0.39532977 4293530880
3.4354622 0.32562372 -0.38121489 4293530880
3.4444628 0.32658598 -0.36592835 4293530880
3.4297736 0.32530195 -0.34774697 4293530880
3.3917305 0.32180122 -0.32707193 4293400320
3.4133587 0.32396144 -0.31186849 4293400320
3.4221842 0.32490757 -0.29499614 4293530880
3.4171698 0.32453981 -0.27658698 4293400320
3.405622 0.32355103 -0.25743353 4293400320
3.4290104 0.32588175 -0.24057366 4293530880
3.4294145 0.32602888 -0.22170901 4293530880
3.4271042 0.32591787 -0.20243767 4293400320
3.4201133 0.32536143 -0.18272176 4293400320
3.4208767 0.32554251 -0.16325662 4293400320
3.4311109 0.3266252 -0.144003 4293530880
3.4360311 0.3272025 -0.12428284 4293530880
3.4162767 0.32542965 -0.10362241 4293400320
3.4336312 0.32719168 -0.083988912 4293530880
3.4419811 0.32809645 -0.063893199 4293530880
3.4395351 0.32797232 -0.043493249 4293530880
3.4471285 0.32880569 -0.023142654 4293530880
3.4553096 0.32969558 -0.0026773077 4293530880
3.4600532 0.33025786 0.017870473 4293530880
3.4046481 0.32507744 0.037787851 4293400320
3.4771757 0.33211267 0.059185255 4293661440
3.4858434 0.33305106 0.079912655 4293661440
3.471144 0.33175665 0.099982984 4293661440
3.2818687 0.31377062 0.11372361 4293008640
3.4771535 0.33255148 0.14069498 4293661440
3.4910202 0.33398837 0.16138816 4293661440
3.454483 0.33060235 0.17944741 4293530880
3.1189451 0.29858944 0.17967179 4292486400
3.4942801 0.33463261 0.22085357 4293661440
3.4919853 0.33452353 0.24001525 4293661440
3.4410098 0.32974929 0.25527829 4293530880
3.1142802 0.29853779 0.24777128 4292486400
3.5101957 0.33660191 0.29782325 4293792000
3.5143886 0.33711541 0.31642652 4293792000
3.4995928 0.33580709 0.3329179 4293792000
3.2962406 0.31639871 0.33001444 4293008640
3.1446819 0.30195063 0.33017752 4292486400
3.505537 0.3367109 0.38475379 4293792000
3.4900937 0.33533821 0.3992469 4293792000
3.4411974 0.33074924 0.40917516 4293530880
3.3675842 0.32378072 0.41516352 4293269760
3.2038221 0.30813718 0.40855548 4292747520
3.508353 0.33753756 0.46175766 4293792000
3.50472 0.33729914 0.47511172 4293792000
3.4818187 0.3352055 0.4852145 4293792000
3.4630995 0.33351317 0.49519417 4293661440
3.4472997 0.33210084 0.50490451 4293661440
3.3136547 0.31933102 0.49628189 4293139200
3.4974973 0.33715853 0.53477532 4293792000
3.4950359 0.33703208 0.54473764 4293792000
3.4922183 0.33687109 0.55400276 4293792000
3.495126 0.33726239 0.56353724 4293792000
3.4889972 0.33678162 0.57095647 4293792000
3.4784193 0.33587086 0.5769484 4293792000
3.478534 0.33599225 0.58402151 4293792000
3.4599721 0.33430907 0.5872466 4293661440
3.4688447 0.33527634 0.59442508 4293792000
3.4518533 0.33374351 0.59646893 4293661440
3.4560361 0.33425754 0.60145634 4293661440
3.460331 0.33478266 0.60577029 4293792000
3.4549365 0.33437029 0.60767961 4293661440
3.4682882 0.33577245 0.61217898 4293792000
3.4641132 0.33547813 0.61287457 4293792000
3.4492781 0.33415079 0.61096156 4293661440
3.4404466 0.33340436 0.60939318 4293661440
3.4493809 0.33437952 0.61025584 4293661440
3.4657605 0.33607724 0.61171228 4293792000
3.4689054 0.33649224 0.61010784 4293792000
3.4681218 0.33652619 0.60709715 4293792000
3.4780364 0.33759853 0.60523981 4293792000
3.4777477 0.33768079 0.60088992 4293792000
3.4947588 0.33944339 0.59880382 4293792000
3.4907081 0.33916062 0.59239322 4293792000
3.4894707 0.33915105 0.58577955 4293792000
3.5045037 0.34072331 0.58118826 4293922560
3.4959846 0.34000587 0.57200533 4293792000
3.4834614 0.33889842 0.56155419 4293792000
3.4758461 0.33826774 0.5512954 4293792000
3.4613123 0.33696312 0.53936392 4293661440
3.4932578 0.34018382 0.53400046 4293792000
3.495302 0.34049374 0.52335238 4293792000
3.4995873 0.34102219 0.51242012 4293792000
3.4456077 0.33688161 0.41794378 4293530880
3.469573 0.33933479 0.40544915 4293661440
3.4913447 0.34157485 0.39203876 4293792000
3.4954293 0.34208536 0.37608638 4293792000
3.4520698 0.33795139 0.35480055 4293530880
3.4627259 0.33910444 0.33882901 4293661440
3.4743593 0.34035388 0.32246709 4293661440
3.468353 0.33987552 0.30408436 4293661440
3.4346142 0.33667827 0.28314298 4293530880
3.4399641 0.3373118 0.26526117 4293530880
3.4613965 0.33952317 0.24818437 4293530880
3.4739544 0.34086516 0.23001498 4293661440
3.4353826 0.33718947 0.20835482 4293530880
3.4594634 0.33966273 0.19034655 4293530880
3.4686136 0.34067118 0.17112227 4293661440
3.4677427 0.34069562 0.15117076 4293530880
3.4252362 0.33662814 0.12949136 4293400320
3.445843 0.33876264 0.11018364 4293530880
3.4324849 0.3375583 0.089628883 4293530880
3.4406459 0.33846998 0.069569364 4293530880
3.4157794 0.33613211 0.048865821 4293400320
3.4285169 0.33749431 0.02871895 4293400320
3.4330158 0.33804607 0.0083697438 4293530880
3.4031813 0.33521625 -0.011921782 4293400320
3.4166088 0.33664724 -0.03225461 4293400320
3.4232173 0.33740699 -0.052607309 4293400320
3.4342005 0.33859846 -0.073074721 4293530880
3.3970206 0.33504045 -0.092284575 4293400320
3.4316847 0.33856815 -0.1133308 4293530880
3.4448857 0.33997983 -0.13382578 4293530880
3.4465811 0.34025648 -0.15381575 4293530880
3.3928428 0.3350589 -0.17086698 4293400320
3.4208598 0.33793423 -0.19170119 4293400320
3.4270394 0.33865342 -0.2112972 4293530880
3.4386947 0.33991423 -0.2311002 4293530880
3.4070661 0.33689585 -0.24763373 4293400320
3.4356797 0.33983421 -0.26825637 4293530880
3.4593656 0.3422868 -0.28848064 4293661440
3.4602258 0.34248167 -0.306615 4293661440
3.4579084 0.34236199 -0.32412294 4293661440
3.4239795 0.33911136 -0.338128 4293530880
3.4497197 0.34177011 -0.35760754 4293530880
3.4605682 0.3429547 -0.37532508 4293661440
3.458051 0.34281492 -0.39121574 4293661440
3.4241016 0.33955798 -0.40294787 4293530880
3.4676592 0.34398746 -0.42338827 4293661440
3.4825387 0.34557399 -0.44010824 4293792000
3.49138 0.34656209 -0.4556703 4293792000
3.4832854 0.34586909 -0.46851221 4293792000
3.4853311 0.34618279 -0.48216358 4293792000
3.4432869 0.34211597 -0.48902163 4293661440
3.446883 0.34258261 -0.50166321 4293661440
3.4670789 0.34469986 -0.51622891 4293661440
3.4605408 0.34415963 -0.52627075 4293661440
3.4607503 0.34429029 -0.53671527 4293661440
3.4619238 0.34451687 -0.54669642 4293661440
3.458571 0.34429294 -0.55532759 4293661440
3.448806 0.34343028 -0.5622552 4293661440
3.4554868 0.34420517 -0.57120472 4293661440
3.4470189 0.34347102 -0.57698572 4293661440
3.4425008 0.34313008 -0.58273172 4293661440
3.4455597 0.34354427 -0.58907932 4293661440
3.4358878 0.34268895 -0.59255505 4293661440
3.4169924 0.34091279 -0.59371012 4293530880
3.4078135 0.34010512 -0.59582591 4293530880
3.4072955 0.34016153 -0.59874916 4293530880
3.4068937 0.34022954 -0.60099179 4293530880
3.4115102 0.3407988 -0.60341823 4293530880
3.4064462 0.34040099 -0.60342669 4293530880
3.4188638 0.34175035 -0.60582453 4293661440
3.4282565 0.34279802 -0.60697615 4293661440
3.4274592 0.34282705 -0.60561168 4293661440
3.438458 0.34403631 -0.60561663 4293661440
3.4472442 0.34502479 -0.60451019 4293661440
3.4364662 0.34405509 -0.59926993 4293661440
3.4478407 0.3453033 -0.59718966 4293661440
3.4559295 0.34622306 -0.59381878 4293661440
3.4451344 0.3452509 -0.58651686 4293661440
3.4581821 0.34666818 -0.58258516 4293661440
3.4476933 0.34572613 -0.57400876 4293661440
3.4537847 0.34644654 -0.56753433 4293661440
3.4394352 0.34511632 -0.55706435 4293661440
3.4302881 0.34430733 -0.5468502 4293661440
3.4229815 0.34368259 -0.53634197 4293530880
3.44017 0.34551755 -0.52902448 4293661440
3.4609034 0.34770975 -0.52153069 4293661440
3.4723663 0.34897161 -0.51194125 4293792000
3.4485261 0.34668511 -0.49660647 4293661440
3.4170823 0.34363243 -0.47980547 4293530880
3.423727 0.34440929 -0.46789533 4293530880
3.4300396 0.34515315 -0.45535994 4293530880
3.4443324 0.3467007 -0.44328669 4293661440
3.4447498 0.34685203 -0.42886823 4293661440
3.3927252 0.34172133 -0.40766293 4293400320
3.4196253 0.34453928 -0.39558956 4293530880
3.4334478 0.3460409 -0.38137716 4293530880
3.432548 0.34605917 -0.36504495 4293530880
3.4426103 0.34718287 -0.34942827 4293530880
3.3946924 0.34245813 -0.32772803 4293400320
3.4186437 0.34498286 -0.31272009 4293530880
3.4300885 0.34624663 -0.29604274 4293530880
3.4102056 0.3443478 -0.27638131 4293400320
3.3986626 0.34329009 -0.25725886 4293400320
3.4220355 0.34575951 -0.24043237 4293400320
3.4363379 0.3473137 -0.2225 4293530880
3.4399915 0.34779212 -0.2035362 4293530880
3.4330094 0.34719521 -0.18374059 4293530880
3.428808 0.34687909 -0.16395745 4293530880
3.4340692 0.34752032 -0.14444253 4293530880
3.4459605 0.34883308 -0.12495068 4293530880
3.4242189 0.34674087 -0.10416201 4293400320
3.4415655 0.34860665 -0.084474795 4293530880
3.4593608 0.35051897 -0.064500384 4293530880
3.4375212 0.3484152 -0.043741569 4293530880
3.4464598 0.34943053 -0.023403358 4293530880
3.463537 0.3512719 -0.0029405502 4293530880
3.460007 0.3510237 0.017623542 4293530880
3.4165857 0.34672698 0.03768681 4293400320
3.4751441 0.35278001 0.058923651 4293661440
3.4838076 0.35377005 0.079649203 4293661440
3.4880128 0.35430777 0.1002629 4293661440
3.293874 0.33469197 0.1139558 4293008640
3.4850662 0.35422972 0.14083225 4293661440
3.4989233 0.35574922 0.16158174 4293661440
3.4348676 0.34934548 0.17827171 4293530880
3.1171284 0.31712851 0.17943586 4292486400
3.5021744 0.35641328 0.22121757 4293792000
3.4897349 0.35525808 0.23973885 4293661440
3.4489288 0.35121346 0.25575826 4293530880
3.1313117 0.31896907 0.24904044 4292486400
3.5154457 0.35821024 0.29818571 4293792000
3.5222535 0.3590157 0.31706512 4293792000
3.4886591 0.35570225 0.33182257 4293661440
3.384109 0.34514979 0.33877155 4293400320
3.1428537 0.3206436 0.32996085 4292486400
3.5084436 0.35805357 0.38505942 4293792000
3.5019028 0.35749722 0.40059868 4293792000
3.4480879 0.35211289 0.41000956 4293661440
3.370563 0.34430316 0.41555944 4293400320
3.3266666 0.33992475 0.42426297 4293139200
3.5063114 0.35839251 0.46154818 4293792000
3.5115528 0.35903969 0.47611213 4293792000
3.489645 0.3569105 0.4863936 4293792000
3.4758551 0.35561046 0.49712098 4293792000
3.4551342 0.3536002 0.50616896 4293661440
3.3215611 0.34003574 0.49759263 4293269760
3.5001576 0.35843015 0.53533041 4293792000
3.506757 0.35921729 0.54672807 4293922560
3.5000029 0.35863653 0.55541587 4293792000
3.4930811 0.35803816 0.56340015 4293792000
3.4869537 0.35752082 0.57082909 4293792000
3.4861951 0.35755372 0.5784598 4293792000
3.4715869 0.35616565 0.58309036 4293792000
3.4677484 0.35588193 0.58881575 4293792000
3.4717078 0.35639849 0.59517962 4293792000
3.4449189 0.35375777 0.5955466 4293661440
3.4638007 0.35580668 0.60309899 4293792000
3.4631886 0.35585377 0.60657567 4293792000
3.4666128 0.35631567 0.61005235 4293792000
3.457418 0.35548034 0.61059183 4293792000
3.4571624 0.35556382 0.61198938 4293792000
3.4570279 0.35565975 0.61269176 4293792000
3.4521174 0.35526416 0.61182994 4293661440
3.4473288 0.35488081 0.61027414 4293661440
3.4636958 0.35667562 0.61174303 4293792000
3.4766345 0.35811839 0.61187565 4293792000
3.4895692 0.35956156 0.61127305 4293792000
3.4994791 0.36069378 0.6094051 4293922560
3.4952712 0.36037105 0.60436183 4293792000
3.4832442 0.3592416 0.5972839 4293792000
3.4846885 0.35950121 0.59183484 4293792000
3.4922783 0.3603951 0.58672464 4293792000
3.4925797 0.36053711 0.57969379 4293792000
3.4938774 0.360782 0.5721525 4293792000
3.4862702 0.36010715 0.56250614 4293792000
3.4781094 0.35937461 0.55216008 4293792000
3.469049 0.35854861 0.54108119 4293792000
3.4862266 0.36043471 0.53344673 4293792000
3.4981036 0.36177373 0.52430105 4293792000
3.4974654 0.36181879 0.51264435 4293792000
3.4534826 0.35776821 0.41914228 4293661440
3.481391 0.36076993 0.40706566 4293661440
3.5005422 0.36286569 0.39329821 4293792000
3.5023 0.36315912 0.37704197 4293792000
3.4649065 0.35939175 0.35632333 4293661440
3.4557636 0.35855314 0.33833978 4293661440
3.4862056 0.36182237 0.32374913 4293661440
3.4712906 0.36038461 0.30451226 4293661440
3.4425294 0.35750797 0.28395286 4293530880
3.4498665 0.35837951 0.26617071 4293530880
3.4633503 0.35989019 0.24845894 4293661440
3.4719319 0.36089221 0.23000364 4293661440
3.4331644 0.3569715 0.20832922 4293530880
3.4574478 0.35960624 0.19033287 4293530880
3.4679339 0.360807 0.17117356 4293661440
3.4657211 0.36068684 0.15115461 4293530880
3.4319661 0.35728285 0.1298043 4293530880
3.4505897 0.35933122 0.11038134 4293530880
3.4493732 0.35931408 0.090102784 4293530880
3.4487996 0.35936385 0.069754101 4293530880
3.4277077 0.35727495 0.04904322 4293400320
3.4314866 0.3577778 0.028737556 4293530880
3.4450204 0.35929829 0.0083796289 4293530880
3.4011917 0.35483518 -0.011946853 4293400320
3.4146106 0.35634357 -0.03228084 4293400320
3.4361315 0.35869858 -0.052864119 4293530880
3.4321902 0.35839617 -0.073103115 4293530880
3.4089506 0.35607767 -0.092692077 4293400320
3.4346445 0.3588706 -0.11352532 4293530880
3.4428668 0.35983905 -0.13385698 4293530880
3.4504442 0.36074063 -0.15411058 4293530880
3.4009092 0.35566977 -0.17140611 4293400320
3.4211915 0.35789955 -0.19186561 4293400320
3.4317749 0.35911572 -0.21174744 4293530880
3.4317133 0.35921827 -0.23080111 4293530880
3.4061792 0.35665366 -0.24774961 4293400320
3.4449201 0.36081952 -0.26917166 4293530880
3.4622869 0.3627485 -0.2889303 4293661440
3.4632666 0.36296114 -0.30710155 4293661440
3.4552736 0.36223319 -0.32410327 4293661440
3.4421656 0.36096832 -0.3401607 4293530880
3.4476876 0.3616569 -0.35764417 4293530880
3.4723723 0.36435658 -0.37686419 4293661440
3.4649072 0.36368331 -0.39225921 4293661440
3.4457741 0.36178452 -0.40577373 4293661440
3.4692652 0.36436114 -0.42387047 4293661440
3.4880269 0.36644238 -0.44109797 4293792000
3.4924779 0.36702091 -0.45611823 4293792000
3.4910858 0.3669855 -0.46987361 4293792000
3.4827209 0.36621681 -0.48212123 4293792000
3.4402709 0.36186236 -0.48891494 4293661440
3.4586248 0.36390275 -0.50370187 4293661440
3.4601099 0.36416894 -0.51552713 4293661440
3.4584939 0.36410871 -0.52630067 4293661440
3.4636173 0.3647581 -0.53750664 4293661440
3.4598753 0.36447394 -0.5467239 4293661440
3.4554203 0.36411437 -0.55517626 4293661440
3.4516726 0.36382911 -0.56308037 4293661440
3.4595845 0.36477298 -0.57224387 4293661440
3.4449773 0.36334226 -0.57700688 4293661440
3.445365 0.36349258 -0.58358169 4293661440
3.4386165 0.36288983 -0.58825827 4293661440
3.433852 0.36249608 -0.59257054 4293661440
3.4149675 0.36061102 -0.59372354 4293530880
3.4106925 0.36026794 -0.59669417 4293530880
3.4003778 0.3592864 -0.59789699 4293530880
3.4097714 0.3603873 -0.60186303 4293530880
3.4045906 0.35994786 -0.60255593 4293530880
3.3995295 0.35952079 -0.6025607 4293530880
3.4217331 0.36197764 -0.60669219 4293661440
3.4350376 0.36349422 -0.60853446 4293661440
3.4401176 0.36414105 -0.60820317 4293661440
3.4413161 0.36437726 -0.60647106 4293661440
3.4403009 0.36437905 -0.60363925 4293661440
3.4454608 0.365035 -0.60118067 4293661440
3.455595 0.36621848 -0.59887069 4293661440
3.4587801 0.3666659 -0.59464097 4293792000
3.4479926 0.36563185 -0.58732855 4293661440
3.4561298 0.36660457 -0.58255857 4293661440
3.4417231 0.36518571 -0.57332546 4293661440
3.4468279 0.36583686 -0.56669474 4293661440
3.4361162 0.36480913 -0.55682141 4293661440
3.4184306 0.36304006 -0.54524463 4293530880
3.4209492 0.36341625 -0.53629977 4293530880
3.4420593 0.36576816 -0.52958375 4293661440
3.4637651 0.36818478 -0.52222282 4293661440
3.4778252 0.36978978 -0.51299798 4293792000
3.4540558 0.36737218 -0.49764264 4293661440
3.4337637 0.36532304 -0.48237568 4293530880
3.4216924 0.36414742 -0.46783355 4293530880
3.4516604 0.36744642 -0.45843717 4293661440
3.4472163 0.36708283 -0.44385299 4293661440
3.4614511 0.36870861 -0.43113166 4293661440
3.4104538 0.36338484 -0.40996268 4293530880
3.4284534 0.36541164 -0.39676902 4293530880
3.4337323 0.36608335 -0.38155472 4293530880
3.4510691 0.36804137 -0.36714864 4293661440
3.4499598 0.36803266 -0.35029528 4293530880
3.3937821 0.36214763 -0.32774633 4293400320
3.4215572 0.36522019 -0.31308049 4293530880
3.4149628 0.3646248 -0.29481772 4293400320
3.4235351 0.36564887 -0.27752885 4293530880
3.4164646 0.36500227 -0.25865999 4293400320
3.419992 0.36548778 -0.24032883 4293400320
3.4253542 0.36616969 -0.22181521 4293530880
3.4379351 0.36762381 -0.20342721 4293530880
3.4309561 0.36698657 -0.18362951 4293530880
3.4217901 0.36611485 -0.16360688 4293400320
3.4360728 0.36775222 -0.14449789 4293530880
3.4389274 0.36816701 -0.12465281 4293530880
3.4221661 0.3664813 -0.10404313 4293400320
3.4434772 0.36887294 -0.084451087 4293530880
3.4572845 0.37046185 -0.064376928 4293530880
3.4394336 0.36865836 -0.043667909 4293530880
3.4470177 0.36958081 -0.023295313 4293530880
3.4664254 0.37177181 -0.0028169488 4293530880
3.4579246 0.37097001 0.017752109 4293530880
3.4145279 0.36642286 0.037814662 4293400320
3.4853282 0.37413138 0.059263222 4293661440
3.4976077 0.37556067 0.080145285 4293661440
3.4809384 0.37388143 0.10025211 4293661440
3.3770413 0.36282933 0.11703213 4293269760
3.4879277 0.37485379 0.14116588 4293661440
3.5017738 0.37645313 0.16194446 4293661440
3.4642823 0.37253278 0.18003879 4293661440
3.2205398 0.34642419 0.18562296 4292747520
3.5089834 0.37756273 0.22191432 4293792000
3.5066838 0.37742674 0.24118078 4293792000
3.4468367 0.37109491 0.2558865 4293530880
3.1393228 0.33808696 0.24994501 4292486400
3.5101376 0.37813312 0.29804453 4293792000
3.5295224 0.38033357 0.31803998 4293792000
3.4954467 0.37677273 0.33279487 4293792000
3.3061712 0.35647586 0.33128685 4293139200
3.1597292 0.34078673 0.33204356 4292616960
3.5063076 0.37827775 0.38517815 4293792000
3.5096483 0.3787497 0.40184581 4293792000
3.445987 0.3719891 0.41012129 4293661440
3.3734426 0.36426523 0.41627485 4293400320
3.2187459 0.34766337 0.41084898 4292878080
3.5179739 0.38009539 0.46347114 4293922560
3.5143368 0.37981412 0.47688222 4293922560
3.4875154 0.37702623 0.48649105 4293792000
3.4610896 0.37427941 0.49540466 4293661440
3.4530246 0.37351701 0.50625807 4293661440
3.328383 0.3601402 0.49900132 4293269760
3.507849 0.37967038 0.53691697 4293922560
3.4997032 0.37889996 0.54603958 4293792000
3.5017931 0.37923756 0.556113 4293792000
3.4949732 0.37861004 0.5641185 4293792000
3.4887488 0.37804666 0.57153583 4293792000
3.4889703 0.37818155 0.57933295 4293792000
3.4743693 0.37670934 0.58396792 4293792000
3.4705317 0.37640357 0.58969688 4293792000
3.4735076 0.37683672 0.59589523 4293792000
3.4663301 0.37616819 0.59965187 4293792000
3.4616857 0.37577423 0.60313112 4293792000
3.4698889 0.37677503 0.60814703 4293792000
3.4034121 0.36966485 0.59931654 4293530880
3.4128339 0.37079671 0.6031009 4293530880
3.46876 0.3769832 0.61442643 4293792000
3.4686258 0.37707886 0.61512554 4293792000
3.4637187 0.37665552 0.61425769 4293792000
3.4599128 0.37635162 0.6128664 4293792000
3.4615841 0.37664345 0.61172765 4293792000
3.4619362 0.37679183 0.60963881 4293792000
3.4651945 0.3772566 0.60734546 4293792000
3.4743211 0.37836069 0.60535848 4293792000
3.4931421 0.38052136 0.60432076 4293792000
3.4850426 0.37974983 0.59790897 4293792000
3.4943168 0.38087147 0.59377766 4293792000
3.4950545 0.38106301 0.58748817 4293792000
3.5100703 0.38281175 0.58288431 4293922560
3.4956756 0.38135296 0.57272196 4293792000
3.4890561 0.38074175 0.56321847 4293792000
3.4848299 0.38039136 0.55347759 4293792000
3.4718497 0.37908483 0.54175532 4293792000
3.497864 0.38203651 0.5354538 4293792000
3.5058072 0.38301551 0.52566952 4293792000
3.5100923 0.38359526 0.51469588 4293922560
3.455071 0.37829137 0.41959542 4293661440
3.4754028 0.38062796 0.40661788 4293661440
3.5033081 0.38379556 0.39385352 4293792000
3.4920168 0.38266957 0.37616858 4293792000
3.4676983 0.38011491 0.35683212 4293661440
3.472291 0.38072875 0.34016934 4293661440
3.4840384 0.38212758 0.32374913 4293661440
3.4740834 0.38114616 0.30494687 4293661440
3.4453416 0.37810242 0.28436172 4293530880
3.4477201 0.37847307 0.26617071 4293530880
3.4687791 0.38089511 0.24900338 4293661440
3.4616339 0.38022056 0.22946429 4293661440
3.4359872 0.37751284 0.20863044 4293530880
3.4602568 0.38028935 0.19060624 4293530880
3.4757011 0.38209721 0.17166391 4293661440
3.4694328 0.38151845 0.15141088 4293661440
3.4347928 0.37781844 0.12999226 4293530880
3.4565873 0.38032568 0.1106422 4293530880
3.4521894 0.37995157 0.090232641 4293530880
3.4516163 0.37999824 0.069854662 4293530880
3.4285531 0.37756816 0.049085956 4293530880
3.4419122 0.37914875 0.028842876 4293530880
3.4528084 0.38045883 0.0084038218 4293530880
3.4040365 0.375193 -0.011964321 4293400320
3.4224157 0.37732759 -0.032374863 4293400320
3.429014 0.37816408 -0.052787621 4293530880
3.4449501 0.38003111 -0.073420808 4293530880
3.40185 0.37538469 -0.092556909 4293400320
3.4275281 0.37832719 -0.11336103 4293530880
3.445678 0.38044012 -0.13405019 4293530880
3.453249 0.38138583 -0.15433247 4293530880
3.4037428 0.37602648 -0.17165641 4293400320
3.4289722 0.37892273 -0.19242251 4293530880
3.4348836 0.37968519 -0.21207215 4293530880
3.4345207 0.3797543 -0.2311348 4293530880
3.4179225 0.37802774 -0.24875973 4293400320
3.4477141 0.38143238 -0.26955903 4293530880
3.4668474 0.38365939 -0.28949246 4293661440
3.4669564 0.3837817 -0.30762178 4293661440
3.4571631 0.38280758 -0.3244842 4293661440
3.4498956 0.38211256 -0.34113881 4293530880
3.4652956 0.38392848 -0.35969663 4293661440
3.4652495 0.38403359 -0.3763276 4293661440
3.4577911 0.38331696 -0.39169979 4293661440
3.4485435 0.3824015 -0.40635535 4293661440
3.4858298 0.38664696 -0.4261623 4293792000
3.4947078 0.38774285 -0.44222105 4293792000
3.4902804 0.3873626 -0.45611823 4293792000
3.4888883 0.38731906 -0.46987361 4293792000
3.4854512 0.38704833 -0.48280317 4293792000
3.4518816 0.38343033 -0.49087417 4293661440
3.4515278 0.38350078 -0.50298518 4293661440
3.4605296 0.38461104 -0.5159148 4293661440
3.4798985 0.38687441 -0.52989191 4293792000
3.4614334 0.38493165 -0.53750664 4293661440
3.4665296 0.38560864 -0.54812109 4293792000
3.4581473 0.38478619 -0.55596519 4293661440
3.4593046 0.38502499 -0.56468177 4293661440
3.4463573 0.38369355 -0.57041609 4293661440
3.4477038 0.38395312 -0.57782841 4293661440
3.4480889 0.38410568 -0.58441222 4293661440
3.4413426 0.38346362 -0.58909684 4293661440
3.4404974 0.38347888 -0.59409285 4293661440
3.4167259 0.38093796 -0.59440506 4293661440
3.4134312 0.38067919 -0.59755123 4293530880
3.3982267 0.37909162 -0.59789699 4293530880
3.4125082 0.38079336 -0.60272747 4293530880
3.4122233 0.3808701 -0.60428929 4293530880
3.4120584 0.3809602 -0.60516453 4293530880
3.4195662 0.38190722 -0.60669219 4293661440
3.4328616 0.38350129 -0.60853446 4293661440
3.4467468 0.38516212 -0.6097616 4293661440
3.4440291 0.38496798 -0.6073342 4293661440
3.4430149 0.38496411 -0.60449868 4293661440
3.4520881 0.3860884 -0.60271931 4293661440
3.4534025 0.38634527 -0.59887069 4293661440
3.4565852 0.38681126 -0.59464097 4293792000
3.4507029 0.38626277 -0.58816361 4293661440
3.4539354 0.38673446 -0.58255857 4293661440
3.4558556 0.38705942 -0.57604557 4293661440
3.4495418 0.38646197 -0.56750149 4293661440
3.438838 0.38537222 -0.55761689 4293661440
3.4260724 0.38405061 -0.54681116 4293661440
3.4363265 0.3853094 -0.5390532 4293661440
3.4532192 0.38731337 -0.53163892 4293661440
3.4690742 0.38920203 -0.5233562 4293792000
3.4756117 0.39004603 -0.51299798 4293792000
3.447922 0.38704827 -0.49707538 4293661440
3.4405117 0.3863259 -0.48363161 4293661440
3.4333754 0.3856338 -0.46973014 4293530880
3.453105 0.38795966 -0.45892146 4293661440
3.4580333 0.38862339 -0.44552973 4293661440
3.459244 0.38886949 -0.43113166 4293661440
3.4169428 0.38422292 -0.41100484 4293530880
3.4410746 0.38704592 -0.39848384 4293530880
3.447144 0.38783824 -0.38328961 4293661440
3.4501522 0.38828647 -0.36728552 4293661440
3.4527006 0.38868311 -0.35079753 4293661440
3.4015064 0.38302821 -0.32870221 4293400320
3.4193714 0.3851487 -0.31308049 4293530880
3.4266415 0.3860766 -0.29601511 4293530880
3.4253085 0.38603541 -0.27785024 4293530880
3.4093256 0.38434255 -0.25828463 4293400320
3.4366388 0.38753101 -0.24165322 4293530880
3.4320877 0.38712698 -0.22239353 4293530880
3.4446626 0.38865498 -0.20395583 4293530880
3.4287598 0.3869698 -0.18362951 4293530880
3.4295247 0.38716522 -0.16408177 4293530880
3.4397426 0.38842818 -0.14474492 4293530880
3.4416893 0.38875753 -0.12483291 4293530880
3.4286125 0.38738951 -0.10430597 4293530880
3.4438965 0.38922599 -0.084515557 4293530880
3.4640088 0.39160928 -0.06454353 4293530880
3.4372272 0.38869095 -0.043667909 4293530880
3.449774 0.39021957 -0.02332891 4293530880
3.4691689 0.39252377 -0.0028209889 4293661440
3.465641 0.39223486 0.017803153 4293530880
3.422271 0.38743523 0.037924767 4293400320
3.4880567 0.39499381 0.059347741 4293661440
3.5003271 0.39649472 0.080259174 4293661440
3.4797094 0.39427 0.10028116 4293661440
3.2897685 0.37285331 0.11408103 4293008640
3.4946198 0.39618182 0.14152776 4293661440
3.499521 0.39684883 0.16194446 4293661440
3.4444726 0.39071587 0.17912455 4293530880
3.1320837 0.35538042 0.18064088 4292486400
3.5027573 0.3975502 0.22166331 4293792000
3.4955037 0.39683816 0.24056676 4293661440
3.4584889 0.392746 0.25691706 4293661440
3.1511667 0.35794675 0.25104979 4292616960
3.5266864 0.40071493 0.29964286 4293792000
3.5222983 0.40032846 0.31759384 4293792000
3.4897234 0.39673716 0.3324644 4293792000
3.3228235 0.3778685 0.33317038 4293139200
3.1814072 0.36188802 0.33453751 4292747520
3.5150316 0.39994997 0.38638592 4293792000
3.5093441 0.39941451 0.40207061 4293792000
3.4585617 0.3937448 0.41188389 4293661440
3.3801386 0.38492417 0.4173708 4293400320
3.2265224 0.36753333 0.41210791 4292878080
3.5255513 0.40170789 0.46476987 4293922560
3.5169876 0.40084404 0.47755072 4293922560
3.5088789 0.40003157 0.489788 4293792000
3.4677031 0.39544764 0.49667263 4293661440
3.3884783 0.38652089 0.49711648 4293400320
3.3360553 0.38064721 0.50047559 4293269760
3.5095062 0.40054983 0.53751874 4293922560
3.5019248 0.39979598 0.54674035 4293922560
3.5093381 0.400754 0.55767256 4293922560
3.497613 0.39952636 0.56491071 4293792000
3.5011964 0.40004709 0.57394707 4293922560
3.4955301 0.39951092 0.58079886 4293792000
3.481915 0.39806566 0.58561611 4293792000
3.4682798 0.3966172 0.58969688 4293792000
3.4609988 0.39589474 0.59413493 4293792000
3.4552672 0.39534909 0.59812647 4293792000
3.4682481 0.39694473 0.60466713 4293792000
3.4725287 0.39754519 0.60900527 4293792000
3.4109867 0.39060825 0.60104096 4293530880
3.4057231 0.39011386 0.60223573 4293530880
3.4103632 0.3907539 0.6044755 4293530880
3.4614778 0.39672074 0.6142574 4293792000
3.4663575 0.39739031 0.61512578 4293792000
3.452769 0.39594242 0.61199927 4293792000
3.4877074 0.40005991 0.61674559 4293792000
3.4684896 0.39796594 0.6111908 4293792000
3.4727249 0.39856243 0.60906202 4293792000
3.4818468 0.39972016 0.6070652 4293792000
3.4996777 0.40187857 0.60584623 4293922560
3.4974608 0.40173531 0.60043091 4293922560
3.498908 0.40201291 0.59494573 4293922560
3.5064933 0.40299606 0.58979559 4293922560
3.5028794 0.40269223 0.58206993 4293922560
3.5031996 0.40284055 0.5743295 4293922560
3.5054157 0.40320697 0.56622893 4293922560
3.4831038 0.40075141 0.55356485 4293792000
3.4882343 0.40145278 0.54466778 4293792000
3.5004895 0.40297461 0.53620601 4293792000
3.5123594 0.40445286 0.52699637 4293922560
3.5042694 0.40363285 0.51417816 4293792000
3.4577396 0.3989839 0.42019469 4293661440
3.4917521 0.40301973 0.40879852 4293792000
3.5134959 0.40564129 0.39525786 4293792000
3.4978306 0.40394402 0.37704197 4293792000
3.4693778 0.40076861 0.35723916 4293661440
3.47508 0.40153795 0.34066597 4293661440
3.4916446 0.40356311 0.32466888 4293792000
3.4807103 0.40241015 0.30572918 4293661440
3.4480305 0.39874175 0.28477055 4293530880
3.4553611 0.39969948 0.26693586 4293661440
3.4688301 0.40136796 0.24917069 4293661440
3.4774032 0.40247062 0.23066114 4293661440
3.443645 0.39867315 0.20923291 4293530880
3.4768279 0.40262544 0.19164503 4293661440
3.4783769 0.40291554 0.17190908 4293661440
3.480139 0.40323046 0.15197806 4293661440
3.4377141 0.3984243 0.13018847 4293530880
3.4543128 0.40045804 0.1106422 4293530880
3.4664454 0.40197495 0.090664938 4293661440
3.4632478 0.40171438 0.070136242 4293530880
3.426295 0.3975372 0.049085956 4293530880
3.4436178 0.39965671 0.028876193 4293530880
3.4455664 0.39999259 0.0083917258 4293530880
3.4017928 0.39501923 -0.011964321 4293400320
3.4300921 0.39841461 -0.032468885 4293530880
3.4317186 0.39871278 -0.052864119 4293530880
3.437712 0.39951861 -0.073314905 4293530880
3.4095347 0.39635247 -0.092827246 4293400320
3.4391646 0.39990643 -0.11382102 4293530880
3.4483657 0.40108612 -0.13424338 4293530880
3.4648607 0.403115 -0.15495376 4293661440
3.4153829 0.39746732 -0.17235732 4293400320
3.4324553 0.39956343 -0.19274534 4293530880
3.4514501 0.40188447 -0.21323593 4293530880
3.4508631 0.40192598 -0.23238826 4293530880
3.4215288 0.39861834 -0.24918699 4293530880
3.4561253 0.40275899 -0.27039555 4293661440
3.460892 0.40342468 -0.28918654 4293661440
3.4785135 0.40558952 -0.30885166 4293661440
3.4607081 0.40362364 -0.32503211 4293661440
3.4511588 0.40261981 -0.34148991 4293661440
3.4799969 0.40609494 -0.36146209 4293661440
3.4763732 0.40578276 -0.37778598 4293661440
3.4754558 0.40578637 -0.393962 4293661440
3.4551358 0.40352386 -0.40740225 4293661440
3.4827323 0.40685776 -0.42606619 4293792000
3.487462 0.40752137 -0.4415971 4293792000
3.4928892 0.40826675 -0.45676225 4293792000
3.4865725 0.40763947 -0.46987361 4293792000
3.4831369 0.40734872 -0.48280317 4293792000
3.4495893 0.40353522 -0.49087417 4293661440
3.4590647 0.4047538 -0.50441855 4293661440
3.45823 0.40476626 -0.5159148 4293661440
3.4540167 0.40438312 -0.52630067 4293661440
3.4679663 0.40612674 -0.53887933 4293792000
3.4593182 0.40522414 -0.54734486 4293661440
3.4667568 0.40620589 -0.55772036 4293792000
3.4570026 0.40517309 -0.56468177 4293661440
3.4538636 0.40491518 -0.57203925 4293661440
3.4454083 0.40403363 -0.57782841 4293661440
3.4408956 0.40361404 -0.58358169 4293661440
3.4439456 0.40408149 -0.58993548 4293661440
3.4333105 0.40294302 -0.59324712 4293661440
3.4193418 0.40141249 -0.59525687 4293661440
3.4111552 0.40056008 -0.59755123 4293530880
3.4106352 0.40060765 -0.60048068 4293530880
3.4141445 0.40112859 -0.60341901 4293661440
3.4001653 0.39959446 -0.60255593 4293530880
3.4097807 0.4008331 -0.60516453 4293530880
3.4221733 0.40239888 -0.6075604 4293661440
3.4222486 0.40251672 -0.60705853 4293661440
3.4405317 0.40477672 -0.60906899 4293661440
3.4319456 0.40387586 -0.60560793 4293661440
3.4495187 0.40605378 -0.60604566 4293661440
3.44978 0.40619442 -0.60271931 4293661440
3.4510932 0.40645894 -0.59887069 4293661440
3.4591675 0.40752012 -0.5954836 4293792000
3.4523106 0.40682226 -0.5888316 4293661440
3.4565208 0.4074285 -0.58338511 4293792000
3.4558496 0.4074595 -0.5764305 4293792000
3.4619331 0.40828702 -0.56992173 4293792000
3.4453588 0.40644202 -0.55904871 4293661440
3.4237766 0.40400511 -0.54681116 4293661440
3.4340234 0.40532359 -0.5390532 4293661440
3.4509039 0.40742597 -0.53163892 4293661440
3.4618371 0.40882704 -0.5226149 4293661440
