# .PCD v0.7 - Point Cloud Data file format
VERSION 0.7
FIELDS x y z rgba
SIZE 4 4 4 4
TYPE F F F U
COUNT 1 1 1 1
WIDTH 1102
HEIGHT 1
VIEWPOINT 0 0 0 1 0 0 0
POINTS 1102
DATA ascii
1.5048434 -1.7718593 -0.38013539 4289744640
1.4987801 -1.7646194 -0.3838349 4289744640
1.4796032 -1.7419525 -0.38365301 4289614080
1.445752 -1.7020262 -0.37906611 4289483520
1.4511452 -1.7082661 -0.38424116 4289483520
1.4057126 -1.6547235 -0.37543067 4289222400
1.408011 -1.6573247 -0.37882644 4289352960
1.4141835 -1.6644812 -0.38283896 4289352960
1.4204024 -1.6716906 -0.38643783 4289352960
1.4202899 -1.6714536 -0.38787401 4289352960
1.4138482 -1.6637741 -0.38712668 4289352960
1.4138361 -1.6636547 -0.38768363 4289352960
1.4074955 -1.6560942 -0.3860544 4289352960
1.4018425 -1.6493427 -0.38416514 4289222400
1.4534672 -1.7099233 -0.39748892 4289483520
1.4447286 -1.6995411 -0.39382997 4289483520
1.4726574 -1.7322577 -0.39967746 4289614080
1.4942238 -1.7574918 -0.40326884 4289744640
1.496951 -1.7605817 -0.40127286 4289744640
1.5218732 -1.7897532 -0.40470019 4289875200
1.5245789 -1.7928143 -0.40169436 4289875200
1.5274498 -1.7960684 -0.39825326 4289875200
1.5284221 -1.7970909 -0.39384702 4289875200
1.5254966 -1.7935334 -0.38799015 4289875200
1.5255381 -1.7934614 -0.38245124 4289875200
1.5210356 -1.7880511 -0.37535265 4289875200
1.4998614 -1.7630584 -0.36381903 4289744640
1.5037857 -1.7675476 -0.35802701 4289744640
1.5139333 -1.7793442 -0.35324267 4289875200
1.5291133 -1.7970487 -0.3491067 4289875200
1.5356978 -1.8046567 -0.34250319 4289875200
1.528212 -1.7957419 -0.33238298 4289875200
1.5037314 -1.7668742 -0.31837657 4289744640
1.5085942 -1.7724602 -0.31033543 4289744640
1.5308173 -1.798425 -0.3053495 4289875200
1.5341762 -1.8022417 -0.29610154 4289875200
1.5205873 -1.7861645 -0.28332371 4289875200
1.5012485 -1.7633402 -0.26938492 4289744640
1.5222917 -1.7879121 -0.26237741 4289875200
1.5279362 -1.7944094 -0.25223812 4289875200
1.5300835 -1.7968013 -0.24118829 4289875200
1.5077512 -1.7704692 -0.22617121 4289744640
1.5160789 -1.7801135 -0.21561216 4289744640
1.5253904 -1.7909101 -0.20482065 4289875200
1.5299538 -1.7961349 -0.1930597 4289875200
1.5061698 -1.7681065 -0.17767236 4289744640
1.5189344 -1.782951 -0.16649546 4289744640
1.5306443 -1.7965566 -0.15481974 4289875200
1.5230345 -1.7875019 -0.14099084 4289744640
1.5002303 -1.7606304 -0.12586832 4289614080
1.5086846 -1.7704165 -0.11336096 4289744640
1.5217857 -1.7856494 -0.10089461 4289744640
1.5099722 -1.7716691 -0.086659186 4289744640
1.4980134 -1.7575203 -0.072538182 4289614080
1.5164015 -1.7789483 -0.059756633 4289744640
1.523482 -1.7871186 -0.046238482 4289744640
1.5056794 -1.7661221 -0.032014523 4289614080
1.526677 -1.7906029 -0.018560275 4289744640
1.5424678 -1.8089782 -0.004691571 4289875200
1.5377355 -1.8033009 0.0093435999 4289875200
1.5592496 -1.8283789 0.023672834 4290005760
1.6594449 -1.9456418 0.040260736 4290528000
1.6279328 -1.908581 0.054248706 4290266880
1.6777411 -1.9667926 0.071034335 4290528000
1.7702712 -2.0750408 0.090818718 4291050240
1.8931888 -2.2188673 0.11397797 4291703040
1.8983469 -2.2247477 0.13107741 4291703040
1.9067475 -2.2344248 0.14837189 4291703040
1.8562944 -2.1751788 0.16056624 4291441920
1.9224676 -2.2525098 0.18277751 4291833600
1.9150848 -2.2437027 0.19830924 4291833600
1.9044802 -2.2311251 0.21313499 4291703040
1.8506619 -2.1679573 0.22236317 4291441920
1.9450495 -2.2782969 0.24943994 4291964160
1.9303824 -2.2609649 0.26292142 4291964160
1.9047587 -2.2308111 0.27430153 4291833600
1.8737499 -2.1943593 0.28416255 4291572480
1.8623459 -2.1808569 0.29635051 4291572480
1.8378364 -2.1520202 0.30585831 4291441920
1.8524811 -2.1690044 0.32145244 4291572480
1.7855603 -2.0905492 0.32219175 4291180800
1.7562867 -2.0561526 0.32869068 4291050240
1.7586794 -2.0588074 0.34055296 4291050240
1.6202374 -1.8967106 0.32394409 4290266880
1.5756812 -1.8444591 0.32457063 4290136320
1.5472697 -1.8110992 0.32771221 4290005760
1.4897065 -1.743649 0.32382867 4289614080
1.45812 -1.7065883 0.3247225 4289483520
1.4647937 -1.7142755 0.33361438 4289483520
1.4852126 -1.7380347 0.3453778 4289614080
1.5154546 -1.7732772 0.35925654 4289744640
1.5392803 -1.8010132 0.3714377 4289875200
1.5605527 -1.8257612 0.38275751 4290005760
1.5779957 -1.8460294 0.39284223 4290136320
1.6057301 -1.8783256 0.4051851 4290266880
1.6360552 -1.9136463 0.41789514 4290397440
1.6664091 -1.9489967 0.43030214 4290658560
1.7089761 -1.9986163 0.44554508 4290789120
1.7605493 -2.0587549 0.46282896 4291050240
1.7602556 -2.0582769 0.46606398 4291050240
1.8003829 -2.1050308 0.47950158 4291311360
1.7412113 -2.0357578 0.46595058 4291050240
1.7410942 -2.0354896 0.46755859 4291050240
1.8032234 -2.1079416 0.48534819 4291311360
1.7782445 -2.0786271 0.47918093 4291180800
1.7629355 -2.0606124 0.47504371 4291180800
1.7233422 -2.0142357 0.46382439 4290919680
1.689568 -1.9746619 0.45365733 4290789120
1.6372604 -1.9134489 0.43805832 4290528000
1.6099873 -1.8814797 0.42871732 4290266880
1.5827572 -1.8495654 0.4189615 4290136320
1.5587722 -1.8214446 0.40965986 4290005760
1.5341825 -1.792622 0.39981848 4289875200
1.5134746 -1.7683356 0.39062476 4289744640
1.567476 -1.8312724 0.40012664 4290136320
1.5372227 -1.7958443 0.38762742 4289875200
1.5069871 -1.7604418 0.37487754 4289744640
1.4979672 -1.749808 0.36709675 4289744640
1.5050436 -1.7579632 0.36283287 4289744640
1.5455981 -1.8051903 0.36600536 4290005760
1.5358019 -1.7936511 0.3567211 4289875200
1.6520107 -1.9291577 0.37573284 4290528000
1.7056551 -1.9916426 0.37927362 4290789120
1.9264857 -2.2484939 0.35405454 4291833600
1.9326071 -2.2555063 0.34204003 4291964160
1.9318086 -2.2544475 0.32838082 4291964160
1.9157029 -2.2355371 0.31187525 4291833600
1.9167053 -2.2365801 0.29790917 4291833600
1.9315979 -2.2538221 0.28564569 4291833600
1.9260767 -2.2472579 0.26997912 4291833600
1.9072416 -2.2251709 0.25233892 4291703040
1.9146155 -2.233645 0.237969 4291833600
1.9131742 -2.2318406 0.22219364 4291833600
1.8597702 -2.1694584 0.20060103 4291441920
1.7231723 -2.0100996 0.17141761 4290789120
1.7042629 -1.9879466 0.155035 4290658560
1.6969054 -1.9792613 0.13975364 4290658560
1.6534163 -1.9284636 0.12179054 4290397440
1.5816386 -1.8447015 0.10262255 4290005760
1.5419539 -1.7983509 0.086398244 4289875200
1.5435041 -1.8000593 0.072718166 4289875200
1.5360889 -1.7913201 0.05858903 4289744640
1.4927375 -1.7407075 0.043486636 4289614080
1.5286118 -1.7824126 0.030696087 4289744640
1.531682 -1.7858927 0.016864372 4289744640
1.5234448 -1.7761986 0.0029362433 4289744640
1.5090548 -1.7593378 -0.010802967 4289614080
1.519076 -1.7709159 -0.024670934 4289744640
1.51955 -1.7713715 -0.038453601 4289744640
1.5020938 -1.7509421 -0.051588044 4289614080
1.5375804 -1.792179 -0.066654205 4289875200
1.540004 -1.7949039 -0.080555335 4289875200
1.5391198 -1.7937762 -0.094212227 4289875200
1.5175489 -1.7685577 -0.10630338 4289744640
1.5357616 -1.7896692 -0.12103995 4289875200
1.5456972 -1.8011401 -0.13524027 4289875200
1.540778 -1.7953135 -0.14803949 4289875200
1.4977045 -1.7450647 -0.15660526 4289614080
1.5403299 -1.7945939 -0.1739573 4289875200
1.5513628 -1.8073386 -0.18800028 4289875200
1.5519725 -1.8079482 -0.20067222 4289875200
1.5369803 -1.7903963 -0.21099417 4289875200
1.4158928 -1.6493553 -0.20545571 4289222400
1.5487345 -1.8038774 -0.23660699 4289875200
1.5493461 -1.8044879 -0.24832229 4289875200
1.5474179 -1.8021426 -0.25934795 4289875200
1.5158259 -1.7652771 -0.26487729 4289744640
1.4222786 -1.6563224 -0.25841546 4289222400
1.5515051 -1.8065922 -0.29235259 4289875200
1.5669881 -1.8245038 -0.3055093 4290005760
1.560535 -1.8168917 -0.31410965 4290005760
1.555218 -1.8106016 -0.32251358 4290005760
1.5268915 -1.7775449 -0.325587 4289875200
1.542617 -1.7957343 -0.33760586 4289875200
1.5445346 -1.7978603 -0.34632096 4289875200
1.5412109 -1.7938895 -0.35346207 4289875200
1.5465238 -1.7999632 -0.36219016 4290005760
1.5422057 -1.7948353 -0.36825696 4289875200
1.5490357 -1.8026716 -0.37657359 4290005760
1.5365965 -1.7880998 -0.37975609 4289875200
1.5241538 -1.773525 -0.38240504 4289875200
1.5129985 -1.7604482 -0.38485175 4289744640
1.4993773 -1.7445056 -0.38614631 4289744640
1.4614339 -1.7002889 -0.38058215 4289483520
1.4765034 -1.7177031 -0.38830608 4289614080
1.4275432 -1.6606864 -0.37867752 4289352960
1.4304971 -1.6640174 -0.38226822 4289352960
1.4302851 -1.663668 -0.38457513 4289352960
1.4391145 -1.673826 -0.38887635 4289352960
1.4422113 -1.6773202 -0.39119217 4289483520
1.4357245 -1.6696769 -0.39045328 4289352960
1.4357116 -1.6695564 -0.39101502 4289352960
1.4299695 -1.6627787 -0.38956162 4289352960
1.4236358 -1.6553141 -0.38749471 4289352960
1.4698325 -1.7088767 -0.39924285 4289614080
1.4636043 -1.7015314 -0.39627388 4289483520
1.4981505 -1.74155 -0.40384254 4289744640
1.5198667 -1.7666605 -0.40741178 4289875200
1.5161868 -1.762271 -0.40367818 4289744640
1.5349158 -1.7839065 -0.40540683 4289875200
1.5407912 -1.7906119 -0.40321907 4289875200
1.540298 -1.7899204 -0.39888653 4289875200
1.5510998 -1.8023437 -0.3969861 4290005760
1.5423632 -1.7920793 -0.3896265 4289875200
1.5391859 -1.7882702 -0.38326338 4289875200
1.5404534 -1.7896211 -0.37757355 4289875200
1.5255857 -1.772241 -0.36755583 4289875200
1.5255051 -1.7720268 -0.36074215 4289875200
1.5397674 -1.7884597 -0.35684118 4289875200
1.5518296 -1.8023363 -0.35189816 4290005760
1.5584649 -1.8099126 -0.34523189 4290005760
1.5483481 -1.7980478 -0.33448735 4289875200
1.529526 -1.776083 -0.32164994 4289875200
1.5311942 -1.7778952 -0.31285715 4289875200
1.5438627 -1.7924689 -0.30587298 4289875200
1.5472453 -1.7962676 -0.29660869 4289875200
1.5309716 -1.7772636 -0.28333417 4289875200
1.5244716 -1.7695991 -0.27170658 4289744640
1.5450159 -1.7933025 -0.2644982 4289875200
1.5507051 -1.7997738 -0.25427109 4289875200
1.5496246 -1.798393 -0.24262258 4289875200
1.521294 -1.7654126 -0.22666575 4289744640
1.5361828 -1.7825507 -0.21700045 4289875200
1.5423086 -1.7895259 -0.20569889 4289875200
1.5407221 -1.7875586 -0.19311111 4289875200
1.5262178 -1.7706158 -0.17882748 4289744640
1.5390729 -1.78539 -0.1675702 4289875200
1.5483395 -1.7960026 -0.15555896 4289875200
1.5458155 -1.7929478 -0.14214103 4289875200
1.5202503 -1.7631898 -0.12669453 4289744640
1.5379003 -1.7835163 -0.1147848 4289744640
1.5354302 -1.780525 -0.1011202 4289744640
1.5326769 -1.7772058 -0.087377705 4289744640
1.5173734 -1.7593462 -0.072989032 4289744640
1.54242 -1.7882359 -0.060382202 4289875200
1.5397509 -1.7850142 -0.046426818 4289744640
1.5218271 -1.7641224 -0.032149736 4289744640
1.5495024 -1.79605 -0.018722242 4289875200
1.5555979 -1.8029795 -0.0047103907 4289875200
1.5541004 -1.8011142 0.0093677128 4289875200
1.5509255 -1.7973068 0.02337922 4289875200
1.7017475 -1.9718192 0.04099153 4290658560
1.7176627 -1.9901035 0.056827493 4290658560
1.7165638 -1.9886872 0.072170131 4290658560
1.6517067 -1.9134587 0.084172055 4290397440
1.8531761 -2.1465418 0.11080967 4291441920
1.9269531 -2.2317851 0.13213672 4291833600
1.8827158 -2.1804218 0.14550412 4291572480
1.8904797 -2.1892502 0.16240022 4291572480
1.9512228 -2.2593887 0.18424042 4291964160
1.9405221 -2.2468433 0.1995686 4291833600
1.8837341 -2.1809723 0.20938116 4291572480
1.8789098 -2.1752341 0.22421439 4291572480
1.9706743 -2.2812443 0.25100121 4292094720
1.9565529 -2.264745 0.26466787 4291964160
1.9333531 -2.2377465 0.27652022 4291833600
1.9177465 -2.2195356 0.28884825 4291833600
1.8906363 -2.1880221 0.29880175 4291703040
1.8659521 -2.1593194 0.30842158 4291572480
1.8683386 -2.1619267 0.32199907 4291572480
1.8191513 -2.1048963 0.32601613 4291311360
1.7682384 -2.0458789 0.3286787 4291050240
1.7829787 -2.0627785 0.34290928 4291050240
1.621531 -1.8759817 0.3220036 4290266880
1.5708395 -1.8172499 0.32138094 4290005760
1.5545564 -1.7983012 0.327021 4289875200
1.5063206 -1.7424223 0.32521492 4289744640
1.4771061 -1.7085363 0.32671449 4289483520
1.4689327 -1.6989731 0.33228874 4289483520
1.6169945 -1.8699636 0.37342611 4290266880
1.5764444 -1.8229781 0.37116075 4290005760
1.5848954 -1.8326197 0.37983775 4290136320
1.615347 -1.8676802 0.39349362 4290266880
1.6399995 -1.8960365 0.40549067 4290397440
1.6885734 -1.9520249 0.42317441 4290658560
1.7378081 -2.0087698 0.44084388 4290919680
1.7870641 -2.0655322 0.45829093 4291180800
1.7825485 -2.0601804 0.46155468 4291180800
1.8131658 -2.0954063 0.47341719 4291311360
1.8528608 -2.1411121 0.48723125 4291572480
1.8680921 -2.1585619 0.49414513 4291572480
1.8679024 -2.1582029 0.49642667 4291572480
1.8710005 -2.1616414 0.49899897 4291572480
1.9018942 -2.1971717 0.50840926 4291833600
1.8490137 -2.1359808 0.494856 4291572480
1.8432764 -2.1292219 0.4933047 4291441920
1.7937436 -2.0719092 0.47948191 4291180800
1.8167441 -2.0983281 0.4844594 4291311360
1.7705485 -2.0448773 0.47046676 4291050240
1.7024597 -1.9661663 0.45024064 4290789120
1.6563447 -1.9128247 0.43544728 4290528000
1.6289836 -1.8811324 0.42518997 4290397440
1.5952024 -1.8420362 0.41288581 4290136320
1.5775983 -1.8216113 0.40439656 4290136320
1.5684285 -1.8109207 0.39766228 4290005760
1.6121017 -1.8611977 0.40373182 4290266880
1.5972037 -1.8438989 0.3945986 4290136320
1.5790986 -1.822903 0.38433143 4290136320
1.5243223 -1.7596096 0.36498863 4289744640
1.5470269 -1.7856936 0.36386621 4289875200
1.5943961 -1.8402227 0.3678056 4290136320
1.6476704 -1.9015561 0.37221318 4290397440
1.7204735 -1.9854043 0.37997699 4290789120
1.9551703 -2.2552271 0.35688794 4291964160
1.964596 -2.2659647 0.34534088 4291964160
1.9605449 -2.261167 0.33100325 4291964160
1.9475962 -2.2461147 0.31491369 4291964160
1.9453542 -2.2434046 0.30030832 4291964160
1.9538316 -2.2530489 0.28697199 4291964160
1.9613304 -2.2615652 0.27305073 4291964160
1.9423777 -2.239599 0.25523877 4291833600
1.9367452 -2.2329843 0.2390832 4291833600
1.9385653 -2.2349579 0.22361064 4291833600
1.8006612 -2.0759463 0.19291915 4291180800
1.7027406 -1.9630176 0.16823936 4290658560
1.7092649 -1.9704257 0.15443259 4290658560
1.7158252 -1.977875 0.14034718 4290658560
1.7113843 -1.972651 0.12519112 4290658560
1.6428356 -1.8935853 0.10585476 4290266880
1.5681318 -1.8074391 0.087259836 4289875200
1.5664189 -1.8053676 0.073288023 4289875200
1.5589553 -1.7966737 0.059048191 4289875200
1.5153118 -1.746316 0.043834757 4289614080
1.548152 -1.7840374 0.030867316 4289875200
1.551899 -1.7882547 0.016960051 4289875200
1.536393 -1.7703037 0.0029305392 4289744640
1.5291182 -1.7618315 -0.010884477 4289744640
1.5392066 -1.7733501 -0.024841141 4289744640
1.545584 -1.7805953 -0.038861278 4289744640
1.5280079 -1.7602654 -0.052136708 4289744640
1.5512766 -1.7869539 -0.0668061 4289875200
1.5628921 -1.8002261 -0.081213929 4289875200
1.5587224 -1.7953286 -0.09478122 4289875200
1.5337269 -1.766463 -0.10672439 4289744640
1.5533199 -1.7889147 -0.12161089 4289875200
1.565336 -1.8026444 -0.13604802 4289875200
1.5669268 -1.804376 -0.14955011 4289875200
1.5268284 -1.7581372 -0.15858729 4289744640
1.5599217 -1.7961172 -0.17499542 4289875200
1.5684093 -1.805783 -0.1887981 4289875200
1.56902 -1.8063856 -0.2015224 4290005760
1.5565368 -1.7919246 -0.21225204 4289875200
1.4352789 -1.6523377 -0.20687737 4289222400
1.5722786 -1.809832 -0.23859873 4290005760
1.5689723 -1.8059276 -0.24978705 4290005760
1.5670263 -1.803588 -0.26087838 4290005760
1.5326078 -1.7639024 -0.26601893 4289744640
1.4410307 -1.6584879 -0.26007107 4289352960
1.5776391 -1.8154861 -0.295288 4290005760
1.5834538 -1.8220688 -0.30665421 4290005760
1.5773177 -1.8149092 -0.31536344 4290005760
1.5686021 -1.8047843 -0.32311264 4290005760
1.546976 -1.7798171 -0.32766184 4289875200
1.5621529 -1.7971617 -0.33959296 4290005760
1.5614302 -1.7962264 -0.34776598 4290005760
1.5639735 -1.7990451 -0.35628104 4290005760
1.5634767 -1.7983685 -0.36370942 4290005760
1.5682063 -1.8036985 -0.37195787 4290005760
1.5608692 -1.7951593 -0.37691075 4290005760
1.5560652 -1.7895318 -0.38199285 4290005760
1.5435346 -1.7750255 -0.3846747 4289875200
1.5264715 -1.7553122 -0.38567978 4289744640
1.5218208 -1.7498627 -0.38930181 4289744640
1.4836171 -1.7058631 -0.38377163 4289614080
1.4897252 -1.7127767 -0.38916087 4289614080
1.4559603 -1.6738828 -0.38362822 4289483520
1.4492273 -1.6660455 -0.38468045 4289352960
1.4580666 -1.6760958 -0.38941884 4289483520
1.4578993 -1.6757996 -0.39131486 4289483520
1.464249 -1.6829876 -0.39451036 4289483520
1.4609503 -1.6790936 -0.39465284 4289483520
1.4518842 -1.6685765 -0.392773 4289483520
1.4486893 -1.6648022 -0.39201966 4289352960
1.445546 -1.661087 -0.39082438 4289352960
1.4952888 -1.7180927 -0.40343836 4289614080
1.48902 -1.710785 -0.40045646 4289614080
1.5205668 -1.7468901 -0.4071421 4289744640
1.5308845 -1.7586206 -0.40762085 4289875200
1.5393761 -1.768253 -0.40710995 4289875200
1.5511132 -1.7816085 -0.40694505 4289875200
1.5667428 -1.7994292 -0.40726751 4290005760
1.5694896 -1.8024625 -0.40372697 4290005760
1.5705081 -1.8035115 -0.3992658 4290005760
1.5683399 -1.8009032 -0.39353913 4290005760
1.5619044 -1.7933984 -0.38632011 4290005760
1.5573459 -1.7880477 -0.37916291 4290005760
1.5456256 -1.7744808 -0.36989525 4289875200
1.548146 -1.7772517 -0.36364955 4289875200
1.5566623 -1.7868996 -0.3583467 4289875200
1.5714087 -1.8036916 -0.35395783 4290005760
1.5787432 -1.8119799 -0.34738839 4290005760
1.5646582 -1.7957016 -0.33575416 4290005760
1.543107 -1.7708634 -0.3223401 4289875200
1.5513026 -1.7801383 -0.31485021 4289875200
1.5699279 -1.8013704 -0.30896127 4290005760
1.5674713 -1.7984281 -0.29848155 4290005760
1.5569659 -1.7862583 -0.28622296 4289875200
1.5439006 -1.7711554 -0.27333489 4289875200
1.5587078 -1.7880039 -0.26506403 4289875200
1.5677048 -1.79819 -0.25534609 4289875200
1.5666198 -1.7968191 -0.24365009 4289875200
1.5472622 -1.7745072 -0.22900018 4289875200
1.5557115 -1.7840636 -0.21829693 4289875200
1.5651575 -1.7947605 -0.20735817 4289875200
1.5635656 -1.7928083 -0.19467191 4289875200
1.542412 -1.7684441 -0.1795247 4289744640
1.5586351 -1.786903 -0.16857402 4289875200
1.5712483 -1.8012238 -0.15681414 4289875200
1.5562384 -1.7839011 -0.14215146 4289875200
1.5429777 -1.7685841 -0.12773839 4289744640
1.5448397 -1.7705892 -0.11454076 4289744640
1.5484093 -1.7745495 -0.1013027 4289744640
1.5561544 -1.7832905 -0.088133559 4289875200
1.5407501 -1.765523 -0.073628746 4289744640
1.5561033 -1.7829744 -0.060520787 4289875200
1.5599933 -1.7872988 -0.046733752 4289875200
1.5419493 -1.7665128 -0.03236822 4289744640
1.5698111 -1.7982789 -0.018852362 4289875200
1.5726581 -1.8014075 -0.0047415458 4289875200
1.5672686 -1.7951086 0.0093730092 4289875200
1.6254324 -1.8615456 0.024318235 4290136320
1.7149596 -1.9638652 0.041021682 4290658560
1.730776 -1.9818219 0.05686646 4290658560
1.7116328 -1.9597746 0.07147254 4290658560
1.7011764 -1.9476694 0.086095311 4290528000
1.932072 -2.2116878 0.11473118 4291703040
1.9616225 -2.2453332 0.13359803 4291964160
1.9642105 -2.248132 0.1507625 4291964160
1.9189768 -2.1962311 0.16373043 4291703040
1.9774951 -2.2630026 0.18545724 4291964160
1.9726281 -2.2572742 0.20149757 4291964160
1.9592409 -2.2418032 0.21629269 4291964160
1.9040233 -2.1785023 0.22567724 4291572480
2.0029597 -2.2914712 0.25339109 4292094720
1.9821768 -2.2675464 0.26632628 4292094720
1.9588149 -2.2406769 0.27827394 4291964160
1.9430971 -2.2225499 0.2906951 4291833600
1.9190729 -2.1949313 0.30125293 4291703040
1.8876681 -2.1588807 0.30991152 4291572480
1.8933372 -2.1652081 0.32411173 4291572480
1.8411965 -2.1054676 0.32774773 4291311360
1.7866673 -2.0430064 0.32987201 4291050240
1.7858204 -2.0418961 0.34115225 4291050240
1.6108824 -1.8418698 0.31774813 4290136320
1.6216792 -1.8540777 0.32954225 4290266880
1.5650091 -1.7892073 0.32701054 4289875200
1.5288407 -1.7477665 0.32785794 4289744640
1.5313679 -1.7505333 0.33642799 4289744640
1.5628699 -1.7863955 0.35113588 4289875200
1.7027711 -1.9460591 0.39057273 4290658560
1.6528023 -1.8888602 0.38650617 4290397440
1.667793 -1.9058515 0.39699978 4290528000
1.676301 -1.9154385 0.40558705 4290528000
1.703703 -1.9465983 0.41839978 4290658560
1.7441331 -1.9926293 0.43415406 4290919680
1.8060353 -2.0631685 0.45506293 4291180800
1.8679537 -2.1337178 0.47580314 4291572480
1.8601427 -2.124661 0.47839797 4291441920
1.8909516 -2.1596882 0.49039862 4291703040
1.9088194 -2.1799412 0.49857062 4291703040
1.9150549 -2.1869161 0.50316447 4291833600
1.9213526 -2.1939621 0.5071997 4291833600
1.9212217 -2.1936715 0.50895023 4291833600
1.9179107 -2.1897531 0.50925744 4291833600
1.9114202 -2.1822078 0.50811708 4291703040
1.89266 -2.1606653 0.5031181 4291703040
1.86812 -2.1325324 0.49599966 4291572480
1.8977745 -2.1662281 0.50265706 4291703040
1.8356905 -2.0952728 0.48449329 4291311360
1.7736493 -2.0243757 0.46590722 4291050240
1.7330843 -1.977983 0.45254865 4290789120
1.699056 -1.9390519 0.44049016 4290658560
1.6780647 -1.9149941 0.43139932 4290528000
1.672068 -1.908039 0.42571273 4290528000
1.719257 -1.9617327 0.43293393 4290789120
1.7042564 -1.9445103 0.42392522 4290658560
1.7175261 -1.9595231 0.4214457 4290789120
1.6365813 -1.8671216 0.39563927 4290266880
1.6060169 -1.8321666 0.38194969 4290136320
1.6132624 -1.8403177 0.37688538 4290136320
1.5927026 -1.8167733 0.36496019 4290136320
1.6463271 -1.8777893 0.3694247 4290397440
1.7196114 -1.9612056 0.37724859 4290789120
1.9839984 -2.2617021 0.35972124 4292094720
1.9902183 -2.2686598 0.34749892 4292094720
1.9894245 -2.2676275 0.33362556 4292094720
1.9763967 -2.2526593 0.31742591 4291964160
1.9774293 -2.2537091 0.3032099 4291964160
1.9859724 -2.2633135 0.28973332 4292094720
1.990245 -2.2680535 0.27521494 4292094720
1.9645985 -2.238719 0.25642514 4291964160
1.9780045 -2.2538617 0.24253222 4291964160
1.9739269 -2.2490935 0.22615646 4291964160
1.9356126 -2.2053409 0.20595942 4291703040
1.8066558 -2.0583851 0.17728736 4291050240
1.7174245 -1.9566759 0.15412623 4290658560
1.7291272 -1.969892 0.14048201 4290658560
1.7218591 -1.9615097 0.12510781 4290658560
1.6481078 -1.8774452 0.10547779 4290266880
1.5865444 -1.8072637 0.08768487 4290005760
1.5835104 -1.8037114 0.073582955 4290005760
1.5852351 -1.8055762 0.059630845 4290005760
1.5353621 -1.7487155 0.044107404 4289744640
1.5684228 -1.7862457 0.03105149 4289875200
1.5680901 -1.7857697 0.017011739 4289875200
1.559886 -1.7763368 0.0029434315 4289875200
1.5552027 -1.770911 -0.01100881 4289744640
1.5620574 -1.7786139 -0.025054034 4289875200
1.5684762 -1.7858201 -0.039186265 4289875200
1.5474808 -1.7618364 -0.052461084 4289744640
1.5709035 -1.7883869 -0.067212589 4289875200
1.5766562 -1.7948334 -0.081394963 4289875200
1.5790548 -1.7974638 -0.095390141 4289875200
1.5598257 -1.7754933 -0.10782995 4289875200
1.5795453 -1.7978249 -0.12285303 4289875200
1.5850444 -1.8039806 -0.13685577 4290005760
1.5774161 -1.795206 -0.14956057 4289875200
1.5462724 -1.7596906 -0.15954947 4289744640
1.5769489 -1.794477 -0.17573993 4289875200
1.5921553 -1.8116686 -0.19039303 4290005760
1.5887341 -1.8076785 -0.20270844 4290005760
1.5794522 -1.7970248 -0.21395545 4290005760
1.4573777 -1.6581398 -0.20867562 4289352960
1.5854287 -1.8036187 -0.23900551 4290005760
1.595237 -1.8146673 -0.25229061 4290005760
1.5932699 -1.8123294 -0.26349452 4290005760
1.5520502 -1.7653757 -0.26761308 4289875200
1.460512 -1.6612365 -0.26184431 4289352960
1.6006508 -1.8204103 -0.29761416 4290136320
1.6038762 -1.8239722 -0.30855533 4290136320
1.606864 -1.827263 -0.31914553 4290136320
1.5915333 -1.8097378 -0.32566762 4290005760
1.5632124 -1.7774541 -0.32891089 4289875200
1.5726006 -1.788018 -0.33960339 4290005760
1.5849479 -1.801942 -0.35066819 4290005760
1.5901157 -1.8077077 -0.35983917 4290005760
1.5928741 -1.8107352 -0.36809549 4290136320
1.5878329 -1.8049024 -0.37412119 4290005760
1.5869691 -1.8038145 -0.38067693 4290005760
1.5788646 -1.7945024 -0.38502476 4290005760
1.5668974 -1.780804 -0.38791269 4290005760
1.5425438 -1.7530404 -0.387162 4289875200
1.5443773 -1.7550169 -0.3924574 4289875200
1.5091724 -1.7149354 -0.38779795 4289614080
1.4594913 -1.6584213 -0.37874624 4289352960
1.4624352 -1.6616625 -0.38278598 4289483520
1.4745413 -1.6753043 -0.38880885 4289483520
1.477577 -1.678647 -0.39201829 4289483520
1.477407 -1.6783499 -0.39392692 4289483520
1.4831465 -1.6847602 -0.39695799 4289483520
1.4830794 -1.6845783 -0.39797962 4289483520
1.4772066 -1.677807 -0.39697865 4289483520
1.4707357 -1.6703571 -0.39535213 4289483520
1.4675716 -1.6666603 -0.39415413 4289483520
1.5111365 -1.715988 -0.40501791 4289614080
1.5080816 -1.7124115 -0.40290046 4289614080
1.5430959 -1.7520276 -0.41044173 4289875200
1.5443652 -1.7533541 -0.40849206 4289875200
1.5711559 -1.7836322 -0.4127658 4290005760
1.5803696 -1.7939671 -0.4118785 4290005760
1.5785645 -1.7918017 -0.40762913 4290005760
1.5890976 -1.80363 -0.40606919 4290005760
1.5875162 -1.8017169 -0.40092292 4290005760
1.5879457 -1.802084 -0.39582589 4290005760
1.5886006 -1.8027061 -0.39032644 4290005760
1.5804778 -1.7933745 -0.38225251 4290005760
1.5683568 -1.7795104 -0.37285584 4290005760
1.5682843 -1.7793077 -0.3659471 4289875200
1.5794778 -1.7918766 -0.36119783 4290005760
1.5917106 -1.8056214 -0.35616392 4290005760
1.5951699 -1.8094189 -0.34868649 4290005760
1.5816485 -1.7939688 -0.33716056 4290005760
1.569133 -1.7796606 -0.32561365 4289875200
1.5741121 -1.78518 -0.31737202 4290005760
1.590243 -1.8033358 -0.31089544 4290005760
1.5936838 -1.8071092 -0.30147195 4290005760
1.5672061 -1.7769824 -0.28620702 4289875200
1.5633993 -1.772545 -0.27496323 4289875200
1.5848862 -1.7967628 -0.26774028 4290005760
1.5873706 -1.7994506 -0.25684687 4290005760
1.5928664 -1.8055489 -0.24610151 4290005760
1.5641652 -1.7729127 -0.2299789 4289875200
1.5711834 -1.7807356 -0.21901827 4289875200
1.585482 -1.7968019 -0.20867036 4290005760
1.5805848 -1.7911284 -0.19549835 4289875200
1.5592926 -1.7668908 -0.18029822 4289875200
1.5756258 -1.7852578 -0.16929401 4289875200
1.585022 -1.795768 -0.15715216 4290005760
1.5857728 -1.7964894 -0.14390165 4290005760
1.5658193 -1.773773 -0.12878229 4289875200
1.567697 -1.775771 -0.11547726 4289875200
1.5746008 -1.7834573 -0.10234593 4289875200
1.5757842 -1.7846681 -0.088665813 4289875200
1.5550421 -1.7610662 -0.073830597 4289744640
1.5826871 -1.7922223 -0.061159346 4289875200
1.586273 -1.7961503 -0.047218684 4289875200
1.57407 -1.7822139 -0.032836687 4289875200
1.5820785 -1.7911457 -0.018884638 4289875200
1.602336 -1.8139331 -0.004812039 4290005760
1.5902976 -1.8001844 0.0094356574 4290005760
1.6512467 -1.8689944 0.024528122 4290266880
1.7166966 -1.9428852 0.040781748 4290528000
1.7275473 -1.9550164 0.056375865 4290658560
1.7088071 -1.9336829 0.070873745 4290528000
1.790385 -2.0257902 0.089986525 4290919680
1.9952383 -2.257272 0.11767828 4291964160
1.9879104 -2.2488246 0.13447845 4291964160
1.9931583 -2.254596 0.15195769 4291964160
1.9416652 -2.1962235 0.16455698 4291703040
2.009166 -2.2723672 0.18716598 4292094720
2.0016155 -2.2636702 0.20309161 4292094720
1.9973856 -2.258728 0.21902907 4292094720
1.9325417 -2.1852846 0.22752832 4291703040
2.0288265 -2.2939358 0.25495222 4292225280
2.0313153 -2.2965851 0.27110511 4292225280
1.9876754 -2.2471139 0.28049251 4291964160
1.9751434 -2.2327962 0.29352066 4291964160
1.9476537 -2.2015827 0.30370399 4291833600
1.9101012 -2.1590064 0.3115088 4291572480
1.9092155 -2.1578543 0.32465848 4291572480
1.853434 -2.0946984 0.32773554 4291311360
1.8011742 -2.0355289 0.33034226 4291050240
1.7911108 -2.0240223 0.33989403 4291050240
1.664781 -1.8812228 0.32618737 4290397440
1.6324557 -1.8445917 0.32953152 4290266880
1.5819771 -1.787469 0.32836139 4290005760
1.5803616 -1.7855222 0.33664483 4290005760
1.6899077 -1.9090718 0.36874449 4290528000
1.7024785 -1.9231323 0.37992182 4290658560
1.8589901 -2.0996709 0.42353275 4291441920
1.7797921 -2.0101366 0.41340557 4291050240
1.7574918 -1.984832 0.41555327 4290919680
1.7594779 -1.98694 0.42286736 4290919680
1.8464181 -2.0849185 0.45040038 4291311360
1.8499652 -2.0887821 0.45741701 4291311360
1.9148675 -2.1618755 0.47925895 4291703040
1.9043218 -2.1498344 0.48184767 4291703040
1.9352763 -2.1846159 0.49440613 4291833600
1.9473137 -2.1980524 0.5016588 4291833600
1.9718295 -2.2255642 0.51160383 4291964160
1.9748304 -2.2288048 0.51542115 4291964160
1.9778961 -2.2321188 0.51865715 4292094720
1.9810284 -2.2355082 0.52130622 4292094720
1.9835749 -2.2382371 0.52319139 4292094720
1.9652767 -2.2174602 0.51896429 4291964160
1.9653463 -2.2173984 0.51896441 4291964160
1.9341109 -2.1820397 0.51010615 4291833600
1.9153571 -2.1607587 0.50395656 4291703040
1.9289366 -2.1759334 0.50570947 4291833600
1.8795754 -2.120152 0.49043435 4291572480
1.8197935 -2.0526314 0.47202125 4291180800
1.7796693 -2.0072775 0.45831344 4291050240
1.7579026 -1.9826212 0.44891068 4290919680
1.7839594 -2.011868 0.45116085 4291050240
1.8622679 -2.0999985 0.46579984 4291441920
1.8662094 -2.1043139 0.46108875 4291441920
1.8547244 -2.0912457 0.45205924 4291441920
1.7228186 -1.9424919 0.41370597 4290658560
1.6481446 -1.8582401 0.38936496 4290266880
1.6272395 -1.8345774 0.37763491 4290266880
1.596698 -1.8000621 0.36345774 4290005760
1.6447635 -1.854103 0.36663651 4290266880
1.7244397 -1.9437461 0.37580737 4290658560
2.009671 -2.2642047 0.36196151 4292094720
2.0132995 -2.2681618 0.34919983 4292094720
2.0203238 -2.2759423 0.33656028 4292094720
2.0053391 -2.258944 0.31993806 4292094720
2.006386 -2.2599957 0.30560887 4292094720
2.0116878 -2.2658374 0.29153791 4292094720
2.0067344 -2.2601354 0.27565542 4292094720
2.0034177 -2.2562766 0.25975308 4292094720
2.0043452 -2.257195 0.24412934 4292094720
1.9995835 -2.2517109 0.22757331 4291964160
1.9928253 -2.2439809 0.21063082 4291964160
1.9213144 -2.163383 0.18726599 4291572480
1.7430384 -1.9626538 0.15538163 4290658560
1.7244033 -1.9415774 0.13916838 4290658560
1.7253623 -1.9425499 0.12452786 4290658560
1.6866574 -1.8988971 0.10721885 4290397440
1.6046726 -1.8065574 0.088091545 4290005760
1.6032917 -1.8049054 0.074000046 4290005760
1.5957304 -1.7963011 0.059620414 4290005760
1.5581486 -1.7539294 0.044455409 4289744640
1.5947509 -1.7950035 0.031352311 4290005760
1.5910947 -1.7907935 0.017135639 4289875200
1.5828366 -1.7814084 0.0029550968 4289875200
1.5747997 -1.7722731 -0.011085663 4289875200
1.5816989 -1.779935 -0.025213651 4289875200
1.5855014 -1.7841139 -0.039362229 4289875200
1.5703456 -1.7669752 -0.052897703 4289875200
1.5915971 -1.790773 -0.067661591 4289875200
1.6030304 -1.8035299 -0.082224227 4290005760
1.6054415 -1.8061417 -0.096358232 4290005760
1.5649375 -1.7605095 -0.10748211 4289744640
1.5933149 -1.7923125 -0.12312005 4290005760
1.5988489 -1.7984347 -0.13715096 4290005760
1.599121 -1.7986416 -0.1506329 4290005760
1.5631335 -1.7580953 -0.16023967 4289744640
1.6066058 -1.8068553 -0.17787929 4290005760
1.6060002 -1.8060749 -0.19079719 4290005760
1.6184529 -1.8199685 -0.20515411 4290136320
1.5998309 -1.7989422 -0.21530248 4290005760
1.476283 -1.6600217 -0.21000323 4289352960
1.6091448 -1.8092062 -0.24099734 4290005760
1.6157049 -1.8164753 -0.25385931 4290136320
1.6104149 -1.8104302 -0.26459074 4290005760
1.5814712 -1.7778139 -0.27090436 4289875200
1.4827154 -1.6667808 -0.26408789 4289483520
1.6185749 -1.8192888 -0.29898047 4290136320
1.6237147 -1.8249581 -0.31033045 4290136320
1.620783 -1.8215611 -0.31980637 4290136320
1.608644 -1.807824 -0.32701734 4290136320
1.5926476 -1.7897563 -0.33291274 4290005760
1.6024184 -1.8006246 -0.34377927 4290005760
1.6046363 -1.8030105 -0.35270292 4290136320
1.6104913 -1.8094791 -0.36206698 4290136320
1.6126055 -1.8117468 -0.37021834 4290136320
1.6081839 -1.8066764 -0.37643826 4290136320
1.603368 -1.8011634 -0.38209578 4290136320
1.5958638 -1.7926328 -0.38662541 4290005760
1.5864407 -1.7819489 -0.39018244 4290005760
1.5684854 -1.7616894 -0.39109766 4289875200
1.5637649 -1.7562857 -0.39478526 4289875200
1.525701 -1.7134622 -0.3894814 4289744640
1.5345069 -1.7232398 -0.39560139 4289744640
1.4878294 -1.6707572 -0.3868849 4289483520
1.5000119 -1.6843239 -0.39293733 4289614080
1.4997879 -1.6839687 -0.39530838 4289614080
1.5061677 -1.6910218 -0.39896789 4289614080
1.5060458 -1.6907798 -0.40045044 4289614080
1.5059769 -1.6905967 -0.40148103 4289614080
1.4994094 -1.6831237 -0.40031022 4289614080
1.4928955 -1.6757112 -0.39868468 4289483520
1.4870896 -1.6690931 -0.39678493 4289483520
1.5335636 -1.7211063 -0.40834153 4289744640
1.5337665 -1.7212235 -0.40708321 4289744640
1.5598364 -1.7503458 -0.41218317 4289875200
1.5702939 -1.7619581 -0.41263512 4289875200
1.5972643 -1.7920825 -0.4168821 4290005760
1.6032623 -1.7986901 -0.41511443 4290136320
1.6014484 -1.7965386 -0.4108364 4290136320
1.5995828 -1.7943288 -0.40607959 4290005760
1.6039 -1.7990491 -0.40241539 4290136320
1.6049907 -1.8001521 -0.39746231 4290136320
1.5990803 -1.7934079 -0.39033684 4290005760
1.6001074 -1.7944387 -0.38447347 4290005760
1.5944874 -1.7880203 -0.3765929 4290005760
1.5878407 -1.7804515 -0.36809218 4290005760
1.5991119 -1.7929595 -0.36330143 4290005760
1.6154633 -1.811157 -0.35912004 4290136320
1.6248014 -1.8214947 -0.35284603 4290136320
1.6079034 -1.8024403 -0.34052137 4290136320
1.5887157 -1.7808235 -0.32752752 4290005760
1.5910912 -1.7833612 -0.31870422 4290005760
1.5974234 -1.7903297 -0.31026459 4290005760
1.6167459 -1.8118447 -0.30384159 4290136320
1.5967127 -1.7892847 -0.28969562 4290005760
1.5836279 -1.774508 -0.27670714 4289875200
1.604454 -1.797702 -0.26928148 4290005760
1.6137278 -1.8079586 -0.25941229 4290005760
1.6126404 -1.8066139 -0.24753591 4290005760
1.5824199 -1.7726564 -0.23115009 4289875200
1.5948032 -1.7863925 -0.22086598 4290005760
1.6019006 -1.7942096 -0.20946184 4290005760
1.6036139 -1.7959998 -0.19705924 4290005760
1.5821865 -1.7718922 -0.18175872 4289875200
1.6037759 -1.7959253 -0.17120193 4290005760
1.6080943 -1.8006293 -0.15840742 4290005760
1.6028676 -1.7946523 -0.144512 4290005760
1.5794572 -1.7683325 -0.12906456 4289875200
1.593995 -1.7844694 -0.11665758 4289875200
1.6009483 -1.7921195 -0.10338926 4290005760
1.5928185 -1.7828972 -0.089048944 4289875200
1.5779365 -1.766124 -0.074438915 4289875200
1.5964366 -1.7866874 -0.061297901 4289875200
1.6027116 -1.7935762 -0.047407042 4290005760
1.5877624 -1.7767303 -0.032916408 4289875200
1.6024891 -1.7930691 -0.019014761 4290005760
1.615881 -1.8079131 -0.0048318324 4290005760
1.601757 -1.7919924 0.0094310157 4290005760
1.6009499 -1.7909611 0.023623513 4290005760
1.7176261 -1.9212568 0.04052747 4290528000
1.8066306 -2.0206037 0.058549792 4290919680
1.8453052 -2.063684 0.076003596 4291180800
1.9107372 -2.1366618 0.095378838 4291572480
2.0183532 -2.2567706 0.1182494 4292094720
2.0169699 -2.2550631 0.13553749 4292094720
1.9651693 -2.1970217 0.14883904 4291833600
1.9670818 -2.1990013 0.16560733 4291833600
2.0356872 -2.2754893 0.18838269 4292094720
2.0274162 -2.2660875 0.20435078 4292094720
2.0198271 -2.2574487 0.22002891 4292094720
1.9578781 -2.1880939 0.22899106 4291703040
2.0547893 -2.2961762 0.25651333 4292225280
2.053966 -2.295094 0.27232346 4292225280
2.010699 -2.2466147 0.28187421 4292094720
1.9974155 -2.2316234 0.29487804 4291964160
1.9664221 -2.1968601 0.3046152 4291833600
1.9385694 -2.1656089 0.31407186 4291703040
1.9310393 -2.1570506 0.3262119 4291703040
1.8656086 -2.083858 0.3277235 4291311360
1.8103553 -2.0220366 0.3298485 4291050240
1.7644738 -1.9706848 0.33265346 4290789120
1.6538767 -1.8471117 0.32193226 4290266880
1.6306092 -1.8210174 0.32700449 4290136320
1.6049283 -1.7922337 0.33093733 4290005760
1.6251036 -1.8146238 0.34389535 4290136320
1.7035928 -1.9020768 0.36929399 4290528000
1.6744963 -1.8694841 0.37124163 4290397440
1.8839329 -2.1030116 0.42640039 4291441920
1.8264406 -2.0387335 0.42145166 4291180800
1.8006827 -2.0098639 0.42296746 4291050240
1.8343128 -2.0472405 0.4379462 4291180800
1.8752105 -2.0927184 0.45442414 4291441920
1.9596088 -2.1867054 0.48132536 4291833600
1.9390485 -2.1636319 0.48213139 4291703040
1.9701507 -2.1981719 0.49522573 4291964160
1.9980036 -2.2290845 0.50707608 4292094720
2.0107672 -2.24317 0.51460099 4292094720
2.0196409 -2.2529175 0.52057034 4292225280
2.022656 -2.2561328 0.52443975 4292225280
2.0316584 -2.2660229 0.52925813 4292225280
2.028229 -2.2620549 0.53022599 4292225280
2.0314481 -2.2654986 0.53230393 4292225280
2.0222387 -2.2550905 0.53050053 4292225280
2.0124416 -2.2440298 0.52791512 4292094720
2.0125823 -2.2440453 0.52731127 4292094720
1.99108 -2.2199442 0.52043527 4292094720
1.9531894 -2.1775861 0.50871634 4291833600
1.937731 -2.1602275 0.5022887 4291703040
1.9205948 -2.1410024 0.49488142 4291703040
1.8578404 -2.0709596 0.47529468 4291311360
1.8168478 -2.0251679 0.46091434 4291180800
1.8015817 -2.00804 0.45263714 4291050240
1.8562186 -2.0687754 0.46125749 4291311360
1.8918248 -2.1083083 0.46435809 4291572480
1.9108186 -2.1293356 0.46267337 4291572480
1.8007498 -2.0066309 0.42957115 4291050240
1.6406618 -1.8282409 0.38506946 4290266880
1.6471478 -1.8353548 0.37975284 4290266880
1.6479243 -1.8361115 0.37265193 4290266880
1.6870692 -1.8795872 0.37359783 4290397440
1.7132505 -1.9086257 0.3709347 4290528000
2.038758 -2.2701774 0.36479467 4292225280
2.0575023 -2.2909081 0.35452482 4292225280
2.0528181 -2.2855663 0.33973145 4292225280
2.051352 -2.2838063 0.32512987 4292225280
2.0321574 -2.2623212 0.30750528 4292094720
2.0441537 -2.2755415 0.29429904 4292225280
2.0418396 -2.2728403 0.27863601 4292225280
2.0258563 -2.2549326 0.26093933 4292094720
2.0234613 -2.2521434 0.24484089 4292094720
2.0405674 -2.2710466 0.23070925 4292094720
2.0192063 -2.2471614 0.21201608 4292094720
1.981927 -2.2055748 0.19189627 4291833600
1.9143817 -2.130332 0.16950303 4291572480
1.8609599 -2.0708044 0.14917719 4291180800
1.8076519 -2.0114102 0.12959445 4290919680
1.7390623 -1.93503 0.10981296 4290658560
1.6245288 -1.8075721 0.088589691 4290005760
1.6234757 -1.8063024 0.074432433 4290005760
1.6175281 -1.7995914 0.060029726 4290005760
1.5810477 -1.7589366 0.044803347 4289875200
1.6081947 -1.7890195 0.031400334 4290005760
1.6115355 -1.7926357 0.017231241 4290005760
1.5998896 -1.7795929 0.0029563718 4289875200
1.5944649 -1.7734663 -0.011162534 4289875200
1.6054214 -1.7855473 -0.025437318 4290005760
1.6010479 -1.7805892 -0.039500717 4289875200
1.5933224 -1.7719069 -0.053334385 4289875200
1.6080242 -1.7881476 -0.067926608 4290005760
1.6208158 -1.8022637 -0.082607307 4290005760
1.6112527 -1.7915394 -0.096088737 4290005760
1.5945512 -1.7728848 -0.10881598 4289875200
1.6164275 -1.7970926 -0.12410565 4290005760
1.6253333 -1.8068879 -0.13852829 4290005760
1.6189244 -1.7996689 -0.15151851 4290005760
1.5860358 -1.7630364 -0.16154192 4289875200
1.6264507 -1.8078305 -0.17891753 4290005760
1.6325072 -1.8144577 -0.19269741 4290136320
1.6348592 -1.8169693 -0.20589846 4290136320
1.6106167 -1.789945 -0.21535677 4290005760
1.4992566 -1.6661781 -0.21189575 4289483520
1.6323136 -1.8138388 -0.24289016 4290136320
1.6355822 -1.8173668 -0.25532416 4290136320
1.6322399 -1.8135537 -0.26644558 4290136320
1.5984552 -1.7759414 -0.27204603 4290005760
1.5083555 -1.6758118 -0.26691943 4289483520
1.6384506 -1.820141 -0.3006973 4290136320
1.6415751 -1.8235056 -0.3117176 4290136320
1.6406628 -1.8223889 -0.32163772 4290136320
1.6317561 -1.8123983 -0.32957238 4290136320
1.6005019 -1.7776053 -0.33239368 4290005760
1.6254767 -1.8052201 -0.34647244 4290136320
1.6310146 -1.8112611 -0.35618362 4290136320
1.6239903 -1.8033607 -0.36274281 4290136320
1.6297553 -1.8096522 -0.37173766 4290136320
1.6342795 -1.8145657 -0.38007358 4290136320
1.6330148 -1.8130553 -0.38664457 4290136320
1.6221488 -1.8008926 -0.39045259 4290136320
1.609354 -1.7865913 -0.39325914 4290005760
1.5945797 -1.7700951 -0.39503342 4290005760
1.5805782 -1.7544577 -0.39645094 4289875200
1.5482051 -1.7184445 -0.39267108 4289744640
1.5038041 -1.6690949 -0.3851862 4289483520
1.5067803 -1.6722937 -0.38928002 4289614080
1.5164009 -1.6828601 -0.39466321 4289614080
1.5221106 -1.6890879 -0.39859852 4289614080
1.5252321 -1.6924446 -0.40140656 4289614080
1.5218105 -1.6885456 -0.40202743 4289614080
1.5283351 -1.6956738 -0.40480796 4289614080
1.5217241 -1.6882383 -0.40364185 4289614080
1.5125294 -1.6779388 -0.40131772 4289614080
1.5093238 -1.6742791 -0.40011477 4289614080
1.5061715 -1.6706784 -0.39846283 4289614080
1.5536677 -1.7232133 -0.4097012 4289744640
1.5825477 -1.7551092 -0.41548288 4289875200
1.5930752 -1.7666624 -0.41591725 4290005760
1.607682 -1.7827339 -0.41689241 4290005760
1.6170198 -1.7929643 -0.4159736 4290136320
1.627743 -1.8047279 -0.41488504 4290136320
1.629173 -1.8061935 -0.41092026 4290136320
1.6275762 -1.8043053 -0.40571928 4290136320
1.6316547 -1.8087034 -0.40145668 4290136320
1.6253802 -1.8016326 -0.39419544 4290136320
1.6231116 -1.7989994 -0.38748398 4290136320
1.6100051 -1.7843626 -0.37780496 4290005760
1.6107752 -1.7850952 -0.37099975 4290005760
1.6186666 -1.7937132 -0.36537224 4290136320
1.6319588 -1.8083098 -0.36044788 4290136320
1.6328188 -1.8091387 -0.35230193 4290136320
1.628006 -1.8036864 -0.34255621 4290136320
1.5987834 -1.7712106 -0.32747951 4290005760
1.6200626 -1.7946448 -0.32241586 4290136320
1.6271105 -1.8023224 -0.31399432 4290136320
1.6280259 -1.8032106 -0.30399156 4290136320
1.613104 -1.78657 -0.29078543 4290005760
1.6132555 -1.7866131 -0.28006929 4290005760
1.621567 -1.795686 -0.27040267 4290005760
1.6349869 -1.8104098 -0.2611393 4290136320
1.6331476 -1.8082476 -0.24907203 4290136320
1.5987307 -1.7700416 -0.23203193 4289875200
1.611197 -1.7837082 -0.22170313 4290005760
1.6162862 -1.789212 -0.20998612 4290005760
1.6300948 -1.8043597 -0.19902825 4290136320
1.6051912 -1.7766863 -0.18321928 4290005760
1.6250933 -1.7985716 -0.17236629 4290005760
1.6279306 -1.8015814 -0.15933511 4290005760
1.6230474 -1.7960527 -0.14539592 4290005760
1.609159 -1.7805673 -0.13065265 4290005760
1.620447 -1.7929209 -0.11783803 4290005760
1.6184032 -1.7905329 -0.10385161 4290005760
1.6192707 -1.7913636 -0.089954108 4290005760
1.6009424 -1.7709743 -0.075047299 4289875200
1.6195645 -1.7914317 -0.061795484 4290005760
1.6196977 -1.7914501 -0.047610819 4290005760
1.6141906 -1.785235 -0.033260062 4290005760
1.6256592 -1.7977811 -0.019176874 4290005760
1.6398091 -1.8132885 -0.0048837936 4290136320
1.6224282 -1.7939527 0.009479316 4290005760
1.7084811 -1.8889029 0.025022859 4290397440
1.7829397 -1.97103 0.041777946 4290789120
1.9082803 -2.1093564 0.06141999 4291441920
1.9700054 -2.1773899 0.080586977 4291703040
1.9782131 -2.1862998 0.098088793 4291833600
2.0595341 -2.2759616 0.11986583 4292225280
2.059895 -2.2761977 0.1375107 4292225280
2.0387394 -2.252672 0.15339151 4292094720
1.9832135 -2.1911962 0.16587444 4291833600
2.0668991 -2.2834437 0.19002026 4292225280
2.0737216 -2.2908139 0.20765002 4292225280
2.039643 -2.2530277 0.22073939 4292094720
1.9705954 -2.1766429 0.22897851 4291703040
2.0919285 -2.3104239 0.25944668 4292355840
2.0859282 -2.3036377 0.27475977 4292355840
2.0848448 -2.3022792 0.29035696 4292355840
2.0137267 -2.223629 0.29535457 4291964160
1.97919 -2.1853597 0.30460262 4291833600
1.9538262 -2.1572182 0.31448871 4291703040
1.9502491 -2.1531203 0.32731795 4291703040
1.8803878 -2.0758908 0.32817653 4291311360
1.8828297 -2.0784402 0.34081283 4291311360
1.7572689 -1.9397813 0.32915246 4290789120
1.6546212 -1.8264173 0.31999254 4290266880
1.6538422 -1.8254322 0.32951039 4290266880
1.6439586 -1.8144058 0.33677983 4290136320
1.5970192 -1.7625138 0.33577543 4290005760
1.6317691 -1.8007154 0.35145938 4290136320
1.5809579 -1.7445627 0.34826764 4289875200
1.8390279 -2.0290034 0.4135586 4291180800
1.7971209 -1.9826614 0.41201431 4290919680
1.8692452 -2.0620446 0.43621296 4291311360
1.9223139 -2.1204107 0.45596325 4291572480
1.9570179 -2.1585252 0.4711591 4291833600
1.9588155 -2.1603634 0.47802189 4291833600
1.9933848 -2.198323 0.49242321 4291964160
2.0087717 -2.2151365 0.50166023 4292094720
2.036798 -2.2458782 0.51357126 4292225280
2.0363898 -2.2452817 0.51778471 4292225280
2.0393572 -2.2484059 0.52225161 4292225280
2.0450389 -2.2545207 0.52681243 4292225280
2.0481384 -2.2577908 0.53010106 4292225280
2.0572658 -2.2677019 0.53433573 4292355840
2.051235 -2.2609136 0.53401268 4292225280
2.0512345 -2.2607696 0.53462452 4292225280
2.0446844 -2.253412 0.53290099 4292225280
2.0322454 -2.2395701 0.52902019 4292225280
2.023186 -2.2294524 0.5254041 4292094720
2.0009477 -2.204823 0.51777679 4291964160
1.9728082 -2.1736989 0.50806993 4291833600
1.9774297 -2.178654 0.50622016 4291964160
1.914279 -2.1089861 0.48655501 4291572480
1.8319321 -2.0181925 0.46173713 4291180800
1.800653 -1.9836333 0.44948474 4291050240
1.8138492 -1.9980408 0.44783372 4291050240
1.7817421 -1.9625767 0.43454921 4290919680
1.7917187 -1.9734409 0.43107146 4290919680
1.7495248 -1.9268812 0.41467446 4290789120
1.6864991 -1.8573997 0.39325798 4290397440
1.6704434 -1.8396199 0.38263088 4290266880
1.6552707 -1.8228142 0.37189549 4290266880
1.6913401 -1.862399 0.37212542 4290397440
1.7243432 -1.8986057 0.37092376 4290528000
2.0832419 -2.2926724 0.37033701 4292355840
2.092541 -2.3027704 0.35822594 4292355840
2.0970094 -2.3075547 0.34479362 4292355840
2.0738881 -2.2819967 0.32657346 4292225280
2.0716224 -2.2793772 0.31144324 4292225280
2.0811951 -2.2897763 0.29768783 4292355840
2.0822275 -2.2907836 0.28230241 4292355840
2.0593877 -2.2655432 0.26353636 4292225280
2.0569861 -2.2627771 0.24728081 4292225280
2.0723636 -2.2795577 0.23278184 4292225280
2.076591 -2.2840791 0.21661916 4292225280
2.0261037 -2.2284536 0.19489461 4291964160
1.9979703 -2.1974065 0.17574218 4291833600
1.9536351 -2.1485546 0.15557347 4291703040
1.8542973 -2.0392551 0.13206659 4291180800
1.7792224 -1.9566336 0.11161075 4290789120
1.6472093 -1.8114476 0.089236774 4290136320
1.6467563 -1.8108507 0.075002126 4290136320
1.641445 -1.8049157 0.060513407 4290136320
1.598001 -1.7570812 0.044981677 4289875200
1.6347463 -1.7973585 0.031701036 4290005760
1.6280131 -1.789863 0.017284486 4290005760
1.623023 -1.7842833 0.0029679551 4290005760
1.6182362 -1.7789274 -0.011268027 4290005760
1.6285896 -1.7902037 -0.025650378 4290005760
1.6309177 -1.7926632 -0.039991539 4290005760
1.6170827 -1.7773695 -0.053793579 4290005760
1.6312044 -1.7927825 -0.068474673 4290005760
1.6373473 -1.7994311 -0.082924783 4290005760
1.6438667 -1.8064922 -0.097416118 4290136320
1.6142727 -1.7738953 -0.10946523 4290005760
1.6362875 -1.7979717 -0.12483463 4290005760
1.6391973 -1.8010683 -0.13882343 4290136320
1.6394659 -1.8012642 -0.15246664 4290136320
1.6056893 -1.7640818 -0.16250417 4289875200
1.640317 -1.8019998 -0.17929497 4290136320
1.6558094 -1.8189074 -0.19420399 4290136320
1.6581709 -1.8213987 -0.20750451 4290136320
1.6277291 -1.787883 -0.21625818 4290005760
1.5216813 -1.6713866 -0.2136942 4289483520
1.649642 -1.8117337 -0.24390362 4290136320
1.6588738 -1.8217639 -0.25730848 4290136320
1.6521556 -1.814289 -0.26797614 4290136320
1.6214941 -1.7805403 -0.27420604 4290005760
1.4462812 -1.5881821 -0.25430465 4289091840
1.661734 -1.8244908 -0.30302358 4290266880
1.6648717 -1.8278295 -0.31412297 4290266880
1.6706259 -1.834038 -0.32542008 4290266880
1.6616517 -1.8240879 -0.33346686 4290266880
1.6241806 -1.7828783 -0.33515683 4290005760
1.6519773 -1.8132656 -0.34987172 4290136320
1.6482098 -1.809028 -0.35764 4290136320
1.6504656 -1.8113967 -0.36630112 4290136320
1.6499723 -1.8107497 -0.373945 4290266880
1.6508195 -1.8115723 -0.38146803 4290266880
1.6468816 -1.8071471 -0.38743746 4290136320
1.6293011 -1.7877626 -0.38967007 4290136320
1.6172677 -1.7744622 -0.39266947 4290005760
1.6148415 -1.7716959 -0.39749712 4290005760
1.6067275 -1.7626939 -0.40043443 4290005760
1.5741408 -1.726864 -0.39669761 4289875200
1.5234706 -1.6712153 -0.38773039 4289614080
1.5324403 -1.6809453 -0.39337909 4289614080
1.5421195 -1.6914512 -0.39879185 4289744640
1.5418879 -1.6910932 -0.40119809 4289744640
1.547683 -1.6973397 -0.40471277 4289744640
1.5475566 -1.6970956 -0.40621659 4289744640
1.5574405 -1.7078203 -0.40988085 4289744640
1.5381753 -1.686604 -0.40539995 4289614080
1.5382134 -1.6865393 -0.40552485 4289614080
1.5349874 -1.6828983 -0.40431848 4289614080
1.5258411 -1.6727713 -0.4010886 4289614080
1.5636849 -1.7141198 -0.40971103 4289744640
1.6053671 -1.7596669 -0.41878265 4290005760
1.6192851 -1.7747978 -0.42006052 4290005760
1.6306674 -1.7871488 -0.42015332 4290136320
1.6433905 -1.8009661 -0.42005849 4290136320
1.6482044 -1.80612 -0.41741934 4290266880
1.6486967 -1.8065403 -0.41319123 4290266880
