# .PCD v0.7 - Point Cloud Data file format
VERSION 0.7
FIELDS x y z rgba
SIZE 4 4 4 4
TYPE F F F U
COUNT 1 1 1 1
WIDTH 1101
HEIGHT 1
VIEWPOINT 0 0 0 1 0 0 0
POINTS 1101
DATA ascii
1.4141951 -1.8221239 0.16458309 4289614080
1.395686 -1.7981592 0.14998573 4289483520
1.3908143 -1.7917664 0.13690031 4289483520
1.4250356 -1.8357341 0.12724613 4289744640
1.421827 -1.8314819 0.11382936 4289744640
1.3976246 -1.8001897 0.098864652 4289483520
1.3827516 -1.7809172 0.08481916 4289483520
1.3842378 -1.7827158 0.071812123 4289483520
1.3874583 -1.7867475 0.058773786 4289483520
1.3683583 -1.7620366 0.044879533 4289352960
1.3696822 -1.7636268 0.031777717 4289352960
1.370699 -1.7648218 0.018613085 4289352960
1.3721186 -1.766535 0.0054114601 4289352960
1.3427702 -1.7286383 -0.0076470673 4289222400
1.3587565 -1.7491051 -0.02082558 4289352960
1.3680484 -1.7609521 -0.034121294 4289352960
1.3604283 -1.75103 -0.046973616 4289352960
1.3602453 -1.750681 -0.059956189 4289352960
1.3753482 -1.7700042 -0.073688455 4289352960
1.3790575 -1.7746627 -0.086908065 4289483520
1.370338 -1.7633275 -0.099202588 4289352960
1.3725488 -1.766058 -0.11211868 4289352960
1.3888831 -1.7869593 -0.12623662 4289483520
1.3830982 -1.7794011 -0.13830356 4289483520
1.3749758 -1.7688365 -0.14985937 4289483520
1.370912 -1.7634944 -0.16158387 4289352960
1.3894566 -1.7872337 -0.17592159 4289483520
1.3871195 -1.7841119 -0.18756375 4289483520
1.3872606 -1.7841775 -0.19931507 4289483520
1.3649063 -1.7553136 -0.20742965 4289352960
1.3798842 -1.7744607 -0.22092412 4289483520
1.3872541 -1.7838223 -0.23313546 4289483520
1.3990853 -1.798919 -0.24598743 4289614080
1.3848439 -1.7804922 -0.25396481 4289483520
1.3478706 -1.7328434 -0.25710914 4289352960
1.3821723 -1.7768271 -0.27353385 4289483520
1.3931345 -1.7908031 -0.28535303 4289614080
1.4046006 -1.8054252 -0.2971063 4289614080
1.3953174 -1.7933767 -0.30415145 4289614080
1.3811462 -1.7750475 -0.30963823 4289483520
1.3703063 -1.7610019 -0.31536731 4289483520
1.3785992 -1.7715445 -0.32512286 4289483520
1.3807284 -1.7741655 -0.333112 4289483520
1.3831801 -1.7772007 -0.34082159 4289483520
1.3882524 -1.7836022 -0.34882277 4289614080
1.3842547 -1.7783508 -0.35414988 4289483520
1.3816596 -1.774902 -0.35939801 4289483520
1.3826891 -1.7761093 -0.36516652 4289483520
1.3756498 -1.7669526 -0.36835939 4289483520
1.3610011 -1.7480239 -0.36901227 4289483520
1.3559645 -1.7414421 -0.37177777 4289352960
1.350286 -1.7340369 -0.37390375 4289352960
1.3430618 -1.7246479 -0.37513301 4289352960
1.3020327 -1.6718533 -0.36637971 4289091840
1.2994264 -1.6683987 -0.36792037 4289091840
1.3047333 -1.6751039 -0.37127426 4289091840
1.3076627 -1.678756 -0.37352791 4289091840
1.3076109 -1.6785806 -0.37449583 4289091840
1.3076049 -1.6784643 -0.37503824 4289091840
1.3015925 -1.6706383 -0.37341812 4289091840
1.3400409 -1.7198768 -0.3841058 4289352960
1.3525683 -1.7358425 -0.38689646 4289352960
1.3550806 -1.7389542 -0.38635975 4289352960
1.36604 -1.7529045 -0.38776329 4289483520
1.3684431 -1.7558745 -0.38626716 4289483520
1.3783907 -1.7685237 -0.38642651 4289483520
1.3833181 -1.7747308 -0.3846975 4289614080
1.3882445 -1.7809358 -0.38249627 4289614080
1.3836715 -1.7749542 -0.37723333 4289483520
1.3843015 -1.7756474 -0.372962 4289483520
1.3821048 -1.7727147 -0.36750236 4289483520
1.3708372 -1.7581488 -0.35925648 4289483520
1.3686043 -1.7551712 -0.3530159 4289483520
1.3654263 -1.7509822 -0.3461481 4289483520
1.3725832 -1.7600459 -0.34148279 4289483520
1.3932091 -1.7863786 -0.33963981 4289614080
1.3962798 -1.7901999 -0.33300927 4289614080
1.3866907 -1.7777903 -0.32301658 4289483520
1.365859 -1.7509699 -0.31021222 4289352960
1.3666041 -1.7518115 -0.30207321 4289352960
1.3828596 -1.7725341 -0.29691353 4289483520
1.3922193 -1.7844157 -0.28977403 4289483520
1.3816563 -1.7707624 -0.2781724 4289483520
1.3693875 -1.7549247 -0.26607364 4289352960
1.3765222 -1.7639538 -0.25748214 4289483520
1.3922607 -1.7840064 -0.25004399 4289483520
1.389958 -1.7809405 -0.23898821 4289483520
1.3873348 -1.7774644 -0.22765076 4289483520
1.3657391 -1.7496824 -0.2131426 4289352960
1.3838124 -1.7727218 -0.20461579 4289483520
1.3872507 -1.7770112 -0.19352332 4289483520
1.3781865 -1.765286 -0.18052328 4289483520
1.3714389 -1.7565293 -0.16776513 4289352960
1.3863719 -1.7755405 -0.15740356 4289483520
1.3896987 -1.779686 -0.14539236 4289483520
1.3829954 -1.7709867 -0.13220511 4289483520
1.301488 -1.6665051 -0.11252906 4288961280
1.3739581 -1.7591861 -0.10612066 4289352960
1.3773421 -1.7634048 -0.093562163 4289352960
1.3582605 -1.7388622 -0.079524793 4289352960
1.3687972 -1.7522378 -0.067216039 4289352960
1.3777841 -1.7636281 -0.054574754 4289352960
1.3700972 -1.7536747 -0.041203123 4289352960
1.3358386 -1.7097144 -0.027390135 4289222400
1.3934141 -1.7832888 -0.015207263 4289483520
1.3996586 -1.7911644 -0.0018367331 4289483520
1.3773639 -1.7625195 0.011418027 4289352960
1.2853184 -1.6446286 0.022984194 4288830720
1.4360292 -1.8373516 0.039425295 4289744640
1.4239813 -1.8218187 0.052682012 4289614080
1.3363425 -1.7095842 0.062136553 4289222400
1.2429364 -1.5899868 0.069539405 4288700160
1.4199808 -1.8163476 0.092776753 4289614080
1.4090991 -1.8023118 0.10519499 4289614080
1.3205606 -1.688957 0.11078162 4289091840
1.2479862 -1.5960332 0.11610487 4288700160
1.4164078 -1.8113083 0.14458096 4289614080
1.3879555 -1.7748084 0.1540712 4289483520
1.3158749 -1.6825284 0.15766025 4289091840
1.2463357 -1.5935098 0.16014212 4288700160
1.4260688 -1.8231905 0.19540723 4289744640
1.4262772 -1.8233389 0.20739292 4289744640
1.366361 -1.7466295 0.20991556 4289352960
1.2860185 -1.6438206 0.20792773 4288961280
1.2212595 -1.5609431 0.20707163 4288569600
1.4059881 -1.7969362 0.24919641 4289614080
1.396564 -1.7847761 0.25798017 4289483520
1.3285353 -1.697727 0.25508356 4289222400
1.2854713 -1.6425896 0.25589454 4288961280
1.2493452 -1.5963238 0.25724733 4288700160
1.4118191 -1.8038046 0.30002892 4289614080
1.4017957 -1.7908823 0.30682275 4289614080
1.3314919 -1.7009548 0.29958045 4289222400
1.3540721 -1.7296884 0.31259808 4289352960
1.305665 -1.6677455 0.30873254 4289091840
1.2489532 -1.5952034 0.30197713 4288700160
1.4080122 -1.7982422 0.34754673 4289614080
1.389586 -1.7745944 0.34962302 4289483520
1.359592 -1.7361777 0.34816405 4289352960
1.3276287 -1.6952513 0.34553099 4289222400
1.3387431 -1.7093327 0.35361928 4289222400
1.3529254 -1.7273293 0.36220208 4289352960
1.3640943 -1.7414761 0.36964476 4289352960
1.3698226 -1.7486762 0.37523681 4289483520
1.3188323 -1.6834743 0.36473766 4289222400
1.3124934 -1.6752745 0.36601335 4289091840
1.3207834 -1.6857467 0.37094307 4289222400
1.3266838 -1.6931679 0.37479439 4289222400
1.3265518 -1.6928899 0.3765128 4289222400
1.3264654 -1.6926701 0.37780324 4289222400
1.3179202 -1.6816571 0.37623635 4289222400
1.3203565 -1.6846567 0.37735894 4289222400
1.323447 -1.6884907 0.3782272 4289222400
1.3772329 -1.7569985 0.39312205 4289483520
1.3743469 -1.7532033 0.39136326 4289483520
1.3629998 -1.7386158 0.38675052 4289352960
1.3571663 -1.7310625 0.38326919 4289352960
1.3459044 -1.7165871 0.37783366 4289352960
1.3286004 -1.6944076 0.37031433 4289222400
1.3695405 -1.7465068 0.37853661 4289483520
1.3963578 -1.7805904 0.38224816 4289614080
1.3977251 -1.7822187 0.37847325 4289614080
1.4036236 -1.7896239 0.37546247 4289614080
1.4011297 -1.7863287 0.36976138 4289614080
1.4102471 -1.7978363 0.36667031 4289614080
1.3999897 -1.7846444 0.35812613 4289614080
1.4067371 -1.7931296 0.35353225 4289614080
1.4104667 -1.7977673 0.34772575 4289614080
1.4151781 -1.8036556 0.34172118 4289614080
1.410409 -1.7974612 0.33303848 4289614080
1.3984149 -1.7814316 0.27340415 4289483520
1.4100599 -1.79615 0.26558 4289614080
1.430788 -1.8224357 0.25893411 4289744640
1.4085379 -1.7939792 0.24423811 4289614080
1.390517 -1.7709123 0.23031317 4289483520
1.3820268 -1.7599857 0.21791969 4289483520
1.3937089 -1.7747478 0.20843941 4289483520
1.3888623 -1.7684617 0.19620332 4289483520
1.3926044 -1.7731118 0.1849741 4289483520
1.4010746 -1.7837813 0.17406644 4289483520
1.4217064 -1.8099315 0.16422722 4289614080
1.3968927 -1.778227 0.1489995 4289483520
1.3956801 -1.7765684 0.13635808 4289483520
1.4209019 -1.8085566 0.12593397 4289614080
1.4269197 -1.8160986 0.11338805 4289614080
1.4019166 -1.7841607 0.098431259 4289483520
1.398661 -1.7799023 0.085157491 4289483520
1.4069524 -1.7903379 0.072448142 4289483520
1.4064926 -1.7896372 0.059137397 4289483520
1.3872505 -1.7650392 0.045161109 4289483520
1.3885847 -1.7666227 0.031976931 4289483520
1.3865198 -1.7638813 0.018688049 4289483520
1.3885677 -1.7663724 0.0054356526 4289483520
1.3676517 -1.7396531 -0.0077309129 4289352960
1.3775767 -1.7521644 -0.020957211 4289352960
1.383847 -1.7600259 -0.034258991 4289352960
1.3823487 -1.7580065 -0.047376025 4289352960
1.3766012 -1.7505841 -0.060226526 4289352960
1.3979939 -1.7776736 -0.074345581 4289483520
1.3978864 -1.777422 -0.08744055 4289483520
1.3954107 -1.7741593 -0.10026766 4289483520
1.3914595 -1.7690213 -0.11281957 4289483520
1.3992708 -1.7788371 -0.12623662 4289483520
1.3996131 -1.7791574 -0.13891608 4289483520
1.3969798 -1.7756951 -0.15112744 4289483520
1.3959646 -1.77429 -0.1633155 4289483520
1.4036213 -1.7839065 -0.17639607 4289483520
1.4091997 -1.7908803 -0.18913527 4289614080
1.4124165 -1.7948524 -0.20142347 4289614080
1.3672 -1.7372806 -0.20623648 4289352960
1.4018936 -1.78125 -0.22278254 4289483520
1.4068518 -1.7874343 -0.23467483 4289614080
1.4124823 -1.794472 -0.24650048 4289614080
1.4074869 -1.7880101 -0.25620249 4289614080
1.3665447 -1.7358867 -0.25873765 4289352960
1.4041684 -1.7835637 -0.27582568 4289614080
1.4182749 -1.8013654 -0.2883479 4289614080
1.4206169 -1.8042233 -0.29826555 4289614080
1.414327 -1.7961189 -0.30600885 4289614080
1.4031097 -1.7817583 -0.31222957 4289614080
1.3897322 -1.7646568 -0.31746647 4289483520
1.3919588 -1.7673699 -0.32583958 4289483520
1.402671 -1.7808559 -0.33589691 4289614080
1.3993242 -1.7764919 -0.34224334 4289614080
1.404736 -1.7832472 -0.35034803 4289614080
1.4062074 -1.7849997 -0.35709953 4289614080
1.4041992 -1.7823354 -0.36255366 4289614080
1.3930137 -1.7680234 -0.36516652 4289483520
1.3859211 -1.7589078 -0.36835939 4289483520
1.3803202 -1.7516863 -0.37147683 4289483520
1.3746325 -1.7443556 -0.37410328 4289483520
1.3533667 -1.7172593 -0.37197998 4289352960
1.3561376 -1.7206639 -0.37597874 4289352960
1.3239508 -1.6797167 -0.36978713 4289222400
1.3207128 -1.6755005 -0.37117705 4289091840
1.3236181 -1.6790776 -0.37385795 4289222400
1.3259581 -1.6819376 -0.37594837 4289222400
1.325905 -1.6817615 -0.37692258 4289222400
1.3234593 -1.6785508 -0.3767741 4289222400
1.3204504 -1.6746265 -0.37602276 4289091840
1.3524778 -1.7151335 -0.38479978 4289352960
1.3711969 -1.7387596 -0.38932067 4289483520
1.3737285 -1.7418573 -0.38877645 4289483520
1.3847704 -1.7557448 -0.39016974 4289483520
1.3878027 -1.7594758 -0.38883156 4289483520
1.3972156 -1.7712952 -0.3888042 4289614080
1.402792 -1.7782495 -0.3872253 4289614080
1.4054737 -1.781534 -0.38437694 4289614080
1.4000981 -1.7746053 -0.37888646 4289614080
1.4007343 -1.775297 -0.37459624 4289614080
1.4009682 -1.7754787 -0.36976129 4289614080
1.390231 -1.7617575 -0.36164287 4289483520
1.3810949 -1.7500668 -0.35360163 4289483520
1.3756046 -1.7429972 -0.3461481 4289483520
1.3889384 -1.7597784 -0.34299514 4289483520
1.406657 -1.7821125 -0.34038115 4289614080
1.4073753 -1.7829075 -0.33317238 4289614080
1.4025452 -1.7766737 -0.32429296 4289614080
1.3821743 -1.7507558 -0.31159571 4289483520
1.3829274 -1.7515967 -0.30342039 4289483520
1.3993069 -1.7722281 -0.29822287 4289483520
1.4056655 -1.7801664 -0.29040903 4289614080
1.4067107 -1.7813751 -0.2811223 4289614080
1.3857427 -1.754709 -0.26726049 4289483520
1.3937095 -1.764683 -0.25876948 4289483520
1.4087917 -1.7836646 -0.25114223 4289614080
1.4151043 -1.7915411 -0.241513 4289614080
1.4035704 -1.7768244 -0.22861227 4289483520
1.3882509 -1.7573175 -0.21505436 4289483520
1.4064645 -1.7802581 -0.20642802 4289483520
1.4068453 -1.7806251 -0.19480625 4289483520
1.3970995 -1.7681757 -0.18164812 4289483520
1.390923 -1.7602452 -0.16889116 4289483520
1.4087529 -1.7826942 -0.15876268 4289483520
1.4093254 -1.7833034 -0.14635621 4289483520
1.3935342 -1.763208 -0.13222829 4289483520
1.3229403 -1.6737791 -0.11353877 4289091840
1.4015276 -1.773093 -0.10745033 4289483520
1.3962669 -1.7663234 -0.094147056 4289483520
1.3739462 -1.7379748 -0.079848953 4289352960
1.3882813 -1.7559947 -0.06766928 4289352960
1.4004365 -1.771255 -0.05506232 4289483520
1.3976548 -1.7676225 -0.041721445 4289483520
1.3132914 -1.6608204 -0.026728965 4288961280
1.4186668 -1.7939649 -0.01536853 4289614080
1.4124157 -1.7859447 -0.0018397879 4289483520
1.4080801 -1.7803476 0.011586472 4289483520
1.2799909 -1.6182896 0.022719936 4288830720
1.4380255 -1.8179752 0.039188638 4289614080
1.4258881 -1.8025143 0.052363127 4289614080
1.3375977 -1.6907943 0.06173582 4289091840
1.2403972 -1.5678265 0.068885118 4288569600
1.4310964 -1.8087481 0.092812896 4289614080
1.4077986 -1.7791874 0.10432227 4289483520
1.3272798 -1.6773188 0.1105236 4289091840
1.2783282 -1.6153529 0.11805011 4288830720
1.3593622 -1.7176404 0.13773412 4289222400
1.365119 -1.724803 0.15041812 4289352960
1.34051 -1.6936008 0.15942691 4289222400
1.2525051 -1.5823132 0.15974756 4288700160
1.4419281 -1.8214972 0.19612284 4289744640
1.428221 -1.8040652 0.20614365 4289614080
1.3826936 -1.7464445 0.21085796 4289352960
1.3042216 -1.6472222 0.20931561 4288961280
1.2365073 -1.5615988 0.20811078 4288569600
1.4226049 -1.7965075 0.25028214 4289614080
1.3740127 -1.7350318 0.25194275 4289352960
1.3445696 -1.6977428 0.25625864 4289222400
1.3042635 -1.6467434 0.25772113 4288961280
1.2617043 -1.5929061 0.25787678 4288700160
1.4199368 -1.7925595 0.29952946 4289614080
1.3799736 -1.7419966 0.2998198 4289352960
1.3499907 -1.7040379 0.30150366 4289222400
1.3067269 -1.6493214 0.29944459 4288961280
1.2649188 -1.5964491 0.29689345 4288830720
1.269897 -1.6026286 0.30477819 4288830720
1.4130338 -1.7831544 0.34621596 4289614080
1.4146317 -1.7850555 0.35330185 4289614080
1.3905441 -1.7545471 0.35346645 4289483520
1.3522023 -1.7060585 0.34933361 4289352960
1.366459 -1.7239349 0.35828105 4289352960
1.3831921 -1.7449328 0.36757696 4289483520
1.3262026 -1.6729313 0.35672954 4289091840
1.3344357 -1.6832081 0.36285067 4289222400
1.3433164 -1.6943005 0.36877269 4289222400
1.3546838 -1.7085278 0.3749966 4289352960
1.3544583 -1.7081333 0.37759927 4289352960
1.3542775 -1.7077949 0.37977237 4289352960
1.362711 -1.7183191 0.38392776 4289352960
1.3540533 -1.707292 0.38282114 4289352960
1.3625796 -1.7179316 0.38612163 4289352960
1.3570775 -1.7108841 0.38499835 4289352960
1.354071 -1.7069838 0.38413042 4289352960
1.342543 -1.692342 0.38039908 4289222400
1.3426907 -1.6924189 0.37953439 4289222400
1.3337017 -1.6809801 0.37565178 4289222400
1.3911101 -1.7532238 0.38996372 4289483520
1.3767067 -1.7349592 0.38363653 4289483520
1.3654051 -1.7206056 0.37777218 4289352960
1.3388213 -1.6869974 0.36732298 4289222400
1.3770533 -1.7350601 0.37418994 4289483520
1.4071835 -1.7729092 0.37823093 4289614080
1.4147345 -1.7823077 0.3756505 4289614080
1.4122218 -1.7790273 0.36994693 4289614080
1.4097421 -1.775789 0.36384276 4289614080
1.4125316 -1.7791882 0.35867661 4289614080
1.3748554 -1.7316204 0.34297866 4289352960
1.4200131 -1.7883807 0.34750456 4289614080
1.4185507 -1.7864239 0.34001657 4289614080
1.4241086 -1.7933073 0.33380052 4289614080
1.4174159 -1.7841365 0.27508208 4289614080
1.4291514 -1.7987922 0.26719734 4289614080
1.4413816 -1.8140688 0.25893411 4289744640
1.4220591 -1.7896346 0.24477048 4289614080
1.4063812 -1.7697903 0.23122898 4289483520
1.3504304 -1.6992722 0.21137282 4289222400
1.368468 -1.7218583 0.20316064 4289352960
1.3967583 -1.7573407 0.19586904 4289483520
1.3967096 -1.7571661 0.18415642 4289483520
1.4167122 -1.782216 0.17471619 4289614080
1.4362646 -1.8066963 0.16469017 4289614080
1.4210294 -1.7874165 0.15046068 4289614080
1.4021839 -1.7635982 0.13598731 4289483520
1.4406642 -1.8118799 0.12674771 4289614080
1.4440064 -1.8159662 0.11390313 4289744640
1.4233044 -1.7898163 0.099199094 4289614080
1.4183372 -1.783455 0.085721374 4289483520
1.4229587 -1.7891507 0.072734348 4289614080
1.4262297 -1.7931478 0.059526976 4289614080
1.4124477 -1.7757057 0.045643814 4289483520
1.4050786 -1.7663276 0.032119222 4289483520
1.4086012 -1.7706416 0.018846305 4289483520
1.4075515 -1.7692081 0.005469522 4289483520
1.3895936 -1.7465234 -0.0077972906 4289352960
1.3939878 -1.7519333 -0.021051234 4289352960
1.4003036 -1.7597574 -0.034411989 4289483520
1.3925676 -1.7499228 -0.047376025 4289352960
1.3986043 -1.7573953 -0.060740165 4289483520
1.4170408 -1.7804465 -0.074805565 4289483520
1.4201783 -1.7842736 -0.088183179 4289483520
1.4119453 -1.7738155 -0.10071144 4289483520
1.4079628 -1.7686982 -0.11332021 4289483520
1.4189388 -1.7823715 -0.12707198 4289483520
1.4279841 -1.793618 -0.14069237 4289614080
1.4160025 -1.7784538 -0.15206181 4289483520
1.4062783 -1.7661268 -0.1633155 4289483520
1.425791 -1.790517 -0.17786813 4289614080
1.425818 -1.7904354 -0.18996239 4289614080
1.4259526 -1.790489 -0.20186272 4289614080
1.3890845 -1.7440834 -0.2080013 4289352960
1.4178281 -1.780058 -0.22366284 4289614080
1.4228197 -1.7862098 -0.23559843 4289614080
1.4253912 -1.7893226 -0.24692975 4289614080
1.4203571 -1.7828884 -0.25665 4289614080
1.3797296 -1.7317795 -0.25931925 4289352960
1.4238149 -1.7869984 -0.27763504 4289614080
1.4343107 -1.8000554 -0.28947094 4289614080
1.4372846 -1.8036714 -0.29955357 4289744640
1.4334155 -1.7987001 -0.30786625 4289614080
1.419641 -1.7813004 -0.31359345 4289614080
1.4086299 -1.7673702 -0.3194257 4289614080
1.4139527 -1.7739342 -0.32856306 4289614080
1.4191886 -1.7803886 -0.33736262 4289614080
1.4213609 -1.7829987 -0.34508643 4289614080
1.4268073 -1.7897155 -0.35324606 4289614080
1.4227418 -1.7845008 -0.35865197 4289614080
1.4201002 -1.7810729 -0.36397368 4289614080
1.4119065 -1.7706823 -0.36740848 4289614080
1.4078342 -1.7654613 -0.37144339 4289614080
1.3991127 -1.7544113 -0.37377709 4289483520
1.3909206 -1.7440265 -0.37576434 4289483520
1.3882264 -1.7405361 -0.37876761 4289483520
1.3722854 -1.7204387 -0.37767014 4289352960
1.3361725 -1.6750559 -0.37046859 4289222400
1.3390536 -1.6785595 -0.37357673 4289222400
1.3505793 -1.6928983 -0.37868083 4289222400
1.3504776 -1.6926618 -0.38009775 4289222400
1.3448945 -1.6855555 -0.37952262 4289222400
1.3387446 -1.6777397 -0.37833643 4289222400
1.3449271 -1.685379 -0.38019019 4289222400
1.3685906 -1.7149222 -0.38653478 4289352960
1.3905195 -1.742288 -0.39191806 4289483520
1.3986003 -1.7523004 -0.39291936 4289483520
1.4041945 -1.7591958 -0.39274806 4289614080
1.4066358 -1.7621408 -0.39122498 4289614080
1.41366 -1.7708262 -0.39050257 4289614080
1.4155885 -1.7731277 -0.38789937 4289614080
1.4250571 -1.7848727 -0.3868821 4289614080
1.4251826 -1.7849149 -0.38285393 4289614080
1.4196721 -1.777899 -0.37688416 4289614080
1.4205263 -1.7788539 -0.37218153 4289614080
1.409097 -1.764428 -0.36387014 4289614080
1.3998966 -1.7527947 -0.35579476 4289483520
1.3974525 -1.7496216 -0.34907472 4289483520
1.4108894 -1.766331 -0.34586862 4289614080
1.4231883 -1.7816136 -0.34186378 4289614080
1.4270022 -1.7862729 -0.33534926 4289614080
1.4221407 -1.7800728 -0.32642025 4289614080
1.404097 -1.7573744 -0.31422433 4289483520
1.4048615 -1.7582179 -0.30598006 4289483520
1.4182729 -1.7748883 -0.30005595 4289614080
1.4333516 -1.793643 -0.29396492 4289614080
1.4232613 -1.7809016 -0.28235143 4289614080
1.4015217 -1.7535863 -0.26832867 4289483520
1.4087676 -1.7625389 -0.25965425 4289483520
1.4309512 -1.7901779 -0.2532289 4289614080
1.4286228 -1.7871499 -0.24203901 4289614080
1.4225965 -1.7794966 -0.23001862 4289614080
1.4040602 -1.7561969 -0.21591465 4289483520
1.4224099 -1.779034 -0.20724352 4289614080
1.4227957 -1.7794018 -0.19557601 4289614080
1.4136026 -1.7677907 -0.18245158 4289483520
1.4067601 -1.7591205 -0.16956678 4289483520
1.4340687 -1.7931539 -0.16043557 4289614080
1.4284177 -1.7859727 -0.14725581 4289614080
1.4093953 -1.7620753 -0.13275689 4289483520
1.3414024 -1.6769602 -0.11428276 4289091840
1.4149542 -1.7687973 -0.10768777 4289483520
1.4127758 -1.7659605 -0.094564833 4289483520
1.3902918 -1.7377437 -0.080209136 4289352960
1.4103533 -1.7627053 -0.068243384 4289483520
1.4163537 -1.7700908 -0.055281725 4289483520
1.4110531 -1.7633526 -0.041813999 4289483520
1.3737882 -1.7166734 -0.027756199 4289222400
1.4322189 -1.7895727 -0.015402127 4289614080
1.4352944 -1.7932999 -0.001855948 4289614080
1.4215533 -1.7760171 0.011611994 4289483520
1.2775249 -1.5959724 0.022510732 4288700160
1.4532907 -1.8154343 0.039315723 4289744640
1.4638079 -1.8284546 0.053363547 4289744640
1.4307604 -1.7870595 0.065554008 4289614080
1.3188963 -1.6472321 0.07271032 4288961280
1.4354376 -1.7926706 0.092415489 4289614080
1.4282275 -1.7835515 0.10506429 4289614080
1.3613757 -1.6999583 0.11253613 4289222400
1.2995756 -1.6226835 0.11913715 4288830720
1.3747728 -1.7164662 0.13827991 4289222400
1.4011517 -1.7492889 0.15326284 4289483520
1.4281023 -1.7828209 0.16860604 4289614080
1.3159266 -1.6426767 0.16661298 4288961280
1.4542459 -1.8152244 0.19635639 4289744640
1.4662054 -1.8300347 0.21008365 4289744640
1.434553 -1.7904129 0.21717194 4289614080
1.4285122 -1.7827588 0.22759226 4289614080
1.3579345 -1.6945698 0.22688206 4289222400
1.4446628 -1.8026823 0.25231075 4289744640
1.4319437 -1.786696 0.26065192 4289614080
1.410956 -1.7603954 0.26695177 4289483520
1.4431823 -1.8004872 0.28309372 4289744640
1.4081395 -1.7566552 0.28570962 4289483520
1.4112247 -1.7603908 0.29552311 4289483520
1.3816086 -1.7233361 0.29798847 4289352960
1.3410834 -1.6726797 0.29733273 4289091840
1.3553309 -1.6903414 0.30832043 4289222400
1.3094838 -1.6330565 0.30511504 4288961280
1.323764 -1.6507591 0.31539276 4289091840
1.4018447 -1.7480147 0.34097332 4289483520
1.3717908 -1.7104291 0.34010777 4289352960
1.3891875 -1.7320088 0.35055056 4289483520
1.3550996 -1.6894001 0.34753335 4289222400
1.3694625 -1.7071965 0.35645455 4289352960
1.3894068 -1.7319479 0.3665407 4289483520
1.403821 -1.7498031 0.37485912 4289483520
1.3528092 -1.6861105 0.36516923 4289222400
1.36422 -1.7002233 0.37178549 4289352960
1.3732008 -1.7113059 0.37735596 4289352960
1.3846887 -1.7255113 0.38321775 4289483520
1.3875862 -1.7290106 0.38628146 4289483520
1.3843641 -1.7248847 0.38719031 4289483520
1.3959863 -1.7392538 0.39180493 4289483520
1.3873118 -1.728335 0.39026996 4289483520
1.3811523 -1.7205505 0.3889778 4289352960
1.3756577 -1.7135955 0.38741535 4289352960
1.3665116 -1.7020931 0.38437399 4289352960
1.3635782 -1.69833 0.38263512 4289352960
1.3372562 -1.665439 0.37391356 4289222400
1.402928 -1.7471153 0.39041647 4289483520
1.3853341 -1.725094 0.38323334 4289483520
1.3653092 -1.7000484 0.37499881 4289352960
1.3391446 -1.6673615 0.36474016 4289222400
1.3817683 -1.7203215 0.37274128 4289352960
1.3618512 -1.6954153 0.36338505 4289352960
1.388114 -1.7279994 0.36590251 4289483520
1.4333987 -1.7842577 0.37276489 4289614080
1.4339968 -1.7848872 0.36741248 4289614080
1.4108846 -1.7560066 0.35565445 4289483520
1.3851082 -1.7238141 0.34302506 4289352960
1.3857749 -1.7245327 0.33666125 4289352960
1.4308872 -1.7805585 0.34048116 4289614080
1.4223243 -1.7697891 0.3309598 4289614080
1.4875062 -1.8501259 0.28658783 4289875200
1.4827309 -1.8440678 0.27520126 4289875200
1.4835482 -1.8449657 0.26457351 4289875200
1.4750093 -1.8342286 0.25204077 4289875200
1.4615562 -1.8173823 0.23855557 4289744640
1.4355004 -1.7848681 0.22305669 4289614080
1.4292721 -1.7770097 0.21064688 4289614080
1.4188367 -1.763922 0.19752058 4289483520
1.4407533 -1.7910538 0.18858451 4289614080
1.4351625 -1.783989 0.17570674 4289614080
1.4461436 -1.7975235 0.16461927 4289614080
1.4338779 -1.7821628 0.15071912 4289614080
1.4382309 -1.7874582 0.13847089 4289614080
1.4531373 -1.8058679 0.12691726 4289744640
1.4395361 -1.7888502 0.11272648 4289614080
1.4192811 -1.7635666 0.098200873 4289483520
1.4337797 -1.7814677 0.086025909 4289614080
1.4483992 -1.7995167 0.073497579 4289614080
1.4422941 -1.7918164 0.059760727 4289614080
1.4227693 -1.7674463 0.045643814 4289483520
1.4241241 -1.7690156 0.032318432 4289483520
1.4314351 -1.7779828 0.019012889 4289614080
1.4241067 -1.7687664 0.0054937145 4289483520
1.3997456 -1.7383976 -0.0077972906 4289352960
1.4129515 -1.7546856 -0.021182865 4289483520
1.4224482 -1.7663655 -0.034702688 4289483520
1.420925 -1.7643608 -0.047990225 4289483520
1.420733 -1.7640089 -0.061253808 4289483520
1.439302 -1.7869495 -0.075429834 4289614080
1.4366807 -1.7835804 -0.08856111 4289614080
1.4341635 -1.7803409 -0.10155462 4289614080
1.4270157 -1.7713537 -0.1140211 4289483520
1.4380689 -1.7849593 -0.12785165 4289614080
1.4384098 -1.7852677 -0.14069237 4289614080
1.4326004 -1.7779431 -0.15272921 4289614080
1.4253057 -1.7687762 -0.16432562 4289483520
1.4448794 -1.7929515 -0.1789432 4289614080
1.4512336 -1.8007207 -0.19194748 4289614080
1.4494951 -1.7984478 -0.20370868 4289614080
1.4134972 -1.7536709 -0.21012332 4289483520
1.4344207 -1.7795155 -0.22464095 4289614080
1.4450638 -1.792604 -0.23754829 4289614080
1.4515287 -1.8005079 -0.24963617 4289744640
1.4431946 -1.790055 -0.25888768 4289614080
1.4016408 -1.7384021 -0.26152936 4289483520
1.4423513 -1.788779 -0.27921256 4289614080
1.453416 -1.8023854 -0.29120249 4289744640
1.456484 -1.8060739 -0.30135682 4289744640
1.4532042 -1.801891 -0.30985633 4289744640
1.4387021 -1.7837945 -0.31550285 4289614080
1.4220113 -1.7629868 -0.32012543 4289614080
1.4360698 -1.7803019 -0.33128652 4289614080
1.4382327 -1.7828686 -0.33941466 4289614080
1.44383 -1.789692 -0.3480041 4289744640
1.4403132 -1.7852181 -0.3540087 4289614080
1.4456828 -1.7917583 -0.3617973 4289744640
1.4397545 -1.7842962 -0.36634043 4289744640
1.4283978 -1.770108 -0.36900988 4289614080
1.4360577 -1.7794861 -0.37614805 4289614080
1.4179837 -1.7569766 -0.37607735 4289614080
1.4097289 -1.7466362 -0.37808982 4289483520
1.4070122 -1.7431581 -0.38111567 4289483520
1.3909526 -1.723151 -0.38003811 4289483520
1.3968974 -1.7304045 -0.38450342 4289483520
1.3549992 -1.6783952 -0.37529078 4289222400
1.3635135 -1.688833 -0.37954208 4289222400
1.3634102 -1.6885965 -0.38096219 4289222400
1.3602606 -1.6845875 -0.38108268 4289222400
1.354684 -1.6775733 -0.38007233 4289222400
1.3964133 -1.7291377 -0.39188999 4289483520
1.3903157 -1.7214766 -0.38983127 4289483520
1.4062164 -1.7410527 -0.39347649 4289483520
1.4087859 -1.744122 -0.39291936 4289483520
1.4199914 -1.7578818 -0.39429504 4289614080
1.4348246 -1.7761304 -0.39618021 4289614080
1.4326235 -1.7732918 -0.39288026 4289614080
1.4426286 -1.7855613 -0.39245152 4289744640
1.4441071 -1.7872763 -0.38922024 4289744640
1.4443716 -1.7874888 -0.38520452 4289744640
1.4451975 -1.788396 -0.38088781 4289744640
1.4364489 -1.7774557 -0.37363368 4289614080
1.4255587 -1.7638668 -0.36546105 4289614080
1.4232845 -1.7609398 -0.35912529 4289614080
1.4200449 -1.7568187 -0.35215536 4289614080
1.4330996 -1.7728555 -0.34877524 4289614080
1.4422485 -1.7840586 -0.34393951 4289614080
1.4516151 -1.7955297 -0.33866915 4289744640
1.438089 -1.7786847 -0.32769662 4289614080
1.4236524 -1.760716 -0.31629956 4289614080
1.4244269 -1.7615607 -0.30800083 4289614080
1.4379404 -1.7781582 -0.30201995 4289614080
1.446195 -1.7882509 -0.29445717 4289614080
1.4395409 -1.7799085 -0.28351891 4289614080
1.4210811 -1.7569712 -0.27010897 4289483520
1.4322957 -1.7707229 -0.26208481 4289614080
1.4469829 -1.7887654 -0.25421733 4289614080
1.4533187 -1.7964823 -0.24444556 4289744640
1.4394659 -1.7792442 -0.23106615 4289614080
1.4280508 -1.7650213 -0.2180188 4289483520
1.4418331 -1.7819413 -0.20855725 4289614080
1.4450957 -1.7858586 -0.19720773 4289614080
1.4391954 -1.7784528 -0.18441428 4289614080
1.4276575 -1.7640818 -0.1708439 4289483520
1.4439131 -1.7840534 -0.16037132 4289614080
1.4507768 -1.7924188 -0.14848171 4289614080
1.4319513 -1.7690464 -0.13390841 4289483520
1.35115 -1.6691165 -0.11428276 4289091840
1.4340836 -1.7714531 -0.10835632 4289483520
1.4314904 -1.7681363 -0.095126346 4289483520
1.4183193 -1.7517551 -0.081235901 4289483520
1.4233923 -1.7579079 -0.068377554 4289483520
1.4347924 -1.7718732 -0.055597521 4289483520
1.4330703 -1.7696329 -0.042160198 4289483520
1.4141722 -1.7461843 -0.028366089 4289483520
1.4517739 -1.7924989 -0.015499848 4289614080
1.4555843 -1.7970881 -0.0018686136 4289614080
1.4381708 -1.7754751 0.011663038 4289614080
1.3272595 -1.6384459 0.023218485 4288961280
1.4535716 -1.7942574 0.039039854 4289614080
1.4924777 -1.8421639 0.054016516 4289875200
1.5558676 -1.9202826 0.070772298 4290136320
1.5914682 -1.9640955 0.087104775 4290397440
1.574047 -1.9424704 0.10060902 4290266880
1.6062253 -1.9820532 0.11730678 4290397440
1.5944766 -1.9674292 0.13085529 4290397440
1.4506609 -1.7898597 0.13202949 4289614080
1.4419374 -1.7789822 0.14399061 4289614080
1.5384604 -1.8979448 0.16706975 4290136320
1.6494784 -2.0347733 0.19333942 4290658560
1.549819 -1.9117121 0.19481316 4290136320
1.6574521 -2.0443468 0.22218184 4290789120
1.6565785 -2.0431383 0.23565142 4290789120
1.6644166 -2.0526736 0.25015542 4290789120
1.6795442 -2.071197 0.26565987 4290919680
1.650318 -2.0350249 0.2737475 4290789120
1.5995497 -1.9722952 0.27735013 4290397440
1.5752044 -1.9421519 0.28466463 4290397440
1.6101135 -1.9850657 0.30243888 4290528000
1.5690981 -1.9343747 0.30557731 4290266880
1.5351714 -1.8924285 0.30924183 4290136320
1.4847391 -1.8301424 0.30867949 4289875200
1.426365 -1.7580755 0.30542719 4289614080
1.3563728 -1.6716988 0.29855806 4289222400
1.3557492 -1.670823 0.30619586 4289222400
1.3551406 -1.6699656 0.31348085 4289222400
1.3229873 -1.6302378 0.31293938 4288961280
1.4059639 -1.7323737 0.33951443 4289483520
1.3927165 -1.7159406 0.34281135 4289352960
1.3709669 -1.6890349 0.34346366 4289222400
1.4059397 -1.7320102 0.35797787 4289483520
1.3888899 -1.7108964 0.35891056 4289352960
1.418303 -1.7470167 0.3714723 4289483520
1.3899078 -1.7119304 0.36847425 4289352960
1.4044638 -1.7297478 0.37638578 4289483520
1.3561136 -1.670092 0.36691821 4289222400
1.3441689 -1.6552756 0.36672154 4289091840
1.3532614 -1.6663655 0.37182686 4289222400
1.3437632 -1.6545635 0.37139192 4289091840
1.3529428 -1.6657594 0.37568134 4289222400
1.3677561 -1.6838895 0.38112167 4289222400
1.3583984 -1.6722616 0.37938893 4289222400
1.3410163 -1.6507574 0.37495914 4289091840
1.3348584 -1.6430717 0.37322307 4289091840
1.373331 -1.6903189 0.38351551 4289352960
1.36168 -1.6758713 0.37935612 4289222400
1.394979 -1.7167432 0.38725024 4289483520
1.3709972 -1.6871215 0.37878865 4289352960
1.3862019 -1.7057226 0.38071766 4289352960
1.3822012 -1.7006906 0.37691045 4289352960
1.3960391 -1.7176068 0.37750435 4289483520
1.4145542 -1.740275 0.37884387 4289483520
1.4314321 -1.7609262 0.37920734 4289614080
1.3896333 -1.7093962 0.36367154 4289352960
1.4198748 -1.7464844 0.36659545 4289483520
1.4173522 -1.7432696 0.36053941 4289483520
1.3976004 -1.7188658 0.34977537 4289352960
1.4462501 -1.7785842 0.35559461 4289614080
1.4305022 -1.7591048 0.34503159 4289614080
1.5013345 -1.8460896 0.35467875 4290005760
1.5202122 -1.8691821 0.35119718 4290005760
1.7269603 -2.1225107 0.33033374 4291180800
1.736696 -2.1343393 0.32002482 4291180800
1.7439252 -2.1430862 0.30877671 4291180800
1.7336739 -2.1303518 0.29411393 4291180800
1.7107395 -2.1020348 0.27722362 4291050240
1.6076745 -1.9752693 0.24801768 4290528000
1.5541975 -1.9094423 0.227415 4290136320
1.6696651 -2.0511706 0.23077154 4290789120
1.7277187 -2.1223531 0.2245239 4291050240
1.7420236 -2.1397879 0.21174577 4291180800
1.7508718 -2.1505184 0.19787782 4291180800
1.7642906 -2.1668613 0.18411961 4291311360
1.7186667 -2.1106915 0.16428408 4291050240
1.5836806 -1.9447906 0.13732697 4290266880
1.5070313 -1.850545 0.11716558 4289875200
1.4317286 -1.757965 0.098351777 4289483520
1.4510125 -1.7815286 0.086435623 4289614080
1.4560456 -1.7875935 0.073355839 4289614080
1.4632372 -1.7963073 0.060193822 4289614080
1.4478201 -1.7772669 0.046114486 4289614080
1.4523256 -1.7826833 0.032722164 4289614080
1.4464011 -1.7752972 0.019073963 4289614080
1.4469738 -1.7758862 0.0055419193 4289614080
1.4263084 -1.750411 -0.0078883143 4289483520
1.4362657 -1.7625179 -0.021378078 4289483520
1.4441687 -1.7721024 -0.034980111 4289614080
1.4413209 -1.7684945 -0.048330251 4289483520
1.4441525 -1.7718551 -0.061817385 4289614080
1.4580584 -1.7888018 -0.075865328 4289614080
1.4569446 -1.7873207 -0.089166805 4289614080
1.4561372 -1.7862155 -0.10237194 4289614080
1.4462467 -1.7739694 -0.11472991 4289614080
1.4553629 -1.7850368 -0.12846237 4289614080
1.4574884 -1.7875291 -0.1415374 4289614080
1.4640056 -1.7954069 -0.15495948 4289744640
1.4508144 -1.7791156 -0.16606867 4289614080
1.4629191 -1.7938443 -0.17987993 4289744640
1.4686021 -1.8006973 -0.19285379 4289744640
1.4704561 -1.802855 -0.2051748 4289744640
1.4405044 -1.7660193 -0.21260491 4289614080
1.4560585 -1.7849737 -0.22639707 4289614080
1.462953 -1.7933106 -0.2387674 4289744640
1.4673355 -1.7985674 -0.25054821 4289744640
1.4610829 -1.7907885 -0.26022053 4289744640
1.4292297 -1.7516351 -0.26476839 4289483520
1.4677334 -1.798709 -0.28209257 4289744640
1.4714222 -1.8031141 -0.29270032 4289744640
1.4726739 -1.8045322 -0.30252609 4289744640
1.469594 -1.8006427 -0.3111088 4289744640
1.4669893 -1.7973359 -0.31940427 4289744640
1.4438046 -1.7688169 -0.32270607 4289614080
1.4523624 -1.7791871 -0.33264807 4289614080
1.4605302 -1.7890782 -0.34221098 4289744640
1.4599091 -1.7882026 -0.34936252 4289744640
1.4595774 -1.7876817 -0.35617751 4289744640
1.4623454 -1.7909571 -0.36334974 4289744640
1.4570038 -1.7843008 -0.36807802 4289744640
1.4596682 -1.7874489 -0.37439147 4289744640
1.4520184 -1.7779673 -0.3776089 4289744640
1.4344357 -1.7563251 -0.37772039 4289614080
1.4286144 -1.7490853 -0.38041532 4289614080
1.4202626 -1.7387486 -0.38195428 4289483520
1.4128153 -1.7295203 -0.38325179 4289483520
1.4125662 -1.7291044 -0.38603675 4289483520
1.3734813 -1.6811534 -0.37769046 4289222400
1.3795623 -1.6884884 -0.38126454 4289352960
1.3763412 -1.6844379 -0.38182664 4289352960
1.3762841 -1.68426 -0.38281608 4289352960
1.3762752 -1.6841412 -0.38337052 4289352960
1.4151886 -1.7316482 -0.39432099 4289483520
1.4065541 -1.7209725 -0.39156628 4289483520
1.4225692 -1.740456 -0.39520809 4289483520
1.4338846 -1.7541877 -0.3970623 4289614080
1.4417478 -1.763694 -0.39747614 4289614080
1.4451483 -1.7677407 -0.39618021 4289614080
1.452041 -1.7760581 -0.3953608 4289744640
1.4586225 -1.7839938 -0.39396819 4289744640
1.4572668 -1.7822216 -0.38996184 4289744640
1.4669346 -1.7939301 -0.38842785 4289744640
1.4550167 -1.7792416 -0.38073716 4289744640
1.4586999 -1.7836312 -0.37671193 4289744640
1.4473734 -1.7696681 -0.36840403 4289614080
1.4387978 -1.7590703 -0.3604475 4289614080
1.4398034 -1.7601867 -0.35450599 4289614080
1.4493494 -1.7717433 -0.35021174 4289614080
1.460057 -1.7847184 -0.34570083 4289744640
1.4721324 -1.7993635 -0.34100428 4289744640
1.4565477 -1.7802005 -0.32953376 4289744640
1.4431068 -1.76366 -0.31833345 4289614080
1.4413811 -1.761438 -0.30944246 4289614080
1.45327 -1.7758529 -0.3030614 4289614080
1.4641844 -1.7890754 -0.29599258 4289744640
1.4668288 -1.7921916 -0.28683192 4289744640
1.4417893 -1.7614851 -0.27208972 4289614080
1.4511834 -1.7728487 -0.26364642 4289614080
1.4642845 -1.788739 -0.25542173 4289744640
1.4650775 -1.789593 -0.24466546 4289744640
1.4628552 -1.786764 -0.23314564 4289614080
1.441733 -1.760852 -0.21853766 4289614080
1.4603637 -1.7834921 -0.20973103 4289614080
1.4655544 -1.7897166 -0.19857332 4289744640
1.4562907 -1.7782899 -0.18527408 4289614080
1.4445 -1.763779 -0.17162675 4289614080
1.4655821 -1.7894064 -0.16161734 4289614080
1.4560602 -1.7776667 -0.1479599 4289614080
1.4516754 -1.7721997 -0.13478503 4289614080
1.4066534 -1.7171271 -0.11812914 4289352960
1.4468337 -1.7660626 -0.10854038 4289614080
1.4514046 -1.7715285 -0.095762178 4289614080
1.4285014 -1.743462 -0.081235901 4289483520
1.4456469 -1.7642747 -0.068951659 4289483520
1.4546745 -1.7751783 -0.055966217 4289614080
1.4457259 -1.7641451 -0.042229418 4289483520
1.3968672 -1.704416 -0.027819315 4289222400
1.4621646 -1.7839757 -0.015499549 4289614080
1.4651067 -1.7874509 -0.0018674372 4289614080
1.4186748 -1.7306924 0.011422965 4289352960
1.351737 -1.648927 0.023478221 4289091840
1.5970831 -1.9480895 0.042588703 4290397440
1.7138174 -2.0903456 0.061585523 4290919680
1.7032552 -2.0773296 0.076924726 4290919680
1.6997887 -2.0729692 0.092370801 4290919680
1.8039229 -2.1998243 0.11448093 4291441920
1.767 -2.1546602 0.12812957 4291311360
1.7139765 -2.08987 0.13966075 4290919680
1.6586002 -2.0222197 0.14987987 4290658560
1.759254 -2.1448026 0.17442673 4291180800
1.7802018 -2.170202 0.19194539 4291311360
1.7740852 -2.162607 0.20646451 4291311360
1.6880201 -2.0575619 0.21067466 4290789120
1.8145041 -2.2115941 0.24150331 4291572480
1.7863582 -2.1771493 0.25230411 4291441920
1.7681082 -2.1547687 0.26384854 4291311360
1.7418531 -2.1226361 0.27355471 4291180800
1.7530035 -2.1360869 0.28871122 4291180800
1.7442735 -2.1253133 0.30029202 4291180800
1.7617338 -2.1464503 0.31610811 4291311360
1.7052215 -2.0774641 0.31802472 4290919680
1.6646791 -2.0279415 0.32188493 4290789120
1.6231905 -1.9772727 0.32464612 4290528000
1.5064735 -1.8349775 0.31097016 4289875200
1.4969541 -1.8232654 0.31826234 4289875200
1.4050604 -1.7112309 0.30707514 4289352960
1.3893352 -1.6919706 0.31154954 4289352960
1.3393245 -1.6309618 0.3076188 4289091840
1.3224081 -1.6102587 0.31057793 4288961280
1.3913352 -1.6940807 0.33359274 4289352960
1.4509846 -1.7665963 0.35461429 4289614080
1.4409724 -1.7542939 0.35843515 4289614080
1.4293928 -1.7400851 0.36136195 4289483520
1.4007026 -1.7050495 0.3593899 4289352960
1.4000797 -1.7041821 0.36409262 4289352960
1.3760135 -1.6747814 0.36219779 4289222400
1.3648182 -1.661049 0.36316133 4289222400
1.3634217 -1.659243 0.3662737 4289222400
1.3441426 -1.6356761 0.36410818 4289091840
-3.7954552 4.6183629 -1.0354418 4278190335
-3.7949431 4.6174436 -1.0414008 4278190335
-3.7945585 4.6166801 -1.0461755 4278190335
-3.7943044 4.6160755 -1.0497611 4278190335
-3.7941821 4.6156311 -1.0521537 4278190335
-3.7941933 4.6153488 -1.0533508 4278190335
1.3548365 -1.6479504 0.37611797 4289222400
1.3684785 -1.6644373 0.37944582 4289222400
1.3844918 -1.6838059 0.38297173 4289352960
1.401778 -1.7047201 0.38637388 4289352960
1.4106569 -1.7154081 0.38697818 4289483520
1.420525 -1.7272973 0.38737389 4289483520
1.4058474 -1.7093407 0.3806363 4289483520
1.3893398 -1.6891612 0.37302518 4289352960
1.4001902 -1.7022442 0.37233445 4289352960
1.4195094 -1.7256204 0.37337908 4289483520
1.4390589 -1.7492735 0.37393281 4289614080
1.45699 -1.7709568 0.37350783 4289744640
1.4456773 -1.7570937 0.3651343 4289614080
1.4195157 -1.7251861 0.3527385 4289483520
1.4804479 -1.7991239 0.3614195 4289744640
1.4771622 -1.7950161 0.35375729 4289744640
1.5818293 -1.9220822 0.37104315 4290397440
1.6184843 -1.9664956 0.3712467 4290528000
1.8270135 -2.2189462 0.34699312 4291572480
1.8167591 -2.2063508 0.33240378 4291572480
1.8297622 -2.2220001 0.32167718 4291572480
1.8339173 -2.2269034 0.30891362 4291572480
1.8099353 -2.1976416 0.2912184 4291441920
1.8134134 -2.2017238 0.27777356 4291441920
1.7991437 -2.1842587 0.2613897 4291441920
1.8000325 -2.1851978 0.24702631 4291441920
1.8072268 -2.1937912 0.2331913 4291441920
1.799176 -2.1838784 0.21714243 4291441920
1.8179181 -2.2064867 0.20399882 4291441920
1.7975261 -2.1815965 0.18625841 4291441920
1.7706852 -2.1488829 0.1680568 4291311360
1.7073791 -2.0719228 0.14700405 4290919680
1.6219616 -1.9681417 0.1252073 4290397440
1.5518708 -1.8829707 0.10584945 4290136320
1.4611192 -1.7727432 0.086420938 4289614080
1.4784863 -1.7936996 0.073958643 4289744640
1.4791106 -1.7943423 0.060415726 4289744640
1.4642446 -1.7761942 0.046307225 4289614080
1.4581634 -1.7687042 0.032620959 4289614080
1.4635553 -1.7751307 0.019163465 4289614080
1.4569796 -1.7670422 0.0055407165 4289614080
1.4351753 -1.7404861 -0.0078811366 4289483520
1.4518905 -1.7606444 -0.021457592 4289483520
1.4489763 -1.7569982 -0.034848012 4289483520
1.4585071 -1.7684417 -0.048560217 4289614080
1.4567289 -1.7661728 -0.061914198 4289614080
1.4688509 -1.7807556 -0.07588575 4289614080
1.481985 -1.7965639 -0.090057164 4289744640
1.4706401 -1.7826967 -0.10265959 4289614080
1.4624574 -1.7726642 -0.11519462 4289614080
1.4733058 -1.7856995 -0.12912562 4289614080
1.4805334 -1.7943447 -0.14275764 4289744640
1.4690319 -1.7802914 -0.15439099 4289614080
1.467187 -1.7779419 -0.16675422 4289614080
1.4732904 -1.7852238 -0.1798732 4289744640
1.4835067 -1.7974881 -0.19343249 4289744640
1.4858423 -1.8002028 -0.2058547 4289744640
1.4571074 -1.7652755 -0.21353376 4289614080
1.4753032 -1.7872051 -0.22776644 4289744640
1.4828753 -1.7962632 -0.24030675 4289744640
1.490449 -1.8053219 -0.25269455 4289744640
1.4790918 -1.7914507 -0.26156455 4289744640
1.4457346 -1.7509371 -0.26593161 4289614080
1.4718673 -1.7824725 -0.28088632 4289744640
1.4882203 -1.8021611 -0.29394817 4289744640
1.4944506 -1.8095899 -0.30482858 4289875200
1.4920522 -1.8065702 -0.31362954 4289875200
1.4837447 -1.7963965 -0.32076815 4289744640
1.4572384 -1.7641921 -0.3234058 4289614080
1.471577 -1.7814369 -0.33466604 4289744640
1.479041 -1.7903579 -0.34409824 4289744640
1.4791192 -1.7903382 -0.35145742 4289744640
1.4790947 -1.7901939 -0.35838893 4289744640
1.4755491 -1.7857883 -0.36403909 4289744640
1.473665 -1.7833939 -0.36965585 4289744640
1.4725726 -1.7819579 -0.37503201 4289744640
1.4717814 -1.7808865 -0.38004363 4289744640
1.4650716 -1.7726541 -0.38306141 4289744640
1.4482043 -1.7521335 -0.38290691 4289614080
1.4423025 -1.7448815 -0.38514096 4289614080
1.4451417 -1.7482045 -0.38925126 4289614080
1.432034 -1.7322371 -0.3885923 4289483520
1.4318274 -1.7318765 -0.39095354 4289483520
1.3925148 -1.6842179 -0.38212577 4289352960
1.3924081 -1.6839812 -0.38355556 4289352960
1.3948601 -1.6868387 -0.38524279 4289352960
1.4346272 -1.7348191 -0.39680257 4289614080
1.4252535 -1.7233737 -0.39432099 4289483520
1.4476076 -1.7502916 -0.40014935 4289614080
1.4407488 -1.7418873 -0.39743245 4289614080
1.4440806 -1.7458037 -0.3970623 4289614080
1.4614177 -1.7666502 -0.40005448 4289744640
1.4673558 -1.7737151 -0.39942843 4289744640
1.4711587 -1.7781982 -0.39773849 4289744640
1.4755443 -1.783385 -0.39572555 4289744640
1.4795681 -1.788134 -0.39313504 4289744640
1.486164 -1.7959905 -0.39074221 4289875200
1.4773089 -1.7851752 -0.38384223 4289744640
1.469067 -1.7751023 -0.37671193 4289744640
1.4671013 -1.7726138 -0.37079039 4289744640
1.4553196 -1.7582661 -0.362014 4289614080
1.4563345 -1.7593796 -0.35604629 4289614080
1.4599634 -1.7636509 -0.35028759 4289614080
1.4836718 -1.7921762 -0.34881389 4289744640
1.4863218 -1.7952625 -0.34186241 4289744640
1.4820459 -1.7899833 -0.33293739 4289744640
1.4600276 -1.7632772 -0.31979436 4289614080
1.4639803 -1.767938 -0.31207752 4289614080
1.473155 -1.7789038 -0.30504164 4289744640
1.4814875 -1.7888513 -0.29737851 4289744640
1.4779571 -1.7844743 -0.28697008 4289744640
1.4600964 -1.7627966 -0.27360168 4289614080
1.4613489 -1.7641959 -0.26362136 4289614080
1.4796965 -1.7862316 -0.25629041 4289744640
1.4824027 -1.789384 -0.24581352 4289744640
1.4824823 -1.7893656 -0.23460819 4289744640
1.4637623 -1.7666576 -0.22031289 4289614080
1.4745715 -1.7795898 -0.21027885 4289614080
1.481064 -1.7873108 -0.19926043 4289744640
1.4693608 -1.7730744 -0.18561947 4289614080
1.4570243 -1.7580755 -0.17189488 4289614080
1.477285 -1.7824086 -0.16175994 4289614080
1.4772955 -1.7823073 -0.14906003 4289614080
1.4664273 -1.7690821 -0.13519543 4289614080
1.4319291 -1.7273532 -0.11940457 4289483520
1.4641404 -1.7660972 -0.10906493 4289614080
1.4647498 -1.7667193 -0.095961906 4289614080
1.4539435 -1.7535731 -0.082100339 4289483520
1.4562583 -1.7562528 -0.068968564 4289614080
1.4745643 -1.7782161 -0.056331888 4289614080
1.471024 -1.7738334 -0.042665765 4289614080
1.4189018 -1.7108724 -0.028059151 4289352960
1.4878547 -1.7938992 -0.015660815 4289744640
1.490818 -1.7973571 -0.0018868293 4289744640
1.4466102 -1.743948 0.011565887 4289483520
1.3419358 -1.617655 0.023143888 4288961280
1.6173435 -1.9495246 0.04282536 4290397440
1.7042631 -2.0541651 0.060811087 4290789120
1.7338393 -2.0896797 0.077754818 4291050240
1.7271539 -2.0814893 0.093197279 4290919680
1.8415936 -2.2192652 0.11604906 4291572480
1.8069549 -2.1773834 0.13010469 4291441920
1.7478082 -2.1059771 0.14141527 4291050240
1.7239251 -2.0770669 0.15468678 4290919680
1.8404657 -2.2173388 0.18119477 4291572480
1.8138438 -2.1851261 0.19419675 4291441920
1.8140459 -2.1852298 0.2096298 4291441920
1.7184454 -2.0699356 0.21296313 4290919680
1.8490002 -2.2270515 0.24436347 4291572480
1.8263716 -2.1996555 0.25614113 4291572480
1.7958961 -2.1628129 0.26611027 4291311360
1.7758045 -2.1384799 0.27692527 4291311360
1.7743149 -2.1365495 0.29016602 4291311360
1.7782207 -2.1411159 0.30398351 4291311360
1.7428731 -2.0984204 0.31052494 4291050240
1.7477535 -2.104162 0.32366505 4291180800
1.7043717 -2.0518024 0.32724288 4290919680
1.6530665 -1.9899117 0.32829708 4290658560
1.5266432 -1.8376095 0.31291822 4290005760
1.5075514 -1.814513 0.31826234 4289875200
1.4764595 -1.7769766 0.32041124 4289744640
1.3991694 -1.6838474 0.31154954 4289352960
1.354496 -1.6299806 0.30891693 4289091840
1.3406177 -1.6131763 0.31264186 4288961280
1.4658637 -1.7637733 0.34899223 4289614080
1.4366187 -1.7284743 0.34863618 4289483520
1.4783694 -1.7785931 0.36515364 4289744640
1.4323376 -1.7231033 0.35956228 4289483520
1.4709693 -1.7694641 0.3747673 4289744640
1.4480246 -1.7417521 0.37391543 4289614080
1.4248949 -1.7138211 0.37242979 4289483520
1.473065 -1.7716454 0.38921127 4289744640
1.4574156 -1.7527119 0.38877457 4289614080
1.4041283 -1.6885198 0.37768608 4289352960
1.4612246 -1.7570682 0.39583853 4289614080
1.4729941 -1.7711073 0.40137759 4289744640
1.4327027 -1.7225513 0.39222839 4289483520
1.4420536 -1.7336832 0.39616817 4289614080
1.4487638 -1.7416393 0.3989318 4289614080
1.4758511 -1.7740889 0.40685195 4289744640
1.4337074 -1.7233188 0.39521936 4289483520
1.4295986 -1.7182702 0.39361039 4289483520
1.4959501 -1.797905 0.41089824 4289875200
1.4356797 -1.7253587 0.39294079 4289483520
1.449809 -1.7422277 0.39492726 4289614080
1.4167094 -1.7023433 0.3836222 4289483520
1.4426771 -1.7334358 0.38786694 4289614080
1.4765481 -1.7740197 0.39365801 4289744640
1.4498757 -1.7418625 0.38284147 4289614080
1.4941322 -1.794917 0.39025003 4289875200
1.4523823 -1.7446511 0.37474719 4289614080
1.4767557 -1.7738159 0.3759191 4289744640
1.4710523 -1.7668521 0.36893696 4289744640
1.483707 -1.7819376 0.36610344 4289744640
1.4820522 -1.7798367 0.35927349 4289744640
1.4844322 -1.7825809 0.35300508 4289744640
1.5986974 -1.9196737 0.37236997 4290397440
1.6362467 -1.9646363 0.3726891 4290528000
1.8551626 -2.2265697 0.34986955 4291703040
1.8512021 -2.2216744 0.33633164 4291703040
1.8579459 -2.2296255 0.3243427 4291703040
1.8459246 -2.2150576 0.3087571 4291572480
1.8469106 -2.2160993 0.29508519 4291572480
1.8357688 -2.2025895 0.27922744 4291572480
1.8465667 -2.2154036 0.26639977 4291572480
1.8538567 -2.2240076 0.25263029 4291703040
1.8416754 -2.2092528 0.23597141 4291572480
1.829746 -2.1948025 0.21928488 4291441920
1.8492661 -2.2180753 0.20606287 4291572480
1.8312931 -2.1963775 0.18842813 4291441920
1.7889282 -2.1454298 0.16859902 4291311360
1.6765767 -2.0105603 0.14334098 4290658560
1.6148499 -1.9364134 0.12378529 4290397440
1.5781722 -1.8923113 0.10688959 4290136320
1.4714228 -1.7642004 0.086420938 4289614080
1.4921126 -1.7888929 0.074117646 4289744640
1.4953028 -1.792603 0.060649473 4289744640
1.4777802 -1.7714834 0.046408094 4289614080
1.477411 -1.7709277 0.032820169 4289614080
1.4802787 -1.7742519 0.019246757 4289614080
1.4791481 -1.7727835 0.0055856467 4289614080
1.4516981 -1.739773 -0.0079160715 4289483520
1.4749371 -1.7675108 -0.021645637 4289614080
1.4777671 -1.770789 -0.035291709 4289614080
1.474551 -1.7668223 -0.048750829 4289614080
1.470197 -1.7614927 -0.062049367 4289614080
1.484965 -1.7790732 -0.076181456 4289614080
1.4895464 -1.784448 -0.089883342 4289744640
1.4836271 -1.7772434 -0.10284159 4289614080
