# .PCD v0.7 - Point Cloud Data file format
VERSION 0.7
FIELDS x y z rgba
SIZE 4 4 4 4
TYPE F F F U
COUNT 1 1 1 1
WIDTH 1116
HEIGHT 1
VIEWPOINT 0 0 0 1 0 0 0
POINTS 1116
DATA ascii
3.0522308 1.286147 -0.39902037 4293139200
3.0389025 1.2806373 -0.38257119 4293008640
3.0555172 1.2877362 -0.36946431 4293139200
3.0713289 1.2944978 -0.35568768 4293139200
3.0760603 1.2965932 -0.3401241 4293139200
3.0524578 1.2867535 -0.32114014 4293008640
3.0483766 1.2851357 -0.30401704 4293008640
3.0666687 1.2929431 -0.28872529 4293139200
3.0641794 1.2919958 -0.27106306 4293139200
3.0361128 1.2802707 -0.25100598 4293008640
3.0593472 1.2901616 -0.23497263 4293008640
3.0604572 1.2907301 -0.21683088 4293008640
3.031105 1.2784597 -0.19645055 4293008640
2.9979315 1.2645767 -0.17598858 4292878080
2.9233055 1.2332178 -0.1535425 4292486400
2.9332483 1.237505 -0.13582344 4292616960
2.9596794 1.248744 -0.11850605 4292616960
3.0395133 1.2825006 -0.10256474 4293008640
2.8989856 1.2233452 -0.079336025 4292486400
2.9610643 1.2496177 -0.062192503 4292616960
3.0147629 1.2723601 -0.044064544 4292878080
2.7450325 1.1586978 -0.022350371 4291833600
1.9709696 0.83229625 -0.0028587678 4289091840
1.8295891 0.7727232 0.009237363 4288569600
1.8627577 0.78677517 0.0213277 4288700160
2.1447897 0.90582132 0.038004201 4289744640
2.1560464 0.91064072 0.051960815 4289744640
2.1613228 0.91293746 0.065826513 4289744640
2.1458111 0.90646231 0.078940928 4289744640
2.12814 0.89907497 0.091682181 4289614080
2.1367452 0.90277642 0.10537285 4289744640
2.1312482 0.90052623 0.11828534 4289614080
1.9259462 0.81393504 0.11887901 4288961280
1.9878978 0.84015101 0.13467474 4289091840
2.0000429 0.84534389 0.14744703 4289222400
1.9156507 0.80977821 0.15261526 4288830720
1.986558 0.83978182 0.16973341 4289091840
2.1608841 0.91346186 0.19679862 4289744640
2.1748316 0.9194237 0.21027026 4289875200
2.1624722 0.91427606 0.22100122 4289744640
2.129894 0.90058774 0.22919664 4289744640
1.9519697 0.82550138 0.22052956 4289091840
2.0203102 0.85443687 0.23858023 4289352960
1.9847624 0.83948648 0.24438092 4289222400
2.010262 0.85032725 0.25730321 4289222400
1.9549251 0.82701266 0.25954035 4289091840
1.8432353 0.77988094 0.2532936 4288700160
2.138602 0.9047699 0.30300331 4289744640
2.1392844 0.90513116 0.31223521 4289744640
2.1409521 0.9059093 0.32126465 4289744640
2.1299036 0.90131235 0.32799655 4289744640
2.1138701 0.89460754 0.33348763 4289614080
2.096911 0.8875106 0.33833089 4289614080
2.1281731 0.90080154 0.35055894 4289744640
2.1174912 0.89635891 0.35559106 4289744640
2.1177857 0.89655745 0.36201093 4289744640
2.102313 0.89008802 0.36529154 4289614080
2.0787709 0.88020468 0.36665073 4289614080
2.0720515 0.87743604 0.37045524 4289483520
2.0042551 0.84882969 0.36281249 4289352960
2.0208943 0.8559407 0.36981809 4289352960
2.0339503 0.86153716 0.37579671 4289352960
1.9556442 0.82847601 0.36446205 4289091840
1.9724641 0.83566445 0.37021628 4289222400
1.9675618 0.83366138 0.37150261 4289222400
1.9672636 0.83360684 0.37321153 4289222400
1.9670322 0.83358091 0.37449485 4289222400
1.9668686 0.83358401 0.37535122 4289222400
1.9622381 0.83169621 0.37491855 4289091840
1.9576764 0.82983762 0.37405759 4289091840
2.0272925 0.85938817 0.38682628 4289352960
2.0183353 0.85567087 0.3842276 4289352960
2.0058172 0.85044527 0.38051647 4289352960
2.0408912 0.86537629 0.38530886 4289483520
2.0678189 0.87685966 0.38805959 4289483520
2.097357 0.88945121 0.39077324 4289614080
2.1077731 0.89394414 0.38943249 4289744640
2.1141355 0.89672059 0.38686454 4289744640
2.1156018 0.89742333 0.38294023 4289744640
2.1154282 0.89743143 0.37827182 4289744640
2.1078801 0.89431453 0.37187105 4289614080
2.0950408 0.88895452 0.36416197 4289614080
2.1040323 0.89284772 0.35980946 4289614080
2.1239562 0.90137655 0.35681313 4289744640
2.1330509 0.90531605 0.35150835 4289744640
2.1314383 0.90471637 0.34402186 4289744640
2.0808022 0.88332868 0.32846588 4289614080
2.1123426 0.8972494 0.27593294 4289614080
2.1479681 0.91245246 0.27023548 4289744640
2.1510937 0.91386604 0.25999185 4289744640
2.1320498 0.9058708 0.24688047 4289744640
2.0202873 0.85851794 0.22352858 4289352960
2.0028443 0.85119581 0.21093652 4289222400
1.8774972 0.79806167 0.18763573 4288830720
1.9756019 0.83979303 0.186342 4289091840
2.1039126 0.89435905 0.18638712 4289614080
2.1266115 0.90408522 0.17611812 4289614080
2.1316729 0.90632248 0.16405053 4289744640
2.1098349 0.89713472 0.14985761 4289614080
2.120837 0.90189552 0.1378631 4289614080
2.1420255 0.91098493 0.12617373 4289744640
2.1313319 0.90653032 0.11243428 4289614080
1.8833442 0.80124348 0.087882347 4288830720
1.8687403 0.79511559 0.075506419 4288700160
1.9411099 0.82595062 0.066104099 4288961280
2.9663923 1.2618229 0.081154428 4292747520
3.0096376 1.2803293 0.063118726 4292878080
2.9099021 1.2380542 0.04246705 4292486400
2.9576027 1.2584561 0.024151923 4292616960
2.9404213 1.2512735 0.005123625 4292616960
3.0149522 1.2830904 -0.014181787 4292878080
2.9748509 1.2661611 -0.033086382 4292747520
3.006196 1.2796171 -0.052741952 4292878080
3.0200355 1.2856292 -0.072315976 4292878080
3.0604439 1.3029454 -0.092813984 4293008640
3.0770373 1.3101324 -0.11284176 4293139200
3.0848777 1.3135964 -0.13257989 4293139200
3.0349202 1.2924653 -0.14939791 4293008640
3.0637007 1.3048397 -0.16984597 4293139200
3.0784154 1.3112297 -0.1895946 4293139200
3.063067 1.3048239 -0.20726953 4293139200
3.0510116 1.2998184 -0.22478163 4293008640
3.0658844 1.3062764 -0.24406706 4293139200
3.0759439 1.3106862 -0.26285049 4293139200
3.0877872 1.3158562 -0.28162995 4293139200
3.0705652 1.3086487 -0.29740793 4293139200
2.8236539 1.2036114 -0.28902468 4292225280
3.0708241 1.3090107 -0.33116147 4293139200
3.066386 1.3072456 -0.34698662 4293139200
3.0392687 1.2958177 -0.35968783 4293008640
2.903199 1.237965 -0.35821143 4292486400
2.8208499 1.2029924 -0.36190292 4292225280
3.0686398 1.3087047 -0.40851289 4293139200
3.0633481 1.3065735 -0.4220067 4293139200
3.0379214 1.2958591 -0.43210676 4293008640
2.9045281 1.2391182 -0.42562059 4292616960
2.8616607 1.2209593 -0.43121532 4292486400
2.6993845 1.1518855 -0.41744173 4291833600
2.6066437 1.1124483 -0.41298851 4291441920
2.6007974 1.1100588 -0.42151001 4291441920
2.6077251 1.1131163 -0.43163234 4291572480
2.5549803 1.0907224 -0.4312031 4291311360
2.5929029 1.1069993 -0.44557995 4291441920
2.5469751 1.0875082 -0.44497317 4291311360
2.5023077 1.0685508 -0.4438251 4291180800
2.5621567 1.0941843 -0.46079329 4291311360
2.5830264 1.103189 -0.47039178 4291441920
2.5226715 1.0775322 -0.46453243 4291180800
2.5309963 1.0811821 -0.47071335 4291311360
2.5647695 1.0956944 -0.48116556 4291441920
2.5732384 1.0994076 -0.48636389 4291441920
2.5727298 1.0992882 -0.48930597 4291441920
2.5007405 1.0686502 -0.47797394 4291180800
2.4958892 1.066673 -0.47888324 4291180800
2.4956539 1.0666664 -0.48011878 4291180800
2.4783034 1.05935 -0.47748658 4291050240
2.5624683 1.0953885 -0.49391493 4291441920
2.5543513 1.0920165 -0.49193469 4291311360
2.5327423 1.0828801 -0.48678413 4291311360
2.5066917 1.0718445 -0.48023385 4291180800
2.5655324 1.0970753 -0.48940271 4291441920
2.5269735 1.0806935 -0.47935846 4291311360
2.5800629 1.103471 -0.48616683 4291441920
2.5371299 1.0852168 -0.4742589 4291311360
2.5961025 1.1105121 -0.48087054 4291441920
2.5623765 1.0961901 -0.46966648 4291311360
2.6145897 1.1186004 -0.47367278 4291572480
2.5846231 1.1058828 -0.46215639 4291441920
2.6684923 1.1418307 -0.47038263 4291703040
2.7131035 1.1609989 -0.47078866 4291964160
2.7968671 1.1969112 -0.47709879 4292225280
2.922075 1.2505521 -0.4893122 4292616960
2.9923322 1.2807006 -0.49110755 4292878080
3.0348499 1.2989893 -0.48739189 4293139200
3.0362983 1.2997139 -0.47635075 4293139200
3.0341413 1.2988957 -0.46420529 4293139200
3.0096881 1.2885388 -0.4482204 4293008640
3.0062034 1.2871509 -0.43497783 4293008640
3.0391834 1.3013647 -0.42641133 4293139200
3.0543566 1.3079606 -0.41464573 4293139200
3.0249581 1.2954834 -0.39641243 4293008640
3.0310667 1.2982 -0.3825179 4293008640
3.0561445 1.3090357 -0.37044793 4293139200
3.0776207 1.318331 -0.35729459 4293139200
3.069979 1.3151629 -0.34028146 4293139200
3.0341568 1.2999296 -0.31998795 4293008640
3.0362604 1.3009315 -0.30354455 4293008640
3.0505829 1.307165 -0.2879059 4293008640
3.0517454 1.3077641 -0.27061746 4293008640
3.0197945 1.2941823 -0.25025874 4293008640
3.0608754 1.3118762 -0.23566566 4293139200
3.0644519 1.313509 -0.21764643 4293139200
3.0539107 1.3090948 -0.19842453 4293008640
2.9626997 1.2701228 -0.17432341 4292747520
2.9905062 1.2821327 -0.15749472 4292878080
3.0366893 1.3020175 -0.14101717 4293008640
3.0185573 1.294348 -0.12119141 4292878080
3.011291 1.2913332 -0.10183989 4292878080
2.9218526 1.253104 -0.080167316 4292616960
2.837611 1.2170961 -0.059663448 4292225280
2.8000567 1.201093 -0.040888455 4292094720
2.3444605 1.0058995 -0.018857304 4290397440
1.9091018 0.81935173 -0.0027133673 4288830720
1.7634741 0.75698334 0.0089971237 4288308480
1.7838905 0.76579422 0.02055943 4288439040
2.1228542 0.91118884 0.037732661 4289614080
2.1415153 0.91926014 0.051755909 4289744640
2.1375926 0.91764802 0.065290995 4289744640
2.1267149 0.91305304 0.078454234 4289614080
2.1231918 0.91161174 0.091704659 4289614080
2.1269231 0.9132818 0.10516206 4289614080
2.1146653 0.90809363 0.11767606 4289614080
1.952442 0.83857012 0.1207888 4289091840
1.9401898 0.8333779 0.13182163 4288961280
1.9312308 0.82959795 0.14280206 4288961280
1.9341463 0.83091283 0.15445444 4288961280
1.9031159 0.81766087 0.16309913 4288830720
2.1306481 0.91537207 0.19456044 4289744640
2.1532655 0.92515016 0.20872742 4289744640
2.1373622 0.91839588 0.21900648 4289744640
2.1169131 0.90968925 0.22838272 4289614080
1.8489909 0.79474264 0.20953129 4288700160
2.1005545 0.90280807 0.24858999 4289614080
2.1017394 0.90338761 0.25930193 4289614080
2.0738215 0.89147079 0.26603222 4289483520
1.9811416 0.85174161 0.26364824 4289222400
1.8305277 0.78712589 0.25219062 4288569600
2.1195128 0.91130656 0.30106896 4289744640
2.1157188 0.90974951 0.30959195 4289744640
2.1174998 0.91058725 0.318564 4289744640
2.0969441 0.90182948 0.32376263 4289614080
2.0685601 0.88970727 0.3272033 4289483520
1.995893 0.85855621 0.32294598 4289222400
2.0951962 0.90129673 0.34602445 4289614080
2.1015046 0.90408093 0.35380524 4289614080
2.0974035 0.90239227 0.35944456 4289614080
2.0739641 0.89239174 0.36129695 4289614080
2.073607 0.89231163 0.36665922 4289614080
2.0692272 0.89050263 0.37087753 4289614080
2.0685303 0.89027685 0.37530831 4289614080
2.0715153 0.89163446 0.3799701 4289614080
2.0467353 0.88105398 0.37908885 4289483520
2.0589035 0.88636047 0.3845408 4289483520
2.0539281 0.88429564 0.38637275 4289483520
2.0626001 0.88810027 0.3903068 4289483520
2.0577614 0.88609457 0.39124736 4289483520
2.0620439 0.88801247 0.39345121 4289483520
2.0573475 0.88606822 0.39349091 4289483520
2.0527234 0.88415509 0.39307904 4289483520
2.0481713 0.8822729 0.39221805 4289483520
2.0482154 0.88236845 0.39177117 4289483520
2.0652676 0.88978404 0.39409029 4289614080
2.06093 0.88799512 0.39188471 4289483520
2.0657127 0.89013183 0.39094168 4289614080
2.0696604 0.89190978 0.38937441 4289614080
2.0664332 0.89059961 0.38600907 4289614080
2.0745966 0.89419359 0.38429838 4289614080
2.0886035 0.90030468 0.38317683 4289614080
2.0852106 0.89892441 0.37841702 4289614080
2.0930285 0.9023723 0.37522766 4289614080
2.0774908 0.89576185 0.36746052 4289614080
2.0785985 0.89632022 0.36222655 4289614080
2.0835755 0.8985458 0.35722563 4289614080
2.108578 0.90939951 0.35513341 4289744640
2.1122987 0.91108602 0.34898269 4289744640
2.10324 0.9072665 0.34035116 4289614080
2.0856063 0.89975125 0.33004388 4289614080
2.1008515 0.90686733 0.2751326 4289614080
2.1222668 0.91618788 0.26769859 4289744640
2.1269605 0.91829884 0.25774515 4289744640
2.0907063 0.90274876 0.24274339 4289614080
2.0526187 0.88640493 0.22764185 4289483520
2.0814517 0.89892793 0.21968211 4289483520
2.0764408 0.89685166 0.20781372 4289483520
2.0094554 0.8680343 0.18997557 4289222400
2.0829973 0.89985251 0.18501984 4289483520
2.0947566 0.90501368 0.17394854 4289614080
2.0997951 0.9072752 0.1620359 4289614080
2.0963261 0.90586501 0.14928715 4289614080
2.1063807 0.91029274 0.13728338 4289614080
2.1018431 0.90842146 0.12415832 4289614080
2.1127715 0.91322768 0.11175522 4289614080
1.88323 0.81419611 0.088099755 4288830720
1.8374698 0.79451293 0.074464656 4288569600
1.9013953 0.82219917 0.064957023 4288830720
2.4375038 1.0538461 0.067207046 4290789120
-5.5708375 -2.4055195 -0.11160018 4278190335
2.8760197 1.2435 0.042107113 4292355840
2.8541126 1.2341551 0.023439186 4292355840
2.9110498 1.2588778 0.0051113782 4292486400
2.9679537 1.2835908 -0.013958736 4292747520
2.9499836 1.2759485 -0.03286881 4292616960
2.8431799 1.229908 -0.049899105 4292225280
2.8694205 1.2413702 -0.068782456 4292355840
3.0037394 1.2995588 -0.091280751 4292878080
3.0068138 1.3010137 -0.11049344 4292878080
2.9567344 1.279485 -0.12730859 4292747520
2.8669665 1.2407889 -0.14137776 4292355840
2.9905629 1.2943623 -0.16615658 4292878080
2.9850192 1.2920892 -0.18424198 4292878080
2.9745264 1.2876748 -0.20172438 4292747520
2.9083271 1.25916 -0.21471807 4292486400
3.0156238 1.305703 -0.24063133 4293008640
3.0405178 1.3165996 -0.26044649 4293008640
3.026366 1.3106016 -0.27667794 4293008640
2.8813522 1.2479683 -0.2796703 4292486400
2.7945929 1.2105365 -0.28674272 4292094720
3.0124233 1.3049413 -0.32563832 4293008640
2.9906051 1.2956201 -0.33921134 4292878080
2.9190857 1.2647792 -0.34625891 4292616960
2.9223781 1.2663243 -0.36148459 4292616960
2.8356638 1.2288946 -0.3647165 4292355840
3.0061255 1.3028307 -0.40115374 4293008640
3.0136063 1.3061929 -0.41616163 4293008640
2.9331079 1.2714478 -0.41818297 4292747520
2.8972592 1.2560372 -0.42560863 4292616960
2.8417747 1.2321168 -0.42927462 4292355840
2.7902498 1.2099071 -0.43261999 4292225280
2.7543242 1.1944522 -0.43756023 4292094720
2.7071531 1.1741209 -0.43990263 4291964160
2.7022173 1.1720896 -0.44844252 4291833600
2.6480327 1.1487119 -0.44807667 4291703040
2.59094 1.1240691 -0.44635242 4291441920
2.6333158 1.1425412 -0.46125561 4291703040
2.5703578 1.1153497 -0.45707291 4291441920
2.5992551 1.1279795 -0.46865347 4291572480
2.6245809 1.1390626 -0.47917598 4291572480
2.5585372 1.1105242 -0.47233412 4291441920
2.5749664 1.1177484 -0.48011214 4291441920
2.5869455 1.1230433 -0.48655069 4291441920
2.5863483 1.1228836 -0.49007031 4291441920
2.607523 1.1321682 -0.49718174 4291572480
2.5270121 1.0973378 -0.48421741 4291311360
2.5095215 1.0898446 -0.48271009 4291180800
2.5128975 1.0914042 -0.4846544 4291180800
2.5937128 1.1265696 -0.50103807 4291572480
2.5936522 1.1266403 -0.50119275 4291572480
2.5765235 1.1193025 -0.49745771 4291441920
2.5630984 1.1135706 -0.49386737 4291441920
2.5416324 1.1043466 -0.48816538 4291311360
2.6160841 1.1367632 -0.5003221 4291572480
2.5902796 1.1256551 -0.49263224 4291572480
2.5609379 1.1130087 -0.48375911 4291441920
2.6232903 1.1401787 -0.49164012 4291572480
2.5805466 1.1217103 -0.47917587 4291441920
2.6370676 1.1463519 -0.48460811 4291703040
2.6952183 1.1717052 -0.48954606 4291833600
2.7318442 1.1877117 -0.48978615 4291964160
2.7500339 1.1957111 -0.48601341 4292094720
2.7909443 1.213583 -0.48554933 4292225280
2.8745317 1.2500008 -0.49161428 4292486400
2.9364929 1.2770267 -0.49296311 4292747520
2.9712174 1.2922199 -0.48885038 4292878080
2.9932027 1.3018786 -0.48188403 4293008640
2.9946306 1.3026031 -0.47096694 4293008640
2.9800055 1.2963494 -0.45703483 4292878080
2.9607334 1.2880743 -0.44200647 4292878080
2.9611802 1.2883703 -0.4295105 4292878080
2.9833508 1.2981111 -0.41959465 4292878080
2.9848793 1.2988775 -0.4061901 4292878080
2.9611747 1.288671 -0.38898942 4292747520
2.9626844 1.2894281 -0.37478557 4292747520
2.98944 1.3011647 -0.36323172 4292878080
3.0032437 1.3072696 -0.34949058 4292878080
2.9844372 1.29919 -0.33157948 4292878080
2.9659219 1.2912356 -0.31353468 4292747520
2.9535978 1.2859732 -0.29597133 4292747520
2.9629974 1.2901614 -0.2802884 4292747520
2.9329062 1.2771666 -0.2606611 4292616960
2.8853018 1.2565489 -0.23963223 4292486400
2.9480414 1.2839482 -0.22747926 4292747520
2.9687541 1.2930603 -0.21131925 4292747520
2.95468 1.2870327 -0.1923966 4292747520
2.9079185 1.2667755 -0.17149135 4292486400
2.8727436 1.251559 -0.15159701 4292355840
2.9640636 1.2914102 -0.13794112 4292747520
2.9719174 1.294927 -0.11958412 4292747520
2.9564953 1.2883097 -0.10019813 4292747520
2.9325526 1.2779808 -0.080662973 4292616960
2.8280535 1.2325693 -0.059599172 4292225280
2.8306472 1.2337917 -0.041452717 4292225280
2.7309973 1.190482 -0.022324767 4291833600
2.0075653 0.87545705 -0.0029545876 4289222400
1.7452817 0.7612682 0.0089489175 4288308480
1.7415273 0.75968987 0.020169942 4288308480
2.111203 0.92080766 0.03763482 4289614080
2.1187084 0.92414719 0.05135867 4289614080
2.1239619 0.92650592 0.065054856 4289614080
2.1085317 0.91985154 0.078000575 4289614080
2.0958595 0.91439819 0.090782106 4289614080
2.1127331 0.92182153 0.10474139 4289614080
2.1012044 0.91686612 0.11723882 4289614080
2.0278409 0.88495547 0.12569457 4289352960
2.0991783 0.91612172 0.14281879 4289614080
2.1044469 0.91848814 0.15582094 4289614080
2.1019557 0.91747177 0.16810156 4289614080
2.0349877 0.88834071 0.17469889 4289352960
2.0752778 0.90597802 0.19004133 4289483520
2.0805278 0.90833688 0.20226134 4289483520
2.0086446 0.87705511 0.20646934 4289222400
1.9824073 0.86567843 0.21455181 4289222400
1.7269653 0.75431859 0.19634257 4288308480
2.1162548 0.9242022 0.25106812 4289744640
2.1082022 0.92076051 0.26075324 4289614080
2.1016109 0.91795611 0.27025226 4289614080
2.0760517 0.90687501 0.27687424 4289614080
2.0412149 0.89174378 0.28167468 4289483520
2.0980117 0.91660064 0.29879415 4289614080
2.0972109 0.91632318 0.30768245 4289614080
2.0586586 0.89956802 0.31056052 4289483520
1.9891779 0.86930972 0.30801958 4289222400
1.9539967 0.85402042 0.30999193 4289091840
1.8856325 0.82424158 0.30600536 4288830720
2.0256095 0.88542461 0.33545718 4289352960
2.0328476 0.88865638 0.34318998 4289483520
2.0192935 0.88280904 0.34702244 4289352960
2.0505655 0.89653796 0.35815352 4289483520
2.0442021 0.89383155 0.36241007 4289483520
2.0671749 0.90393907 0.37145245 4289614080
2.0538213 0.89817989 0.373602 4289483520
2.0739596 0.90705168 0.38138139 4289614080
2.073379 0.90687299 0.3849681 4289614080
2.0728617 0.90672231 0.38811478 4289614080
2.0687976 0.90502197 0.39014092 4289614080
2.0557866 0.89941174 0.39001292 4289483520
2.055474 0.89935082 0.39180735 4289483520
2.0552313 0.89932072 0.39315486 4289483520
2.0505464 0.89734918 0.39319384 4289483520
2.071192 0.90645117 0.39760175 4289614080
2.0630405 0.90296489 0.39605179 4289614080
2.0712075 0.90661341 0.39714894 4289614080
2.0586867 0.90121663 0.39383999 4289483520
2.0679002 0.90532392 0.39420116 4289614080
2.0591431 0.90157276 0.39069602 4289483520
2.0517869 0.89843398 0.38701293 4289483520
2.0406926 0.89365983 0.38219866 4289483520
2.0286381 0.88846523 0.37679195 4289483520
2.01969 0.88462889 0.37155277 4289352960
2.0283935 0.88851565 0.36910534 4289483520
2.0208845 0.8853091 0.36329532 4289352960
2.0215635 0.88568544 0.35853994 4289352960
2.0177691 0.88410431 0.35258806 4289352960
2.0289247 0.88906682 0.3488012 4289352960
2.0754564 0.90951616 0.3504805 4289614080
2.0982387 0.91957247 0.34755731 4289614080
2.0927303 0.91724449 0.33952388 4289614080
2.0767329 0.91032368 0.32948604 4289614080
1.9373912 0.84981823 0.25454396 4289091840
2.0117824 0.88249308 0.25452381 4289352960
2.0349646 0.89273429 0.24732073 4289352960
2.0501983 0.89949423 0.23868981 4289483520
2.0625548 0.90499443 0.22931737 4289483520
2.0813501 0.91331828 0.22023267 4289614080
2.0959678 0.9198125 0.2102841 4289614080
2.0525599 0.90086895 0.1945013 4289483520
2.0609021 0.904612 0.18354793 4289483520
2.081229 0.91361111 0.17328121 4289483520
2.0774398 0.91203636 0.16074371 4289483520
2.0718236 0.90966004 0.14794476 4289483520
2.0815227 0.91400093 0.13603576 4289483520
2.1010869 0.9226703 0.12443344 4289614080
2.0967226 0.92084384 0.11120723 4289614080
1.8958377 0.83279455 0.08890444 4288830720
1.8016951 0.7915656 0.073241815 4288439040
1.8746055 0.82363671 0.064235359 4288830720
2.6346753 1.1572888 0.072675407 4291572480
2.7472956 1.2068304 0.058091056 4291964160
2.8547146 1.2540984 0.041922808 4292355840
2.9713273 1.3054115 0.024392681 4292747520
2.9742222 1.3068078 0.005201926 4292747520
2.9501321 1.2963556 -0.013891327 4292747520
2.946538 1.2949017 -0.032904163 4292747520
2.837213 1.247014 -0.049909994 4292355840
2.8090489 1.2347637 -0.067460805 4292225280
2.9416897 1.2931447 -0.089577191 4292616960
2.9772222 1.3088777 -0.10965872 4292747520
2.9181261 1.28304 -0.12593488 4292616960
2.9139791 1.2813407 -0.14408331 4292616960
2.9518847 1.2981195 -0.16439432 4292747520
2.9808376 1.3109671 -0.1844417 4292878080
2.9413903 1.2937549 -0.19995776 4292747520
2.8835878 1.2684714 -0.21341129 4292486400
2.9852469 1.3132799 -0.23878856 4292878080
3.001307 1.320465 -0.2577123 4292878080
2.9842741 1.3131013 -0.27349299 4292878080
2.8649147 1.2607418 -0.2787658 4292486400
2.7656207 1.2171961 -0.28446829 4292094720
2.9910922 1.3164719 -0.32413614 4292878080
2.9772854 1.3105229 -0.33854529 4292878080
2.9465888 1.2971432 -0.35041881 4292747520
2.8712966 1.2641423 -0.35603511 4292486400
2.7930059 1.2298156 -0.36011386 4292225280
3.0059545 1.3236276 -0.40214458 4293008640
2.9911599 1.3172402 -0.41409448 4293008640
2.9745178 1.3100383 -0.42518139 4292878080
2.8590536 1.259341 -0.42103845 4292486400
2.8082583 1.2370987 -0.42526728 4292225280
2.8165374 1.2408569 -0.43781582 4292355840
2.8057859 1.236237 -0.44689271 4292225280
2.7781384 1.2241771 -0.4526206 4292225280
2.7460356 1.2101527 -0.45689335 4292094720
2.7242129 1.2006524 -0.46217844 4291964160
2.7010162 1.190545 -0.46655837 4291964160
2.6561561 1.1708937 -0.46644887 4291703040
2.6038809 1.1479722 -0.46422768 4291572480
2.6245639 1.1571859 -0.47443131 4291703040
2.6543257 1.1704007 -0.48585248 4291703040
2.5782592 1.1369895 -0.47719398 4291441920
2.6036575 1.1482811 -0.4867098 4291572480
2.6282198 1.1592062 -0.49559113 4291703040
2.5536194 1.1264299 -0.48507872 4291441920
2.566633 1.1322638 -0.490605 4291441920
2.5743217 1.1357511 -0.49456212 4291441920
2.5784929 1.137688 -0.4972758 4291441920
2.5782487 1.1376783 -0.49855867 4291441920
2.5780962 1.1377083 -0.49927753 4291441920
2.5483065 1.1246697 -0.49365589 4291441920
2.6303897 1.1609623 -0.5091778 4291703040
2.5962799 1.1460173 -0.50155032 4291572480
2.5703661 1.1346843 -0.49495471 4291441920
2.6502929 1.1700344 -0.50817102 4291703040
2.6155472 1.1548046 -0.4987157 4291572480
2.5907927 1.1439797 -0.49065903 4291572480
2.6505907 1.1704571 -0.49803388 4291703040
2.7178512 1.2002313 -0.50603122 4291964160
2.7220805 1.202196 -0.50154877 4291964160
2.7479312 1.2137022 -0.50041735 4292094720
2.7660053 1.2217777 -0.49718919 4292225280
2.805835 1.2394565 -0.49716488 4292355840
2.8171103 1.2445335 -0.49136052 4292355840
2.8798518 1.2723308 -0.49377805 4292616960
2.9163454 1.2885438 -0.49081409 4292747520
2.9509752 1.3039361 -0.48674282 4292878080
2.9805958 1.3171188 -0.48106667 4292878080
2.982017 1.3178504 -0.47016773 4292878080
2.9667106 1.3111942 -0.45614433 4292878080
2.939445 1.2992547 -0.43993145 4292747520
2.9479265 1.3031023 -0.42866665 4292747520
2.9707401 1.3132811 -0.41887495 4292878080
2.9722614 1.314055 -0.40549287 4292878080
2.9610839 1.3092183 -0.38996446 4292878080
2.9333162 1.2970504 -0.37199605 4292747520
2.9640887 1.3107473 -0.36105123 4292878080
2.9918325 1.3231076 -0.34903923 4292878080
2.9888494 1.3218902 -0.33291373 4292878080
2.9345391 1.2979875 -0.31098577 4292747520
2.9322534 1.2970756 -0.29456466 4292747520
2.9711239 1.3143561 -0.28177309 4292878080
2.9566958 1.3080772 -0.26345381 4292747520
2.9416285 1.3015145 -0.24496111 4292747520
2.9718163 1.3149596 -0.22990677 4292878080
2.9762847 1.3170342 -0.21239418 4292878080
2.9516957 1.3062595 -0.19268484 4292747520
2.8152299 1.2460073 -0.1663871 4292225280
2.8791046 1.2743502 -0.15231824 4292486400
2.9416797 1.3021224 -0.13722885 4292747520
2.9850185 1.3213897 -0.120419 4292878080
2.9571655 1.3091669 -0.10047025 4292747520
2.9421642 1.3026277 -0.081133023 4292747520
2.8379192 1.2566031 -0.059959576 4292355840
2.7797561 1.2309613 -0.040771358 4292094720
2.4459703 1.0833528 -0.019844554 4290919680
1.8555304 0.82214469 -0.0025914784 4288700160
1.776482 0.78722173 0.0091007454 4288439040
1.7416434 0.77186072 0.020225322 4288308480
2.0888171 0.92558783 0.037355673 4289614080
2.1004891 0.93082339 0.051068287 4289614080
2.1081975 0.93430501 0.064756118 4289614080
2.0766335 0.92040026 0.077051356 4289483520
2.0884297 0.92569172 0.090703145 4289614080
2.0945377 0.92846537 0.1041268 4289614080
2.0854857 0.92452621 0.11667914 4289614080
2.0574393 0.91217458 0.12783007 4289483520
2.0777478 0.92123735 0.14174806 4289483520
2.0827026 0.92350107 0.1546316 4289614080
2.087121 0.92552763 0.1673618 4289614080
2.0444252 0.90668321 0.17595311 4289483520
1.957055 0.86804408 0.17979866 4289091840
1.8987392 0.84227222 0.18525106 4288830720
1.9506474 0.86533624 0.20108724 4289091840
1.8025564 0.79977852 0.19578552 4288569600
1.6734153 0.74260896 0.19081178 4288047360
2.0981085 0.93088794 0.24957646 4289614080
2.0970275 0.93048006 0.26005211 4289614080
2.0958421 0.93002599 0.27021194 4289614080
2.0712819 0.91921008 0.27695587 4289614080
2.0142148 0.89398128 0.27869514 4289352960
2.0790365 0.92279035 0.29687572 4289614080
2.0786963 0.92271119 0.30577257 4289614080
2.0361745 0.90392756 0.30798545 4289483520
1.9659749 0.87286681 0.30523795 4289222400
1.9182259 0.85175842 0.30514315 4288961280
1.8419123 0.81797743 0.29973355 4288700160
2.0195417 0.89683425 0.33532152 4289352960
2.01863 0.89650106 0.34168449 4289352960
2.0213697 0.89778799 0.34827259 4289352960
2.0169275 0.89588898 0.35322458 4289352960
2.040966 0.9066273 0.36277309 4289483520
2.0402238 0.90637118 0.36758527 4289483520
2.0485532 0.91014117 0.37361065 4289483520
2.0433984 0.90792745 0.37676495 4289483520
2.0338273 0.90375346 0.37864301 4289483520
2.0297155 0.90200251 0.38106516 4289483520
2.0463877 0.90947831 0.38693565 4289483520
2.0415049 0.90738577 0.38831884 4289483520
2.041194 0.90732324 0.39010537 4289483520
2.0364506 0.90529287 0.39058873 4289483520
2.0407817 0.90729213 0.39234224 4289483520
2.0361805 0.90532511 0.391929 4289483520
2.0361519 0.90538913 0.39192921 4289483520
2.0316935 0.90348566 0.39062244 4289483520
2.0282054 0.90201336 0.38904494 4289483520
2.0283887 0.90217215 0.38771206 4289483520
2.0286407 0.90236187 0.38593698 4289483520
2.0289607 0.90258205 0.38372153 4289483520
2.0248425 0.90083039 0.38022748 4289483520
2.0252917 0.9011085 0.37714559 4289483520
2.0212963 0.89941168 0.37280673 4289483520
2.0263729 0.90174735 0.36969239 4289483520
2.022491 0.90010118 0.36452144 4289483520
2.0019648 0.89105541 0.35600373 4289352960
1.9912107 0.88635314 0.34887668 4289352960
2.0034544 0.89187652 0.34534153 4289352960
2.0623803 0.91816086 0.34918717 4289614080
2.0895033 0.93030614 0.34701484 4289614080
2.0752351 0.92404377 0.33757526 4289614080
2.0587332 0.91678703 0.3274948 4289483520
1.9060991 0.84939384 0.25111672 4288961280
1.9115819 0.85191298 0.24258265 4288961280
1.9988546 0.89084291 0.24360043 4289222400
2.0359814 0.90745485 0.23766427 4289352960
2.0474331 0.91263831 0.22824244 4289483520
2.056659 0.91683167 0.21821027 4289483520
2.0712299 0.92340636 0.20836695 4289483520
2.0389459 0.90911448 0.19372718 4289352960
2.0397937 0.90957737 0.18216172 4289352960
2.0601468 0.91872942 0.17199327 4289483520
2.0629783 0.92007738 0.1600547 4289483520
2.0610983 0.91932654 0.14757299 4289483520
2.0588369 0.91840571 0.13492639 4289483520
2.0774331 0.92677951 0.12337679 4289483520
2.0777044 0.92698824 0.11050509 4289483520
1.801504 0.80397058 0.084801361 4288569600
1.8456943 0.82374477 0.075178303 4288700160
1.8478644 0.82479036 0.063513607 4288700160
2.6041315 1.1620412 0.072047174 4291441920
2.8105311 1.254181 0.059543733 4292225280
2.9091802 1.2982901 0.042803515 4292616960
2.9332395 1.3091432 0.024174299 4292616960
2.89134 1.2905802 0.0051303976 4292486400
2.9402978 1.3125405 -0.013866887 4292747520
2.9437678 1.3142133 -0.032948744 4292747520
2.8957121 1.2928989 -0.051101461 4292486400
2.8249624 1.2614548 -0.068021506 4292225280
2.9608662 1.3222175 -0.090398215 4292747520
2.9673209 1.3252236 -0.10956261 4292747520
2.9606476 1.3223709 -0.12811847 4292747520
2.8663268 1.2803965 -0.14205688 4292486400
2.9554183 1.3202871 -0.16501084 4292747520
2.9590244 1.3220218 -0.18354464 4292747520
2.9305859 1.3094497 -0.19972415 4292616960
2.8278661 1.2637073 -0.20978789 4292355840
2.9610474 1.3232994 -0.23744355 4292747520
2.9730861 1.3288003 -0.25592533 4292878080
2.966768 1.3261032 -0.27257401 4292878080
2.8790708 1.2870547 -0.28086844 4292486400
2.8021853 1.2528284 -0.28898939 4292225280
2.9542067 1.3208634 -0.32093894 4292747520
2.960057 1.3236004 -0.33743966 4292878080
2.9139955 1.3031409 -0.34741366 4292616960
2.8158059 1.2593817 -0.35001951 4292355840
2.7168901 1.2152895 -0.35115612 4291964160
2.9673696 1.3273592 -0.39798164 4292878080
2.9657805 1.3267711 -0.41162229 4292878080
2.9531176 1.3212317 -0.42319584 4292878080
2.8857713 1.2912424 -0.4260799 4292616960
2.7793021 1.2437538 -0.42194885 4292225280
2.8616757 1.2807026 -0.44600087 4292486400
2.8590539 1.2796459 -0.4565773 4292486400
2.8359611 1.2694331 -0.46326154 4292486400
2.7969456 1.2520958 -0.46658957 4292355840
2.7795451 1.2444242 -0.47281027 4292225280
2.7544377 1.2333028 -0.47704071 4292094720
2.7141728 1.2153975 -0.47789723 4291964160
2.6358826 1.1804737 -0.47116193 4291703040
2.6609993 1.1918175 -0.48227745 4291833600
2.669065 1.1955322 -0.48981759 4291833600
2.6807992 1.200889 -0.4975093 4291833600
2.6140151 1.1711001 -0.48991159 4291703040
2.6394083 1.1825694 -0.49899033 4291703040
2.651386 1.1880341 -0.50500423 4291833600
2.572578 1.1528516 -0.49301302 4291441920
2.5676608 1.1507487 -0.49455118 4291441920
2.5763142 1.1547222 -0.49813616 4291572480
2.5760696 1.1547109 -0.49942127 4291572480
2.5714235 1.1527278 -0.49926656 4291441920
2.6496077 1.1878455 -0.51466131 4291833600
2.6325665 1.1803114 -0.5109154 4291703040
2.615618 1.1728172 -0.50660074 4291703040
2.5897729 1.1613353 -0.49998972 4291572480
2.6730905 1.1987638 -0.51387745 4291833600
2.6609113 1.1934052 -0.50870001 4291833600
2.6443219 1.1860685 -0.50211924 4291703040
2.7129705 1.2169325 -0.51110458 4291964160
2.7616603 1.2388554 -0.51553851 4292225280
2.7979457 1.2552209 -0.51689827 4292355840
2.8112702 1.2612953 -0.51330686 4292355840
2.8158157 1.2634344 -0.50747538 4292355840
2.834847 1.2720685 -0.50361717 4292486400
2.8530595 1.2803361 -0.498934 4292486400
2.8758564 1.2906606 -0.49436346 4292616960
2.8852036 1.2949545 -0.48681015 4292616960
2.9205184 1.3108952 -0.48294669 4292747520
2.9466829 1.3227336 -0.47680306 4292878080
2.9624443 1.3299069 -0.46827677 4292878080
2.9404926 1.3201627 -0.45326605 4292747520
2.916661 1.3095729 -0.43763563 4292747520
2.9217374 1.3119516 -0.42594051 4292747520
2.9463029 1.3230753 -0.41648781 4292878080
2.9396639 1.3201973 -0.40206257 4292747520
2.9225969 1.3126389 -0.38586757 4292747520
2.9068818 1.3056856 -0.36957952 4292616960
2.9395509 1.3204482 -0.35897166 4292747520
2.9567504 1.3282686 -0.34581599 4292878080
2.9560616 1.3280597 -0.33009166 4292878080
2.9039702 1.3047729 -0.30852136 4292616960
2.9266663 1.315061 -0.29475674 4292747520
2.9406817 1.3214526 -0.27958614 4292747520
2.9296739 1.3166082 -0.26170158 4292747520
2.907618 1.3068013 -0.2427312 4292616960
2.9295278 1.3167386 -0.22719243 4292747520
2.9512663 1.3266002 -0.21113415 4292747520
2.9371784 1.3203704 -0.19221951 4292747520
2.7964118 1.2572328 -0.16568588 4292225280
2.9230225 1.314206 -0.1550633 4292616960
2.9547453 1.3285555 -0.13819705 4292747520
2.9357414 1.3201146 -0.11870178 4292747520
2.9377189 1.3211002 -0.10004959 4292747520
2.930809 1.3180922 -0.08101546 4292616960
2.8956423 1.3023845 -0.061368417 4292486400
2.8091087 1.2635875 -0.041321654 4292225280
2.5810413 1.1611675 -0.021092484 4291441920
1.8589174 0.83664531 -0.0026033958 4288700160
1.7830931 0.80261993 0.0091539798 4288439040
1.7188739 0.77380693 0.020040432 4288177920
2.0745797 0.93379486 0.037214782 4289483520
2.0862358 0.93910456 0.050871033 4289614080
2.0899541 0.94084567 0.064383917 4289614080
2.0656867 0.93000132 0.076859079 4289483520
2.052927 0.92433113 0.089431211 4289483520
2.0717816 0.93287975 0.1032895 4289483520
2.067312 0.93093789 0.11598512 4289483520
2.0384312 0.91801471 0.12700157 4289352960
2.0561986 0.92607588 0.14066847 4289483520
2.0732594 0.93382031 0.15434472 4289483520
2.063906 0.92968106 0.16595842 4289483520
1.9970819 0.89968055 0.17237851 4289222400
2.0485981 0.92293054 0.18860404 4289483520
2.0631027 0.92952728 0.20163116 4289483520
2.0535848 0.92531294 0.21214111 4289483520
1.9319795 0.87064588 0.21023819 4289091840
1.7032198 0.76773518 0.19468004 4288177920
2.070395 0.93308944 0.2469544 4289614080
2.0778859 0.9365325 0.25837389 4289614080
2.0569344 0.92716998 0.26593164 4289483520
2.014555 0.90815765 0.27013725 4289352960
1.8620532 0.83955234 0.2584843 4288830720
2.0700998 0.93331146 0.29638377 4289614080
2.0562396 0.92714065 0.30328599 4289483520
2.0574219 0.92774469 0.31199101 4289483520
2.0420382 0.92088664 0.31779033 4289483520
2.0083358 0.90577555 0.32020733 4289352960
1.9764127 0.89146382 0.3222962 4289222400
2.0347705 0.91782755 0.33871773 4289483520
2.0383573 0.91951579 0.34590489 4289483520
2.0393858 0.92005181 0.35227647 4289483520
2.0353262 0.9182952 0.35735929 4289483520
2.0303416 0.91612166 0.36184207 4289483520
2.0361807 0.91882676 0.36782244 4289483520
2.0310638 0.91659385 0.37141123 4289483520
2.0200911 0.91172105 0.37346992 4289483520
2.0114486 0.90789825 0.37548345 4289352960
2.0158823 0.90997112 0.37947556 4289483520
1.9869461 0.89699739 0.37674874 4289352960
1.9991529 0.90257567 0.38130802 4289352960
1.995394 0.90095478 0.38240427 4289352960
1.9825851 0.89525199 0.38131604 4289352960
1.9824185 0.89525121 0.38218799 4289352960
1.9938555 0.90048522 0.38483697 4289352960
1.9938271 0.90054792 0.38483718 4289352960
2.0138237 0.90964592 0.3882224 4289483520
2.017514 0.91138792 0.38802108 4289483520
2.0280273 0.91620958 0.38865978 4289483520
2.0264041 0.91555512 0.38652492 4289483520
2.029814 0.91717261 0.38488868 4289483520
2.0265343 0.91577107 0.38154128 4289483520
2.0391843 0.92156059 0.38071272 4289483520
2.0288031 0.9169538 0.37516427 4289483520
2.040772 0.92243743 0.37327969 4289483520
2.0381744 0.92134523 0.36829409 4289483520
2.0324788 0.91885406 0.36234313 4289483520
2.0173054 0.91208237 0.35434607 4289352960
2.0143487 0.9108277 0.34811839 4289352960
2.0255058 0.91594803 0.34388542 4289483520
2.0592716 0.93128282 0.34292546 4289614080
2.0403564 0.92282057 0.3328118 4289483520
2.0439804 0.92454064 0.32601851 4289483520
2.0236073 0.91587168 0.2671628 4289352960
2.0513532 0.92850024 0.26084417 4289483520
2.0686927 0.93642586 0.25269899 4289614080
2.0268917 0.91760939 0.23723604 4289352960
2.027545 0.91798961 0.22664186 4289352960
2.0511892 0.92876852 0.2182093 4289483520
2.0545104 0.93035686 0.20724727 4289483520
2.014349 0.91227537 0.19192065 4289352960
2.0238845 0.9166742 0.18123451 4289352960
2.0465825 0.92702949 0.17132598 4289483520
2.0448587 0.92633599 0.15908659 4289483520
2.0384326 0.9235146 0.14635906 4289352960
2.036171 0.92257744 0.133817 4289352960
2.0501642 0.92899764 0.12210698 4289483520
2.04087 0.92487758 0.10887014 4289483520
1.8159196 0.82312655 0.085690729 4288569600
1.8144623 0.82254416 0.074136458 4288569600
1.9328449 0.87622488 0.066521004 4288961280
2.708581 1.2275919 0.075061314 4291833600
2.9100945 1.3189694 0.061753262 4292616960
2.9668179 1.3447851 0.043735523 4292878080
2.9424672 1.3338817 0.024315612 4292747520
2.9337327 1.3300506 0.0051990561 4292747520
2.9391804 1.3326441 -0.013889559 4292747520
2.9298887 1.3285596 -0.032862935 4292747520
2.9309604 1.3291703 -0.051874097 4292747520
2.8877499 1.3097134 -0.069749184 4292486400
2.9221568 1.3254306 -0.089418963 4292616960
2.9377029 1.3326019 -0.10872787 4292747520
2.9033215 1.3171417 -0.12592515 4292616960
2.8333433 1.2855406 -0.14076298 4292355840
2.9167371 1.3234715 -0.16324785 4292616960
2.9262571 1.3279123 -0.18196154 4292747520
2.9284096 1.3290128 -0.20009081 4292747520
2.882736 1.308423 -0.21444586 4292486400
2.9323273 1.331038 -0.23573364 4292747520
2.9356222 1.3326566 -0.25333494 4292747520
2.9428532 1.336061 -0.27106556 4292747520
2.9303918 1.3305314 -0.28664786 4292747520
2.7797546 1.2623057 -0.28740886 4292225280
2.927124 1.329295 -0.31880936 4292747520
2.9286187 1.3300961 -0.33470789 4292747520
2.9290328 1.3304064 -0.35012457 4292747520
2.8253365 1.283461 -0.3521252 4292355840
2.7405801 1.2451041 -0.35515583 4292094720
2.948225 1.3394852 -0.3964352 4292878080
2.9457963 1.3385046 -0.4099049 4292878080
2.9302242 1.3315555 -0.42099911 4292747520
2.8911726 1.3139427 -0.42799494 4292616960
2.7903717 1.2682828 -0.42474213 4292225280
2.8958292 1.3162946 -0.45252109 4292616960
2.8898435 1.313694 -0.46271658 4292616960
2.871738 1.3055867 -0.47035098 4292616960
2.8580034 1.2994633 -0.47805452 4292486400
2.8222013 1.283312 -0.48134455 4292355840
2.7774372 1.2630852 -0.48229462 4292225280
2.7717593 1.2606163 -0.48934489 4292225280
2.7116165 1.2333939 -0.48600999 4291964160
2.7186732 1.2367092 -0.49405164 4292094720
2.7437525 1.2482167 -0.50488281 4292094720
2.6635594 1.2118702 -0.49559477 4291833600
2.6717479 1.2156976 -0.50207502 4291833600
2.675529 1.2175214 -0.50716364 4291964160
2.5923336 1.1797962 -0.49501795 4291572480
2.6043715 1.185371 -0.50043136 4291703040
2.6084249 1.1873152 -0.50374186 4291703040
2.6080854 1.1872612 -0.50561833 4291703040
2.6033559 1.18521 -0.50604916 4291703040
2.5951347 1.1815696 -0.50520414 4291572480
2.5905914 1.1796013 -0.50448501 4291572480
2.676728 1.2188894 -0.5208717 4291964160
2.6643069 1.2133385 -0.5174104 4291833600
2.6519785 1.2078283 -0.51337606 4291833600
2.7440488 1.2498274 -0.52893955 4292225280
2.7184646 1.2382854 -0.52109641 4292094720
2.7100005 1.2345334 -0.51597571 4292094720
2.7704117 1.2621324 -0.52332509 4292225280
2.7711017 1.2625481 -0.51866215 4292225280
2.8197765 1.2848097 -0.52230841 4292486400
2.8550403 1.3009681 -0.52268821 4292616960
2.8849342 1.3146834 -0.52133119 4292616960
2.8895564 1.3168923 -0.51471061 4292747520
2.8780897 1.3117738 -0.50464356 4292616960
2.891849 1.3181435 -0.49842405 4292747520
2.8885901 1.3167619 -0.48866084 4292616960
2.9083288 1.3258557 -0.4821853 4292747520
2.9366124 1.3388433 -0.47641379 4292878080
2.9248879 1.3336049 -0.4635326 4292747520
2.9178202 1.3304871 -0.45093802 4292747520
2.8926494 1.3191197 -0.43515745 4292616960
2.8990979 1.3221588 -0.42373541 4292616960
2.9103637 1.3273934 -0.41246617 4292747520
2.9245639 1.333966 -0.40103692 4292747520
2.8966322 1.3213353 -0.38342696 4292616960
2.884352 1.315837 -0.36766291 4292616960
2.9098129 1.3275425 -0.35625398 4292747520
2.9146571 1.3298503 -0.34176183 4292747520
2.9202218 1.3324866 -0.3269228 4292747520
2.8984942 1.3226786 -0.30874178 4292616960
2.8918681 1.3197551 -0.29199368 4292616960
2.9064455 1.3265005 -0.2770336 4292616960
2.8992002 1.323294 -0.2596381 4292616960
2.8669 1.3086591 -0.23993272 4292486400
2.911119 1.3289253 -0.22634254 4292616960
2.9121723 1.3295033 -0.20885703 4292616960
2.9030993 1.3254614 -0.19046322 4292616960
2.8414531 1.2974327 -0.16882017 4292355840
2.9179626 1.3324367 -0.15519302 4292616960
2.928776 1.337468 -0.13732091 4292747520
2.8912082 1.3204217 -0.11717511 4292616960
2.9126952 1.3303238 -0.099436328 4292616960
2.9412003 1.3434303 -0.081516251 4292747520
3.0077391 1.3738989 -0.06397602 4293008640
2.9814661 1.3620056 -0.044079248 4292878080
2.8115165 1.2845213 -0.023197163 4292225280
1.9182723 0.87681329 -0.0027507569 4288961280
1.7347225 0.793073 0.0089835059 4288308480
1.7037053 0.77896792 0.019935463 4288177920
2.0584722 0.94102472 0.037042443 4289483520
2.0585792 0.94114178 0.050359204 4289483520
2.0700729 0.94645941 0.06396278 4289483520
2.0556872 0.93995768 0.076702803 4289483520
2.0338728 0.93006182 0.088857837 4289352960
2.0572243 0.94079655 0.10285305 4289483520
2.0495076 0.93733984 0.1153117 4289483520
1.9554706 0.89444542 0.1222418 4289091840
1.9859614 0.9084422 0.13629676 4289222400
1.9631696 0.89809418 0.14664932 4289091840
1.8707132 0.85591012 0.15102039 4288830720
1.7380569 0.79534835 0.15069291 4288308480
2.0652304 0.94493788 0.19062515 4289483520
2.0728359 0.94848382 0.20311239 4289614080
2.0586715 0.94207937 0.21322799 4289483520
2.0439353 0.9354127 0.22288877 4289483520
1.9755362 0.90421194 0.22606051 4289222400
2.0449419 0.93601215 0.24459466 4289483520
2.0231795 0.92613137 0.25229889 4289352960
1.9319758 0.88449556 0.25057492 4289091840
1.9231095 0.88050741 0.25866178 4289091840
1.7854468 0.81761444 0.24860068 4288569600
1.9942068 0.91315895 0.28635961 4289352960
1.9751391 0.9045065 0.29218775 4289222400
2.0128899 0.9218446 0.30609906 4289352960
2.0321219 0.93071342 0.31709954 4289483520
2.0311124 0.93032306 0.32467452 4289483520
2.0053985 0.91862923 0.32785937 4289352960
2.0332325 0.9314369 0.33936387 4289483520
2.0418375 0.93544716 0.34741339 4289483520
2.0252352 0.92792189 0.35077888 4289483520
2.0267587 0.92869192 0.35681149 4289483520
2.0251114 0.92801094 0.3618761 4289483520
2.0156543 0.92375505 0.36510664 4289483520
2.0130634 0.92264229 0.36911967 4289483520
2.0029964 0.91810668 0.37131447 4289352960
1.9935735 0.91386569 0.37315762 4289352960
1.9809691 0.90816736 0.37393624 4289352960
1.9772056 0.90651721 0.37591088 4289352960
1.9608498 0.89909989 0.37504253 4289222400
1.9686122 0.90272862 0.37830725 4289222400
1.9683785 0.90269548 0.37960804 4289222400
1.9646305 0.90105265 0.3797878 4289222400
1.9760373 0.906353 0.38243407 4289352960
1.9670534 0.90231198 0.38071176 4289222400
1.9959517 0.91562879 0.38582236 4289352960
2.0004361 0.91776043 0.3857809 4289352960
2.0127237 0.92346889 0.38677186 4289483520
2.0151596 0.92466331 0.38541684 4289483520
2.0171969 0.92567557 0.3835296 4289483520
2.0242579 0.92899126 0.38213056 4289483520
2.0253153 0.92955542 0.3791467 4289483520
2.0218327 0.92803842 0.37487948 4289483520
2.0278289 0.93086785 0.37191549 4289483520
2.0239701 0.92917895 0.36671835 4289483520
2.0168443 0.92599165 0.3605321 4289483520
2.0107646 0.92328399 0.35414621 4289352960
2.0031176 0.9198572 0.34711322 4289352960
2.0022714 0.91954994 0.34087363 4289352960
1.9693798 0.90454137 0.32893074 4289222400
1.9312431 0.887124 0.31597623 4289091840
1.8811196 0.86420363 0.30102363 4288961280
2.0188966 0.92796057 0.26725826 4289352960
2.0507259 0.94265962 0.26146218 4289483520
2.045228 0.94022077 0.25052556 4289483520
1.9824946 0.91149682 0.23270783 4289222400
1.8997598 0.87358147 0.21306211 4288961280
1.9006391 0.8740654 0.2028923 4288961280
1.8924429 0.87038064 0.19157837 4288961280
1.9748402 0.90831488 0.18870206 4289222400
2.0036952 0.92165619 0.17992865 4289352960
2.0275548 0.93270469 0.17020796 4289352960
2.0303621 0.93408108 0.15839763 4289352960
2.015789 0.92747003 0.14514506 4289352960
2.033848 0.93585646 0.13402618 4289352960
2.0410237 0.93924177 0.12189903 4289483520
1.990927 0.91629928 0.10654178 4289222400
1.7793041 0.81909078 0.084229626 4288439040
1.7660565 0.81307596 0.07240662 4288439040
2.1730278 1.0002921 0.074744791 4289875200
2.8943603 1.3321115 0.080296166 4292616960
2.8848264 1.3278509 0.061404545 4292486400
2.9651523 1.364922 0.043836366 4292878080
2.9343891 1.3508983 0.024326481 4292747520
2.8543017 1.3141801 0.005130691 4292486400
2.8904228 1.330922 -0.013656645 4292616960
2.8891931 1.3304805 -0.032459229 4292616960
2.9095418 1.3399688 -0.051610969 4292616960
2.8839898 1.3283342 -0.069833994 4292486400
2.9049759 1.3381174 -0.089111701 4292616960
2.9192398 1.3448079 -0.10831337 4292616960
2.9258971 1.347998 -0.12724873 4292747520
2.886049 1.3297776 -0.14378914 4292616960
2.9010251 1.3367968 -0.16278413 4292616960
2.9149384 1.3433279 -0.18172644 4292616960
2.9100599 1.3412058 -0.1993486 4292616960
2.8940511 1.333957 -0.21586075 4292616960
2.9091597 1.3410395 -0.23447366 4292616960
2.9211233 1.3466744 -0.25273991 4292747520
2.926311 1.3491887 -0.27024359 4292747520
2.9239507 1.3482254 -0.2867693 4292747520
2.7461317 1.2664142 -0.28466293 4292094720
2.918241 1.3458418 -0.31867716 4292747520
2.9214528 1.347445 -0.33476803 4292747520
2.9048901 1.3399341 -0.34814423 4292747520
2.8006666 1.2920147 -0.34996083 4292355840
2.7242606 1.2569098 -0.35396683 4291964160
2.929543 1.351665 -0.39495674 4292747520
2.9253354 1.3498472 -0.40812576 4292747520
2.9179144 1.3465468 -0.42033541 4292747520
2.8708696 1.3249729 -0.42610562 4292616960
2.7703431 1.278729 -0.42280126 4292225280
2.8791213 1.3290156 -0.45109522 4292616960
2.8821404 1.3305265 -0.46270394 4292616960
2.8766551 1.3281139 -0.4724097 4292616960
2.8478296 1.3149323 -0.47761229 4292486400
2.7847297 1.2859337 -0.47619528 4292355840
2.7147017 1.2537327 -0.47261971 4292094720
2.752089 1.2710959 -0.48715279 4292225280
2.7644193 1.2768971 -0.49681938 4292225280
2.684226 1.2399936 -0.48906988 4291964160
2.7002933 1.2475173 -0.49818382 4291964160
2.7209008 1.2571379 -0.50764143 4292094720
2.6341233 1.2171822 -0.49630076 4291833600
2.6459532 1.2227479 -0.50287551 4291833600
2.658756 1.2287636 -0.50908917 4291833600
2.6582277 1.2286234 -0.51216859 4291833600
2.6658359 1.2322406 -0.51623064 4291833600
2.6654882 1.2321832 -0.51815349 4291833600
2.6697035 1.234233 -0.52036363 4291964160
2.6650746 1.2321972 -0.52023906 4291833600
2.6569657 1.2285528 -0.51882458 4291833600
2.6391199 1.2204086 -0.51490051 4291833600
2.6392441 1.2205659 -0.5138942 4291833600
2.7047887 1.2509539 -0.52502173 4292094720
2.7051055 1.2512017 -0.5228008 4292094720
2.6840551 1.2415738 -0.51585221 4291964160
2.759104 1.2763624 -0.52674967 4292225280
2.7337627 1.2647505 -0.51775807 4292094720
2.7084956 1.2531705 -0.5082615 4292094720
2.829248 1.3090968 -0.52546299 4292486400
2.8403881 1.3143511 -0.52138275 4292486400
2.8561735 1.3217535 -0.51749349 4292616960
2.8737855 1.3300012 -0.51325619 4292616960
2.8614492 1.3243997 -0.50305313 4292616960
2.8626153 1.3250418 -0.49468404 4292616960
2.8638401 1.3257107 -0.48575094 4292616960
2.8776674 1.3322089 -0.47835609 4292616960
2.9063842 1.3455958 -0.47274935 4292747520
2.9103844 1.3475492 -0.46245429 4292747520
2.896606 1.3412764 -0.44883981 4292747520
2.87062 1.3293538 -0.43298101 4292616960
2.8815174 1.334497 -0.42227718 4292616960
2.8943379 1.3405303 -0.41127774 4292616960
2.899817 1.3431666 -0.39868796 4292747520
2.879046 1.3336527 -0.38210309 4292616960
2.8756185 1.3321655 -0.36751959 4292616960
2.8991466 1.3431561 -0.35588583 4292616960
2.9131393 1.3497335 -0.34249085 4292747520
2.9153991 1.3508792 -0.32724732 4292747520
2.8739092 1.3317674 -0.30692214 4292616960
2.8842726 1.336664 -0.29199556 4292616960
2.890944 1.3398511 -0.27627829 4292616960
2.8994536 1.3438901 -0.26034948 4292616960
2.8709056 1.3307654 -0.24090704 4292486400
2.9022074 1.3453609 -0.22624184 4292616960
2.9191711 1.3533167 -0.20991684 4292747520
2.9024935 1.3456883 -0.19092615 4292616960
2.8699484 1.3307074 -0.1709806 4292486400
2.899354 1.3444279 -0.15459798 4292616960
2.8704276 1.3311213 -0.13490304 4292486400
2.8359752 1.3152518 -0.11520318 4292355840
2.8785961 1.3350983 -0.098507039 4292486400
2.9296241 1.3588438 -0.081398256 4292747520
2.9813046 1.3828952 -0.063559636 4292878080
2.964268 1.3750974 -0.043923888 4292878080
2.7113075 1.2579321 -0.022356609 4291964160
1.8913571 0.87789422 -0.0026896251 4288830720
1.7209998 0.79897404 0.0089539643 4288308480
1.660998 0.77121049 0.019538386 4288047360
2.0312517 0.94295186 0.036680255 4289352960
2.0358276 0.94514155 0.049961846 4289483520
2.0480158 0.95086169 0.063476086 4289483520
2.0329487 0.94394195 0.076083899 4289352960
2.0202608 0.93812478 0.088517383 4289352960
2.0299578 0.94269025 0.10179298 4289352960
2.0267975 0.94129211 0.11436659 4289352960
1.8892001 0.8775242 0.11848885 4288830720
1.8350865 0.85248071 0.12644006 4288700160
1.7667871 0.82085156 0.13254434 4288439040
1.7516065 0.81386667 0.14192061 4288439040
