# .PCD v0.7 - Point Cloud Data file format
VERSION 0.7
FIELDS x y z rgba
SIZE 4 4 4 4
TYPE F F F U
COUNT 1 1 1 1
WIDTH 1092
HEIGHT 1
VIEWPOINT 0 0 0 1 0 0 0
POINTS 1092
DATA ascii
3.158638 -1.0786685 -0.1963791 4293139200
3.1130483 -1.0629904 -0.17506167 4293008640
2.9835069 -1.0186522 -0.14988115 4292486400
2.7717774 -0.94626468 -0.12246814 4291703040
2.6196506 -0.89423776 -0.09976586 4291180800
2.541218 -0.86737514 -0.081172273 4290919680
2.5571952 -0.87273878 -0.065889962 4290919680
2.5248697 -0.86161792 -0.049394127 4290919680
2.4584835 -0.83887726 -0.032792751 4290658560
2.4876511 -0.84874249 -0.017662147 4290658560
2.4872036 -0.84850258 -0.0021233973 4290658560
2.4563835 -0.83790225 0.013247909 4290658560
2.339977 -0.79811251 0.027223988 4290136320
2.4498286 -0.83549446 0.043760449 4290528000
2.4437745 -0.83334404 0.058825605 4290528000
2.4568667 -0.83772248 0.074331179 4290658560
2.3798647 -0.81138343 0.08663775 4290397440
2.4882643 -0.84825355 0.10578858 4290789120
2.7265391 -0.92938632 0.13245358 4291572480
3.1434155 -1.0713753 0.17160201 4293008640
2.9251599 -0.99688435 0.17709826 4292225280
3.2212434 -1.0976757 0.21398491 4293400320
3.2236836 -1.0983942 0.23288842 4293400320
3.2024381 -1.0910429 0.2497185 4293269760
2.9435945 -1.0027539 0.24616352 4292355840
3.2461555 -1.1057094 0.28950593 4293400320
3.2562582 -1.1090364 0.30818364 4293530880
3.2369699 -1.1023536 0.32369161 4293400320
3.1705179 -1.0796123 0.33367357 4293139200
2.9821665 -1.015371 0.32914227 4292486400
3.2497258 -1.1063559 0.37493744 4293530880
3.2395184 -1.1027672 0.38955671 4293400320
3.2202339 -1.0960897 0.40250784 4293400320
3.1913016 -1.08613 0.41357744 4293269760
3.1203263 -1.0618649 0.41828427 4293008640
3.2380872 -1.1018261 0.44801083 4293530880
3.2444761 -1.1038862 0.46235558 4293530880
3.2454224 -1.1040944 0.47543111 4293530880
3.2166617 -1.0941973 0.48350856 4293400320
3.2042952 -1.0898783 0.49334446 4293400320
3.187386 -1.0840153 0.50181353 4293269760
3.2363858 -1.1005665 0.52018732 4293530880
3.2353861 -1.100113 0.53008574 4293530880
3.2331927 -1.099254 0.53916925 4293530880
3.2287135 -1.0976179 0.5472312 4293530880
3.229847 -1.09789 0.55560279 4293530880
3.2316382 -1.0983857 0.56345123 4293530880
3.2268968 -1.0966611 0.56950116 4293530880
3.2124252 -1.0916303 0.57313412 4293400320
3.2043939 -1.0887889 0.57720733 4293400320
3.2213955 -1.0944527 0.58512884 4293530880
3.2041168 -1.0884701 0.58614421 4293400320
3.2035961 -1.088181 0.58951747 4293400320
3.2031834 -1.0879285 0.59222037 4293400320
3.2028804 -1.0877135 0.59425008 4293400320
3.2026889 -1.0875362 0.59560448 4293400320
3.1979475 -1.0858141 0.5954141 4293400320
3.2015679 -1.0869311 0.59608203 4293400320
3.210108 -1.0897181 0.59696597 4293400320
3.2019744 -1.0868448 0.59405172 4293400320
3.2011485 -1.0864524 0.59180194 4293400320
3.2095654 -1.0891966 0.59056169 4293400320
3.2287085 -1.0955799 0.59057665 4293530880
3.2253067 -1.0943125 0.58576167 4293530880
3.2269723 -1.0947646 0.58118552 4293530880
3.2242599 -1.0937314 0.57514584 4293530880
3.2305965 -1.0957677 0.5700438 4293530880
3.2391176 -1.0985446 0.56463456 4293530880
3.2262752 -1.094076 0.55485845 4293530880
3.2200918 -1.0918664 0.54563111 4293400320
3.2076504 -1.0875354 0.53476298 4293400320
3.2137198 -1.0894806 0.52638078 4293400320
3.2364025 -1.097057 0.52002621 4293530880
3.2289116 -1.0944046 0.50818098 4293530880
3.2401333 -1.0980946 0.49868515 4293530880
3.180347 -1.0771137 0.40535933 4293269760
3.2204382 -1.090579 0.39544138 4293400320
3.2254138 -1.0921509 0.38055858 4293400320
3.2220924 -1.0909135 0.36426526 4293400320
3.186945 -1.078902 0.34416339 4293269760
3.2056189 -1.0851115 0.32957348 4293269760
3.2139516 -1.0878197 0.31341532 4293400320
3.1715746 -1.0733653 0.29215142 4293139200
3.0702543 -1.0389677 0.26592317 4292878080
2.560101 -0.86624324 0.20740645 4291050240
2.4632335 -0.83338064 0.1855517 4290658560
2.4487011 -0.8283782 0.1703313 4290658560
2.4075439 -0.81437075 0.15339772 4290397440
2.42644 -0.82067752 0.14025255 4290528000
2.4361129 -0.82386386 0.12625259 4290528000
2.4350297 -0.82341224 0.11150724 4290528000
2.4431133 -0.82606024 0.097018525 4290528000
2.4752188 -0.83682901 0.083133273 4290658560
2.497766 -0.84436435 0.068501905 4290789120
2.4561453 -0.8302086 0.052155808 4290658560
2.5246851 -0.85328758 0.037924793 4290789120
2.5296166 -0.85486579 0.022241138 4290919680
2.5506048 -0.86186934 0.0065133581 4290919680
2.5497723 -0.86149871 -0.0094025694 4290919680
2.5875006 -0.87415552 -0.025680343 4291050240
2.617763 -0.88428771 -0.042279731 4291180800
2.6968632 -0.91091359 -0.060301494 4291441920
2.8761015 -0.97135383 -0.08209651 4292094720
3.0326433 -1.024117 -0.10522642 4292616960
3.1210442 -1.0538605 -0.12738177 4293008640
3.1552446 -1.0652983 -0.147935 4293139200
3.1299322 -1.0566427 -0.16559249 4293008640
3.1636379 -1.0679108 -0.18624085 4293139200
3.1788092 -1.0729207 -0.20588572 4293139200
3.178335 -1.0726494 -0.22437936 4293139200
3.1607964 -1.0666196 -0.24131943 4293139200
3.2032285 -1.0808265 -0.26271349 4293269760
3.2079124 -1.0822946 -0.28098994 4293269760
3.21452 -1.0844115 -0.29918817 4293269760
3.2014017 -1.079874 -0.31518629 4293269760
3.195122 -1.077644 -0.3314057 4293269760
3.2045753 -1.0807202 -0.3489055 4293269760
3.2116361 -1.0829891 -0.36584154 4293400320
3.2026691 -1.0798533 -0.38053596 4293269760
3.1880929 -1.0748271 -0.39402533 4293269760
3.218286 -1.0848937 -0.41267702 4293400320
3.223839 -1.0866529 -0.42787072 4293400320
3.2291167 -1.0883188 -0.4425939 4293400320
3.2222505 -1.085892 -0.45514706 4293400320
3.2242913 -1.0864669 -0.46842247 4293400320
3.1918535 -1.0754249 -0.47604001 4293269760
3.1925483 -1.0755472 -0.48793432 4293269760
3.2024944 -1.078786 -0.5007233 4293400320
3.2104135 -1.0813414 -0.51268381 4293400320
3.2072313 -1.0801573 -0.52229983 4293400320
3.2071316 -1.0800116 -0.53180701 4293400320
3.2049634 -1.0791694 -0.54035199 4293400320
3.2077711 -1.0800025 -0.54911309 4293400320
3.1962426 -1.0760093 -0.55476433 4293400320
3.199019 -1.0768321 -0.56223381 4293400320
3.1976023 -1.0762433 -0.56831664 4293400320
3.1874216 -1.0727053 -0.57215977 4293400320
3.1787233 -1.0696667 -0.5755707 4293269760
3.1615279 -1.0637698 -0.57673478 4293269760
3.174058 -1.0678748 -0.58263892 4293269760
3.1662943 -1.065152 -0.58414388 4293269760
3.1659648 -1.0649306 -0.58632958 4293269760
3.1564105 -1.0616063 -0.58611554 4293269760
3.1822944 -1.0702007 -0.59179813 4293400320
3.1598947 -1.0625572 -0.58781427 4293269760
3.1812148 -1.0696152 -0.59127003 4293400320
3.1940513 -1.0738195 -0.59244829 4293400320
3.1952162 -1.0740993 -0.5907625 4293400320
3.198951 -1.075243 -0.58885688 4293400320
3.2017894 -1.0760851 -0.5860917 4293400320
3.2031095 -1.0764169 -0.58235937 4293400320
3.208359 -1.0780687 -0.57865256 4293400320
3.2054586 -1.0769821 -0.57279861 4293400320
3.2048228 -1.0766563 -0.56668866 4293400320
3.1995223 -1.0747638 -0.55910754 4293400320
3.1959853 -1.073464 -0.5512051 4293400320
3.1870031 -1.0703356 -0.54175562 4293269760
3.1736157 -1.0657287 -0.53098935 4293269760
3.1760259 -1.0664269 -0.5222829 4293269760
3.1783531 -1.0670972 -0.51294786 4293269760
3.2052734 -1.0760233 -0.5068987 4293400320
3.2161961 -1.0795778 -0.49761465 4293400320
3.1927841 -1.0716075 -0.48249683 4293269760
3.1731992 -1.0649232 -0.46756604 4293269760
3.1795325 -1.0669376 -0.45597214 4293269760
3.1930192 -1.0713515 -0.44480726 4293269760
3.1971886 -1.0726388 -0.43176898 4293269760
3.1898983 -1.0700814 -0.41671112 4293269760
3.156157 -1.0586523 -0.39791584 4293139200
3.1681383 -1.0625603 -0.38453695 4293139200
3.1954429 -1.0716064 -0.37240019 4293269760
3.2030768 -1.0740545 -0.35738638 4293269760
3.1938832 -1.07086 -0.34010705 4293269760
3.1454337 -1.0545058 -0.31856993 4293139200
3.1547315 -1.0575126 -0.30273241 4293139200
3.1429627 -1.0534577 -0.28455427 4293008640
3.1187911 -1.0452468 -0.26513797 4293008640
2.9738407 -0.99656361 -0.23611102 4292486400
2.840019 -0.95161939 -0.209287 4291964160
2.7525086 -0.92220068 -0.18691695 4291703040
2.6649163 -0.89276063 -0.1653572 4291311360
2.5052416 -0.83918124 -0.14060445 4290789120
2.6054623 -0.87266117 -0.13063185 4291180800
2.5815105 -0.86454868 -0.11383691 4291050240
2.5471413 -0.85294938 -0.096813545 4290919680
2.5343142 -0.84856546 -0.080792442 4290919680
2.5320237 -0.84771007 -0.065113008 4290919680
2.5199089 -0.84356606 -0.049200092 4290789120
2.4358311 -0.81533504 -0.032426685 4290528000
2.4692647 -0.82643986 -0.01749712 4290658560
2.4695535 -0.82645023 -0.0021041823 4290658560
2.4432058 -0.8175475 0.013150926 4290528000
2.3170877 -0.77526474 0.026904676 4290136320
2.4242804 -0.81104529 0.043218952 4290528000
2.439466 -0.81604046 0.05860645 4290528000
2.4579139 -0.82212573 0.074216679 4290658560
2.4134314 -0.80716282 0.087687038 4290397440
2.4751594 -0.82772112 0.10502462 4290658560
2.562366 -0.85679442 0.12423353 4290919680
3.0264626 -1.0118716 0.16489281 4292616960
2.9261842 -0.97824216 0.1768122 4292225280
3.2133858 -1.0741433 0.21304357 4293269760
3.2385442 -1.0824399 0.23350243 4293400320
3.2219825 -1.0767919 0.25074905 4293269760
2.9446592 -0.98400712 0.24576895 4292355840
3.2430916 -1.0836201 0.2886647 4293400320
3.2588036 -1.0887561 0.30781895 4293530880
3.2405872 -1.082557 0.32341713 4293400320
3.1673162 -1.0579692 0.33268222 4293139200
2.9833148 -0.99640363 0.3286227 4292486400
3.2466877 -1.0842547 0.37385172 4293400320
3.2411764 -1.082301 0.38899118 4293400320
3.2227974 -1.0760514 0.4020378 4293400320
3.1834533 -1.0628036 0.41175085 4293269760
3.1264598 -1.0436671 0.41828427 4293008640
3.2529981 -1.0857942 0.44919097 4293530880
3.2508526 -1.0849645 0.46235558 4293530880
3.2377062 -1.0804639 0.47337055 4293530880
3.2309711 -1.0781035 0.48470706 4293400320
3.2012038 -1.0680591 0.49190205 4293400320
3.1983387 -1.0669914 0.50255066 4293400320
3.2333648 -1.0785637 0.5186829 4293530880
3.2417407 -1.0812443 0.53008574 4293530880
3.225487 -1.0757105 0.53682995 4293400320
3.2350535 -1.0787882 0.5472312 4293530880
3.2315071 -1.0774926 0.55479902 4293530880
3.2248788 -1.07517 0.561171 4293400320
3.2238743 -1.0747225 0.56785297 4293400320
3.2149892 -1.0716484 0.57246786 4293400320
3.215359 -1.0716593 0.57804793 4293400320
3.2146277 -1.0713035 0.58275592 4293400320
3.2057302 -1.0682263 0.58529085 4293400320
3.2052085 -1.0679407 0.58865923 4293400320
3.2094674 -1.0692477 0.59222037 4293400320
3.2091634 -1.0690343 0.59425008 4293400320
3.2136428 -1.0704144 0.59647161 4293400320
3.1995475 -1.0656078 0.59454596 4293400320
3.2162554 -1.0710602 0.59764469 4293400320
3.203321 -1.066641 0.59453797 4293400320
3.2201359 -1.0721276 0.59625214 4293530880
3.2247205 -1.0735415 0.59499329 4293530880
3.2158568 -1.0704784 0.59056169 4293400320
3.231297 -1.0755054 0.58989394 4293530880
3.2269523 -1.0739466 0.58491421 4293530880
3.2286193 -1.0743887 0.58034492 4293530880
3.2399333 -1.0780407 0.57681155 4293530880
3.2360632 -1.07664 0.56989181 4293530880
3.23142 -1.0749825 0.56219143 4293530880
3.2279119 -1.0737029 0.55405468 4293530880
3.221714 -1.0715288 0.54483891 4293400320
3.2101831 -1.0675817 0.53413916 4293400320
3.2153244 -1.0691793 0.52561438 4293400320
3.2380488 -1.0766227 0.519274 4293530880
3.2446187 -1.078694 0.50965524 4293530880
3.2368031 -1.0759827 0.49719927 4293530880
3.1818576 -1.0570011 0.40476009 4293269760
3.2267375 -1.0717976 0.39544138 4293400320
3.2364378 -1.0749067 0.38111389 4293400320
3.2168782 -1.0682982 0.36296594 4293400320
3.1931767 -1.0603158 0.34416339 4293269760
3.2024407 -1.0632803 0.32860425 4293269760
3.2107847 -1.0659386 0.31249556 4293269760
3.1666205 -1.0511663 0.29112598 4293139200
2.7674153 -0.91855282 0.23922586 4291703040
2.4941278 -0.82775694 0.20166749 4290789120
2.4616125 -0.81687987 0.18506794 4290658560
2.4449623 -0.81126928 0.16973954 4290528000
2.3989842 -0.79592949 0.15255427 4290397440
2.4212732 -0.80324 0.13968103 4290528000
2.4237757 -0.80398566 0.12536831 4290528000
2.4170275 -0.80166298 0.1104671 4290397440
2.4222872 -0.80332309 0.096004009 4290528000
2.4520645 -0.8131128 0.082195096 4290528000
2.4665861 -0.81784225 0.067514963 4290658560
2.4381645 -0.80833352 0.051673107 4290528000
2.4925985 -0.82629329 0.037369851 4290658560
2.5219314 -0.83592916 0.02213037 4290789120
2.5328019 -0.83944398 0.0064552962 4290919680
2.53282 -0.83936173 -0.0093218647 4290919680
2.5706792 -0.85181838 -0.025463704 4291050240
2.5980437 -0.86079532 -0.041879531 4291050240
2.5912979 -0.8584699 -0.057828248 4291050240
2.6326015 -0.87206155 -0.074999653 4291180800
2.6763046 -0.88644511 -0.09268143 4291311360
2.7094359 -0.89732444 -0.1103672 4291441920
2.7335198 -0.90520531 -0.12791282 4291572480
2.8612561 -0.94740546 -0.15108329 4292094720
3.0194979 -0.99969649 -0.17740954 4292616960
3.130996 -1.0365021 -0.20239438 4293008640
3.1712692 -1.049724 -0.22344498 4293139200
3.1660924 -1.0479 -0.24125355 4293139200
3.1977813 -1.0582768 -0.26175663 4293269760
3.2056487 -1.0607686 -0.28024551 4293269760
3.2104545 -1.062247 -0.29822868 4293269760
3.2029126 -1.05964 -0.31472188 4293269760
3.1841471 -1.0533206 -0.32962525 4293269760
3.2060955 -1.0604695 -0.3483924 4293269760
3.2096801 -1.0615433 -0.36490801 4293269760
3.2041888 -1.0596155 -0.37997654 4293269760
3.184871 -1.0531162 -0.39286211 4293269760
3.2245522 -1.0661248 -0.41267702 4293400320
3.2279012 -1.0671196 -0.42757738 4293400320
3.2391689 -1.0707318 -0.44310912 4293400320
3.2426386 -1.0717658 -0.45713714 4293400320
3.2211604 -1.0645545 -0.46705863 4293400320
3.1943045 -1.0555676 -0.47548023 4293269760
3.203459 -1.0584811 -0.48865104 4293400320
3.1955757 -1.0557649 -0.49867126 4293269760
3.2119648 -1.0610677 -0.51193559 4293400320
3.2122488 -1.0610496 -0.52210134 4293400320
3.2040706 -1.0582366 -0.53026807 4293400320
3.2103322 -1.0601928 -0.54020655 4293400320
3.2055731 -1.0585095 -0.54767179 4293400320
3.2122285 -1.0605952 -0.55645698 4293400320
3.1968083 -1.0553925 -0.56075507 4293400320
3.1897724 -1.0529585 -0.56582505 4293269760
3.1851919 -1.0513355 -0.57065028 4293269760
3.1895812 -1.0526732 -0.57641643 4293400320
3.1760936 -1.0481112 -0.57826811 4293269760
3.1718056 -1.0465856 -0.58109629 4293269760
3.1751084 -1.0475647 -0.58463407 4293269760
3.1627619 -1.0433812 -0.58460069 4293269760
3.1625419 -1.0431983 -0.58611554 4293269760
3.1707058 -1.0457809 -0.58849996 4293269760
3.1660318 -1.044129 -0.58781427 4293269760
3.1780398 -1.0479784 -0.58953506 4293269760
3.1955767 -1.05365 -0.59158254 4293400320
3.1967425 -1.0539231 -0.58989936 4293400320
3.2051613 -1.056587 -0.58885688 4293400320
3.2080045 -1.0574126 -0.5860917 4293400320
3.2055829 -1.0565027 -0.58168 4293400320
3.2099049 -1.0578153 -0.57780999 4293400320
3.2079332 -1.0570539 -0.57213056 4293400320
3.2110412 -1.0579661 -0.56668866 4293400320
3.2010446 -1.054561 -0.55829042 4293400320
3.1984358 -1.0535902 -0.5505597 4293400320
3.1872764 -1.0498031 -0.54075319 4293269760
3.1750805 -1.0456756 -0.53020614 4293269760
3.1811302 -1.0475572 -0.52210975 4293269760
3.1925807 -1.0512168 -0.51424688 4293269760
3.2030339 -1.0545472 -0.50556433 4293400320
3.2202222 -1.060094 -0.4972735 4293400320
3.1989734 -1.0529875 -0.48249683 4293269760
3.1708829 -1.0436307 -0.4663209 4293269760
3.1688695 -1.0428576 -0.4535639 4293139200
3.1961904 -1.0517375 -0.44438788 4293269760
3.1949039 -1.051203 -0.430626 4293269760
3.2007921 -1.0530289 -0.41732568 4293269760
3.1575553 -1.0386945 -0.39732242 4293139200
3.1734135 -1.0438006 -0.38443255 4293139200
3.1874692 -1.0483129 -0.37075284 4293269760
3.189106 -1.0487401 -0.35513979 4293269760
3.1906164 -1.0491258 -0.33910251 4293269760
3.1241012 -1.0271457 -0.31579787 4293008640
3.0532718 -1.0037521 -0.29243004 4292747520
2.8737721 -0.94464225 -0.25967988 4292094720
2.7497954 -0.90379387 -0.23331688 4291703040
2.6728101 -0.87839758 -0.21180047 4291311360
2.6780531 -0.88002741 -0.19697021 4291441920
2.6629572 -0.87497413 -0.18048646 4291311360
2.6397896 -0.86726999 -0.16348179 4291180800
2.5230832 -0.82883972 -0.14133236 4290789120
2.5701025 -0.84419626 -0.12861019 4291050240
2.5542297 -0.83889365 -0.11241646 4290919680
2.5292804 -0.83061147 -0.095949106 4290789120
2.5012167 -0.82130831 -0.079583421 4290789120
2.5093749 -0.82389987 -0.064406045 4290789120
2.4877329 -0.81670761 -0.048478141 4290658560
2.4324365 -0.79846948 -0.032319013 4290528000
2.4514434 -0.80462337 -0.017337326 4290528000
2.4420218 -0.80144602 -0.0020767101 4290528000
2.4354796 -0.79921418 0.013084052 4290528000
2.2940121 -0.75271112 0.026585365 4290005760
2.4161308 -0.7926966 0.042990595 4290397440
2.4434221 -0.80156547 0.058588296 4290528000
2.4531641 -0.80467594 0.073930442 4290528000
2.4047983 -0.78872746 0.087204926 4290397440
2.4687395 -0.80961311 0.10455029 4290658560
2.5084629 -0.82255298 0.12138569 4290789120
2.7237983 -0.89306903 0.14811653 4291572480
2.9881499 -0.97963971 0.18020847 4292486400
3.2183087 -1.0549834 0.21295883 4293269760
3.2362635 -1.0607564 0.23288842 4293400320
3.2149339 -1.0536534 0.2497185 4293269760
2.9456058 -0.96528208 0.24537438 4292355840
3.2493498 -1.0647067 0.2886647 4293400320
3.2689598 -1.0710186 0.30818364 4293530880
3.2543254 -1.0661106 0.32416281 4293400320
3.1734264 -1.0394979 0.33268222 4293139200
2.9805627 -0.97621912 0.32768747 4292486400
3.256444 -1.0664648 0.3742533 4293530880
3.2427058 -1.0618528 0.38842565 4293400320
3.229012 -1.0572563 0.4020378 4293400320
3.1895914 -1.0442382 0.41175085 4293269760
3.1183453 -1.0208045 0.41639584 4293008640
3.2545574 -1.0652809 0.44854161 4293530880
3.2571185 -1.0660059 0.46235558 4293530880
3.2561021 -1.06556 0.47514439 4293530880
3.2324927 -1.0577215 0.48400262 4293400320
3.2120748 -1.0509286 0.49262324 4293400320
3.18664 -1.0424961 0.49974963 4293269760
3.2348959 -1.0581703 0.51793069 4293400320
3.2395322 -1.0595742 0.52870619 4293530880
3.2457819 -1.0615054 0.53916925 4293530880
3.2328377 -1.0571598 0.54580522 4293400320
3.2330391 -1.0571132 0.55399525 4293530880
3.2348394 -1.0575893 0.56182247 4293530880
3.2300811 -1.0559213 0.56785297 4293400320
3.2211781 -1.052899 0.57246786 4293400320
3.2168632 -1.0513767 0.57720733 4293400320
3.2208147 -1.0525562 0.58275592 4293400320
3.2072165 -1.0480007 0.58443749 4293400320
3.2066939 -1.0477185 0.58780092 4293400320
3.2109611 -1.0490011 0.59135818 4293400320
3.2153373 -1.050319 0.59425008 4293400320
3.2057822 -1.0470862 0.59387022 4293400320
3.2057018 -1.0469486 0.59454596 4293400320
3.2140157 -1.049552 0.59608203 4293400320
3.2047999 -1.0464312 0.59367085 4293400320
3.2179012 -1.0505971 0.59469485 4293400320
3.2356024 -1.0562638 0.59585547 4293530880
3.2173564 -1.0501956 0.58970344 4293400320
3.2375083 -1.0566609 0.58989394 4293530880
3.2284701 -1.0535988 0.58406669 4293530880
3.2254527 -1.0525019 0.57866365 4293400320
3.2367852 -1.0560874 0.57514584 4293530880
3.242281 -1.0577677 0.56989181 4293530880
3.2329383 -1.0546074 0.56137705 4293530880
3.234113 -1.0548782 0.55405468 4293530880
3.2279022 -1.0527402 0.54483891 4293400320
3.2201049 -1.0500853 0.53476298 4293400320
3.2214992 -1.050428 0.52561438 4293400320
3.2470894 -1.0586593 0.51972586 4293530880
3.2461464 -1.0582391 0.50891811 4293530880
3.243017 -1.0571061 0.49719927 4293530880
3.1969283 -1.0413657 0.40589848 4293269760
3.2234826 -1.0499035 0.39428613 4293400320
3.2426455 -1.0560323 0.38111389 4293400320
3.2260761 -1.0505241 0.363307 4293400320
3.1893666 -1.0384593 0.34309477 4293269760
3.2133133 -1.0461447 0.32908887 4293269760
3.2169404 -1.0472139 0.31249556 4293269760
3.0770142 -1.0015566 0.28234667 4292747520
2.5864942 -0.84180433 0.22315861 4291050240
2.4742601 -0.80519044 0.19967833 4290658560
2.4603019 -0.80056262 0.1846156 4290658560
2.4496474 -0.79701066 0.16973954 4290528000
2.4083269 -0.78348303 0.1528555 4290397440
2.4284277 -0.78993791 0.13982587 4290528000
2.4108386 -0.78413266 0.12446074 4290397440
2.4016223 -0.78105164 0.10955319 4290397440
2.4136221 -0.78487033 0.095477715 4290397440
2.433948 -0.79139537 0.081431873 4290528000
2.4484928 -0.79603958 0.066891633 4290528000
2.4463665 -0.79526335 0.051747862 4290528000
2.4659898 -0.80155677 0.036900282 4290658560
2.4944248 -0.81071281 0.021847175 4290658560
2.5015101 -0.81292868 0.0063633639 4290789120
2.5015278 -0.8128475 -0.0091891084 4290789120
2.5381014 -0.82464361 -0.025092991 4290919680
2.5655203 -0.83346301 -0.041276284 4290919680
2.5867469 -0.84026915 -0.057616457 4291050240
2.6058881 -0.84639639 -0.074096873 4291050240
2.6523747 -0.86140317 -0.091677368 4291311360
2.680896 -0.87057287 -0.10899618 4291311360
2.6692374 -0.86669427 -0.12466636 4291311360
2.6990464 -0.87627941 -0.14224611 4291441920
2.7872143 -0.90480745 -0.1634493 4291703040
2.9408855 -0.95459133 -0.18974249 4292355840
3.1450641 -1.0207571 -0.2211758 4293008640
3.1588624 -1.0251256 -0.24024343 4293139200
3.2038929 -1.0396279 -0.26175663 4293269760
3.2095416 -1.0413494 -0.28005069 4293269760
3.2164714 -1.0434861 -0.2982178 4293269760
3.1957726 -1.0366601 -0.31342149 4293269760
3.1979954 -1.0372701 -0.33042759 4293269760
3.2084346 -1.0405446 -0.3479819 4293269760
3.2110817 -1.0412916 -0.36437145 4293269760
3.2053745 -1.0393295 -0.37939259 4293269760
3.1956766 -1.0360742 -0.3934437 4293269760
3.2307088 -1.0473199 -0.41267702 4293400320
3.2340636 -1.0482951 -0.42757738 4293400320
3.2368619 -1.0490898 -0.4419499 4293400320
3.2299702 -1.046744 -0.45448369 4293400320
3.227308 -1.0457692 -0.46705863 4293400320
3.1909807 -1.033887 -0.4740808 4293269760
3.2001565 -1.0367489 -0.48721763 4293269760
3.2016726 -1.0371289 -0.49867126 4293269760
3.2002203 -1.0365474 -0.50909251 4293269760
3.2136753 -1.0407939 -0.5213387 4293400320
3.2063408 -1.0383072 -0.52963358 4293400320
3.2117572 -1.0399498 -0.53941762 4293400320
3.2201378 -1.0425515 -0.54911309 4293400320
3.2089655 -1.038823 -0.55483383 4293400320
3.202903 -1.0367492 -0.56075507 4293400320
3.2060783 -1.0376658 -0.56763542 4293400320
3.1997044 -1.0354919 -0.57215977 4293400320
3.1862829 -1.0310378 -0.57472503 4293269760
3.1737084 -1.0268587 -0.57673478 4293269760
3.1778493 -1.0280882 -0.58109629 4293269760
3.164432 -1.0236378 -0.58156019 4293269760
3.1687872 -1.0249366 -0.58460069 4293269760
3.1685662 -1.0247551 -0.58611554 4293269760
3.1720595 -1.0257748 -0.587632 4293269760
3.1720612 -1.0256653 -0.58781427 4293269760
3.188777 -1.0309595 -0.59040254 4293269760
3.1932268 -1.0322875 -0.59002411 4293400320
3.2028286 -1.0352803 -0.58989936 4293400320
3.1991589 -1.0339831 -0.58663732 4293400320
3.2047355 -1.0356743 -0.58438212 4293400320
3.2023065 -1.0347782 -0.57998168 4293400320
3.2113235 -1.0375805 -0.57696736 4293400320
3.2093463 -1.0368303 -0.5712955 4293400320
3.2030733 -1.0346926 -0.56420898 4293400320
3.2033792 -1.0346802 -0.55763674 4293400320
3.1998243 -1.033421 -0.54975295 4293400320
3.1886411 -1.0296987 -0.5399577 4293269760
3.1933405 -1.0311055 -0.53224313 4293269760
3.1730754 -1.024452 -0.51979923 4293269760
3.1892443 -1.0295615 -0.51273453 4293269760
3.2138293 -1.0373867 -0.50630563 4293400320
3.2263441 -1.0413144 -0.4972735 4293400320
3.2003436 -1.0328116 -0.48178774 4293269760
3.1853924 -1.027876 -0.46756604 4293269760
3.1748915 -1.0243775 -0.4535639 4293139200
3.1890547 -1.0288366 -0.4425548 4293269760
3.1915343 -1.0295259 -0.42935604 4293269760
3.1971433 -1.0312244 -0.41605952 4293269760
3.1626823 -1.0199994 -0.39721301 4293139200
3.179441 -1.0252939 -0.38443255 4293139200
3.1912992 -1.0290072 -0.37049469 4293269760
3.1929371 -1.0294247 -0.35489252 4293269760
3.1823528 -1.0259019 -0.33758327 4293139200
3.0451658 -0.98157102 -0.30723545 4292747520
2.8319261 -0.91273767 -0.27071652 4291964160
2.7404435 -0.88315749 -0.24716288 4291572480
2.6862381 -0.86559564 -0.22749235 4291441920
2.6503432 -0.85393727 -0.20962232 4291311360
2.6531692 -0.85475576 -0.19477041 4291311360
2.636121 -0.84917206 -0.17832924 4291180800
2.6124907 -0.84146947 -0.16148481 4291180800
2.5003045 -0.8052482 -0.13979122 4290789120
2.5474043 -0.82032877 -0.12723304 4290919680
2.5476735 -0.8203271 -0.11191566 4290919680
2.4969776 -0.80391693 -0.094544396 4290658560
2.4936025 -0.80274385 -0.079190992 4290658560
2.4876959 -0.8007561 -0.063728802 4290658560
2.4677155 -0.79423922 -0.047997076 4290658560
2.4142029 -0.77693236 -0.032016065 4290397440
2.433244 -0.78297573 -0.01717606 4290528000
2.4333227 -0.78291667 -0.0020653983 4290528000
2.4068732 -0.77432317 0.012905914 4290397440
2.3310835 -0.74985981 0.026963897 4290136320
2.4076624 -0.77441013 0.042758908 4290397440
2.4432921 -0.7857855 0.05847441 4290528000
2.4530528 -0.78883958 0.073787324 4290528000
2.4131584 -0.77592695 0.087342672 4290397440
2.4806864 -0.7975539 0.10485766 4290658560
2.498071 -0.80305654 0.12065434 4290658560
2.5360618 -0.81518155 0.13764706 4290789120
2.8436313 -0.91394693 0.17116886 4291964160
3.2101481 -1.0316347 0.21201749 4293269760
3.230994 -1.0382218 0.23206998 4293269760
3.2162707 -1.0333793 0.24935044 4293269760
3.0492814 -0.9796204 0.25353101 4292747520
3.2687798 -1.0500238 0.2898424 4293400320
3.2713511 -1.0507364 0.30782673 4293530880
3.2557421 -1.0456101 0.32369161 4293400320
3.208297 -1.0302614 0.33570287 4293269760
2.9861999 -0.95883715 0.32768747 4292486400
3.2626021 -1.0474739 0.3742533 4293530880
3.2582977 -1.045979 0.38955671 4293400320
3.2303891 -1.036908 0.40145028 4293400320
3.2050719 -1.0286704 0.41296858 4293269760
3.1289628 -1.0041347 0.41702533 4293008640
3.2569323 -1.0450892 0.44802213 4293530880
3.2547812 -1.0442864 0.46115229 4293530880
3.257539 -1.0450583 0.4744575 4293530880
3.2386005 -1.0388703 0.48400262 4293400320
3.2087204 -1.0291743 0.49118087 4293269760
3.1964271 -1.0251206 0.50033933 4293269760
3.245713 -1.0408145 0.5186829 4293530880
3.2503555 -1.0421907 0.52947259 4293530880
3.2425053 -1.0395613 0.5376097 4293530880
3.2389421 -1.0383066 0.54580522 4293400320
3.2438428 -1.0397652 0.55479902 4293530880
3.2371881 -1.0375201 0.561171 4293400320
3.2361784 -1.0370843 0.56785297 4293400320
3.227258 -1.0341138 0.57246786 4293400320
3.2088528 -1.028105 0.57468545 4293400320
3.2221997 -1.0322698 0.58190846 4293400320
3.2132678 -1.029297 0.58443749 4293400320
3.2089908 -1.0278158 0.58711433 4293400320
3.2085755 -1.0275717 0.5898062 4293400320
3.216712 -1.030066 0.59338492 4293400320
3.2080765 -1.0271896 0.59317654 4293400320
3.203306 -1.0255512 0.59298337 4293400320
3.2153864 -1.0293074 0.59521395 4293400320
3.2155321 -1.0292428 0.59453797 4293400320
3.2277198 -1.0330321 0.59538698 4293400320
3.2243392 -1.0318384 0.59266412 4293400320
3.2327893 -1.0344305 0.59141737 4293400320
3.2389174 -1.0362793 0.58904058 4293530880
3.241981 -1.0371472 0.58540785 4293530880
3.2268355 -1.0321902 0.57782298 4293400320
3.2428832 -1.0372113 0.57514584 4293530880
3.2389941 -1.0358552 0.56824368 4293530880
3.2418501 -1.0366563 0.56186622 4293530880
3.2477281 -1.0384234 0.55534124 4293530880
3.2302191 -1.0327133 0.54420513 4293400320
3.2261682 -1.0313065 0.53476298 4293400320
3.2237995 -1.0304376 0.52500123 4293400320
3.2447271 -1.0370145 0.51837188 4293400320
3.2475462 -1.0378031 0.50818098 4293530880
3.2444079 -1.0366877 0.49647808 4293400320
3.1982124 -1.0212122 0.40529925 4293269760
3.2342761 -1.0326157 0.39486375 4293400320
3.2387109 -1.0339195 0.37993699 4293400320
3.2359309 -1.0329199 0.36373287 4293400320
3.1953628 -1.0198598 0.34309477 4293269760
3.2060792 -1.0231692 0.32773194 4293269760
3.1964254 -1.0199777 0.30992016 4293269760
2.785399 -0.88872296 0.25510862 4291703040
2.4995763 -0.79744047 0.21525495 4290789120
2.4647431 -0.78624231 0.19853725 4290658560
2.4649243 -0.78621477 0.1846156 4290658560
2.4486282 -0.78093219 0.16935077 4290528000
2.4080956 -0.76792198 0.15255427 4290397440
2.4219065 -0.77224231 0.13918896 4290397440
2.410888 -0.76864552 0.12422998 4290397440
2.3919895 -0.76253748 0.10890926 4290397440
2.3953037 -0.76351112 0.094575502 4290397440
2.4204237 -0.77143449 0.080827653 4290397440
2.4249346 -0.77278823 0.066123903 4290397440
2.4233329 -0.77219397 0.051164594 4290397440
2.4584813 -0.78330886 0.036719009 4290528000
2.4762392 -0.78888112 0.021647274 4290658560
2.4877243 -0.792454 0.0063164439 4290658560
2.4829772 -0.79085588 -0.0091038849 4290658560
2.5251677 -0.80420661 -0.024918374 4290789120
2.5440638 -0.81013656 -0.040854439 4290919680
2.5687206 -0.81789941 -0.057107832 4290919680
2.5831518 -0.8224051 -0.073312894 4291050240
2.6249678 -0.83562732 -0.090560257 4291180800
2.6516562 -0.84403151 -0.10760564 4291311360
2.637115 -0.83931178 -0.12293562 4291180800
2.6770825 -0.85193956 -0.14082457 4291311360
2.7219088 -0.86611062 -0.159321 4291441920
2.7766213 -0.8834241 -0.17880924 4291703040
2.9834793 -0.94913584 -0.20941995 4292486400
3.1324654 -0.99642456 -0.2377903 4293008640
3.1918437 -1.0152022 -0.26028454 4293139200
3.2203028 -1.0241424 -0.28046426 4293269760
3.2177498 -1.0232192 -0.29777855 4293269760
3.2065024 -1.0195317 -0.3138859 4293269760
3.1992424 -1.0171126 -0.32993853 4293269760
3.204963 -1.0188205 -0.34695566 4293269760
3.2170939 -1.0225655 -0.36437145 4293269760
3.2115829 -1.0207027 -0.37941712 4293269760
3.2016587 -1.0174378 -0.3934437 4293269760
3.2282412 -1.0257738 -0.41159141 4293400320
3.232883 -1.0271368 -0.42662287 4293400320
3.2476449 -1.0317146 -0.4425939 4293400320
3.2407372 -1.0294081 -0.45514706 4293400320
3.233762 -1.0270805 -0.46711868 4293400320
3.1922317 -1.0137796 -0.47338107 4293269760
3.1997313 -1.0160507 -0.48624334 4293269760
3.2101541 -1.0192493 -0.4990589 4293269760
3.2241106 -1.0235692 -0.51193559 4293400320
3.2149746 -1.0205575 -0.52057612 4293400320
3.220892 -1.0223246 -0.53104424 4293400320
3.2177618 -1.0212197 -0.53941762 4293400320
3.208281 -1.0180999 -0.5460704 4293400320
3.2149634 -1.0201093 -0.55483383 4293400320
3.2088888 -1.0180709 -0.56075507 4293400320
3.2073698 -1.017478 -0.56680489 4293400320
3.197226 -1.0141495 -0.57065028 4293269760
3.1922359 -1.0124564 -0.57472503 4293269760
3.1749411 -1.0068613 -0.57588291 4293269760
3.1837852 -1.0095559 -0.58109629 4293269760
3.1618915 -1.0025042 -0.58001 4293139200
3.1615605 -1.00229 -0.5821802 4293139200
3.1865427 -1.0100998 -0.58834219 4293269760
3.1864314 -1.0099543 -0.5891943 4293269760
3.1779833 -1.0071669 -0.58781427 4293269760
3.1900353 -1.0108761 -0.58953506 4293269760
3.1944926 -1.0121781 -0.5891583 4293269760
3.2041111 -1.0151149 -0.58903629 4293400320
3.2031686 -1.0147057 -0.58627856 4293400320
3.2069581 -1.0157952 -0.58369827 4293400320
3.208281 -1.0161034 -0.57998168 4293400320
3.2126157 -1.0173652 -0.57612479 4293400320
3.2059331 -1.0151381 -0.56962544 4293400320
3.2137485 -1.0175017 -0.56503558 4293400320
3.209353 -1.0159992 -0.55763674 4293400320
3.1988702 -1.01257 -0.54856616 4293269760
3.1992924 -1.012593 -0.54075319 4293269760
3.1804614 -1.006523 -0.52911007 4293269760
3.1789901 -1.0059476 -0.51979923 4293269760
3.204613 -1.0139447 -0.51424688 4293269760
3.2198186 -1.0186446 -0.50630563 4293400320
3.2213669 -1.0190231 -0.49558288 4293400320
3.1978126 -1.0114615 -0.48051137 4293269760
3.1828284 -1.0066121 -0.4663209 4293269760
3.1713581 -1.0028749 -0.45221671 4293139200
3.1932962 -1.009702 -0.44231954 4293269760
3.2047129 -1.0132011 -0.43032748 4293269760
3.1936345 -1.0095882 -0.41483039 4293269760
3.1647842 -1.0003586 -0.39673826 4293139200
3.1768353 -1.004058 -0.38340366 4293139200
3.1887105 -1.007701 -0.36950627 4293139200
3.1988807 -1.0108045 -0.35489252 4293269760
3.174994 -1.0031469 -0.33617693 4293139200
2.8487329 -0.89996558 -0.28688288 4291964160
2.7395287 -0.86537135 -0.26139742 4291572480
2.6951885 -0.85127193 -0.24262986 4291441920
2.6674588 -0.84242135 -0.22548249 4291311360
2.6247487 -0.82884222 -0.20721254 4291180800
2.6352735 -0.83207464 -0.19309752 4291180800
2.6134264 -0.8250863 -0.17646579 4291180800
2.5897276 -0.81751484 -0.15978062 4291050240
2.4782898 -0.78225106 -0.13830322 4290658560
2.5266697 -0.79743445 -0.12596324 4290789120
2.5162029 -0.79404408 -0.11032809 4290789120
2.5011489 -0.78920704 -0.094526634 4290658560
2.4667807 -0.77827734 -0.078193866 4290528000
2.4599037 -0.77602273 -0.06289994 4290528000
2.4631743 -0.77696937 -0.04781989 4290528000
2.3994691 -0.75679171 -0.031761657 4290397440
2.4148762 -0.76156765 -0.017014792 4290397440
2.4144757 -0.76135796 -0.0020456009 4290397440
2.4060192 -0.75860828 0.012877417 4290397440
2.3659613 -0.74589652 0.0273166 4290266880
2.4025974 -0.75736344 0.042589866 4290397440
2.4430614 -0.77003437 0.058360524 4290528000
2.457607 -0.77453423 0.073787324 4290528000
2.4138253 -0.76065272 0.087204926 4290397440
2.485291 -0.78308737 0.10485766 4290658560
2.4978251 -0.78695053 0.12041898 4290658560
2.5045724 -0.78898972 0.13568614 4290789120
2.7109051 -0.85389501 0.16287734 4291441920
3.1570842 -0.99432582 0.20812669 4293008640
3.2284236 -1.0166826 0.23145597 4293269760
3.2097745 -1.0106989 0.24838606 4293269760
3.0454285 -0.95884424 0.25274187 4292616960
3.2567832 -1.0252762 0.2882441 4293400320
3.2584164 -1.0256778 0.30604208 4293400320
3.2598917 -1.0260297 0.32350433 4293400320
3.1962106 -1.0058761 0.33381933 4293139200
2.9822483 -0.93843728 0.32664832 4292486400
3.2686496 -1.0284475 0.3742533 4293530880
3.2595975 -1.0254869 0.38899118 4293400320
3.2316391 -1.0165795 0.40086272 4293400320
3.1968086 -1.0055124 0.41114202 4293269760
3.1394916 -0.9873758 0.41765478 4293008640
3.2535071 -1.0231216 0.4467234 4293400320
3.2608104 -1.0253056 0.46115229 4293530880
3.2503436 -1.0219023 0.4725343 4293400320
3.2360981 -1.0173118 0.48273465 4293400320
3.2099423 -1.0089786 0.49045968 4293269760
3.1985712 -1.0052938 0.49974963 4293269760
3.2421737 -1.018886 0.51715982 4293400320
3.2563725 -1.0232357 0.52947259 4293530880
3.2353141 -1.016507 0.53542638 4293400320
3.2402265 -1.0179386 0.54501301 4293400320
3.2404294 -1.0178905 0.55319148 4293400320
3.2431779 -1.0186418 0.561171 4293400320
3.2421656 -1.0182121 0.56785297 4293400320
3.2285244 -1.0138166 0.57163501 4293400320
3.2194908 -1.0108687 0.57552606 4293400320
3.2187564 -1.010527 0.58021349 4293400320
3.2107494 -1.0079024 0.58290148 4293400320
3.2149248 -1.0091022 0.58711433 4293400320
3.2182672 -1.0100403 0.59049594 4293400320
3.2048039 -1.0057043 0.59009731 4293400320
3.2093081 -1.007007 0.59230942 4293400320
3.2092266 -1.0068706 0.59298337 4293400320
3.2166305 -1.0090826 0.59434581 4293400320
3.2167757 -1.0090171 0.59367085 4293400320
3.2299244 -1.0130301 0.59469485 4293400320
3.2476904 -1.0184901 0.59585547 4293530880
3.2293608 -1.0126305 0.58970082 4293400320
3.2354982 -1.0144433 0.58733386 4293400320
3.2526705 -1.0197152 0.58625531 4293530880
3.2374978 -1.0148468 0.57866365 4293400320
3.2404032 -1.0156457 0.57364678 4293400320
3.2449744 -1.0169666 0.56824368 4293530880
3.2525425 -1.0192262 0.5626806 4293530880
3.2452464 -1.0168278 0.55389446 4293400320
3.226759 -1.0109239 0.54262066 4293400320
3.2321222 -1.0124927 0.53476298 4293400320
3.2297482 -1.0116376 0.52500123 4293400320
3.2544875 -1.0192744 0.51897365 4293530880
3.2488182 -1.0173867 0.50744385 4293400320
3.2551143 -1.0192461 0.49719927 4293530880
3.2088835 -1.0039217 0.40589848 4293269760
3.2402759 -1.0136313 0.39486456 4293400320
3.2447181 -1.014909 0.37993866 4293400320
3.2286465 -1.0097706 0.36224484 4293269760
3.1927431 -0.99843162 0.34218243 4293139200
3.1930251 -0.99840975 0.32579786 4293139200
3.0725307 -0.96062702 0.29736149 4292747520
2.6027281 -0.81365347 0.2379424 4291050240
2.4801798 -0.77525735 0.21319529 4290658560
2.4727268 -0.77284247 0.19881856 4290658560
2.4742522 -0.77323389 0.18497901 4290658560
2.4587967 -0.76831907 0.16974792 4290528000
2.4030294 -0.75081015 0.15196085 4290397440
2.4263928 -0.75802624 0.13919897 4290397440
2.4067731 -0.75181389 0.12379947 4290397440
2.3952713 -0.74813843 0.1088687 4290266880
2.3832273 -0.7442944 0.093937181 4290266880
2.4011288 -0.74980235 0.080048516 4290397440
2.411294 -0.75289357 0.065644771 4290397440
2.4001427 -0.74932891 0.050596457 4290397440
2.4252737 -0.75709122 0.036172252 4290397440
2.4495318 -0.76457942 0.021391397 4290528000
2.4608274 -0.76802027 0.0062546884 4290528000
2.4608438 -0.76794052 -0.0089871651 4290528000
2.4995432 -0.77993107 -0.024599947 4290658560
2.5210905 -0.78656757 -0.040389776 4290789120
2.5410233 -0.79269886 -0.056365833 4290789120
2.5602565 -0.79861063 -0.072506107 4290919680
2.6033568 -0.81196499 -0.089624934 4291050240
2.6288967 -0.81984007 -0.10646024 4291180800
2.6321855 -0.82077491 -0.12245376 4291180800
2.6410341 -0.82344311 -0.13864563 4291180800
2.677376 -0.83468181 -0.15639797 4291311360
2.7032814 -0.84266466 -0.17373705 4291441920
2.7742841 -0.86470199 -0.19434735 4291703040
3.0649359 -0.9551881 -0.23220202 4292747520
3.1701412 -0.98786604 -0.25800356 4293139200
3.2072268 -0.99931198 -0.27877513 4293269760
3.2094321 -0.99988854 -0.29642561 4293269760
3.1896143 -0.99360442 -0.31162152 4293139200
3.1896145 -0.99349457 -0.32830352 4293139200
3.213402 -1.0007931 -0.34719199 4293269760
3.2170572 -1.0018207 -0.36365968 4293269760
3.2222612 -1.0033301 -0.37994108 4293269760
3.1990392 -0.99598914 -0.39236185 4293269760
3.229466 -1.0053509 -0.41095328 4293400320
3.2388549 -1.0081621 -0.42658818 4293400320
3.2347062 -1.0067593 -0.4399837 4293400320
3.2419906 -1.0089147 -0.45445007 4293400320
3.2308037 -1.0053221 -0.46579832 4293400320
3.2114446 -0.99918747 -0.47532061 4293269760
3.2150888 -1.0002105 -0.48764575 4293269760
3.2113574 -0.99893898 -0.49829602 4293269760
3.2146201 -0.99984318 -0.50945926 4293269760
3.2171333 -1.000514 -0.51993817 4293400320
3.2089126 -0.99784684 -0.52806813 4293269760
3.2152123 -0.99969506 -0.53797239 4293400320
3.2141998 -0.99926949 -0.54604667 4293400320
3.2124133 -0.9986034 -0.55335081 4293400320
3.2148073 -0.99923676 -0.56073451 4293400320
3.203021 -0.99546301 -0.56497568 4293269760
3.2031209 -0.99538374 -0.57063329 4293269760
3.1849439 -0.98962545 -0.57234204 4293269760
3.185498 -0.98968786 -0.57672179 4293269760
3.1896527 -0.99086875 -0.58108532 4293269760
3.172421 -0.98540646 -0.58086246 4293269760
3.1720879 -0.98519379 -0.58303809 4293269760
3.171865 -0.98501521 -0.58455122 4293269760
3.1970019 -0.99271137 -0.59006035 4293269760
3.1612623 -0.9815048 -0.58364737 4293139200
3.1959078 -0.99215144 -0.58953816 4293269760
3.2003722 -0.99342716 -0.58916402 4293269760
3.2062445 -0.99513954 -0.58835417 4293400320
3.2063217 -0.99505305 -0.58578902 4293400320
3.2128575 -0.99697071 -0.58371222 4293400320
3.219094 -0.99879509 -0.58088493 4293400320
3.2100503 -0.99587858 -0.57462788 4293400320
3.2165358 -0.99777979 -0.57048321 4293400320
3.219656 -0.99863678 -0.56506133 4293400320
3.2083204 -0.99501038 -0.55646342 4293269760
3.2094612 -0.99525368 -0.54940474 4293269760
3.198761 -0.99182534 -0.53970665 4293269760
3.1910203 -0.98931533 -0.52993119 4293269760
3.1810536 -0.98611581 -0.51922399 4293269760
3.1929457 -0.98969239 -0.51147968 4293269760
3.223232 -0.99896902 -0.50596136 4293400320
3.2272801 -1.0001125 -0.49563393 4293400320
3.2074637 -0.99386108 -0.48113257 4293269760
3.1744788 -0.98353112 -0.46430221 4293139200
3.1761131 -0.98392808 -0.45212498 4293139200
3.1944196 -0.98948926 -0.44172809 4293269760
3.1925888 -0.98881227 -0.42798087 4293269760
3.2025285 -0.99178052 -0.41529372 4293269760
3.1563604 -0.97737426 -0.39502966 4293008640
3.1826603 -0.98540848 -0.38347897 4293139200
3.1945567 -0.98898184 -0.36958486 4293139200
3.1733959 -0.98232156 -0.35150194 4293139200
3.103945 -0.96071625 -0.32813483 4292878080
2.7508357 -0.85132909 -0.27659249 4291572480
2.6922119 -0.83309346 -0.25648865 4291441920
2.6643665 -0.82438511 -0.23949386 4291311360
2.6465404 -0.81877846 -0.22338419 4291180800
2.5971687 -0.80341458 -0.20473997 4291050240
2.6086526 -0.8068772 -0.19087948 4291050240
2.5974891 -0.80333483 -0.1751527 4291050240
2.5620461 -0.79228508 -0.15786819 4290919680
2.4456236 -0.75619853 -0.13631307 4290528000
2.5217557 -0.77965212 -0.12557499 4290789120
2.5116758 -0.77644926 -0.11001609 4290789120
2.4828017 -0.76743782 -0.093750015 4290658560
2.4340558 -0.75228655 -0.077103436 4290397440
2.4414871 -0.75449932 -0.062404413 4290528000
2.4361629 -0.75277013 -0.047299545 4290397440
2.3761594 -0.73414737 -0.031484958 4290266880
2.4006679 -0.74163699 -0.01697501 4290397440
2.3949685 -0.7397939 -0.0021172687 4290266880
2.3946054 -0.73959935 0.012700242 4290266880
2.3831861 -0.73599029 0.027372297 4290266880
2.4198039 -0.74721557 0.042721607 4290397440
2.4427607 -0.75422043 0.058150467 4290528000
2.457334 -0.75863546 0.07354714 4290528000
2.4268422 -0.74913841 0.087418795 4290397440
2.4946179 -0.76997423 0.10495988 4290658560
2.5052683 -0.7731753 0.12045775 4290658560
2.4996037 -0.77134109 0.13507053 4290658560
2.5008643 -0.771644 0.14988428 4290658560
2.8914554 -0.89206177 0.19015343 4292094720
3.2066915 -0.98920697 0.22935244 4293139200
3.2156549 -0.9918614 0.24826156 4293269760
3.0414817 -0.93803346 0.251836 4292616960
3.2659903 -1.0071625 0.28840631 4293400320
3.2725608 -1.0090761 0.30668563 4293400320
3.2696688 -1.0080719 0.32376015 4293400320
3.20682 -0.9885847 0.33419797 4293269760
2.987711 -0.92093587 0.32654113 4292486400
3.2651365 -1.0063375 0.37305257 4293400320
3.2612932 -1.0050409 0.3883695 4293400320
3.2384105 -0.99787766 0.40085912 4293400320
3.1893826 -0.98266059 0.40933225 4293139200
3.1357594 -0.96603119 0.41629541 4293008640
3.2689397 -1.0069475 0.44792047 4293530880
3.262044 -1.0047112 0.46038559 4293400320
3.2657595 -1.0057433 0.47381309 4293530880
3.2467513 -0.99977773 0.48334822 4293400320
3.2289102 -0.99417281 0.49237007 4293400320
3.1949701 -0.9836129 0.49819338 4293269760
3.2566082 -1.0024769 0.51843429 4293530880
3.2528834 -1.0012184 0.52786452 4293400320
3.2556374 -1.0019542 0.53773534 4293530880
3.250869 -1.0003748 0.54573882 4293400320
3.2554138 -1.0016614 0.55467373 4293530880
3.2443895 -0.9981578 0.56029969 4293400320
3.2433755 -0.99773431 0.5669769 4293400320
3.2391341 -0.9963181 0.5724209 4293400320
3.2168901 -0.98936558 0.57397139 4293400320
3.2161551 -0.98902887 0.57865173 4293400320
3.228708 -0.99277818 0.58506268 4293400320
3.2207913 -0.99023312 0.5870887 4293400320
3.2109568 -0.98709905 0.58806175 4293400320
3.2153561 -0.98834097 0.59094805 4293400320
3.2151599 -0.98817009 0.59230065 4293400320
3.1971905 -0.98253733 0.58968157 4293269760
3.2224922 -0.99020201 0.59434873 4293400320
3.2179289 -0.98868918 0.5928126 4293400320
3.2358072 -0.99407095 0.59470975 4293400320
3.2441878 -0.99653399 0.59415215 4293400320
3.2484233 -0.9977234 0.59213126 4293530880
3.2460954 -0.9968968 0.58822066 4293530880
3.250109 -0.99801761 0.58476961 4293530880
3.2437894 -0.99596554 0.57878155 4293400320
3.2415819 -0.99517637 0.57286608 4293400320
3.2508729 -0.99791694 0.56830227 4293530880
3.2499645 -0.99752635 0.56127959 4293400320
3.2464247 -0.99632829 0.55316186 4293400320
3.2364693 -0.99316174 0.54334396 4293400320
3.224771 -0.98946112 0.53266269 4293400320
3.2356119 -0.9926762 0.52509075 4293400320
3.2566142 -0.9990077 0.5184682 4293400320
3.2594419 -0.99976307 0.50828356 4293530880
3.25156 -0.99723369 0.49586529 4293400320
3.205111 -0.98254472 0.40469998 4293269760
3.2375035 -0.99236357 0.39382324 4293400320
3.2543013 -0.99740058 0.38037956 4293400320
3.2296462 -0.98973316 0.36170736 4293269760
3.193676 -0.9786002 0.3416667 4293139200
3.1444712 -0.96341491 0.32026437 4293008640
2.7542951 -0.84377664 0.26607904 4291572480
2.5333722 -0.77600998 0.23117977 4290789120
2.4724574 -0.75726593 0.21214195 4290658560
2.4818976 -0.76007193 0.19918777 4290658560
2.4738896 -0.75753456 0.18460807 4290658560
2.4536338 -0.75124764 0.16907373 4290528000
2.4216247 -0.741364 0.15284641 4290397440
2.4125717 -0.7385096 0.13814025 4290397440
2.4276786 -0.74305052 0.12463116 4290397440
2.3947577 -0.73289204 0.10862878 4290266880
2.3603876 -0.72229224 0.092847064 4290136320
2.3909461 -0.73156124 0.079540826 4290266880
2.3976309 -0.7335242 0.065128423 4290266880
2.3766863 -0.72703481 0.049983103 4290266880
2.4162006 -0.73903936 0.035940833 4290397440
2.434763 -0.74463332 0.021190623 4290397440
2.4422519 -0.74683982 0.0061606322 4290528000
2.4422677 -0.74676067 -0.0089409454 4290528000
2.4762545 -0.75706762 -0.024367074 4290528000
2.5133896 -0.76833463 -0.040236708 4290658560
2.5178111 -0.7695998 -0.0557952 4290789120
2.5408218 -0.776546 -0.071873307 4290789120
2.5764389 -0.78734308 -0.088588208 4290919680
2.6062613 -0.79636711 -0.10540564 4291050240
2.6043749 -0.79570121 -0.1209956 4291050240
2.6208048 -0.80063099 -0.13739175 4291050240
2.6643941 -0.81385559 -0.15541774 4291311360
2.6803954 -0.8186512 -0.17201626 4291311360
2.6759326 -0.81719625 -0.18718155 4291311360
2.8681757 -0.87580639 -0.21697146 4291964160
3.1118767 -0.95011431 -0.25288022 4292878080
3.1948044 -0.97532398 -0.27727318 4293139200
3.2113116 -0.9802531 -0.29614455 4293269760
3.2129865 -0.98065406 -0.31342018 4293269760
3.1952677 -0.97513622 -0.32837406 4293139200
3.2057767 -0.97823328 -0.34582624 4293269760
3.2227571 -0.9833042 -0.36373076 4293269760
3.2184646 -0.98188394 -0.37889305 4293269760
3.1952055 -0.97467834 -0.39126849 4293139200
3.2209423 -0.98241866 -0.40921378 4293269760
3.2313035 -0.98546791 -0.4249104 4293269760
3.2366388 -0.9869839 -0.43953675 4293400320
3.2344565 -0.98620743 -0.45265979 4293400320
3.2317843 -0.98528165 -0.46518198 4293400320
3.2085216 -0.97807932 -0.47411257 4293269760
3.2207782 -0.98170501 -0.48770776 4293269760
3.2123084 -0.97901309 -0.49762312 4293269760
3.2203076 -0.98134041 -0.50951725 4293269760
3.2228248 -0.98199689 -0.51999384 4293400320
3.2145891 -0.97937709 -0.52812117 4293269760
3.2208996 -0.98118913 -0.53802282 4293400320
3.2248132 -0.98227066 -0.54693002 4293400320
3.2133756 -0.97867638 -0.55258363 4293269760
3.2110567 -0.97785991 -0.55913258 4293269760
3.2086859 -0.97702777 -0.56501329 4293269760
3.1993549 -0.97407675 -0.56898999 4293269760
3.1952908 -0.97272974 -0.57321775 4293269760
3.1769915 -0.96704984 -0.57419217 4293269760
3.1811559 -0.96820825 -0.57853615 4293269760
3.1733198 -0.96571434 -0.58001876 4293139200
3.1729867 -0.96550411 -0.58218676 4293139200
3.1774747 -0.96676069 -0.58455974 4293269760
3.189466 -0.9702996 -0.58763391 4293269760
3.1847551 -0.96875715 -0.58694547 4293269760
3.2015607 -0.97375929 -0.58953196 4293269760
3.2060335 -0.97500962 -0.58915257 4293269760
3.2119162 -0.9766885 -0.58833736 4293400320
3.2025688 -0.97373611 -0.58404785 4293269760
3.2185414 -0.97848213 -0.58368427 4293400320
3.2104394 -0.97590888 -0.5782665 4293269760
3.2242179 -0.97998655 -0.576105 4293400320
3.2127936 -0.97640395 -0.56876767 4293269760
3.2168603 -0.97752947 -0.56352204 4293400320
3.2092781 -0.97511524 -0.55558884 4293269760
3.2104194 -0.97535187 -0.54853439 4293269760
3.2044215 -0.97341973 -0.53963703 4293269760
3.1787119 -0.96550071 -0.52687931 4293139200
3.1866832 -0.9678126 -0.51914227 4293269760
3.194813 -0.97017205 -0.51078641 4293269760
3.2172444 -0.9768734 -0.50403404 4293269760
3.2187903 -0.9772324 -0.49335515 4293269760
3.2046151 -0.97281879 -0.47974849 4293269760
3.1800966 -0.96526664 -0.46418914 4293139200
3.1684589 -0.96162552 -0.45011973 4293139200
3.2000721 -0.97111028 -0.44160163 4293269760
3.1982377 -0.9704439 -0.42784822 4293269760
3.2034461 -0.97191441 -0.41453999 4293269760
3.1656272 -0.96033168 -0.39534619 4293139200
3.1740303 -0.96277189 -0.38161382 4293139200
3.1631114 -0.95935142 -0.36514536 4293008640
3.0683362 -0.9305014 -0.33910856 4292747520
2.8811157 -0.87362623 -0.30388856 4292094720
2.670424 -0.80964762 -0.2678875 4291311360
2.667438 -0.80865085 -0.2535297 4291311360
2.6461914 -0.80211902 -0.23728687 4291180800
2.6187835 -0.79372126 -0.22049505 4291050240
2.5740814 -0.78008431 -0.20240422 4290919680
2.5820036 -0.78239655 -0.188434 4290919680
2.5600529 -0.77565724 -0.17215912 4290919680
2.5540521 -0.7737515 -0.15693004 4290919680
2.4184015 -0.73257309 -0.13439561 4290397440
2.4893425 -0.75397694 -0.12357184 4290658560
2.4797688 -0.75099218 -0.10825402 4290658560
2.4546597 -0.74330378 -0.092349805 4290528000
2.4201696 -0.73277676 -0.076353975 4290397440
2.4319139 -0.73624921 -0.061872292 4290397440
2.4174874 -0.73179883 -0.046675038 4290397440
2.3743303 -0.7186532 -0.03122713 4290266880
2.3819232 -0.72086972 -0.016632091 4290266880
2.3877006 -0.72253633 -0.0019241953 4290266880
2.3867757 -0.72217464 0.01282087 4290266880
