# .PCD v0.7 - Point Cloud Data file format
VERSION 0.7
FIELDS x y z rgba
SIZE 4 4 4 4
TYPE F F F U
COUNT 1 1 1 1
WIDTH 1089
HEIGHT 1
VIEWPOINT 0 0 0 1 0 0 0
POINTS 1089
DATA ascii
2.2678823 -0.9245761 -0.24427734 4290266880
2.2360475 -0.91151911 -0.25265351 4290136320
2.2131314 -0.90209907 -0.26147458 4290136320
2.2015679 -0.89730704 -0.27117348 4290005760
2.1712792 -0.88488573 -0.27806059 4290005760
2.2977314 -0.93632853 -0.30516526 4290397440
2.3140092 -0.94287705 -0.31797358 4290528000
2.2782116 -0.92821079 -0.32318786 4290397440
2.2354231 -0.91069943 -0.32670683 4290266880
2.2296407 -0.90826339 -0.33506051 4290136320
2.3316305 -0.94971853 -0.35961121 4290528000
2.3662422 -0.96372867 -0.37389973 4290658560
2.4045141 -0.97922665 -0.38861251 4290789120
2.4519417 -0.99844939 -0.40466416 4291050240
2.4902165 -1.0139426 -0.41903129 4291180800
2.4394429 -0.99318349 -0.41790777 4291050240
2.4823613 -1.0105643 -0.43232295 4291180800
2.4722152 -1.0063447 -0.437098 4291180800
2.532568 -1.0308162 -0.45395449 4291311360
2.5165458 -1.0242041 -0.45671263 4291311360
2.5139573 -1.0230592 -0.46134114 4291311360
2.557107 -1.0405233 -0.47390231 4291441920
2.5124283 -1.022254 -0.4696483 4291311360
2.5465913 -1.0360593 -0.47956166 4291441920
2.5116758 -1.0217645 -0.47591963 4291311360
2.5377858 -1.0322919 -0.48327065 4291441920
2.5110724 -1.0213354 -0.48000863 4291311360
2.5063415 -1.0193198 -0.48036849 4291311360
2.5890665 -1.0528641 -0.49694979 4291572480
2.5498559 -1.0368277 -0.4895741 4291441920
2.5189435 -1.0241674 -0.48322505 4291311360
2.5631793 -1.0420564 -0.49071568 4291441920
2.5871949 -1.0517236 -0.49373406 4291572480
2.5091026 -1.0198904 -0.4767468 4291311360
2.5384247 -1.0317143 -0.47964624 4291441920
2.4641173 -1.0014266 -0.46247542 4291050240
2.4958336 -1.0142224 -0.46471167 4291180800
2.4526873 -0.99660134 -0.45250022 4291050240
2.4948761 -1.0136496 -0.45549986 4291180800
2.4472799 -0.99422413 -0.44160506 4291050240
2.3997171 -0.97481573 -0.42742038 4290789120
2.4396944 -0.99096286 -0.42834395 4291050240
2.4050198 -0.97679186 -0.41566536 4290919680
2.371284 -0.96300459 -0.40286788 4290789120
2.3329875 -0.94736803 -0.38905516 4290528000
2.3121037 -0.93880343 -0.37789249 4290528000
2.3575757 -0.95717663 -0.37705505 4290658560
2.2832184 -0.92690754 -0.3567431 4290397440
2.2798054 -0.92543781 -0.34739971 4290397440
2.2635584 -0.91875976 -0.33578879 4290266880
2.2381248 -0.90835512 -0.32261106 4290266880
2.2837811 -0.92679721 -0.3192271 4290397440
2.2583456 -0.91639286 -0.30546644 4290266880
2.2558806 -0.91530895 -0.29459989 4290266880
2.1812646 -0.88495785 -0.27435532 4290005760
2.2223699 -0.90154928 -0.26851943 4290136320
2.2387087 -0.90809309 -0.25910926 4290136320
2.2071602 -0.89521593 -0.24395345 4290136320
2.1861322 -0.88660717 -0.22997068 4290005760
2.1696665 -0.87984961 -0.21641941 4289875200
2.1628158 -0.87699145 -0.2037205 4289875200
2.1319592 -0.86440223 -0.18875214 4289744640
2.1236436 -0.86095208 -0.17579922 4289744640
2.1198957 -0.8593539 -0.16310576 4289744640
2.1137545 -0.85678607 -0.15011202 4289744640
2.0909574 -0.84746915 -0.13594799 4289614080
2.012002 -0.81539881 -0.11860126 4289352960
2.0760727 -0.84128255 -0.10965472 4289614080
2.0906012 -0.84709102 -0.097491182 4289614080
2.0751631 -0.84075934 -0.083832987 4289614080
2.0756073 -0.8408618 -0.070824064 4289614080
2.123445 -0.86015904 -0.059058644 4289744640
2.145999 -0.86921358 -0.046083752 4289744640
2.1170113 -0.85739547 -0.031993616 4289744640
2.1526921 -0.87176353 -0.018812714 4289875200
2.203974 -0.89244521 -0.0051989192 4290005760
2.197298 -0.88966036 0.0088428026 4290005760
2.1125302 -0.85526568 0.021981299 4289744640
2.2580163 -0.91407216 0.037849057 4290266880
2.2800438 -0.92290264 0.052679677 4290266880
2.2723064 -0.91968656 0.066855364 4290266880
2.1501629 -0.87017822 0.076785274 4289875200
2.31162 -0.93542337 0.096962139 4290397440
2.3379548 -0.94599128 0.11254783 4290528000
2.2969015 -0.92929709 0.12468218 4290397440
2.2415814 -0.90683532 0.1353161 4290136320
2.393328 -0.9681257 0.15884683 4290658560
2.4028347 -0.97188121 0.17374581 4290789120
2.3826838 -0.96364325 0.18624844 4290658560
2.3225536 -0.93924171 0.19495848 4290528000
2.4795144 -1.0026146 0.22218589 4291050240
2.4817178 -1.0034132 0.23622085 4291050240
2.4673455 -0.99751133 0.2483492 4291050240
2.4978669 -1.0097561 0.26479569 4291180800
2.6586757 -1.0746546 0.29574177 4291703040
3.0418596 -1.2294065 0.35385844 4293139200
3.0779674 -1.243884 0.37338084 4293269760
3.099143 -1.2523257 0.39095327 4293400320
3.0814359 -1.245057 0.40320143 4293269760
3.0430465 -1.2294347 0.41202983 4293139200
3.1048553 -1.2542884 0.43403897 4293400320
3.1065438 -1.2548555 0.44743457 4293400320
3.1091197 -1.2557808 0.46046308 4293400320
3.1036208 -1.2534454 0.47175735 4293400320
3.0852735 -1.2459223 0.48046783 4293269760
3.068063 -1.2388597 0.48867169 4293269760
3.0955374 -1.2498381 0.50345278 4293400320
3.1097996 -1.2554811 0.51564139 4293400320
3.096669 -1.2500665 0.52269942 4293400320
3.0907533 -1.2475648 0.53031051 4293400320
3.0972435 -1.2500702 0.5394305 4293400320
3.0953524 -1.2491932 0.54647434 4293400320
3.0947514 -1.2488368 0.55310071 4293400320
3.0839071 -1.2443479 0.55722725 4293400320
3.0877106 -1.245769 0.5633297 4293400320
3.0915926 -1.2472216 0.56879723 4293400320
3.0777404 -1.2415211 0.57032347 4293400320
3.0818205 -1.2430537 0.57448435 4293400320
3.0814331 -1.2427846 0.57714033 4293400320
3.0902874 -1.2462422 0.58085072 4293400320
3.0764062 -1.2405323 0.57960582 4293400320
3.0763376 -1.2403921 0.58027077 4293400320
3.0763764 -1.2402954 0.58027101 4293400320
3.0897775 -1.2455848 0.58210152 4293400320
3.0891049 -1.245201 0.58059317 4293400320
3.0912015 -1.2459334 0.57891887 4293400320
3.0870984 -1.2441673 0.57540417 4293400320
3.0945404 -1.2470536 0.57335693 4293400320
3.0937862 -1.2466372 0.56911021 4293400320
3.0906236 -1.2452506 0.56375754 4293400320
3.0958736 -1.2472532 0.55927157 4293400320
3.1031237 -1.250061 0.5544672 4293400320
3.0904355 -1.2448382 0.54546738 4293400320
3.0805638 -1.2407507 0.53637767 4293400320
3.070349 -1.2365257 0.52665222 4293269760
3.075074 -1.2383169 0.51888686 4293269760
3.0982187 -1.2475239 0.51354152 4293400320
3.1071866 -1.2510221 0.50515515 4293400320
3.0965695 -1.246636 0.49301013 4293400320
3.0892992 -1.2435979 0.48088962 4293400320
2.537529 -1.0209171 0.32653433 4291311360
2.4873827 -1.0006551 0.30823562 4291050240
2.4840608 -0.99922949 0.29563841 4291050240
2.4350739 -0.97943938 0.27754289 4290919680
2.400295 -0.9653663 0.26117837 4290789120
2.4110003 -0.96958447 0.24958555 4290789120
2.394594 -0.96290159 0.23494236 4290789120
2.3371668 -0.93972868 0.21642277 4290528000
2.3160062 -0.93113858 0.20144971 4290397440
2.3219051 -0.93342644 0.18868668 4290397440
2.3098788 -0.92850965 0.17429529 4290397440
2.2388103 -0.89986598 0.15575105 4290136320
2.2635429 -0.90972424 0.14395583 4290266880
2.2921422 -0.92113435 0.13192554 4290397440
2.267329 -0.91108304 0.11665966 4290266880
2.1924596 -0.88092422 0.099306755 4290005760
2.2193258 -0.89163768 0.086732492 4290005760
2.2017012 -0.88447899 0.07227087 4290005760
2.1649096 -0.8696236 0.057442352 4289875200
2.0700679 -0.83145857 0.041845445 4289483520
2.1441462 -0.86113083 0.029725162 4289744640
2.1396711 -0.85925722 0.016047321 4289744640
2.0256791 -0.81341475 0.0022929541 4289352960
2.0780299 -0.83435822 -0.01090315 4289614080
2.0872381 -0.83798009 -0.02425248 4289614080
2.0833519 -0.83634543 -0.037459508 4289614080
2.0125523 -0.80785614 -0.048947096 4289352960
2.1333807 -0.85627288 -0.065375514 4289744640
2.1422915 -0.85977209 -0.079117686 4289744640
2.0909932 -0.8391127 -0.090285569 4289614080
2.0134962 -0.80794626 -0.099425338 4289352960
2.1676648 -0.8697204 -0.12038199 4289875200
2.1647375 -0.86846852 -0.13340825 4289875200
2.0713398 -0.83093011 -0.14013241 4289483520
2.0869498 -0.83711624 -0.1536175 4289614080
2.2161646 -0.88885874 -0.1761571 4290136320
2.2374926 -0.8973313 -0.19081011 4290136320
2.2186356 -0.8896904 -0.2018453 4290136320
2.2225688 -0.89118755 -0.2146509 4290136320
2.0837977 -0.83547807 -0.21269785 4289614080
2.2907827 -0.9183706 -0.24616489 4290397440
2.2413237 -0.89846498 -0.25265494 4290136320
2.2229667 -0.89102757 -0.26201987 4290136320
2.2205958 -0.88999754 -0.27287495 4290136320
2.1764014 -0.87220919 -0.27806196 4290005760
2.3077579 -0.92475986 -0.3057771 4290397440
2.3323588 -0.93453246 -0.31974238 4290528000
2.2964699 -0.92007184 -0.32501286 4290397440
2.3486578 -0.94089299 -0.34244907 4290658560
2.3545005 -0.94314831 -0.35299164 4290658560
2.4961839 -0.99980444 -0.3840844 4291180800
2.5565193 -1.0238751 -0.40301478 4291441920
2.6296825 -1.0530779 -0.42400199 4291703040
2.6862981 -1.0756501 -0.44229665 4291833600
2.6719294 -1.0698006 -0.44854906 4291833600
2.7276559 -1.0920112 -0.46617877 4292094720
2.7140138 -1.0864521 -0.47155195 4291964160
2.7661338 -1.1072136 -0.48790842 4292225280
2.7410183 -1.0970625 -0.49015984 4292094720
2.7978108 -1.1196887 -0.50655812 4292355840
2.7612109 -1.104943 -0.50551873 4292225280
2.7870107 -1.1151649 -0.51529098 4292225280
2.7482564 -1.0995603 -0.51251882 4292094720
2.7650735 -1.1061875 -0.51947659 4292225280
2.7865481 -1.1146761 -0.52675539 4292225280
2.6965384 -1.0785768 -0.51229221 4291964160
2.8041632 -1.1215175 -0.53476763 4292355840
2.7820306 -1.1125655 -0.53194737 4292225280
2.7901673 -1.1157174 -0.5342868 4292225280
2.7600067 -1.1035577 -0.52867341 4292225280
2.7381711 -1.0947282 -0.52404171 4292094720
2.7801039 -1.1113895 -0.53099048 4292225280
2.75389 -1.1008108 -0.52430832 4292094720
2.7982576 -1.1184413 -0.53043222 4292355840
2.7466183 -1.0977037 -0.51776218 4292094720
2.7877862 -1.1140527 -0.52198601 4292225280
2.7363052 -1.0933821 -0.50828487 4292094720
2.7450204 -1.0967636 -0.50523752 4292094720
2.7019086 -1.0794415 -0.4921369 4291964160
2.7205625 -1.0867932 -0.48976031 4291964160
2.6509933 -1.0589083 -0.47106293 4291703040
2.627703 -1.04951 -0.46026781 4291703040
2.5444195 -1.0161573 -0.43872496 4291311360
2.5014877 -0.99892211 -0.42399073 4291180800
2.4503076 -0.97839701 -0.40766066 4291050240
2.3922648 -0.95513588 -0.39007732 4290789120
2.375978 -0.94854677 -0.37910855 4290658560
2.3023713 -0.91908056 -0.35889354 4290397440
2.2943587 -0.91579801 -0.34879911 4290397440
2.2863588 -0.912521 -0.33837742 4290397440
2.2654774 -0.90410459 -0.32578966 4290266880
2.3066466 -0.92044681 -0.32166904 4290397440
2.2857685 -0.91203237 -0.30845261 4290397440
2.283309 -0.91096687 -0.29748464 4290397440
2.2177551 -0.88473499 -0.27829307 4290136320
2.2543576 -0.8992514 -0.27174792 4290266880
2.2379894 -0.89264041 -0.25842059 4290136320
2.2298985 -0.88933134 -0.24589108 4290136320
2.2180746 -0.88453442 -0.23278633 4290136320
2.1969581 -0.87603348 -0.2186304 4290005760
2.1619043 -0.86197805 -0.20315902 4289875200
2.1591818 -0.86081278 -0.19071677 4289875200
2.1508558 -0.85741425 -0.17763722 4289875200
2.1471078 -0.85584086 -0.16481499 4289875200
2.1409602 -0.85331154 -0.15169054 4289744640
2.1134808 -0.84228271 -0.13709299 4289744640
2.0343456 -0.81067479 -0.11963998 4289352960
2.0702989 -0.8249228 -0.10909455 4289483520
2.0841589 -0.83036727 -0.096963935 4289614080
2.089313 -0.83234292 -0.084209085 4289614080
2.0851169 -0.83059424 -0.070983753 4289614080
2.1330669 -0.84961271 -0.059189171 4289744640
2.1510296 -0.85668647 -0.046085086 4289744640
2.112684 -0.84133869 -0.031854071 4289614080
2.1670277 -0.86289638 -0.018895876 4289875200
2.2007773 -0.87625152 -0.0051798467 4290005760
2.2024467 -0.87683451 0.0088414401 4290005760
2.1137638 -0.84145522 0.021941798 4289614080
2.2679513 -0.90274101 0.037924863 4290266880
2.28074 -0.9077462 0.052571692 4290266880
2.2776287 -0.90642363 0.066853955 4290266880
2.1551988 -0.85762787 0.076783948 4289875200
2.312391 -0.92008454 0.096766971 4290397440
2.3434291 -0.93234581 0.11254638 4290528000
2.3059912 -0.9173677 0.12488133 4290397440
2.2338407 -0.88858628 0.1345342 4290136320
2.3942928 -0.95231342 0.15853888 4290658560
2.4130943 -0.95970124 0.17407815 4290789120
2.3743577 -0.94420975 0.18516469 4290658560
2.3279889 -0.92568672 0.19495705 4290528000
2.4806855 -0.98630357 0.22177105 4291050240
2.5064728 -0.99646246 0.2380161 4291180800
2.5354612 -1.0078917 0.25459915 4291180800
2.685051 -1.0672493 0.28394648 4291833600
2.8306997 -1.1250298 0.31411743 4292355840
3.0803876 -1.2241399 0.35749859 4293269760
3.0931976 -1.229116 0.37435019 4293269760
3.101773 -1.2324088 0.39037108 4293269760
3.0923295 -1.228543 0.4036808 4293269760
3.0455487 -1.2098475 0.41140577 4293139200
3.109941 -1.23531 0.43373457 4293400320
3.1055126 -1.2334369 0.44624242 4293400320
3.1209886 -1.2394681 0.46114078 4293400320
3.1108725 -1.2353367 0.47175545 4293400320
3.0970812 -1.2297468 0.48117989 4293400320
3.084425 -1.2246088 0.49012959 4293269760
3.1073635 -1.233601 0.50419587 4293400320
3.1078761 -1.2336904 0.51412112 4293400320
3.1084926 -1.233821 0.52347004 4293400320
3.0979707 -1.2295316 0.5303086 4293400320
3.1044755 -1.2319993 0.53942859 4293400320
3.0934062 -1.2274936 0.54485816 4293400320
3.0928059 -1.2271423 0.55146509 4293400320
3.0993569 -1.2296281 0.55871147 4293400320
3.0903349 -1.2259362 0.56249446 4293400320
3.0988078 -1.2291838 0.56879538 4293400320
3.0849228 -1.2235641 0.57032156 4293400320
3.0844316 -1.2232568 0.57363141 4293400320
3.0840433 -1.2229904 0.57628345 4293400320
3.0837598 -1.2227657 0.57827502 4293400320
3.0881617 -1.2243985 0.58046389 4293400320
3.0880921 -1.2242585 0.58112979 4293400320
3.07531 -1.2190799 0.5787195 4293269760
3.0878253 -1.2239283 0.58037978 4293400320
3.0963085 -1.227178 0.58059132 4293400320
3.0884261 -1.2239422 0.57705331 4293400320
3.0897155 -1.224341 0.57455122 4293400320
3.0971732 -1.2271837 0.57250887 4293400320
3.1055806 -1.230402 0.56994861 4293400320
3.0941606 -1.2257661 0.56308889 4293400320
3.1030891 -1.2291905 0.55926973 4293400320
3.1057692 -1.2301396 0.55364847 4293400320
3.093967 -1.2253537 0.54481977 4293400320
3.0960028 -1.2260481 0.53780955 4293400320
3.0857668 -1.2218835 0.52806336 4293269760
3.0868309 -1.2221935 0.51965755 4293269760
3.1008408 -1.2276281 0.51278043 4293400320
3.1107461 -1.2314372 0.50455731 4293400320
3.0991824 -1.2267483 0.49227837 4293400320
3.0964937 -1.2255728 0.48088777 4293400320
2.5944276 -1.0262775 0.33307123 4291441920
2.5096591 -0.99265987 0.3102698 4291180800
2.4852207 -0.98290575 0.29508889 4291050240
2.4361169 -0.96340048 0.27701634 4290919680
2.4105072 -0.95318764 0.26167846 4290789120
2.3954618 -0.94715321 0.24740307 4290789120
2.4001656 -0.94892687 0.23494093 4290789120
2.3388979 -0.92462373 0.2160795 4290528000
2.3213942 -0.91762197 0.20144832 4290397440
2.3319433 -0.92170781 0.18906058 4290528000
2.3363273 -0.92335683 0.1758776 4290528000
2.2356644 -0.88349879 0.15517111 4290136320
2.2641649 -0.89467907 0.14366055 4290266880
2.3114033 -0.91325986 0.13272235 4290397440
2.2772462 -0.89968455 0.11689617 4290266880
2.1975574 -0.86812741 0.099305451 4290005760
2.2151906 -0.87501311 0.086369872 4290005760
2.2105381 -0.87309664 0.072390914 4290005760
2.177237 -0.85986787 0.057633355 4289875200
2.0748794 -0.81937522 0.041844215 4289483520
2.1537797 -0.85045123 0.029787719 4289744640
2.1409233 -0.84529895 0.016018588 4289744640
2.0396881 -0.80526167 0.0023013104 4289352960
2.0803316 -0.82123059 -0.010890914 4289483520
2.0897043 -0.82485539 -0.024225874 4289614080
2.1021428 -0.82968932 -0.037712187 4289614080
2.0348971 -0.80307966 -0.049378496 4289352960
2.1429853 -0.84565371 -0.065519258 4289744640
2.1602829 -0.85240132 -0.079599418 4289875200
2.1228044 -0.83753955 -0.091449775 4289744640
2.0404747 -0.80498892 -0.10052669 4289352960
2.1704032 -0.85616136 -0.12025599 4289875200
2.1920538 -0.86462224 -0.13478117 4290005760
2.1030738 -0.82945549 -0.14195229 4289614080
2.0917947 -0.82493287 -0.15361872 4289614080
2.2389367 -0.88287151 -0.17755702 4290136320
2.2603068 -0.89121622 -0.19231121 4290266880
2.2460334 -0.88550884 -0.20386669 4290136320
2.2499654 -0.88697833 -0.21679559 4290136320
2.1892571 -0.86297101 -0.22294855 4290005760
2.3183162 -0.91375357 -0.24854866 4290397440
2.2816858 -0.89923614 -0.25661126 4290266880
2.2549446 -0.88861787 -0.26517552 4290266880
2.2433105 -0.88395339 -0.27502969 4290136320
2.2211785 -0.87515414 -0.28312755 4290136320
2.4011879 -0.94598216 -0.31742185 4290789120
2.4221084 -0.95413607 -0.3312791 4290789120
2.4568472 -0.96773052 -0.34690678 4290919680
2.534894 -0.99837744 -0.36874852 4291311360
2.5738211 -1.0136145 -0.38497931 4291441920
2.7617545 -1.0875174 -0.42396295 4292094720
2.8662961 -1.1285756 -0.45080099 4292486400
2.9315662 -1.1541667 -0.47158074 4292747520
2.9514914 -1.1619042 -0.48483402 4292878080
2.9727144 -1.1701511 -0.49788544 4292878080
2.9654343 -1.1671789 -0.50564229 4292878080
2.9665751 -1.167521 -0.51423848 4292878080
2.9430723 -1.1581662 -0.51791584 4292747520
2.8854005 -1.1353694 -0.51478457 4292616960
2.9156659 -1.1471717 -0.52667528 4292747520
2.9368193 -1.1553876 -0.53642356 4292747520
2.8595757 -1.1248989 -0.52748579 4292486400
2.8809071 -1.1331851 -0.53601342 4292616960
2.9023206 -1.1415021 -0.54399949 4292616960
2.9146554 -1.1462475 -0.54969758 4292747520
2.9188364 -1.1477858 -0.55323875 4292747520
2.9276989 -1.1511644 -0.55703515 4292747520
2.9229171 -1.1491784 -0.55759287 4292747520
2.9136577 -1.1454327 -0.55664361 4292747520
2.9054184 -1.1420885 -0.55523908 4292747520
2.8789554 -1.1315829 -0.54971093 4292616960
2.8700037 -1.1279604 -0.54689467 4292616960
2.9430535 -1.1565601 -0.55902553 4292878080
2.9251437 -1.1494163 -0.55320287 4292747520
2.8862414 -1.1340265 -0.54282439 4292616960
2.9480133 -1.1581872 -0.5507105 4292878080
2.9756792 -1.1689466 -0.5514695 4292878080
2.9896328 -1.1743186 -0.54898548 4293008640
2.980191 -1.1705016 -0.54156643 4293008640
2.9761305 -1.1687983 -0.53452748 4292878080
2.9694047 -1.1660488 -0.52641922 4292878080
2.9273052 -1.1494117 -0.51155812 4292747520
2.8356771 -1.1133342 -0.48781291 4292355840
2.7072413 -1.0628148 -0.45780405 4291964160
2.6077189 -1.0236534 -0.43284747 4291572480
2.5289841 -0.99265742 -0.41141874 4291311360
2.4781857 -0.97263026 -0.39450493 4291050240
2.4001689 -0.94192648 -0.37327582 4290789120
2.3263903 -0.91289139 -0.35285458 4290528000
2.3100853 -0.90640932 -0.34110209 4290397440
2.2845511 -0.89630812 -0.32777673 4290397440
2.3304384 -0.91422325 -0.32423931 4290528000
2.3178351 -0.90919459 -0.31206048 4290397440
2.3061414 -0.90452367 -0.2997686 4290397440
2.2450688 -0.88049042 -0.28107294 4290136320
2.2817671 -0.89479715 -0.27441993 4290266880
2.265372 -0.88828552 -0.26098159 4290266880
2.2572734 -0.88502741 -0.24833816 4290266880
2.1783648 -0.85401332 -0.22809273 4289875200
2.1664479 -0.84926242 -0.21509822 4289875200
2.1854434 -0.85662729 -0.2049 4290005760
2.177155 -0.85329878 -0.19186327 4289875200
2.1873815 -0.85722589 -0.18024041 4290005760
2.1613481 -0.84694535 -0.16552785 4289875200
2.1635511 -0.84772891 -0.15294039 4289875200
2.1406615 -0.83868271 -0.13853888 4289744640
2.0613511 -0.80753863 -0.12095164 4289483520
2.0927434 -0.81975764 -0.11002579 4289614080
2.1086438 -0.82590747 -0.097879834 4289614080
2.0761564 -0.81310838 -0.083486289 4289483520
2.0899236 -0.81842232 -0.070984937 4289614080
2.1379836 -0.83716118 -0.059190381 4289744640
2.146677 -0.84048569 -0.045886558 4289744640
2.1352437 -0.83593118 -0.032122914 4289744640
2.1673653 -0.84842485 -0.018856186 4289875200
2.2058477 -0.86340553 -0.0051810918 4290005760
2.2121768 -0.86580092 0.0088583985 4290005760
2.113977 -0.82729512 0.021892868 4289614080
2.2638636 -0.88586038 0.037769176 4290136320
2.2859926 -0.89443421 0.052570406 4290266880
2.2912521 -0.89640737 0.06709712 4290266880
2.1517844 -0.84177172 0.076485969 4289744640
2.3223679 -0.90840811 0.096959397 4290397440
2.33952 -0.91503024 0.11210036 4290528000
2.2982771 -0.898817 0.12417805 4290266880
2.2473512 -0.87882078 0.1350347 4290136320
2.3925095 -0.93548858 0.15805663 4290658560
2.4140007 -0.94380188 0.17374298 4290789120
2.3798208 -0.93035281 0.18516336 4290658560
2.3287017 -0.91028565 0.19456847 4290397440
2.4863918 -0.97182673 0.22176965 4291050240
2.5215163 -0.985461 0.23889244 4291180800
2.5990844 -1.015677 0.26037949 4291441920
2.8203685 -1.102037 0.29755303 4292225280
2.9610846 -1.1569059 0.32781428 4292747520
3.108217 -1.2142708 0.35989669 4293269760
3.1132669 -1.2161293 0.37591156 4293400320
3.1183572 -1.2180032 0.39155534 4293400320
3.091114 -1.20725 0.40259621 4293269760
3.0782843 -1.202127 0.41486925 4293269760
3.121706 -1.2189679 0.43437493 4293400320
3.1209579 -1.2185616 0.44743094 4293400320
3.1281586 -1.2212584 0.46113905 4293400320
3.1180184 -1.217186 0.47175372 4293400320
3.1041808 -1.2116712 0.48117602 4293400320
3.082293 -1.2030159 0.48866811 4293269760
3.1136582 -1.2151428 0.50405812 4293400320
3.1196163 -1.2173539 0.51487857 4293400320
3.1110275 -1.2138892 0.52269578 4293400320
3.1096833 -1.2132515 0.53109187 4293400320
3.1116021 -1.2138865 0.53942686 4293400320
3.1188951 -1.2166178 0.54808503 4293400320
3.1090956 -1.2126825 0.55309707 4293400320
3.0981998 -1.2083203 0.55722368 4293400320
3.0974264 -1.2079061 0.56249273 4293400320
3.1013258 -1.2093139 0.56795341 4293400320
3.0883274 -1.2041337 0.56964296 4293400320
3.1006885 -1.2088403 0.57533181 4293400320
3.0957074 -1.2067863 0.57713675 4293400320
3.1000121 -1.2083516 0.57998919 4293400320
3.0998335 -1.2081697 0.58132207 4293400320
3.0951736 -1.2062417 0.58112806 4293400320
3.1039374 -1.2095443 0.58276522 4293400320
3.104084 -1.2094892 0.58209795 4293400320
3.0997488 -1.2076881 0.57990587 4293400320
3.0991783 -1.2073538 0.5777356 4293400320
3.0967975 -1.2063147 0.5745495 4293400320
3.1088636 -1.2109022 0.57335335 4293400320
3.1126976 -1.2122831 0.56994689 4293400320
3.1049261 -1.2091447 0.56375396 4293400320
3.1147945 -1.2128751 0.56009364 4293400320
3.1128848 -1.2120194 0.55364674 4293400320
3.11393 -1.2123144 0.54707813 4293400320
3.0948148 -1.2047619 0.53637409 4293400320
3.0891533 -1.2024471 0.52743369 4293269760
3.0892971 -1.202392 0.51888335 4293269760
3.1079419 -1.2095364 0.51277876 4293400320
3.1261632 -1.2165147 0.50589657 4293400320
3.1154981 -1.2122532 0.49373648 4293400320
3.0989711 -1.205712 0.48017213 4293269760
2.6803277 -1.0422276 0.34329963 4291703040
2.5364366 -0.98619241 0.31285974 4291180800
2.486275 -0.9666025 0.29453951 4291050240
2.4370561 -0.94738275 0.27648994 4290919680
2.4160218 -0.93912059 0.26167715 4290789120
2.4174993 -0.93960851 0.24910545 4290789120
2.4010141 -0.93311632 0.23448703 4290658560
2.3396039 -0.90916973 0.2156509 4290528000
2.3267033 -0.90407419 0.20144707 4290397440
2.3419235 -0.90990388 0.1894346 4290528000
2.3205457 -0.90151638 0.17429265 4290397440
2.2444973 -0.87189591 0.15542705 4290136320
2.2879527 -0.88869268 0.14483503 4290266880
2.299001 -0.8929016 0.13171008 4290266880
2.277796 -0.8845858 0.11665708 4290266880
2.2025805 -0.85530114 0.099304259 4290005760
2.2249117 -0.86389226 0.086549327 4290005760
2.21559 -0.86019439 0.072389722 4290005760
2.1868722 -0.84896851 0.057754725 4289875200
2.0796208 -0.80726403 0.041843098 4289483520
2.1624296 -0.83932686 0.029837621 4289875200
2.1458144 -0.83280236 0.016017435 4289744640
2.044348 -0.79335546 0.0023002124 4289352960
2.090821 -0.81131327 -0.010922544 4289614080
2.1131225 -0.81989038 -0.024444321 4289614080
2.0618465 -0.79992485 -0.036902323 4289483520
2.0572538 -0.79807007 -0.049809802 4289483520
2.1749055 -0.84362638 -0.066346824 4289875200
2.1829195 -0.84665674 -0.080252647 4289875200
2.1453516 -0.83201146 -0.092212863 4289744640
2.0768003 -0.80535561 -0.10208636 4289483520
2.1939805 -0.85071164 -0.12128767 4290005760
2.2110202 -0.85723907 -0.13563962 4290005760
2.1209018 -0.82222831 -0.1428314 4289744640
2.1235456 -0.8231774 -0.15559769 4289744640
2.2710128 -0.88025278 -0.17969295 4290266880
2.2877727 -0.88666654 -0.19420689 4290266880
2.2688112 -0.87923783 -0.20546713 4290266880
2.2773879 -0.88247985 -0.2189402 4290266880
2.2295268 -0.86385673 -0.22653474 4290136320
2.3421614 -0.90740877 -0.25053525 4290528000
2.300801 -0.89130473 -0.25817367 4290397440
2.2776995 -0.88227528 -0.26724339 4290266880
2.2752948 -0.8812626 -0.27831769 4290266880
2.2438378 -0.8690002 -0.28536645 4290136320
2.4921064 -0.96504831 -0.32869273 4291050240
2.5419149 -0.98424298 -0.34687576 4291311360
2.6108706 -1.0108464 -0.36781713 4291572480
2.7075021 -1.0481578 -0.39296222 4291833600
2.8592796 -1.1068065 -0.42670316 4292486400
3.0143793 -1.1667303 -0.46169075 4293008640
3.0464058 -1.1790159 -0.47803822 4293139200
3.068306 -1.1873808 -0.49245498 4293269760
3.0865638 -1.194335 -0.50586927 4293269760
3.0834036 -1.1930016 -0.51525044 4293269760
3.0911732 -1.1958965 -0.52588391 4293269760
3.0902138 -1.1954145 -0.53445262 4293269760
3.0767021 -1.1900777 -0.54020041 4293269760
3.0678082 -1.1865275 -0.54608196 4293269760
3.0561762 -1.1819193 -0.55080086 4293139200
3.0355268 -1.1738251 -0.55319285 4293139200
2.9865651 -1.1547862 -0.54965764 4293008640
2.9987252 -1.1593796 -0.55666578 4293008640
2.9368253 -1.1353443 -0.54921764 4292747520
2.9409144 -1.1368189 -0.55339158 4292747520
2.9451013 -1.1383311 -0.55695063 4292747520
2.9530628 -1.1413014 -0.56058645 4292878080
2.9491868 -1.1396971 -0.56132811 4292878080
2.9399049 -1.1360044 -0.56038421 4292747520
2.9353201 -1.1341269 -0.55968118 4292747520
3.0095468 -1.1626943 -0.57333994 4293008640
2.9923167 -1.1559303 -0.56890631 4293008640
3.0416758 -1.1748856 -0.57644659 4293139200
3.0526507 -1.1790138 -0.57600528 4293139200
3.0684125 -1.1849898 -0.5757733 4293269760
3.076865 -1.1881423 -0.57347542 4293269760
3.0899491 -1.1930822 -0.5713467 4293269760
3.085927 -1.1914175 -0.56538218 4293269760
3.091614 -1.1935006 -0.56053948 4293269760
3.0843265 -1.1905757 -0.5527032 4293269760
3.0704157 -1.1850951 -0.54309195 4293269760
3.0529106 -1.1782283 -0.53229773 4293139200
3.028372 -1.1686488 -0.51977843 4293139200
2.9611392 -1.1425985 -0.49960068 4292878080
2.7850308 -1.0745502 -0.46122935 4292225280
2.6517375 -1.0230305 -0.43041012 4291703040
2.5972495 -1.0019171 -0.41252148 4291441920
2.5150776 -0.97013038 -0.39025998 4291180800
2.4442444 -0.94272244 -0.36989 4290919680
2.3412123 -0.90290338 -0.34491602 4290528000
2.3165584 -0.89331216 -0.33161706 4290397440
2.3486836 -0.90561301 -0.32603881 4290528000
2.340687 -0.90244472 -0.31442463 4290528000
2.3419445 -0.90284389 -0.30373442 4290528000
2.2677736 -0.8741712 -0.28327388 4290266880
2.3138371 -0.89184064 -0.27764824 4290397440
2.2927794 -0.88364148 -0.2635425 4290397440
2.2846735 -0.88043427 -0.25078514 4290266880
2.2148838 -0.85346234 -0.23139338 4290005760
2.1797252 -0.83983678 -0.21592794 4289875200
2.2164299 -0.85389602 -0.20733677 4290005760
2.209064 -0.85097778 -0.19423676 4290005760
2.1380241 -0.82353717 -0.1757739 4289744640
2.193243 -0.84472352 -0.16759273 4290005760
2.1908052 -0.84370458 -0.15451874 4289875200
2.172529 -0.83658761 -0.14028566 4289875200
2.070683 -0.79729885 -0.12122572 4289483520
2.1245184 -0.81794691 -0.11144643 4289744640
2.1311381 -0.82041717 -0.09870249 4289744640
2.0487998 -0.78864908 -0.082198799 4289352960
2.1004002 -0.80843192 -0.071180969 4289614080
2.1428277 -0.82468128 -0.059191477 4289744640
2.1562059 -0.8297503 -0.045987532 4289744640
2.1316817 -0.82023615 -0.031997222 4289744640
2.1769409 -0.837569 -0.018898213 4289875200
2.2192435 -0.85376126 -0.0052026687 4290005760
2.2255864 -0.85611963 0.00889003 4290005760
2.1187637 -0.81495589 0.021891788 4289614080
2.2736552 -0.87444139 0.037845224 4290266880
2.2958336 -0.88288593 0.05267581 4290266880
2.2740452 -0.87442493 0.066444106 4290266880
2.2568126 -0.86771673 0.080024943 4290136320
2.3276234 -0.89485395 0.09695822 4290397440
2.3448138 -0.90137613 0.11209917 4290528000
2.3034773 -0.88540357 0.12417688 4290266880
2.2570956 -0.8674953 0.1353123 4290136320
2.3932631 -0.91973573 0.15774895 4290658560
2.410147 -0.9261353 0.17307413 4290789120
2.3898585 -0.91825277 0.18552291 4290658560
2.3255918 -0.89347774 0.1938702 4290397440
2.4966655 -0.95910358 0.22218171 4291050240
2.586796 -0.99362898 0.24451478 4291441920
2.7449663 -1.0542775 0.2743533 4291964160
2.9895391 -1.1480931 0.31466699 4292878080
2.9761343 -1.1428372 0.3287349 4292747520
3.1198816 -1.1979169 0.36043069 4293269760
3.1249399 -1.1997449 0.37646827 4293400320
3.1161296 -1.1962491 0.39039323 4293269760
3.0980968 -1.1892143 0.40259466 4293269760
3.075974 -1.1806111 0.41362327 4293139200
3.1287565 -1.2007542 0.43437335 4293400320
3.122999 -1.198431 0.44671381 4293400320
3.1268976 -1.1998132 0.45991418 4293400320
3.1213605 -1.1975753 0.47119439 4293400320
3.1112032 -1.1935655 0.48117661 4293400320
3.0892513 -1.1850325 0.48866656 4293269760
3.1123769 -1.1937897 0.50271559 4293400320
3.1266575 -1.1991531 0.51487696 4293400320
3.1226609 -1.1975071 0.52346677 4293400320
3.125922 -1.1986443 0.53266031 4293400320
3.1186228 -1.1957326 0.53942531 4293400320
3.1121092 -1.1931226 0.54566205 4293400320
3.1161094 -1.1945432 0.55309552 4293400320
3.1088722 -1.1916566 0.55788261 4293400320
3.0998089 -1.1880708 0.56165779 4293400320
3.1083202 -1.1912202 0.56795186 4293400320
3.098973 -1.1875263 0.57031834 4293400320
3.0984783 -1.1872247 0.57362813 4293400320
3.0980868 -1.186963 0.57628024 4293400320
3.1070006 -1.1902657 0.57998765 4293400320
3.1068211 -1.1900848 0.58132052 4293400320
3.1021502 -1.1881839 0.58112657 4293400320
3.1063333 -1.189674 0.5819028 4293400320
3.1018796 -1.1878568 0.58037657 4293400320
3.1104 -1.1910074 0.58058804 4293400320
3.1024806 -1.1878636 0.57705009 4293400320
3.1083758 -1.1900088 0.57539904 4293400320
3.1112647 -1.1910028 0.57250565 4293400320
3.1151059 -1.1923612 0.56910509 4293400320
3.1082358 -1.1896203 0.56308568 4293400320
3.1125979 -1.191178 0.55844086 4293400320
3.1152875 -1.1920954 0.55282837 4293400320
3.1154914 -1.1920617 0.54612201 4293400320
3.1100814 -1.1898805 0.53780633 4293400320
3.0997977 -1.1858354 0.52806014 4293269760
3.1054792 -1.1878974 0.52042687 4293400320
3.1149375 -1.1914036 0.51277721 4293400320
3.128581 -1.1965096 0.50515002 4293400320
3.1132691 -1.1905429 0.49227515 4293400320
3.1105671 -1.1893985 0.48088455 4293400320
2.7922297 -1.0670427 0.35681251 4292094720
2.6246521 -1.0029166 0.32300031 4291572480
2.5177217 -0.9619717 0.2975904 4291180800
2.4378915 -0.93138677 0.27596366 4290789120
2.4168069 -0.92324644 0.26117447 4290789120
2.4229348 -0.92550081 0.24910428 4290789120
2.4064121 -0.91910464 0.23448585 4290658560
2.3495173 -0.89729327 0.21607709 4290528000
2.3282084 -0.88907349 0.2011247 4290397440
2.3332133 -0.89090145 0.18830761 4290397440
2.3469324 -0.89605576 0.1758752 4290528000
2.2495413 -0.85879654 0.15542597 4290136320
2.2884307 -0.87355989 0.14453998 4290266880
2.3041668 -0.87948418 0.13170896 4290266880
2.2829137 -0.87129194 0.11665597 4290266880
2.2075286 -0.84244579 0.099303193 4290005760
2.2299097 -0.85090661 0.086548246 4290005760
2.2299054 -0.85082579 0.072692022 4290005760
2.1797855 -0.83162743 0.057438839 4289875200
2.0842915 -0.79512542 0.041842088 4289483520
2.1672857 -0.82670516 0.029836575 4289875200
2.1590419 -0.82348436 0.01607818 4289744640
2.0573475 -0.78462899 0.0023078169 4289483520
2.102551 -0.80179155 -0.010960887 4289614080
2.1309469 -0.81254297 -0.024597475 4289744640
2.0795548 -0.79287559 -0.037138015 4289483520
2.0758841 -0.79140258 -0.050150447 4289483520
2.1690731 -0.82684761 -0.066021003 4289875200
2.214901 -0.8442362 -0.081248969 4290005760
2.177243 -0.82980692 -0.09337689 4289875200
2.0945289 -0.79821205 -0.10272913 4289614080
2.2213001 -0.84643829 -0.12252536 4290005760
2.2430358 -0.85464001 -0.13729812 4290136320
2.1480432 -0.81837422 -0.14433753 4289744640
2.1506846 -0.81930399 -0.15723555 4289744640
2.2938135 -0.87374026 -0.18109266 4290266880
2.3152616 -0.88182676 -0.19610249 4290397440
2.296248 -0.87450421 -0.20748834 4290266880
2.2002454 -0.83786869 -0.21104977 4290005760
2.2568548 -0.85934293 -0.22880004 4290136320
2.3734505 -0.90364909 -0.25331593 4290658560
2.3319845 -0.88778049 -0.26108903 4290397440
2.309747 -0.87923354 -0.27039889 4290397440
2.3063941 -0.87787527 -0.28149226 4290397440
2.2850626 -0.86967546 -0.28996077 4290266880
2.6123815 -0.99414176 -0.34378728 4291441920
2.6621549 -1.0129861 -0.36247295 4291703040
2.7670989 -1.0528158 -0.38895577 4292094720
2.9480088 -1.1215357 -0.42691255 4292747520
3.0278823 -1.1518116 -0.45085481 4293008640
3.077698 -1.17065 -0.47033647 4293269760
3.0956779 -1.1773778 -0.4846856 4293269760
3.1086354 -1.1821945 -0.49781418 4293400320
3.11064 -1.1828456 -0.5086776 4293400320
3.1180544 -1.1855533 -0.51987797 4293400320
3.1195438 -1.1860081 -0.52952629 4293400320
3.114795 -1.1840914 -0.53750205 4293400320
3.1116583 -1.1827878 -0.54511887 4293400320
3.1054642 -1.1803224 -0.5515514 4293400320
3.0907342 -1.1746136 -0.55578625 4293269760
3.0647273 -1.164621 -0.55726844 4293269760
3.0566788 -1.1614532 -0.5613057 4293139200
3.0499952 -1.1588044 -0.56491977 4293139200
3.0539749 -1.1602068 -0.56984961 4293139200
2.9950931 -1.1377321 -0.5623287 4293008640
3.0038855 -1.1409639 -0.56679964 4293008640
2.998971 -1.1389897 -0.56803137 4293008640
2.9987648 -1.1388036 -0.56949127 4293008640
3.003267 -1.1404052 -0.57118452 4293008640
3.0560877 -1.1603506 -0.58140635 4293139200
3.047919 -1.1571397 -0.57935554 4293139200
3.0623837 -1.1625204 -0.58092874 4293269760
3.0708601 -1.1656272 -0.58068055 4293269760
3.0747228 -1.1669825 -0.57887751 4293269760
3.0959823 -1.174939 -0.57965237 4293269760
3.1053097 -1.1783667 -0.57748771 4293400320
3.1057909 -1.1784371 -0.57299703 4293400320
3.1058688 -1.1783546 -0.56776863 4293400320
3.0985601 -1.1754701 -0.56054831 4293269760
3.1092701 -1.1794202 -0.55593246 4293400320
3.097749 -1.1749386 -0.54670674 4293269760
3.0891683 -1.1715726 -0.53742039 4293269760
3.0734468 -1.1654996 -0.52634043 4293269760
3.0401433 -1.1527616 -0.51178771 4293139200
2.9801819 -1.1299196 -0.49244711 4292878080
2.8345873 -1.0746207 -0.45906258 4292355840
2.7166474 -1.0298146 -0.43052408 4291964160
2.6392438 -1.0003802 -0.40861434 4291572480
2.5626183 -0.97124612 -0.38694003 4291311360
2.4593179 -0.93200982 -0.3615092 4290919680
2.3523147 -0.89137799 -0.33598685 4290528000
2.3891644 -0.90525335 -0.33092096 4290658560
2.3728175 -0.89897412 -0.31803232 4290658560
2.2938991 -0.86899501 -0.29684204 4290266880
2.2904806 -0.86761701 -0.28547469 4290266880
2.2786825 -0.86306578 -0.27282214 4290266880
2.3202088 -0.87870795 -0.26610333 4290397440
2.3120956 -0.87555164 -0.25323203 4290397440
2.2421613 -0.84899038 -0.23372351 4290136320
2.2069347 -0.83557332 -0.21813862 4290005760
2.2400045 -0.84801102 -0.20907754 4290136320
2.2270374 -0.84302157 -0.19538304 4290005760
2.1651695 -0.81952631 -0.17761159 4289875200
2.2158556 -0.83862817 -0.16894588 4290005760
2.2180851 -0.83939111 -0.15609698 4290005760
2.1857717 -0.82708478 -0.14082843 4289875200
2.1023798 -0.79545712 -0.12281021 4289614080
2.1423297 -0.81049269 -0.11213272 4289744640
2.1536396 -0.8146925 -0.099525057 4289744640
2.0804687 -0.78694087 -0.08328671 4289483520
2.0990286 -0.7938838 -0.070976958 4289614080
2.1522741 -0.81394112 -0.059321668 4289744640
2.169409 -0.82034135 -0.046168 4289875200
2.1317508 -0.80602545 -0.031927761 4289744640
2.1724329 -0.82132649 -0.018817369 4289875200
2.2204411 -0.83939373 -0.0051945914 4290005760
2.238693 -0.84621119 0.0089207422 4290005760
2.1234787 -0.80258894 0.021890823 4289614080
2.2833905 -0.86293834 0.037921384 4290266880
2.300941 -0.86948645 0.052674763 4290266880
2.288455 -0.86468554 0.066714667 4290266880
2.2571573 -0.85277909 0.079859056 4290136320
2.3493614 -0.88752514 0.097643599 4290528000
2.3453553 -0.88592654 0.11187576 4290397440
2.308599 -0.8719601 0.12417584 4290266880
2.249037 -0.84938437 0.13453078 4290136320
2.4199162 -0.91382372 0.15914816 4290789120
2.4295061 -0.91735643 0.17407447 4290789120
2.3998356 -0.90606725 0.18588258 4290658560
2.339155 -0.88307464 0.19456623 4290397440
2.518852 -0.95081425 0.22365575 4291050240
2.6697509 -1.0076723 0.25178501 4291703040
2.9111626 -1.098676 0.29029727 4292486400
3.0733554 -1.1597704 0.32276145 4293139200
3.0417304 -1.147727 0.33522716 4293008640
3.1268096 -1.1797135 0.36042929 4293269760
3.1318786 -1.1815122 0.37646684 4293400320
3.1323414 -1.1815732 0.39155236 4293400320
3.1096189 -1.1728899 0.40319484 4293269760
3.0874441 -1.1644149 0.41424412 4293269760
3.1310611 -1.1807501 0.43372986 4293400320
3.1345673 -1.1819587 0.44737366 4293400320
3.1380067 -1.1831419 0.46052423 4293400320
3.1319926 -1.1807613 0.47175074 4293400320
3.1310577 -1.1802957 0.48317209 4293400320
3.0924015 -1.1656132 0.48808128 4293269760
3.1192808 -1.1756312 0.50271422 4293400320
3.1335921 -1.1809114 0.51487559 4293400320
3.1249635 -1.1775471 0.52269286 4293400320
3.1236119 -1.1769252 0.53108895 4293400320
3.1255379 -1.177538 0.53942394 4293400320
3.1263168 -1.1777186 0.546938 4293400320
3.113785 -1.172886 0.55146044 4293400320
3.1120715 -1.1721286 0.5572207 4293400320
3.1159072 -1.1734608 0.5633232 4293400320
3.1152089 -1.1730859 0.56795049 4293400320
3.1058407 -1.1694466 0.57031697 4293400320
3.097044 -1.1660234 0.57209486 4293269760
3.1012626 -1.1675 0.57559484 4293400320
3.1046636 -1.1686689 0.57827038 4293400320
3.1090934 -1.1702244 0.58045924 4293400320
3.1090212 -1.1700858 0.58112514 4293400320
3.1044483 -1.1682534 0.58026451 4293400320
3.1133587 -1.1714947 0.58123511 4293400320
3.1172874 -1.1728611 0.58058667 4293400320
3.1230893 -1.174932 0.5795964 4293400320
3.1148937 -1.1717374 0.5753305 4293400320
3.1227646 -1.1745863 0.57335043 4293400320
3.1220012 -1.1741874 0.56910372 4293400320
3.1151154 -1.1714865 0.5630843 4293400320
3.1194866 -1.1730187 0.55843949 4293400320
3.1267986 -1.1756563 0.55364388 4293400320
3.1232285 -1.1742026 0.54626805 4293400320
3.1169624 -1.1717358 0.53780496 4293400320
3.1029575 -1.1663606 0.52743077 4293269760
3.0947769 -1.1631756 0.51748985 4293269760
3.1172013 -1.171492 0.51201665 4293400320
3.131798 -1.1768655 0.50455266 4293400320
3.1294148 -1.1758586 0.49373358 4293400320
3.112813 -1.1695101 0.48016924 4293269760
2.9673996 -1.1142006 0.37833545 4292747520
2.7094529 -1.0172591 0.33268803 4291833600
2.5793138 -0.96831179 0.30418861 4291311360
2.4763029 -0.92955607 0.27968755 4290919680
2.418421 -0.90774477 0.2607722 4290789120
2.4282877 -0.91136163 0.24910322 4290789120
2.4210525 -0.90856051 0.23539001 4290789120
2.3547075 -0.88358212 0.21607608 4290528000
2.3333511 -0.87548649 0.20112368 4290397440
2.359576 -0.88524145 0.19001162 4290528000
2.3521154 -0.88235933 0.17587417 4290528000
2.2591808 -0.84742022 0.15574643 4290136320
2.2841365 -0.85669911 0.14395115 4290266880
2.304579 -0.86428374 0.13144192 4290266880
2.2926302 -0.85972184 0.11689284 4290266880
2.1322293 -0.79950392 0.095713608 4289744640
2.2301531 -0.83613807 0.086366639 4290005760
2.2254679 -0.83430278 0.072387688 4290005760
2.1892769 -0.82065928 0.05756044 4289875200
2.0935724 -0.78471422 0.041934434 4289483520
2.1767497 -0.81580979 0.029899465 4289875200
2.141794 -0.80263472 0.015915889 4289744640
2.0312681 -0.76114839 0.0022757247 4289352960
2.1202993 -0.79443043 -0.011031207 4289614080
2.153439 -0.80676937 -0.024804862 4289744640
2.1066136 -0.78915411 -0.037541252 4289614080
2.1160398 -0.79260975 -0.051011801 4289614080
2.1963229 -0.82260019 -0.066705883 4289875200
2.2090495 -0.82728785 -0.080856256 4290005760
2.2045016 -0.82550681 -0.09434031 4290005760
2.130955 -0.79789406 -0.10428864 4289744640
2.2486439 -0.8418752 -0.12376295 4290136320
2.2657454 -0.84819686 -0.13838498 4290136320
2.1798844 -0.81598067 -0.14615715 4289875200
2.1825218 -0.81689042 -0.15921433 4289875200
2.3259554 -0.87048692 -0.18322839 4290397440
2.3474395 -0.87844324 -0.19839266 4290528000
2.3237059 -0.86948043 -0.20950943 4290397440
2.2414744 -0.83863515 -0.21453376 4290136320
2.2146063 -0.82850522 -0.2240233 4290005760
2.3429098 -0.87641597 -0.24950713 4290528000
2.3641357 -0.8842712 -0.26410836 4290528000
2.3325245 -0.87236607 -0.27246654 4290397440
2.3431144 -0.87624305 -0.28534678 4290528000
2.3347414 -0.87302923 -0.29561496 4290528000
2.7332311 -1.0219227 -0.3589021 4291964160
2.8345773 -1.0597105 -0.38510278 4292225280
3.0087452 -1.1247106 -0.42199412 4292878080
3.0748537 -1.1493114 -0.44430417 4293139200
3.0981028 -1.1578904 -0.46029857 4293269760
3.1045463 -1.1601881 -0.47339886 4293269760
3.1108308 -1.1624258 -0.48599002 4293269760
3.1139951 -1.1634972 -0.49757913 4293269760
3.1199317 -1.1656041 -0.50907844 4293400320
3.1236072 -1.1668659 -0.51966208 4293400320
3.125365 -1.1674112 -0.52935147 4293400320
3.1172235 -1.1642593 -0.53674209 4293400320
3.1188967 -1.164773 -0.54518938 4293400320
3.1036103 -1.158954 -0.55001426 4293269760
3.1058302 -1.1596721 -0.55727679 4293269760
3.0924461 -1.1545647 -0.56107593 4293269760
3.0844927 -1.1514854 -0.56517166 4293269760
3.0709803 -1.1463318 -0.56756002 4293269760
3.0514574 -1.1389359 -0.56813276 4293139200
3.055546 -1.1403526 -0.5724206 4293139200
3.0597363 -1.141807 -0.5760721 4293139200
3.0594182 -1.1415788 -0.57820994 4293139200
3.0545948 -1.1396699 -0.57882208 4293139200
3.0591044 -1.1412427 -0.58052868 4293139200
3.049886 -1.1376947 -0.57895643 4293139200
3.0651946 -1.143295 -0.58136344 4293139200
3.0726571 -1.1459681 -0.5816015 4293269760
3.0893369 -1.1520777 -0.5828954 4293269760
3.1022294 -1.1567739 -0.58277732 4293269760
3.1170895 -1.1622027 -0.58232665 4293400320
3.109369 -1.1592128 -0.57697731 4293400320
3.1074746 -1.1583951 -0.57205343 4293400320
3.1154141 -1.1612426 -0.56826752 4293400320
3.1132963 -1.1603413 -0.56198192 4293400320
3.1139159 -1.1604604 -0.55554539 4293400320
3.1174898 -1.16168 -0.54898715 4293400320
3.0996456 -1.1549196 -0.53806382 4293269760
3.0848157 -1.1492836 -0.52713215 4293269760
3.0782859 -1.1467402 -0.51707524 4293269760
3.0469198 -1.1349468 -0.50237328 4293139200
3.0239661 -1.1262885 -0.4886592 4293008640
2.923049 -1.0885996 -0.46221852 4292616960
2.7725506 -1.0324559 -0.42831352 4292094720
2.6729839 -0.99528587 -0.40272152 4291703040
2.564117 -0.95466071 -0.37608984 4291311360
2.4423556 -0.90924352 -0.34808499 4290919680
2.4167078 -0.89960909 -0.3340047 4290789120
2.4049861 -0.89515942 -0.32163993 4290658560
2.3259087 -0.86564517 -0.30032706 4290397440
2.3271513 -0.8660236 -0.28941205 4290397440
2.3060296 -0.85808092 -0.2754938 4290397440
2.3476579 -0.87348449 -0.26866403 4290528000
2.3441999 -0.87211323 -0.25618836 4290528000
2.2554684 -0.8390246 -0.23459783 4290136320
2.2388344 -0.83275652 -0.22080955 4290136320
2.2673202 -0.84326893 -0.21116617 4290136320
2.2543342 -0.83835822 -0.1973473 4290136320
2.1923401 -0.81522673 -0.17944919 4289875200
2.1848257 -0.81235379 -0.16621557 4289875200
2.2360353 -0.83131129 -0.15701795 4290005760
2.213012 -0.82267261 -0.14227404 4290005760
2.1378682 -0.79466426 -0.12461305 4289744640
2.1788507 -0.80981719 -0.11379794 4289875200
2.176146 -0.80873334 -0.10034751 4289875200
2.1075027 -0.78314978 -0.084187128 4289614080
2.1401613 -0.79520684 -0.072213337 4289744640
2.1480739 -0.79806882 -0.059076853 4289744640
2.1704197 -0.8062914 -0.046089269 4289744640
2.1495361 -0.79845649 -0.032125849 4289744640
2.1865582 -0.81212777 -0.018900087 4289875200
2.2252967 -0.82643378 -0.005195485 4290005760
2.2222919 -0.82523763 0.0088371662 4290005760
2.1281214 -0.79019475 0.02188997 4289614080
2.275259 -0.84473979 0.037704319 4290136320
2.3106568 -0.85779703 0.052780405 4290266880
2.284085 -0.8478511 0.066442154 4290266880
2.1746087 -0.8071394 0.076779775 4289875200
2.354495 -0.87381405 0.097642653 4290528000
2.3598456 -0.8757143 0.11231951 4290528000
2.3136425 -0.85848701 0.12417492 4290266880
2.2623749 -0.8393842 0.13503163 4290136320
2.4252014 -0.89970165 0.15914719 4290789120
2.4254568 -0.89970875 0.17340589 4290789120
2.4004004 -0.89032841 0.18552087 4290658560
2.3311753 -0.8645708 0.19348097 4290397440
2.6165075 -0.97028708 0.23180734 4291441920
2.7979832 -1.0374767 0.26328689 4292094720
3.0640481 -1.1360127 0.3048583 4293008640
3.1071241 -1.15187 0.32559285 4293269760
3.0614257 -1.1348196 0.33666036 4293008640
3.138293 -1.1631975 0.36096364 4293400320
3.1340518 -1.1615127 0.37590736 4293400320
3.1438308 -1.1650232 0.39213139 4293400320
3.1164014 -1.1547471 0.40319362 4293269760
3.0941772 -1.1464015 0.41424289 4293269760
3.1425388 -1.164205 0.43437073 4293400320
3.1321068 -1.1602278 0.44604993 4293400320
3.140203 -1.1631136 0.4598434 4293400320
3.1388204 -1.1624886 0.47174951 4293400320
3.1332419 -1.16031 0.48245692 4293400320
3.1028526 -1.1489456 0.48866397 4293269760
3.1260788 -1.1574328 0.50271297 4293400320
3.1339352 -1.1602288 0.51381201 4293400320
3.1401114 -1.1624024 0.52408218 4293400320
3.1261942 -1.1571387 0.53037184 4293400320
3.1230881 -1.155877 0.53782964 4293400320
3.1284988 -1.1577672 0.54612958 4293400320
3.1251931 -1.1564319 0.55227607 4293400320
3.118849 -1.1539727 0.55721951 4293400320
3.1263773 -1.1566459 0.56398618 4293400320
3.1266148 -1.1566218 0.56878948 4293400320
3.1126025 -1.1513273 0.57031572 4293400320
3.1121042 -1.1510315 0.57362556 4293400320
3.1117096 -1.1507744 0.57627761 4293400320
3.1160412 -1.1522647 0.57912713 4293400320
3.1158597 -1.1520861 0.58045805 4293400320
3.1074715 -1.1488738 0.57957435 4293400320
3.1246071 -1.1550969 0.58276111 4293400320
3.1284487 -1.1564053 0.58278173 4293400320
3.124069 -1.154675 0.58058548 4293400320
3.1261861 -1.155346 0.57891119 4293400320
3.1262903 -1.155273 0.57618034 4293400320
3.124934 -1.1546603 0.57250309 4293400320
3.1195436 -1.1525576 0.56742197 4293400320
3.1172645 -1.1516047 0.56224972 4293400320
3.1308949 -1.1565282 0.55926389 4293400320
3.1382239 -1.1591235 0.55445951 4293400320
3.1254697 -1.1543019 0.54547375 4293400320
3.1154027 -1.1504735 0.53637004 4293400320
3.1097016 -1.1482577 0.52742958 4293269760
3.1015027 -1.1451204 0.51748866 4293269760
3.1238601 -1.1532633 0.51199663 4293400320
3.1423135 -1.1599638 0.50514746 4293400320
3.1269331 -1.1541758 0.49227259 4293400320
3.1195753 -1.1513494 0.48016804 4293269760
3.0529149 -1.1260502 0.38838336 4293008640
2.8882024 -1.0651995 0.35384199 4292486400
2.6553793 -0.97924513 0.31246942 4291572480
2.5029953 -0.92296576 0.28208575 4291050240
2.4236708 -0.89363235 0.26077127 4290789120
2.4335585 -0.89719158 0.24910229 4290789120
2.426307 -0.89443254 0.23538908 4290789120
2.3836288 -0.87861699 0.21825197 4290658560
2.3706539 -0.87375093 0.20389102 4290528000
2.3646958 -0.87147164 0.19001073 4290528000
2.3525383 -0.86690849 0.17552473 4290528000
2.2594001 -0.83251077 0.15542413 4290136320
2.2937751 -0.84509438 0.14424421 4290266880
2.3142629 -0.8525601 0.1317071 4290266880
2.2929161 -0.84461582 0.11665412 4290266880
2.2087619 -0.81354219 0.098924525 4290005760
2.2443671 -0.8265757 0.086727083 4290005760
2.2218516 -0.81820589 0.072113827 4290005760
2.1846423 -0.80442774 0.057314541 4289875200
2.09342 -0.77076769 0.041840408 4289483520
2.1767766 -0.80137795 0.029834826 4289875200
2.1689589 -0.79842359 0.016079824 4289744640
2.0628862 -0.75930822 0.0023026315 4289352960
2.1474178 -0.79034317 -0.011151011 4289744640
2.1853201 -0.80421412 -0.025120821 4289875200
2.1336992 -0.78514397 -0.037944399 4289614080
2.1431427 -0.78854287 -0.051556051 4289744640
2.214215 -0.81461191 -0.067105681 4290005760
2.2363462 -0.8226741 -0.081680782 4290005760
2.2270947 -0.81919247 -0.095103115 4290005760
2.1449461 -0.78890324 -0.10474785 4289744640
2.2760091 -0.83702195 -0.12500043 4290136320
2.2978258 -0.84496313 -0.14004327 4290266880
2.2070861 -0.81152159 -0.1476631 4290005760
2.2097208 -0.81241214 -0.160852 4290005760
2.353456 -0.86516798 -0.18499596 4290528000
2.3749774 -0.87299478 -0.20028804 4290528000
2.2850599 -0.83986557 -0.2055797 4290266880
2.2734373 -0.83551371 -0.21712457 4290136320
2.2418261 -0.82381815 -0.22628838 4290136320
2.365726 -0.86925989 -0.25139412 4290528000
2.3916566 -0.87870222 -0.2666072 4290658560
2.4529936 -0.90114862 -0.28592229 4290919680
2.4660335 -0.9058513 -0.29966947 4290919680
2.4895358 -0.91439551 -0.31453559 4291050240
2.9179068 -1.0716159 -0.38232639 4292616960
3.0536718 -1.1213641 -0.41397434 4293008640
3.1126971 -1.1429273 -0.43563285 4293269760
3.1219664 -1.14622 -0.45013949 4293269760
