# .PCD v0.7 - Point Cloud Data file format
VERSION 0.7
FIELDS x y z rgba
SIZE 4 4 4 4
TYPE F F F U
COUNT 1 1 1 1
WIDTH 1102
HEIGHT 1
VIEWPOINT 0 0 0 1 0 0 0
POINTS 1102
DATA ascii
1.7175465 -2.2319131 -0.28530288 4291572480
1.6860272 -2.1908429 -0.26636925 4291311360
1.6981479 -2.2063992 -0.25423214 4291441920
1.7023544 -2.2116849 -0.24048935 4291441920
1.7064672 -2.2168477 -0.2264003 4291441920
1.6832844 -2.1866028 -0.20858583 4291311360
1.7099142 -2.2209713 -0.19673157 4291441920
1.7102801 -2.2212713 -0.18137896 4291441920
1.7113131 -2.2224362 -0.16588989 4291441920
1.6601731 -2.1559453 -0.14557616 4291180800
1.7014868 -2.2093439 -0.13339415 4291441920
1.7109278 -2.2214096 -0.11806653 4291441920
1.6883891 -2.1920133 -0.10049915 4291311360
1.6941293 -2.1992807 -0.084696785 4291311360
1.7121997 -2.2225292 -0.069207281 4291441920
1.7182481 -2.2301919 -0.052916147 4291441920
1.6575396 -2.1513348 -0.034971576 4291180800
1.7245655 -2.2380235 -0.019766442 4291572480
1.7601345 -2.2839363 -0.0031561214 4291703040
1.7546912 -2.2767015 0.013863751 4291703040
1.686619 -2.1883254 0.029728387 4291311360
1.7756234 -2.3034568 0.048347373 4291833600
1.7871221 -2.3181691 0.065855496 4291833600
1.7572064 -2.2792351 0.081633456 4291703040
1.7123572 -2.2209654 0.095930092 4291441920
1.7540689 -2.2748098 0.11483478 4291703040
1.772143 -2.2980356 0.13265671 4291833600
1.7529175 -2.272959 0.14757416 4291703040
1.7109408 -2.2184289 0.15987474 4291441920
1.7677573 -2.2918136 0.18123907 4291703040
1.7632707 -2.2858253 0.19666933 4291703040
1.7569703 -2.2774901 0.21158575 4291703040
1.6910962 -2.1920459 0.21853593 4291311360
1.7891111 -2.3187337 0.24647674 4291833600
1.7969344 -2.3286781 0.26273927 4291964160
1.7573266 -2.2772422 0.27157164 4291703040
1.7360735 -2.2495651 0.28241393 4291572480
1.6584022 -2.1488948 0.28304908 4291180800
1.7707381 -2.2940681 0.31578752 4291833600
1.7745051 -2.2987661 0.32984975 4291833600
1.7558383 -2.2744441 0.33929226 4291703040
1.7321311 -2.243607 0.34707987 4291572480
1.6898338 -2.1887312 0.35031602 4291441920
1.7774576 -2.3018899 0.38019758 4291833600
1.7888539 -2.3164558 0.3941015 4291964160
1.757826 -2.2761614 0.3981497 4291833600
1.7257202 -2.2344806 0.40112054 4291572480
1.685992 -2.1829515 0.40145844 4291441920
1.6937467 -2.1928174 0.41239113 4291441920
1.784254 -2.3096585 0.44337961 4291964160
1.7812247 -2.3055761 0.45118994 4291964160
1.771204 -2.2924588 0.45665869 4291833600
1.7467797 -2.2607281 0.45775819 4291703040
1.760699 -2.2785568 0.46827194 4291833600
1.7228981 -2.229548 0.46447921 4291572480
1.7314706 -2.240469 0.47247228 4291703040
1.7455187 -2.2584648 0.48147106 4291703040
1.7451276 -2.2578037 0.48598716 4291703040
1.7502196 -2.2642276 0.49146542 4291833600
1.755968 -2.2714999 0.49657565 4291833600
1.7641844 -2.2819598 0.50182408 4291833600
1.7670293 -2.2854817 0.50498205 4291833600
1.7614905 -2.2781763 0.50516266 4291833600
1.7638524 -2.2810764 0.50700116 4291833600
1.7614509 -2.2778261 0.5068835 4291833600
1.7585075 -2.2738776 0.5060153 4291833600
1.7471812 -2.2591064 0.50215763 4291703040
1.7443581 -2.2553172 0.50014836 4291703040
1.7355611 -2.2438171 0.49585983 4291703040
1.7274235 -2.2331707 0.49119785 4291703040
1.7680426 -2.2854662 0.49969497 4291833600
1.7449311 -2.2554922 0.48966634 4291703040
1.7776437 -2.2975771 0.49461925 4291964160
1.7820956 -2.3031831 0.49108371 4291964160
1.7819949 -2.3029144 0.48571658 4291964160
1.7873055 -2.3096297 0.48123455 4291964160
1.7940472 -2.3181922 0.47653523 4291964160
1.787096 -2.3090863 0.46766886 4291964160
1.7770755 -2.2960219 0.45753255 4291833600
1.783337 -2.3039675 0.45105153 4291964160
1.784186 -2.30493 0.44265756 4291964160
1.7805582 -2.3001184 0.43266526 4291833600
1.7814626 -2.3011544 0.42328602 4291833600
1.7708226 -2.2865701 0.34832317 4291833600
1.7748346 -2.29162 0.33628511 4291833600
1.7849333 -2.304518 0.32491213 4291833600
1.771261 -2.2867675 0.30890977 4291833600
1.7613097 -2.2738171 0.29339001 4291703040
1.7731023 -2.2888994 0.28112185 4291833600
1.7739888 -2.2899222 0.26672569 4291833600
1.7608958 -2.2729259 0.25005302 4291703040
1.7516537 -2.260895 0.23383482 4291703040
1.7655586 -2.2786999 0.22037889 4291703040
1.7642055 -2.2768383 0.2046874 4291703040
1.759998 -2.2712991 0.18849377 4291703040
1.7722858 -2.2870181 0.17376746 4291703040
1.781667 -2.29899 0.15837364 4291833600
1.7767253 -2.2925055 0.14151117 4291833600
1.7474121 -2.2546198 0.12290131 4291572480
1.7566752 -2.2664404 0.10701209 4291703040
1.7742549 -2.2889748 0.091250539 4291703040
1.7390469 -2.2435014 0.072904028 4291572480
1.6838974 -2.1723437 0.054528091 4291311360
1.7214543 -2.2206135 0.03915387 4291441920
1.7311207 -2.2329531 0.022680985 4291572480
1.7111589 -2.2071295 0.0059276321 4291441920
1.7048908 -2.1989458 -0.010547142 4291311360
1.716761 -2.2141228 -0.027196724 4291441920
1.7221988 -2.2210145 -0.043874886 4291441920
1.6960449 -2.1872227 -0.059468877 4291311360
1.7213078 -2.2196436 -0.076846905 4291441920
1.733621 -2.2353866 -0.093908817 4291572480
1.735449 -2.2376275 -0.11042499 4291572480
1.6714104 -2.1550639 -0.12198144 4291180800
1.7266314 -2.2260485 -0.14214496 4291441920
1.7351062 -2.2368455 -0.15885155 4291572480
1.7189788 -2.2159703 -0.17304057 4291441920
1.6695014 -2.1521673 -0.18305981 4291180800
1.7275325 -2.2267532 -0.20484261 4291572480
1.7431054 -2.2466824 -0.22197916 4291572480
1.7458297 -2.2500725 -0.23738439 4291572480
1.7297945 -2.2293184 -0.24984914 4291572480
1.6670159 -2.1484115 -0.25458851 4291180800
1.7383863 -2.2401412 -0.27971658 4291572480
1.7436906 -2.2468486 -0.29447034 4291572480
1.7334218 -2.2335165 -0.30621666 4291572480
1.6692289 -2.150804 -0.30748466 4291180800
1.6092671 -2.0735435 -0.30826455 4290919680
1.7519168 -2.2569506 -0.3482706 4291703040
1.7537351 -2.2591672 -0.36080891 4291703040
1.746864 -2.250205 -0.37111336 4291703040
1.7277272 -2.2254655 -0.37821403 4291572480
1.6444917 -2.1182833 -0.37016329 4291050240
1.7291588 -2.2270596 -0.39961207 4291572480
1.7380207 -2.2383313 -0.41158402 4291703040
1.7366979 -2.2365036 -0.42071041 4291572480
1.7359569 -2.2354233 -0.42948627 4291572480
1.7300767 -2.2277336 -0.43646222 4291572480
1.7163174 -2.2099135 -0.44085163 4291572480
1.7147843 -2.2078135 -0.44781339 4291572480
1.6818383 -2.1653273 -0.44589403 4291311360
1.6469461 -2.1203432 -0.44268212 4291180800
1.660987 -2.1382658 -0.45206627 4291180800
1.6635642 -2.1414499 -0.4578523 4291311360
1.6746629 -2.1555853 -0.465496 4291311360
1.6888341 -2.173667 -0.47351867 4291441920
1.6205516 -2.0857787 -0.45770317 4291050240
1.6318105 -2.1001177 -0.46375644 4291050240
1.6346539 -2.1036401 -0.46689394 4291050240
1.6375536 -2.1072328 -0.46950907 4291180800
1.6314385 -2.0992417 -0.46898249 4291050240
1.6290107 -2.0959878 -0.46896434 4291050240
1.6290603 -2.095916 -0.46911159 4291050240
1.685034 -2.1676829 -0.48484132 4291441920
1.6797619 -2.1607683 -0.48232648 4291311360
1.6769681 -2.1570368 -0.47996688 4291311360
1.6657605 -2.1424987 -0.4746491 4291311360
1.6455277 -2.1163707 -0.4662452 4291180800
1.6802468 -2.1608124 -0.47287375 4291311360
1.6722287 -2.1503692 -0.46684408 4291311360
1.7204992 -2.2122002 -0.4759208 4291572480
1.7143178 -2.2041109 -0.46923694 4291572480
1.7308382 -2.2251663 -0.46820411 4291572480
1.7345396 -2.2297618 -0.46308649 4291572480
1.7388434 -2.2351289 -0.45756564 4291703040
1.7269291 -2.2196774 -0.44727069 4291572480
1.7168115 -2.2065337 -0.43702224 4291572480
1.723112 -2.2144606 -0.43047905 4291572480
1.7324798 -2.2263215 -0.42413521 4291572480
1.7458495 -2.243315 -0.41817242 4291703040
1.7467819 -2.2443471 -0.40866941 4291703040
1.7449321 -2.2418084 -0.39805517 4291703040
1.724654 -2.2156281 -0.38290653 4291572480
1.7256154 -2.2166965 -0.37217557 4291572480
1.7390982 -2.2338252 -0.3636418 4291572480
1.7431403 -2.238842 -0.35260254 4291572480
1.7316167 -2.2238941 -0.33806148 4291572480
1.7158076 -2.2034516 -0.32249928 4291441920
1.7371812 -2.2306914 -0.31355414 4291572480
1.7525822 -2.2502685 -0.30290133 4291703040
1.745216 -2.2406516 -0.2879 4291572480
1.710405 -2.1958511 -0.26836842 4291441920
1.7195693 -2.2074294 -0.25568593 4291441920
1.7299298 -2.2205386 -0.24274096 4291572480
1.7340798 -2.2256854 -0.22853243 4291572480
1.7107284 -2.1955845 -0.21059318 4291441920
1.7344967 -2.2258723 -0.19826365 4291572480
1.7422903 -2.2356846 -0.18360063 4291572480
1.742056 -2.2352092 -0.16781919 4291572480
1.6850067 -2.1619413 -0.14685367 4291180800
1.7321672 -2.2221889 -0.13500351 4291441920
1.7386106 -2.2302675 -0.11930085 4291572480
1.722055 -2.2088852 -0.10196606 4291441920
1.7247679 -2.2121851 -0.085813947 4291441920
1.7426054 -2.2348547 -0.07014484 4291572480
1.7490749 -2.2429626 -0.053702343 4291572480
1.6848335 -2.1605234 -0.035513341 4291180800
1.7437493 -2.2357879 -0.020068975 4291572480
1.7817456 -2.2842569 -0.0034125822 4291703040
1.7688516 -2.2675691 0.013637003 4291703040
1.7297474 -2.2173321 0.02999622 4291441920
1.7934829 -2.2987373 0.048223816 4291833600
1.8050585 -2.3133707 0.065771505 4291833600
1.7762519 -2.2763212 0.081654817 4291703040
1.695753 -2.1731277 0.094094418 4291311360
1.7342802 -2.222255 0.11249311 4291441920
1.7878939 -2.2906778 0.13258941 4291833600
1.7851305 -2.2869618 0.14889748 4291833600
1.7222419 -2.2063296 0.15949586 4291441920
1.8035814 -2.3102047 0.18325859 4291833600
1.8116332 -2.3203228 0.20026629 4291964160
1.7909384 -2.2936733 0.21379857 4291833600
1.7053187 -2.1839967 0.21849738 4291311360
1.8127866 -2.3212554 0.24761955 4291964160
1.8206642 -2.3311486 0.26396823 4291964160
1.805198 -2.3111937 0.27660644 4291964160
1.7489967 -2.2391632 0.28216606 4291572480
1.6623939 -2.1282792 0.2814115 4291180800
1.8120153 -2.3193767 0.3204723 4291964160
1.8047642 -2.309932 0.33272481 4291964160
1.7849131 -2.2843852 0.34209806 4291833600
1.6987151 -2.1740513 0.33770391 4291311360
1.7180972 -2.1986568 0.3532947 4291441920
1.8194219 -2.3279665 0.38602394 4291964160
1.8146048 -2.3216381 0.39657354 4291964160
1.7899272 -2.289938 0.40217644 4291833600
1.7525949 -2.2420762 0.40412465 4291703040
1.7172363 -2.1967435 0.40564653 4291441920
1.6656693 -2.1307149 0.40242544 4291180800
1.8117983 -2.317204 0.44667614 4291964160
1.8099254 -2.3146453 0.4548561 4291964160
1.7925001 -2.2922266 0.45853716 4291964160
1.795689 -2.2961357 0.46686792 4291964160
1.7988379 -2.2999945 0.47467303 4291964160
1.794347 -2.2940991 0.47991815 4291964160
1.7613715 -2.2518392 0.47690314 4291703040
1.7639647 -2.2549939 0.48281205 4291833600
1.7781599 -2.2729595 0.49136177 4291833600
1.780853 -2.2762423 0.4962194 4291833600
1.7805623 -2.2757168 0.49967536 4291833600
1.7337193 -2.2157795 0.48947158 4291572480
1.7335498 -2.2154155 0.49172485 4291572480
1.736477 -2.2190042 0.4942784 4291572480
1.7279192 -2.2079384 0.49299759 4291572480
1.72489 -2.2039292 0.49270111 4291572480
1.7770301 -2.2703097 0.50750184 4291833600
1.7771627 -2.2703333 0.50692928 4291833600
1.7712796 -2.2626836 0.50405908 4291833600
1.7569463 -2.244257 0.49822405 4291703040
1.7957876 -2.2936597 0.50676912 4291964160
1.7785323 -2.2715087 0.4989475 4291833600
1.7944556 -2.2916768 0.49979967 4291964160
1.7851204 -2.2796314 0.49305883 4291833600
1.8052744 -2.3051939 0.49381426 4291964160
1.8083031 -2.308917 0.48927191 4291964160
1.8070686 -2.307205 0.48300824 4291964160
1.8047234 -2.3040783 0.47590107 4291964160
1.8073577 -2.3073013 0.46954691 4291964160
1.7913818 -2.2868001 0.4578976 4291833600
1.7921993 -2.2877097 0.45005253 4291833600
1.815932 -2.3178303 0.44729513 4291964160
1.8109746 -2.3113792 0.43690816 4291964160
1.8143365 -2.3155334 0.4280237 4291964160
1.7952039 -2.290355 0.35045546 4291833600
1.8112308 -2.3106506 0.3405754 4291964160
1.8186114 -2.3199294 0.32853034 4291964160
1.8033479 -2.3003619 0.31211811 4291833600
1.7873892 -2.2799115 0.29547855 4291833600
1.8097949 -2.308331 0.28474995 4291964160
1.8114744 -2.3103495 0.27027932 4291964160
1.7977679 -2.2927718 0.25333357 4291833600
1.7878218 -2.2799859 0.23683158 4291833600
1.7994065 -2.2946215 0.22287944 4291833600
1.7764676 -2.2652922 0.20454928 4291703040
1.7670271 -2.253155 0.18781681 4291703040
1.7932917 -2.2864826 0.17447911 4291833600
1.8112583 -2.309242 0.15975529 4291833600
1.8114916 -2.3094218 0.143149 4291833600
1.7894633 -2.2812603 0.12485523 4291703040
1.7933152 -2.2860487 0.10836982 4291833600
1.8013006 -2.2960987 0.091901116 4291833600
1.7896934 -2.281208 0.074389823 4291703040
1.7057801 -2.174284 0.054779254 4291311360
1.7522669 -2.2333429 0.039500393 4291572480
1.7589176 -2.2416952 0.022818558 4291572480
1.7388065 -2.2159882 0.0059229 4291441920
1.7355806 -2.2117717 -0.010716939 4291441920
1.7561883 -2.2378848 -0.027684502 4291572480
1.7561045 -2.2376659 -0.044470623 4291572480
1.7235749 -2.1961625 -0.060042985 4291441920
1.7490336 -2.2284443 -0.077563345 4291572480
1.7614266 -2.2440994 -0.094765626 4291572480
1.7608042 -2.2431943 -0.11126342 4291572480
1.7080038 -2.1759109 -0.12379499 4291311360
1.7414739 -2.2183776 -0.14234959 4291441920
1.7567359 -2.2376785 -0.15969214 4291572480
1.7497373 -2.2286627 -0.17489269 4291572480
1.693717 -2.1572969 -0.1843929 4291311360
1.7583413 -2.2393773 -0.20701191 4291572480
1.7722284 -2.256923 -0.22407514 4291703040
1.7706004 -2.2547362 -0.23902407 4291703040
1.7418361 -2.2180414 -0.24976772 4291572480
1.6337271 -2.0804584 -0.24765559 4290919680
1.7692355 -2.2526479 -0.28263137 4291703040
1.7741983 -2.2588389 -0.29746214 4291703040
1.7642158 -2.2460279 -0.30940691 4291703040
1.6964624 -2.1597738 -0.31024104 4291311360
1.6329747 -2.0789511 -0.31053904 4290919680
1.7799945 -2.2657244 -0.35128656 4291833600
1.7846433 -2.2715106 -0.36450535 4291833600
1.7801638 -2.2656932 -0.37544483 4291833600
1.7578095 -2.2371576 -0.38200384 4291703040
1.7239841 -2.1940458 -0.38527688 4291441920
1.7567852 -2.2356076 -0.40304059 4291703040
1.762646 -2.2429299 -0.41437197 4291703040
1.7613075 -2.2411025 -0.42355889 4291703040
1.7636123 -2.2439034 -0.43314514 4291703040
1.7631817 -2.2432277 -0.44157088 4291703040
1.7468674 -2.2223718 -0.44542363 4291572480
1.7422621 -2.216392 -0.45166406 4291572480
1.7121167 -2.1779683 -0.45060489 4291441920
1.6739062 -2.1293037 -0.44663757 4291180800
1.6849966 -2.1432633 -0.45524204 4291311360
1.6961281 -2.1572723 -0.46340013 4291311360
1.7048651 -2.1682379 -0.47042102 4291441920
1.7160895 -2.1823597 -0.47763303 4291441920
1.6533896 -2.1026065 -0.46355763 4291180800
1.6586344 -2.1091359 -0.46792084 4291180800
1.6584499 -2.1087699 -0.47021073 4291180800
1.6613697 -2.112344 -0.47283638 4291180800
1.6643476 -2.1159904 -0.47493109 4291180800
1.6582451 -2.1081083 -0.47387215 4291180800
1.658295 -2.1080356 -0.47401896 4291180800
1.7122495 -2.1763818 -0.48904529 4291441920
1.7093767 -2.1725929 -0.48721665 4291441920
1.694983 -2.1541824 -0.48154142 4291311360
1.6867403 -2.143579 -0.47707906 4291311360
1.6809915 -2.1361403 -0.47278628 4291311360
1.7165844 -2.1811585 -0.4795408 4291441920
1.7024118 -2.1630282 -0.47176242 4291441920
1.7534882 -2.2276797 -0.48146495 4291703040
1.7503189 -2.2235057 -0.47555402 4291703040
1.7675809 -2.2452483 -0.47461128 4291703040
1.7676532 -2.245183 -0.46843621 4291703040
1.7695522 -2.2474334 -0.46219793 4291703040
1.7606132 -2.2359376 -0.45261782 4291703040
1.7528762 -2.2259665 -0.4428978 4291703040
1.7506659 -2.2230041 -0.43411466 4291572480
1.7662333 -2.2425826 -0.42918923 4291703040
1.7827759 -2.2633936 -0.42384738 4291833600
1.7837273 -2.2644348 -0.41421273 4291833600
1.7757428 -2.2541468 -0.40206715 4291703040
1.7522544 -2.2242067 -0.38613245 4291572480
1.7593701 -2.2330611 -0.37662715 4291703040
1.7729644 -2.2501242 -0.36795664 4291703040
1.776433 -2.2543516 -0.3566519 4291703040
1.7592989 -2.2324696 -0.34089202 4291572480
1.7458408 -2.2152479 -0.32568413 4291572480
1.7612873 -2.2346511 -0.3155131 4291572480
1.7804424 -2.258749 -0.30540001 4291703040
1.7785759 -2.256212 -0.29119545 4291703040
1.7410485 -2.2085016 -0.27111572 4291572480
1.7472039 -2.2161286 -0.25782827 4291572480
1.7669084 -2.2409139 -0.24605647 4291703040
1.7643057 -2.2374444 -0.23074876 4291572480
1.7444949 -2.2121835 -0.21311678 4291572480
1.7598026 -2.2313945 -0.19961323 4291572480
1.775689 -2.2513349 -0.18568608 4291703040
1.7698914 -2.2438188 -0.16918291 4291572480
1.7148974 -2.1740236 -0.14830019 4291311360
1.7630327 -2.2347851 -0.13633648 4291572480
1.7691534 -2.2423565 -0.12044034 4291572480
1.752853 -2.2215497 -0.10296354 4291572480
1.7555892 -2.2248373 -0.086641543 4291572480
1.770463 -2.2434838 -0.070674069 4291572480
1.7789043 -2.253988 -0.054149646 4291703040
1.7209436 -2.1804752 -0.035951279 4291311360
1.7929173 -2.2713604 -0.020435663 4291703040
1.8063653 -2.288193 -0.0033594063 4291833600
1.8092049 -2.2916043 0.013903601 4291833600
1.7844192 -2.2600729 0.030756535 4291703040
1.8156513 -2.2993953 0.048539039 4291833600
1.8267541 -2.3132548 0.066151753 4291964160
1.8287714 -2.3156233 0.083495103 4291964160
1.7892399 -2.2654555 0.098541901 4291703040
1.8137969 -2.2963257 0.11679449 4291833600
1.8228785 -2.3076267 0.13425155 4291964160
1.8148659 -2.2973166 0.15033112 4291833600
1.7460155 -2.2101061 0.16057682 4291441920
1.8211893 -2.3049495 0.18376645 4291964160
1.8263775 -2.3113267 0.20049374 4291964160
1.8185563 -2.3012629 0.21556415 4291833600
1.7885734 -2.263196 0.22746886 4291703040
1.8247877 -2.30878 0.24750777 4291964160
1.8381257 -2.3254538 0.26461452 4291964160
1.8367772 -2.3235712 0.27943063 4291964160
1.8076104 -2.2865474 0.28949338 4291833600
1.731774 -2.1905785 0.29099187 4291441920
1.8316051 -2.3165059 0.32161883 4291964160
1.823716 -2.3063667 0.33380854 4291964160
1.806711 -2.2847171 0.34378475 4291833600
1.7610669 -2.2269063 0.34751859 4291572480
1.7253168 -2.1815982 0.35223663 4291441920
1.8298575 -2.3134289 0.38544685 4291964160
1.8256297 -2.3079197 0.3961091 4291964160
1.8087567 -2.286449 0.40346456 4291964160
1.7686847 -2.2356975 0.40488058 4291703040
1.7361345 -2.1944485 0.40713131 4291572480
1.6841818 -2.1287177 0.40393743 4291180800
1.8271548 -2.3090026 0.4471879 4291964160
1.8209169 -2.3009653 0.45429382 4291964160
1.8266698 -2.3080606 0.46384665 4291964160
1.8097275 -2.2865198 0.4670864 4291964160
1.7990263 -2.2728572 0.4712756 4291833600
1.8223779 -2.3021586 0.48383227 4291964160
1.780574 -2.2492626 0.47856548 4291833600
1.7917614 -2.2632196 0.48680589 4291833600
1.7974828 -2.2702811 0.49304885 4291833600
1.7471014 -2.206583 0.48330596 4291572480
1.7529386 -2.2137957 0.48836404 4291703040
1.7557697 -2.2172177 0.4920336 4291703040
1.7525369 -2.2129936 0.49343675 4291703040
1.7524245 -2.2127056 0.49513122 4291703040
1.7554326 -2.2163537 0.49712414 4291703040
1.7523806 -2.2123616 0.4968276 4291703040
1.7463288 -2.2045896 0.49510127 4291572480
1.7464589 -2.2046125 0.4945378 4291572480
1.7905451 -2.2600436 0.50574696 4291833600
1.7846787 -2.252507 0.50230163 4291833600
1.7849952 -2.2527649 0.50000465 4291833600
1.8150057 -2.2904468 0.50534731 4291964160
1.8007414 -2.2723303 0.49781254 4291964160
1.8082653 -2.2816725 0.49569967 4291964160
1.827553 -2.3058376 0.49614874 4292094720
1.8223411 -2.2991323 0.48936731 4291964160
1.8315794 -2.3106346 0.4858624 4292094720
1.820015 -2.295929 0.4763149 4291964160
1.8213885 -2.2975247 0.4696196 4291964160
1.8194126 -2.2949018 0.4615252 4291964160
1.8032095 -2.2743602 0.44938937 4291833600
1.8294111 -2.3072314 0.44719368 4291964160
1.8312273 -2.3093874 0.43842307 4291964160
1.826244 -2.3029811 0.42754877 4291964160
1.8079621 -2.2791471 0.35032842 4291833600
1.8234184 -2.2984822 0.34032449 4291964160
1.8318317 -2.3089502 0.32846275 4291964160
1.8118248 -2.2836442 0.31126317 4291833600
1.8037362 -2.2733428 0.29596227 4291833600
1.8201165 -2.2938397 0.28424993 4291964160
1.8218063 -2.2958465 0.26980403 4291964160
1.8055167 -2.2752271 0.25253996 4291833600
1.7923932 -2.2585945 0.23568064 4291703040
1.8094577 -2.2799509 0.22245908 4291833600
1.810497 -2.2811415 0.20688832 4291833600
1.8124286 -2.2834551 0.19116606 4291833600
1.8031148 -2.2716205 0.17412814 4291833600
1.8235085 -2.2971621 0.15963361 4291833600
1.8197416 -2.2923067 0.14272873 4291833600
1.8141645 -2.2851751 0.12561432 4291833600
1.8077056 -2.2769351 0.10841453 4291833600
1.8082273 -2.2774768 0.091562934 4291833600
1.8056669 -2.2741418 0.074478641 4291833600
1.7420639 -2.1940341 0.055486508 4291441920
1.7900786 -2.2543092 0.040008686 4291703040
1.7931088 -2.2580068 0.02304811 4291703040
1.7666254 -2.2245905 0.0059375106 4291572480
1.7633752 -2.2203922 -0.010844201 4291572480
1.7838891 -2.2460749 -0.0279497 4291703040
1.7871608 -2.2500758 -0.044962943 4291703040
1.7512767 -2.2048473 -0.060594562 4291441920
1.7831345 -2.2447882 -0.078535587 4291703040
1.7974368 -2.2626553 -0.096034989 4291703040
1.797472 -2.2625856 -0.11278877 4291703040
1.7355779 -2.1846702 -0.12490314 4291441920
1.7791768 -2.239361 -0.14440636 4291703040
1.7877694 -2.2500472 -0.16135576 4291703040
1.7869272 -2.2488742 -0.17733996 4291703040
1.7211659 -2.1661139 -0.18603757 4291311360
1.7887461 -2.2509301 -0.20907973 4291703040
1.8020537 -2.2675369 -0.22620688 4291833600
1.8017017 -2.2669775 -0.24147141 4291833600
1.7854133 -2.2463939 -0.25418237 4291703040
1.7216837 -2.1662054 -0.25916106 4291311360
1.7972027 -2.2609713 -0.2850225 4291833600
1.8025697 -2.2675948 -0.30003154 4291833600
1.797703 -2.2613611 -0.31300086 4291833600
1.7742292 -2.2317541 -0.32215464 4291703040
1.6629969 -2.0919166 -0.31395939 4291050240
1.8139408 -2.2813938 -0.35539341 4291833600
1.8095878 -2.2758031 -0.36691511 4291833600
1.8025982 -2.266901 -0.37741169 4291833600
1.7941771 -2.2562013 -0.38708201 4291833600
1.7515465 -2.2025433 -0.38859323 4291572480
1.7974716 -2.2600882 -0.40938801 4291833600
1.7997258 -2.2627923 -0.42002052 4291833600
1.7989198 -2.2616527 -0.42946613 4291833600
1.7969718 -2.2590787 -0.43813315 4291833600
1.790997 -2.2514489 -0.44527495 4291833600
1.7714787 -2.2268171 -0.44841155 4291703040
1.7668341 -2.2208579 -0.45470017 4291703040
1.7426111 -2.1903236 -0.45529673 4291572480
1.701038 -2.1380157 -0.4505755 4291311360
1.7091322 -2.1480472 -0.45840141 4291311360
1.7234141 -2.1658416 -0.46742931 4291441920
1.7291398 -2.1728961 -0.47364551 4291441920
1.7373731 -2.183095 -0.48003399 4291572480
1.7432028 -2.1902757 -0.48522881 4291572480
1.6856291 -2.1179054 -0.47207677 4291311360
1.6915797 -2.1252389 -0.4761191 4291311360
1.6914494 -2.1249418 -0.47789732 4291311360
1.6883097 -2.1208689 -0.47826183 4291311360
1.6882993 -2.1207204 -0.47895333 4291311360
1.682825 -2.113718 -0.47753006 4291180800
1.7457716 -2.1925268 -0.49499688 4291572480
1.7342839 -2.1779768 -0.49071863 4291572480
1.728381 -2.1704314 -0.487463 4291441920
1.7108686 -2.1483281 -0.4803825 4291441920
1.7056932 -2.1416955 -0.47624397 4291311360
1.7464658 -2.1926701 -0.48434296 4291572480
1.771142 -2.2234573 -0.48727044 4291703040
1.7781172 -2.2320495 -0.48467651 4291703040
1.7888972 -2.2454088 -0.48251095 4291833600
1.7892444 -2.2456884 -0.47693282 4291833600
1.7930121 -2.2502542 -0.47170269 4291833600
1.7943137 -2.2517276 -0.46525922 4291833600
1.7981855 -2.2564204 -0.45892709 4291833600
1.7830601 -2.2373071 -0.44725558 4291703040
1.7814668 -2.2351508 -0.43854871 4291703040
1.7977115 -2.2553427 -0.43367153 4291833600
1.8076582 -2.2676408 -0.42664349 4291833600
1.8086219 -2.268683 -0.41694602 4291833600
1.8005841 -2.2584488 -0.40473446 4291833600
1.7862004 -2.2402673 -0.39076614 4291703040
1.784102 -2.2374735 -0.37915337 4291703040
1.7947078 -2.2505894 -0.36976829 4291833600
1.8037245 -2.2617126 -0.35951072 4291833600
1.7902428 -2.244662 -0.34438235 4291703040
1.7825881 -2.2349091 -0.33014405 4291703040
1.795923 -2.2514348 -0.31940022 4291703040
1.8015854 -2.2583525 -0.30679116 4291833600
1.8125576 -2.2719152 -0.29462451 4291833600
1.7802941 -2.2313583 -0.2752406 4291703040
1.7836968 -2.2354462 -0.26132748 4291703040
1.7966713 -2.2515113 -0.24840482 4291703040
1.792621 -2.2462692 -0.23276994 4291703040
1.7691811 -2.2167656 -0.21458152 4291572480
1.793875 -2.2474904 -0.20202851 4291703040
1.8074198 -2.2642615 -0.18765868 4291833600
1.8075563 -2.2642558 -0.17156239 4291833600
1.7757803 -2.2243307 -0.15250869 4291572480
1.7956812 -2.2490487 -0.13788438 4291703040
1.800612 -2.2550395 -0.12172333 4291703040
1.8002305 -2.2543855 -0.10502736 4291703040
1.7888042 -2.2399199 -0.087675393 4291703040
1.8081856 -2.2639785 -0.071697049 4291703040
1.8110555 -2.2673888 -0.054764692 4291833600
1.7906907 -2.24175 -0.037215333 4291703040
1.8023977 -2.2562087 -0.020409681 4291703040
1.8178594 -2.2753582 -0.0033743433 4291833600
1.8170508 -2.2741683 0.01384744 4291833600
1.7285922 -2.1634326 0.029631531 4291311360
1.8266869 -2.2858524 0.048459452 4291833600
1.8328186 -2.2933352 0.065874025 4291833600
1.8240763 -2.2822311 0.082671769 4291833600
1.7642651 -2.2073228 0.096479766 4291572480
1.8289838 -2.2880039 0.11688974 4291833600
1.8376158 -2.2986083 0.1343265 4291964160
1.8116426 -2.2659848 0.14896691 4291833600
1.6982967 -2.1242356 0.15510125 4291180800
1.8359767 -2.2960229 0.1838837 4291964160
1.840711 -2.3017569 0.20057024 4291964160
1.8213637 -2.2774186 0.21431284 4291833600
1.7480854 -2.1857443 0.2207423 4291441920
1.8486617 -2.3111494 0.24888228 4291964160
1.8529767 -2.3163588 0.26478305 4291964160
1.8446141 -2.305742 0.27856094 4291964160
1.7961071 -2.2450163 0.28556255 4291703040
1.7200263 -2.1498845 0.28692144 4291311360
1.8435596 -2.3038993 0.32133701 4291964160
1.8295361 -2.2862241 0.33241951 4291964160
1.7804316 -2.2247758 0.33634341 4291703040
1.7537129 -2.1912696 0.34354985 4291572480
1.7098502 -2.1363792 0.34655157 4291311360
1.8430011 -2.3023396 0.3853634 4291964160
1.8401459 -2.2986076 0.39632449 4291964160
1.8242341 -2.27859 0.40392578 4291964160
1.8052157 -2.2547011 0.41017687 4291833600
1.7786062 -2.221349 0.41398785 4291703040
1.7262586 -2.1559033 0.4109475 4291441920
1.8529568 -2.3137476 0.45015883 4292094720
1.8463446 -2.3053372 0.45724225 4292094720
1.8298485 -2.2846048 0.46125972 4291964160
1.8276706 -2.281728 0.46825185 4291964160
1.8002681 -2.2474053 0.46815962 4291833600
1.8145317 -2.2650297 0.47824657 4291964160
1.7759331 -2.2167587 0.47384432 4291703040
1.781652 -2.2237344 0.48054415 4291703040
1.7812496 -2.2230811 0.48505679 4291703040
1.7895378 -2.2332597 0.49137491 4291833600
1.7984959 -2.2442729 0.49733779 4291833600
1.7951756 -2.2399855 0.49935272 4291833600
1.798082 -2.2434583 0.50250429 4291833600
1.8010488 -2.2470071 0.50509036 4291833600
1.7886626 -2.2314289 0.5027951 4291833600
1.7979192 -2.2428157 0.50595784 4291833600
1.7801079 -2.220484 0.50095153 4291703040
1.7888728 -2.2312598 0.50279546 4291833600
1.7773495 -2.2167659 0.49838117 4291703040
1.7806877 -2.2207842 0.49753296 4291703040
1.8190647 -2.2684398 0.50578749 4291964160
1.8077229 -2.2541754 0.49966335 4291833600
1.8380203 -2.2917643 0.50436437 4292094720
1.8394313 -2.2933817 0.50052661 4292094720
1.8417484 -2.296128 0.49634087 4292094720
1.8446583 -2.2996135 0.49172142 4292094720
1.8397624 -2.2933817 0.48446733 4291964160
1.8404748 -2.2941334 0.47813329 4291964160
1.8296568 -2.2805331 0.46830451 4291964160
1.8317851 -2.2830496 0.46126285 4291964160
1.8350958 -2.2870386 0.4539617 4291964160
1.841445 -2.2948098 0.446841 4291964160
1.8437281 -2.2975209 0.43818462 4291964160
1.8477615 -2.3024106 0.42940736 4292094720
1.8246365 -2.2728269 0.35096303 4291833600
1.8551918 -2.3107135 0.34369233 4292094720
1.8530811 -2.3079648 0.329826 4291964160
1.8335172 -2.2835093 0.31266811 4291964160
1.826058 -2.2741115 0.2974143 4291833600
1.8410232 -2.292604 0.28539446 4291964160
1.8487432 -2.3020847 0.27176535 4291964160
1.8309779 -2.2798734 0.25420389 4291833600
1.8202689 -2.2664394 0.23756762 4291833600
1.8394456 -2.2901669 0.22446132 4291964160
1.8370978 -2.2871304 0.20836571 4291833600
1.8177503 -2.2629592 0.19032282 4291833600
1.8184301 -2.263689 0.17430806 4291833600
1.8360273 -2.28545 0.15954188 4291833600
1.8366123 -2.2860615 0.14298062 4291833600
1.8265259 -2.2734087 0.1255319 4291833600
1.8073041 -2.249402 0.10759797 4291703040
1.8321466 -2.2801657 0.09206789 4291833600
1.8227845 -2.2684157 0.074613951 4291833600
1.7667259 -2.1986339 0.055830255 4291441920
1.8150926 -2.2586293 0.040240116 4291703040
1.8212799 -2.2662051 0.02320403 4291833600
1.8008727 -2.2407341 0.0059660426 4291703040
1.8001065 -2.2396698 -0.011034657 4291703040
1.8094839 -2.2512088 -0.028177608 4291703040
1.8152859 -2.2583046 -0.045374051 4291703040
1.7957315 -2.2338984 -0.061733562 4291703040
1.8112259 -2.2530346 -0.07922826 4291703040
1.8268913 -2.2723811 -0.096935704 4291833600
1.8281684 -2.2738531 -0.11391871 4291833600
1.7658176 -2.1962936 -0.12619306 4291441920
1.8101094 -2.251194 -0.14588687 4291703040
1.8145685 -2.256618 -0.16261788 4291703040
1.820646 -2.264051 -0.1794132 4291833600
1.7462716 -2.1715751 -0.1874115 4291441920
1.8259788 -2.2704418 -0.21192364 4291833600
1.8346261 -2.2810626 -0.22866069 4291833600
1.8395709 -2.2870848 -0.24479841 4291964160
1.8103417 -2.2506762 -0.25589031 4291703040
1.6878344 -2.098465 -0.25219864 4291050240
1.8271447 -2.2713017 -0.2877017 4291833600
1.8294227 -2.2740102 -0.30232218 4291833600
1.8289241 -2.2732711 -0.31616026 4291833600
1.7965518 -2.2329686 -0.32386753 4291703040
1.6869946 -2.0968685 -0.31620687 4291180800
1.8470753 -2.295435 -0.35929474 4291964160
1.8461692 -2.2941866 -0.37165424 4291964160
1.8461876 -2.2940845 -0.38377672 4291964160
1.8222157 -2.2642119 -0.3903099 4291833600
1.7761583 -2.2069373 -0.39122289 4291572480
1.8283798 -2.27161 -0.41343957 4291964160
1.8244319 -2.2665849 -0.42272589 4291833600
1.829821 -2.2731433 -0.43370727 4291964160
1.826171 -2.2684865 -0.44205418 4291964160
1.8217627 -2.2628884 -0.44967115 4291833600
1.8134626 -2.2524629 -0.45575017 4291833600
1.8103991 -2.2485323 -0.46257433 4291833600
1.7584399 -2.1839571 -0.45612168 4291572480
1.7752042 -2.2046199 -0.46687555 4291703040
1.7309041 -2.1495509 -0.46089977 4291441920
1.7452869 -2.167258 -0.46995488 4291441920
1.7504326 -2.1735082 -0.47602659 4291572480
1.759342 -2.184423 -0.48260522 4291572480
1.7645932 -2.1908 -0.48764715 4291572480
1.7736118 -2.2018456 -0.49319014 4291703040
1.7789781 -2.2083614 -0.4971621 4291703040
1.7763671 -2.2049863 -0.49832299 4291703040
1.7762921 -2.2047541 -0.49961171 4291703040
1.7731889 -2.2007675 -0.499461 4291703040
1.7701492 -2.1968589 -0.49874252 4291703040
1.764081 -2.1891968 -0.49658662 4291572480
1.7494172 -2.1708827 -0.49143443 4291572480
1.7496556 -2.1710355 -0.48991269 4291572480
1.7351092 -2.1528683 -0.48368615 4291441920
1.7767328 -2.2042949 -0.49254599 4291703040
1.7623053 -2.1862729 -0.48521641 4291572480
1.7989228 -2.2314868 -0.49135828 4291833600
1.81143 -2.2468274 -0.49021429 4291833600
1.8282788 -2.2675428 -0.48959976 4291964160
1.8289334 -2.2681971 -0.48401999 4291964160
1.8302052 -2.2696145 -0.47803748 4291964160
1.8282425 -2.2670252 -0.47065875 4291964160
1.8230892 -2.2604845 -0.46194223 4291833600
1.8171688 -2.2529936 -0.45254618 4291833600
1.8149428 -2.2500772 -0.44358969 4291833600
1.8257326 -2.2632737 -0.43727365 4291833600
1.8406774 -2.2816112 -0.43132657 4291964160
1.8447676 -2.2865086 -0.42223766 4291964160
1.8377362 -2.2776389 -0.41013381 4291964160
1.8110527 -2.244447 -0.39336446 4291833600
1.8219647 -2.257786 -0.38443696 4291833600
1.8339161 -2.2724085 -0.37515268 4291964160
1.83184 -2.2696707 -0.36250451 4291833600
1.821949 -2.2572632 -0.34798059 4291833600
1.8105648 -2.2430093 -0.33293146 4291703040
1.829627 -2.2664223 -0.32307729 4291833600
1.8434755 -2.2833817 -0.31169763 4291964160
1.8407742 -2.2798669 -0.29707941 4291964160
1.7967016 -2.2251835 -0.27579084 4291703040
1.8148477 -2.2474554 -0.26400393 4291703040
1.8247926 -2.2595811 -0.25050139 4291833600
1.8203397 -2.2539012 -0.23469284 4291833600
1.803385 -2.232764 -0.21718752 4291703040
1.8277029 -2.2626569 -0.20438883 4291833600
1.8368896 -2.2738385 -0.1893746 4291833600
1.82919 -2.2641442 -0.17238855 4291833600
1.7828193 -2.2066512 -0.15202047 4291572480
1.82225 -2.255214 -0.13894594 4291833600
1.831363 -2.2663004 -0.12294434 4291833600
1.8144509 -2.2452238 -0.10511298 4291703040
1.8084311 -2.2376099 -0.088023223 4291703040
1.8358569 -2.2713211 -0.072302736 4291833600
1.8420956 -2.2788508 -0.055338878 4291833600
1.7858677 -2.2092092 -0.036848292 4291572480
1.8420013 -2.2783768 -0.020754846 4291833600
1.8462335 -2.2834256 -0.0034380856 4291833600
1.8400186 -2.2755704 0.013890884 4291833600
1.7713716 -2.1906135 0.030092649 4291441920
1.8553234 -2.2941134 0.048827115 4291964160
1.8608686 -2.3007808 0.066363133 4291964160
1.8500216 -2.2872078 0.083208263 4291964160
1.8041446 -2.2303889 0.097897805 4291703040
1.8569969 -2.2954609 0.11778669 4291964160
1.8680185 -2.3088872 0.13552381 4291964160
1.8326911 -2.2651019 0.14958091 4291833600
1.7351565 -2.1445467 0.1572746 4291311360
1.8634576 -2.3027196 0.18525256 4291964160
1.8635219 -2.3026206 0.20155925 4291964160
1.8368177 -2.2694914 0.21454906 4291833600
1.7909211 -2.2126875 0.22446264 4291572480
1.8791009 -2.3213089 0.25111449 4292094720
1.8815039 -2.3240952 0.26688147 4292094720
1.8737878 -2.3143992 0.28088591 4292094720
1.7855303 -2.2053611 0.28184348 4291572480
1.7625918 -2.1769021 0.29184228 4291441920
1.8782501 -2.3193758 0.32497579 4292094720
1.8529353 -2.2879834 0.33421034 4291964160
1.8177611 -2.2444389 0.34086755 4291833600
1.7989649 -2.2210956 0.34981063 4291703040
1.7435179 -2.1525695 0.35077918 4291441920
1.8654374 -2.3027141 0.38721088 4292094720
1.8604715 -2.296423 0.39778441 4292094720
1.8253837 -2.2530043 0.401263 4291833600
1.7979228 -2.2189934 0.40558305 4291703040
1.8183315 -2.2439852 0.42012763 4291833600
1.765592 -2.1788292 0.41722488 4291572480
1.8785505 -2.3178692 0.4530516 4292094720
1.8723767 -2.3100967 0.46031085 4292094720
1.8565314 -2.29041 0.4645758 4292094720
1.8683163 -2.3047678 0.47515941 4292094720
1.8407052 -2.2705917 0.47516906 4291964160
1.7986537 -2.2186332 0.47066721 4291703040
1.8099582 -2.2324042 0.47939464 4291833600
1.8157121 -2.2393382 0.48615396 4291833600
1.8240019 -2.2493951 0.49305952 4291833600
1.8354501 -2.2633417 0.5002858 4291964160
1.8320419 -2.2589927 0.50291741 4291964160
1.8380114 -2.2661927 0.50752467 4291964160
1.8440406 -2.2734663 0.51157123 4291964160
1.8377099 -2.2655227 0.511608 4291964160
1.8407586 -2.2691283 0.51363868 4291964160
1.8345553 -2.2613451 0.51249802 4291964160
1.8346262 -2.2612875 0.51249814 4291964160
1.8347611 -2.2613094 0.51191473 4291964160
1.8262631 -2.2507074 0.50833988 4291964160
1.8147192 -2.2363591 0.50334263 4291833600
1.8088254 -2.228967 0.49933407 4291833600
1.8475503 -2.2764823 0.50693965 4291964160
1.8361858 -2.2623591 0.50023633 4291964160
1.8605529 -2.2922032 0.50260049 4292094720
1.8713629 -2.3053651 0.50065106 4292094720
1.8650453 -2.2974548 0.49354959 4292094720
1.879858 -2.315541 0.49140805 4292225280
1.8712448 -2.3048093 0.48258626 4292094720
1.8728139 -2.3066049 0.47584191 4292094720
1.8656213 -2.2976246 0.46635637 4292094720
1.869588 -2.302371 0.45911941 4292094720
1.8784877 -2.3131847 0.45249972 4292094720
1.8751812 -2.3089874 0.44241083 4292094720
1.8676962 -2.2996531 0.43089011 4292094720
1.8622839 -2.292186 0.35557812 4291964160
1.8749014 -2.3075726 0.34481895 4292094720
1.8846962 -2.3194885 0.33299905 4292094720
1.8590238 -2.2878132 0.31470391 4291964160
1.8568581 -2.2850311 0.30021536 4291964160
1.8725681 -2.3042176 0.28815594 4292094720
1.8766444 -2.3091068 0.27384663 4292094720
1.8476839 -2.2734003 0.25465578 4291833600
1.8436872 -2.2683721 0.23886271 4291833600
1.8641505 -2.2933981 0.22580793 4291964160
1.8686529 -2.2988124 0.21038039 4291964160
1.8460225 -2.2708924 0.19185667 4291833600
1.8492329 -2.2747209 0.17594679 4291833600
1.8795708 -2.3118732 0.16209763 4292094720
1.8713406 -2.3016467 0.14459336 4291964160
1.8548789 -2.2813106 0.12652779 4291964160
1.8449857 -2.2690446 0.10900488 4291833600
1.8573908 -2.2841663 0.092632838 4291964160
1.8542749 -2.280225 0.075317875 4291833600
1.8009701 -2.2146497 0.056460373 4291572480
1.8433741 -2.2666109 0.040537477 4291833600
1.849607 -2.2741508 0.02335972 4291833600
1.8290526 -2.2487991 0.0059801163 4291703040
1.825123 -2.2438619 -0.011139963 4291703040
1.8434081 -2.2661994 -0.028541058 4291833600
1.8467246 -2.2701576 -0.04586694 4291833600
1.8134702 -2.2292202 -0.061920322 4291703040
1.8451557 -2.2680042 -0.080173559 4291833600
1.8539786 -2.2787209 -0.09770035 4291833600
1.8596877 -2.2856138 -0.11508859 4291964160
1.7912033 -2.2014427 -0.12712015 4291572480
1.8417375 -2.2633526 -0.14740798 4291833600
1.8409841 -2.2623136 -0.16383339 4291833600
1.8457943 -2.2681017 -0.18061705 4291833600
1.7859952 -2.1946056 -0.19034386 4291572480
1.8482448 -2.2708774 -0.21299675 4291833600
1.8705498 -2.2981293 -0.23150524 4291964160
1.8682222 -2.295155 -0.24686085 4291964160
1.8448198 -2.2663248 -0.25893128 4291833600
1.7151282 -2.1071002 -0.25447053 4291180800
1.8567489 -2.2807229 -0.29029959 4291964160
1.8615489 -2.2864912 -0.30546016 4291964160
1.8572227 -2.281064 -0.31878164 4291964160
1.8302501 -2.24786 -0.32761252 4291833600
1.7173815 -2.1093082 -0.31962779 4291180800
1.8730172 -2.30007 -0.36175811 4292094720
1.8783669 -2.3065069 -0.3754591 4292094720
1.8733711 -2.3002553 -0.38666579 4292094720
1.8623084 -2.2865641 -0.39607784 4291964160
1.8096449 -2.2218649 -0.39577615 4291703040
1.8505905 -2.2719448 -0.41548842 4291964160
1.8591181 -2.2822731 -0.42771044 4291964160
1.8551582 -2.2772903 -0.43658939 4291964160
1.8562918 -2.2785511 -0.44615656 4291964160
1.8470917 -2.2671437 -0.45268381 4291964160
1.8471596 -2.267097 -0.46092603 4291964160
1.8287923 -2.2444537 -0.46394849 4291833600
1.7917237 -2.1988916 -0.46145847 4291703040
1.7526549 -2.1508827 -0.45763555 4291441920
1.7702104 -2.1722689 -0.46802673 4291572480
1.7784551 -2.1822422 -0.47548839 4291572480
1.7842555 -2.1892183 -0.48178211 4291703040
1.7957162 -2.2031276 -0.4890897 4291703040
1.7985083 -2.2064137 -0.49349293 4291703040
1.7432053 -2.1385274 -0.4812513 4291441920
1.7492372 -2.1457839 -0.4853383 4291441920
1.7397594 -2.1340401 -0.48454237 4291441920
1.7459126 -2.1414423 -0.48753884 4291441920
1.7459002 -2.1412911 -0.48824364 4291441920
1.8096967 -2.2192852 -0.50627136 4291833600
1.8010944 -2.2086079 -0.50341123 4291703040
1.7863266 -2.1903806 -0.49824563 4291703040
1.7865692 -2.1905341 -0.49670294 4291703040
1.7688061 -2.1686409 -0.48958319 4291572480
1.7573289 -2.1544452 -0.48367575 4291441920
1.7993224 -2.2057099 -0.49189818 4291703040
1.8293509 -2.2423201 -0.49612439 4291833600
1.8339409 -2.2477863 -0.49278015 4291964160
1.8448858 -2.2610288 -0.49053329 4291964160
1.845247 -2.2613153 -0.48486459 4291964160
1.8583817 -2.2772326 -0.48195383 4291964160
1.8504106 -2.2673194 -0.47298318 4291964160
1.8512255 -2.2681575 -0.46574578 4291964160
1.8421426 -2.2568839 -0.45551163 4291964160
1.8436677 -2.2585895 -0.44741771 4291964160
1.8601648 -2.2786098 -0.44236866 4291964160
1.8671423 -2.2869816 -0.43442813 4292094720
1.8681357 -2.2880313 -0.42455542 4292094720
1.8631312 -2.281744 -0.41285652 4291964160
1.8422853 -2.2560828 -0.39732018 4291833600
1.8520936 -2.2679117 -0.3880325 4291964160
1.859736 -2.2770898 -0.3777439 4291964160
1.8639331 -2.282053 -0.36625287 4291964160
1.8464466 -2.2605033 -0.35016701 4291833600
1.8327169 -2.2435491 -0.33462271 4291833600
1.8610491 -2.2780156 -0.32631138 4291964160
1.8699613 -2.2887378 -0.31394675 4291964160
1.8725429 -2.2917202 -0.30008188 4291964160
1.8367375 -2.2477856 -0.27996406 4291833600
1.8461987 -2.2591767 -0.26668072 4291833600
1.8569093 -2.2720923 -0.25312501 4291964160
1.8580585 -2.2733226 -0.23788558 4291964160
1.8315194 -2.2407219 -0.21903309 4291833600
1.8528588 -2.2666202 -0.20575233 4291833600
1.8621154 -2.2777531 -0.19063471 4291964160
1.8632168 -2.2789223 -0.17438011 4291964160
1.8133566 -2.2178447 -0.15355623 4291703040
1.8530756 -2.2661829 -0.14032382 4291833600
1.8660562 -2.2818592 -0.12441918 4291964160
1.8458619 -2.257021 -0.10620666 4291833600
1.845502 -2.2564056 -0.089229636 4291833600
1.8674281 -2.2830002 -0.073059097 4291964160
1.8699766 -2.2859333 -0.055809997 4291964160
1.8139155 -2.2173171 -0.037195031 4291703040
1.8615906 -2.2753394 -0.020852363 4291833600
1.8835881 -2.3020108 -0.0035274273 4291964160
1.8716245 -2.2872295 0.013989466 4291964160
1.8081877 -2.2096336 0.030453237 4291572480
1.8895715 -2.3087726 0.049331289 4292094720
1.8926194 -2.3123109 0.066974014 4292094720
1.8785235 -2.2949321 0.083850764 4291964160
1.835482 -2.2422423 0.098847426 4291703040
1.8982115 -2.3185921 0.11949106 4292094720
1.8934722 -2.3126307 0.13635695 4292094720
1.8705515 -2.2844942 0.15153399 4291964160
1.7685118 -2.1598668 0.15911032 4291441920
1.8951949 -2.3141937 0.18702282 4292094720
1.8920896 -2.3102283 0.20315203 4292094720
1.8708799 -2.2841885 0.21692486 4291964160
1.8221167 -2.2245586 0.2267023 4291703040
1.9052427 -2.3257315 0.25275752 4292094720
1.9164917 -2.339267 0.26986054 4292225280
1.8774705 -2.2915232 0.27942324 4291964160
1.8191787 -2.2202988 0.28506219 4291703040
1.7322903 -2.1142325 0.28481731 4291311360
1.9068667 -2.3268282 0.32753691 4292225280
1.883884 -2.2986467 0.33732894 4292094720
1.8547491 -2.2629738 0.34527475 4291964160
1.830138 -2.2328186 0.35329324 4291833600
1.7862443 -2.1791761 0.35675484 4291572480
1.9058764 -2.3247557 0.39273185 4292225280
1.8977169 -2.3146455 0.40280655 4292225280
1.8623657 -2.2714167 0.40642509 4291964160
1.8353248 -2.2383163 0.41101891 4291833600
1.8552397 -2.2624087 0.42555076 4291964160
1.8021114 -2.1975465 0.42276967 4291703040
1.8928279 -2.3078556 0.45322293 4292225280
1.8959367 -2.3114769 0.46275049 4292225280
1.8880278 -2.3016844 0.46904919 4292094720
1.8664318 -2.2752306 0.47130096 4292094720
1.8745801 -2.2849915 0.48042077 4292094720
1.8353522 -2.2370818 0.47679889 4291833600
1.8467301 -2.2507768 0.48559988 4291964160
1.8525182 -2.2576675 0.49242565 4291964160
1.8552277 -2.2608118 0.49788633 4291964160
1.8698825 -2.2784934 0.50599468 4292094720
1.8727024 -2.2817724 0.51036304 4292094720
1.8780845 -2.2881696 0.51484281 4292094720
1.87477 -2.2839859 0.51635152 4292094720
1.8896594 -2.3019509 0.52225399 4292225280
1.8777159 -2.2872717 0.52017087 4292094720
1.8745949 -2.2833273 0.51990092 4292094720
1.8627819 -2.2688119 0.51662117 4292094720
1.8660458 -2.2726376 0.51689517 4292094720
1.8662468 -2.2727389 0.51571739 4292094720
1.8546233 -2.2584608 0.51069486 4291964160
1.8368007 -2.2366467 0.50341016 4291833600
1.8820645 -2.2915502 0.5126884 4292094720
1.8699968 -2.2767367 0.50577676 4292094720
1.9008058 -2.3140583 0.5097667 4292225280
1.9023035 -2.3157401 0.50526655 4292225280
1.9084793 -2.3231099 0.50139242 4292225280
1.8997631 -2.3123765 0.49305224 4292225280
1.9122354 -2.3274016 0.48959497 4292225280
1.9075522 -2.3215735 0.48117462 4292225280
1.9003167 -2.312645 0.47160447 4292225280
1.8908383 -2.3009925 0.46100721 4292094720
1.9020816 -2.3145251 0.45489341 4292225280
1.90714 -2.3205414 0.44670892 4292225280
1.9024444 -2.3147051 0.43573987 4292225280
1.8820962 -2.2891693 0.35678002 4292094720
1.9154642 -2.3295779 0.34972274 4292225280
1.9101809 -2.3230369 0.33506963 4292225280
1.8906517 -2.2991951 0.31774217 4292094720
1.877275 -2.2828286 0.30133197 4291964160
1.9043198 -2.3155527 0.29091856 4292094720
1.9052588 -2.3165722 0.27600947 4292094720
1.8824317 -2.2887337 0.25755671 4291964160
1.8720791 -2.2760453 0.24078083 4291964160
1.8926947 -2.3009591 0.22759978 4292094720
1.897235 -2.3063536 0.21204399 4292094720
1.8833307 -2.2893558 0.19429657 4291964160
1.8808602 -2.2862401 0.17764446 4291964160
1.9025317 -2.3124316 0.16288213 4292094720
1.9031366 -2.3130491 0.14596565 4292094720
1.8808444 -2.2858746 0.12735416 4291964160
1.8766023 -2.2806108 0.1100456 4291964160
1.8922774 -2.2995207 0.093659393 4291964160
1.8827856 -2.2878861 0.075896725 4291964160
1.832281 -2.2264824 0.056994643 4291703040
1.873782 -2.2767315 0.040875584 4291964160
1.8838116 -2.2887881 0.023580991 4291964160
1.860567 -2.2604697 0.006000971 4291833600
1.8597891 -2.259413 -0.011313091 4291833600
1.8689148 -2.2703719 -0.028763097 4291833600
1.8809063 -2.2848063 -0.046425395 4291964160
1.8416891 -2.2371168 -0.062472671 4291703040
1.8647059 -2.2649257 -0.080474466 4291833600
1.8831724 -2.2872119 -0.098570205 4291964160
1.8850492 -2.2893736 -0.11586219 4291964160
1.8249699 -2.2163897 -0.12863757 4291703040
1.866393 -2.2665164 -0.1483525 4291833600
1.8757287 -2.2777238 -0.16578135 4291964160
1.8716766 -2.2726943 -0.18188237 4291964160
1.8139852 -2.2026205 -0.19198932 4291572480
1.8761023 -2.2778292 -0.21470696 4291964160
1.8915741 -2.2964723 -0.23247424 4292094720
1.8987457 -2.3050492 -0.24915013 4292094720
1.8763721 -2.2778049 -0.26152828 4291964160
1.7520822 -2.1270082 -0.25815111 4291311360
1.8940678 -2.2990198 -0.29407501 4292094720
1.8934435 -2.2981427 -0.30852661 4292094720
1.8856641 -2.2885921 -0.32140163 4292094720
1.8158858 -2.2038953 -0.3227351 4291703040
1.7536583 -2.1283584 -0.32410496 4291311360
1.8986377 -2.3039496 -0.36413741 4292094720
1.9008619 -2.3065209 -0.37729019 4292094720
1.9025278 -2.3084149 -0.38993332 4292094720
1.8844296 -2.2863586 -0.39796948 4292094720
1.8471481 -2.2410603 -0.40115413 4291833600
1.8783538 -2.2787452 -0.41876459 4292094720
1.8900205 -2.292753 -0.43177232 4292094720
1.8823097 -2.283283 -0.43987113 4292094720
1.878985 -2.2791266 -0.44843856 4292094720
1.8816577 -2.2822347 -0.45792392 4292094720
1.870495 -2.2685828 -0.4634701 4291964160
1.8569241 -2.2520149 -0.46777916 4291964160
1.8258691 -2.2142725 -0.46695679 4291833600
1.7833734 -2.1626785 -0.46239078 4291572480
1.8010477 -2.1839538 -0.47283983 4291703040
1.8187625 -2.2052748 -0.48286051 4291703040
1.8183202 -2.204607 -0.48753798 4291703040
1.8267195 -2.2146432 -0.49404332 4291833600
1.7678139 -2.1431923 -0.48162547 4291441920
1.7769638 -2.1541376 -0.48713204 4291572480
1.7798992 -2.1575575 -0.49038142 4291572480
1.7822685 -2.160291 -0.49290806 4291572480
1.7853276 -2.1638577 -0.49505439 4291572480
1.7702621 -2.1454868 -0.49157977 4291572480
1.7671763 -2.1416152 -0.49085876 4291441920
1.832121 -2.2200704 -0.50849128 4291833600
1.8228947 -2.2087619 -0.50488311 4291833600
1.8080845 -2.1906974 -0.49915296 4291703040
1.8083924 -2.1909258 -0.49703664 4291703040
1.7937001 -2.1730053 -0.49022931 4291572480
1.8272088 -2.2133973 -0.49601775 4291833600
1.8214247 -2.2062519 -0.4904857 4291833600
1.865221 -2.259078 -0.49767238 4291964160
1.876249 -2.2722623 -0.49537638 4292094720
1.8829041 -2.2801552 -0.49129725 4292094720
1.8829995 -2.280113 -0.48491272 4292094720
1.8849767 -2.2823455 -0.47844645 4292094720
1.8789469 -2.2748945 -0.4694078 4292094720
1.8735288 -2.2681832 -0.46002996 4291964160
1.8744333 -2.2691162 -0.45170042 4291964160
1.8873377 -2.2845547 -0.44568783 4292094720
1.8983395 -2.2976904 -0.43859768 4292094720
1.9022541 -2.3022566 -0.42928889 4292094720
1.8935007 -2.2915096 -0.41665336 4292094720
1.8793988 -2.2742999 -0.40249774 4291964160
1.8836017 -2.2792122 -0.39187884 4292094720
1.885617 -2.2814801 -0.38032413 4292094720
1.892381 -2.2894843 -0.36924717 4292094720
1.880475 -2.2749293 -0.35413697 4291964160
1.8704587 -2.2626591 -0.33914053 4291964160
1.8990051 -2.2969744 -0.33065414 4292094720
1.8966352 -2.2939391 -0.31620669 4292094720
1.906799 -2.3060424 -0.30345047 4292094720
1.8650366 -2.255429 -0.28230232 4291833600
1.8656901 -2.256047 -0.26761827 4291833600
1.8821881 -2.2757978 -0.25478938 4291964160
1.8853216 -2.2794077 -0.2397038 4291964160
1.8542633 -2.2417336 -0.22021566 4291833600
1.8844854 -2.2780485 -0.20782322 4291964160
1.8887776 -2.2830546 -0.19203125 4291964160
1.88284 -2.2757113 -0.17499861 4291964160
1.8415363 -2.2256811 -0.15487564 4291703040
1.8847277 -2.2776375 -0.14175048 4291964160
1.8853074 -2.2781606 -0.12484133 4291964160
1.8774714 -2.2685275 -0.10730064 4291964160
1.8739235 -2.2640703 -0.089999169 4291833600
1.8930695 -2.2869945 -0.073571794 4291964160
1.8985758 -2.2934594 -0.056298889 4291964160
1.8446705 -2.2282517 -0.037596568 4291703040
1.8869411 -2.2790675 -0.021019459 4291964160
1.9154768 -2.3133087 -0.0036007278 4292094720
1.8970454 -2.2908986 0.014046918 4291964160
1.833796 -2.2144425 0.030633582 4291703040
1.9183087 -2.3161829 0.049692161 4292094720
