# .PCD v0.7 - Point Cloud Data file format
VERSION 0.7
FIELDS x y z rgba
SIZE 4 4 4 4
TYPE F F F U
COUNT 1 1 1 1
WIDTH 1079
HEIGHT 1
VIEWPOINT 0 0 0 1 0 0 0
POINTS 1079
DATA ascii
3.3418224 -0.47486353 0.59054065 4293530880
3.3688684 -0.47860077 0.59531385 4293661440
3.3543718 -0.4764325 0.59205222 4293661440
3.3687706 -0.47837037 0.59318495 4293661440
3.3827794 -0.4802517 0.59353447 4293661440
3.3743834 -0.47895023 0.58925462 4293661440
3.3804481 -0.4797022 0.58680427 4293661440
3.3722973 -0.47843578 0.58120137 4293661440
3.3796382 -0.47936824 0.57758236 4293661440
3.3846145 -0.47996455 0.57286239 4293661440
3.3846095 -0.47985372 0.56661981 4293661440
3.3886547 -0.48031721 0.56038296 4293661440
3.3820333 -0.47926781 0.55173486 4293661440
3.3662508 -0.47692007 0.54100257 4293661440
3.3576086 -0.47558513 0.53084737 4293530880
3.3783269 -0.47841063 0.52467769 4293661440
3.3980658 -0.48109591 0.51763082 4293661440
3.387778 -0.47952726 0.5053882 4293661440
3.3826232 -0.47868592 0.49337646 4293661440
3.3410575 -0.47208771 0.40279508 4293400320
3.374012 -0.47663468 0.39170414 4293530880
3.3871946 -0.47838539 0.37766913 4293661440
3.3552811 -0.47376409 0.35827449 4293530880
3.3340299 -0.47065079 0.33986688 4293400320
3.3593957 -0.4741216 0.32580137 4293530880
3.3790116 -0.47677886 0.31058821 4293530880
3.3419278 -0.47143194 0.28991342 4293400320
3.325366 -0.46898326 0.27097127 4293400320
3.347636 -0.47201389 0.25485477 4293400320
3.3521557 -0.47253937 0.23696046 4293400320
3.3535542 -0.47262439 0.21854928 4293400320
3.3303151 -0.46923593 0.19841325 4293400320
3.360564 -0.47338769 0.18119681 4293400320
3.3704395 -0.4746666 0.16245392 4293530880
3.3768609 -0.47545817 0.14326979 4293530880
3.3409877 -0.47029242 0.12230577 4293400320
3.3588991 -0.47270238 0.1032727 4293400320
3.3565438 -0.47225806 0.083410129 4293400320
3.3590095 -0.47249243 0.063571006 4293400320
3.3421588 -0.47000858 0.043379374 4293400320
3.3455777 -0.4703773 0.02347729 4293400320
3.3521774 -0.47119308 0.0035070474 4293400320
3.308176 -0.46489358 -0.016298678 4293269760
3.3316438 -0.46808144 -0.036305681 4293400320
3.3436215 -0.46965289 -0.056364253 4293400320
3.3355756 -0.4684101 -0.076052174 4293400320
3.3262839 -0.46699286 -0.095531948 4293269760
3.352773 -0.47060129 -0.11604405 4293400320
3.3576424 -0.47117248 -0.13587113 4293400320
3.3717685 -0.47304273 -0.15604189 4293530880
3.3258967 -0.46649209 -0.17308758 4293400320
3.3453033 -0.46910343 -0.19319668 4293400320
3.3578968 -0.47075784 -0.21288911 4293400320
3.3426912 -0.46851298 -0.23057783 4293400320
3.3450491 -0.46873167 -0.24916033 4293400320
3.3829055 -0.47392619 -0.27033901 4293530880
3.3870287 -0.47439089 -0.28875747 4293530880
3.3720312 -0.47217655 -0.30517682 4293530880
3.3485184 -0.46877047 -0.32029483 4293400320
3.3620119 -0.47054842 -0.33855188 4293530880
3.3750706 -0.47226465 -0.35652816 4293530880
3.3696008 -0.47138664 -0.37219462 4293530880
3.3668499 -0.47088963 -0.38771325 4293530880
3.3276789 -0.46529749 -0.39841825 4293400320
3.3917704 -0.47415164 -0.42115214 4293661440
3.3868215 -0.47334713 -0.43510896 4293661440
3.3863423 -0.4731679 -0.44913238 4293661440
3.3929024 -0.4739728 -0.46361226 4293661440
3.3726716 -0.47103363 -0.47386035 4293530880
3.3602331 -0.46918455 -0.48454675 4293530880
3.351378 -0.46783695 -0.49512649 4293530880
3.3546703 -0.46818638 -0.50692099 4293530880
3.3626163 -0.46918538 -0.51888055 4293530880
3.3596539 -0.46866155 -0.52858382 4293530880
3.3620858 -0.46889073 -0.5385313 4293530880
3.3664303 -0.46938676 -0.54818851 4293661440
3.3605433 -0.46845558 -0.55554909 4293530880
3.3452508 -0.46621349 -0.56066799 4293530880
3.3539209 -0.46731314 -0.56914121 4293530880
3.3224123 -0.46281236 -0.57009971 4293530880
3.3040783 -0.46014968 -0.57256985 4293400320
3.296957 -0.45905039 -0.57627928 4293400320
3.3011355 -0.45952559 -0.58129132 4293400320
3.2533481 -0.45276451 -0.57643348 4293269760
3.2528739 -0.45259351 -0.57923639 4293269760
3.2427592 -0.45108086 -0.57964301 4293269760
3.2473879 -0.45162064 -0.58200669 4293269760
3.2384784 -0.45027685 -0.58126771 4293139200
3.2992907 -0.45863131 -0.59236681 4293400320
3.2993906 -0.45853958 -0.59188139 4293400320
3.3244476 -0.46191773 -0.5951755 4293530880
3.3236575 -0.46170184 -0.59314263 4293530880
3.3228569 -0.46148476 -0.59042013 4293530880
3.3453658 -0.46450624 -0.59113222 4293530880
3.3475139 -0.46469843 -0.58753699 4293530880
3.3545046 -0.46556318 -0.58409894 4293530880
3.3519046 -0.46509606 -0.57830995 4293530880
3.3587196 -0.46593615 -0.57346928 4293661440
3.352366 -0.46494856 -0.56571966 4293530880
3.3543794 -0.46512243 -0.55873919 4293530880
3.3435769 -0.46351859 -0.5490036 4293530880
3.342334 -0.46324134 -0.54023713 4293530880
3.3243356 -0.46064121 -0.52819747 4293400320
3.3284721 -0.46111059 -0.51910937 4293400320
3.3371539 -0.46220979 -0.51010036 4293530880
3.3535922 -0.46438327 -0.50161731 4293530880
3.3680618 -0.46628317 -0.4921684 4293530880
3.3576894 -0.46474195 -0.47852179 4293530880
3.3401854 -0.46221411 -0.463424 4293530880
3.3321106 -0.46099275 -0.44921234 4293400320
3.3474619 -0.46301407 -0.43762568 4293530880
3.3630621 -0.46506906 -0.42545533 4293530880
3.34447 -0.46239319 -0.40850186 4293530880
3.3315978 -0.46050969 -0.3919338 4293400320
3.3453679 -0.462311 -0.37806174 4293400320
3.370101 -0.46562713 -0.3648316 4293530880
3.3645973 -0.46476281 -0.34783718 4293530880
3.3117564 -0.45735776 -0.32585847 4293269760
3.3238776 -0.45893061 -0.3101196 4293400320
3.3309419 -0.45980439 -0.29347399 4293400320
3.3438728 -0.46148789 -0.27692297 4293400320
3.2970219 -0.45491731 -0.2553049 4293269760
3.3292005 -0.45925793 -0.2396107 4293400320
3.3436718 -0.46115309 -0.22212945 4293400320
3.344146 -0.46111634 -0.20339847 4293400320
3.3528256 -0.4622114 -0.18489911 4293400320
3.3274338 -0.45860735 -0.16442053 4293400320
3.3438087 -0.46076348 -0.14588542 4293400320
3.3494105 -0.46143368 -0.12660003 4293400320
3.3092163 -0.45579219 -0.10565343 4293269760
3.3426528 -0.4602983 -0.086990967 4293400320
3.3579726 -0.46230677 -0.067479663 4293400320
3.3571017 -0.4620845 -0.047489312 4293400320
3.3449886 -0.46031433 -0.027371041 4293400320
3.3668387 -0.46322036 -0.0074504679 4293400320
3.3795767 -0.46487096 0.012699679 4293530880
3.3694484 -0.46337432 0.032761659 4293530880
3.3632755 -0.46242246 0.052723814 4293400320
3.3817441 -0.46486017 0.073080972 4293530880
3.3928857 -0.46628913 0.093371168 4293530880
3.3673382 -0.46267349 0.11246358 4293530880
3.3733215 -0.46339321 0.13236432 4293530880
3.3841677 -0.46478075 0.15240434 4293530880
3.382051 -0.46438667 0.1717415 4293530880
3.3281515 -0.45687994 0.1879427 4293400320
3.3794496 -0.46382287 0.20984735 4293530880
3.3954303 -0.46591368 0.22970505 4293530880
3.3780324 -0.4634217 0.2470447 4293530880
3.3322632 -0.45703718 0.26169392 4293400320
3.4029121 -0.46662846 0.28531015 4293661440
3.4037571 -0.46664006 0.30314088 4293661440
3.413193 -0.46782973 0.32144895 4293661440
3.3857367 -0.46396035 0.33583632 4293530880
3.3392489 -0.45748368 0.34759507 4293400320
3.4071872 -0.46669197 0.37095809 4293661440
3.3988104 -0.46543926 0.38588771 4293661440
3.3919785 -0.46439859 0.40048608 4293661440
3.3685179 -0.46108079 0.41253489 4293530880
3.3411777 -0.4572331 0.42342076 4293400320
3.3983054 -0.46495032 0.44463724 4293661440
3.4009368 -0.46520522 0.4584676 4293661440
3.4074156 -0.46598628 0.47232658 4293661440
3.4027514 -0.46524242 0.484108 4293661440
3.3726883 -0.46102479 0.49160048 4293661440
3.3509624 -0.45794895 0.49956352 4293530880
3.3977406 -0.46423951 0.51722825 4293661440
3.3895299 -0.46301118 0.52605307 4293661440
3.3934336 -0.46343857 0.53613251 4293661440
3.3951118 -0.46356156 0.54525238 4293661440
3.3865757 -0.46228915 0.55208158 4293661440
3.3868539 -0.46222073 0.55968195 4293661440
3.4004347 -0.46396822 0.56885254 4293792000
3.3751268 -0.46040672 0.57083756 4293661440
3.3830345 -0.4613792 0.57773244 4293661440
3.3641744 -0.4586992 0.57936704 4293661440
3.3683839 -0.45916677 0.58426803 4293661440
3.3554032 -0.45728979 0.58549362 4293530880
3.3588581 -0.45765415 0.58888435 4293661440
3.3585217 -0.45750135 0.59091926 4293661440
3.3583014 -0.4573642 0.59227711 4293661440
3.3581982 -0.45724285 0.59295654 4293661440
3.3764811 -0.45962557 0.5961799 4293661440
3.3619723 -0.45754161 0.59291732 4293661440
3.3715017 -0.458731 0.59319001 4293661440
3.3894262 -0.46106219 0.59422368 4293661440
3.3868818 -0.46060675 0.59096205 4293661440
3.3870931 -0.46052617 0.58748639 4293661440
3.3838198 -0.45997146 0.58271915 4293661440
3.38726 -0.46032968 0.578421 4293661440
3.3873549 -0.46023268 0.57286751 4293661440
3.3912592 -0.46065331 0.5672785 4293661440
3.391397 -0.46056166 0.56038809 4293661440
3.3798785 -0.45888636 0.55094337 4293661440
3.3787596 -0.45862409 0.54257786 4293661440
3.3750088 -0.45800433 0.5331704 4293661440
3.3898728 -0.45991164 0.52604961 4293661440
3.4057119 -0.46195012 0.51838106 4293661440
3.3944371 -0.46030846 0.50597733 4293661440
3.3892791 -0.45949718 0.49395284 4293661440
3.3535929 -0.45394108 0.40398437 4293530880
3.3865781 -0.45829621 0.39285019 4293661440
3.3987908 -0.45983699 0.37866095 4293661440
3.3668556 -0.45540187 0.35922492 4293530880
3.3464999 -0.45253557 0.34086734 4293400320
3.362103 -0.45453477 0.32580647 4293530880
3.3777864 -0.45654368 0.31023118 4293530880
3.357656 -0.45370919 0.29104719 4293530880
3.3280439 -0.44959432 0.27097633 4293400320
3.3558619 -0.45324239 0.25528005 4293400320
3.3686941 -0.45486391 0.23794186 4293530880
3.3611977 -0.45373863 0.21887593 4293400320
3.3430102 -0.45117003 0.19901368 4293400320
3.3739142 -0.45523027 0.18177465 4293530880
3.3764718 -0.4554624 0.16261876 4293530880
3.3799951 -0.45582461 0.14329267 4293530880
3.3436732 -0.45081124 0.12231085 4293400320
3.3633409 -0.45335162 0.10333122 4293400320
3.3668144 -0.45370713 0.083602764 4293400320
3.3639481 -0.4532077 0.063618332 4293400320
3.3408792 -0.44998571 0.043333322 4293400320
3.3532193 -0.45153621 0.023516824 4293400320
3.364779 -0.4529807 0.0035219276 4293400320
3.3157864 -0.44626984 -0.016318312 4293269760
3.3311052 -0.44822097 -0.036265448 4293269760
3.3413494 -0.44948798 -0.056275442 4293400320
3.3481593 -0.4502922 -0.0762733 4293400320
3.3289511 -0.4475956 -0.095526874 4293269760
3.3613341 -0.45183948 -0.11624231 4293400320
3.3652852 -0.45225796 -0.13606641 4293400320
3.365124 -0.4521234 -0.15560418 4293400320
3.334847 -0.44794127 -0.17340958 4293400320
3.3596179 -0.45115793 -0.19386336 4293400320
3.3618731 -0.4513483 -0.21296556 4293400320
3.3542666 -0.45021418 -0.23118635 4293400320
3.3599863 -0.45086992 -0.25006798 4293400320
3.3856127 -0.4541975 -0.27033383 4293530880
3.3972933 -0.45565188 -0.28939599 4293661440
3.3890409 -0.45443124 -0.30646619 4293530880
3.3423159 -0.44805068 -0.31944081 4293400320
3.3745623 -0.45226353 -0.3395392 4293530880
3.3777685 -0.45258096 -0.35652301 4293530880
3.3722937 -0.45173472 -0.37218946 4293530880
3.3606772 -0.45006597 -0.38668826 4293530880
3.3204947 -0.44457111 -0.39723563 4293400320
3.3993979 -0.45502886 -0.42175722 4293661440
3.3944418 -0.45425257 -0.43573487 4293661440
3.3988726 -0.45473331 -0.45042953 4293661440
3.3857882 -0.45286977 -0.46226606 4293661440
3.3725033 -0.4509804 -0.47345376 4293530880
3.3629136 -0.4495863 -0.48454159 4293530880
3.363858 -0.44960186 -0.49656904 4293530880
3.3645506 -0.4495838 -0.50800371 4293530880
3.3660777 -0.44967735 -0.51899582 4293530880
3.3681226 -0.44984025 -0.52948898 4293661440
3.3696594 -0.44993523 -0.5393095 4293661440
3.3691123 -0.44975191 -0.54818338 4293661440
3.3681107 -0.44950813 -0.55635172 4293661440
3.357693 -0.44800743 -0.56230026 4293530880
3.3345904 -0.4448145 -0.56540602 4293530880
3.3348286 -0.44473791 -0.57176989 4293530880
3.3301539 -0.44400603 -0.57662416 4293530880
3.3044631 -0.44047159 -0.57712704 4293400320
3.3125494 -0.44144294 -0.5828324 4293400320
3.255935 -0.43378854 -0.57642847 4293269760
3.2603409 -0.4342708 -0.5800997 4293269760
3.2550972 -0.43346718 -0.58138114 4293269760
3.2548482 -0.43332943 -0.58287549 4293269760
3.2547145 -0.43320724 -0.58371288 4293269760
3.3106947 -0.44055697 -0.59393728 4293400320
3.3068902 -0.43994474 -0.59275091 4293400320
3.3222067 -0.44187769 -0.59429753 4293530880
3.331176 -0.44296536 -0.59400773 4293530880
3.330375 -0.4427529 -0.59128153 4293530880
3.3529017 -0.44564313 -0.59198898 4293530880
3.3501687 -0.44517356 -0.58753181 4293530880
3.3659563 -0.44716623 -0.5856232 4293661440
3.3638458 -0.44677952 -0.57990509 4293661440
3.3613815 -0.44634607 -0.5734641 4293661440
3.3650939 -0.44673347 -0.56741267 4293661440
3.361927 -0.44620723 -0.5595479 4293530880
3.3560095 -0.44531608 -0.55060357 4293530880
3.3498747 -0.4443967 -0.54102236 4293530880
3.3370547 -0.44259065 -0.52979374 4293530880
3.3310211 -0.44168597 -0.51909095 4293400320
3.343715 -0.443266 -0.51069403 4293530880
3.3667953 -0.44622281 -0.50318885 4293530880
3.376543 -0.44741064 -0.49301261 4293661440
3.3701601 -0.44645983 -0.47991437 4293530880
3.3343899 -0.44161505 -0.46224943 4293400320
3.3312171 -0.44109148 -0.44873211 4293400320
3.3518357 -0.44371977 -0.43784639 4293530880
3.3608003 -0.44480354 -0.42482841 4293530880
3.3421903 -0.44223601 -0.4078961 4293400320
3.3293047 -0.44042748 -0.39134988 4293400320
3.3480084 -0.44280037 -0.37805659 4293400320
3.3727603 -0.44597244 -0.36482641 4293530880
3.3753793 -0.44621542 -0.34867164 4293530880
3.3311455 -0.4402622 -0.32750309 4293400320
3.33637 -0.44085097 -0.31103495 4293400320
3.3434441 -0.44168401 -0.29433849 4293400320
3.3438904 -0.44164082 -0.27670112 4293400320
3.3065357 -0.43660325 -0.25583512 4293269760
3.3440411 -0.44145659 -0.24048455 4293400320
3.3472247 -0.44177508 -0.22218536 4293400320
3.3441575 -0.44126809 -0.20323387 4293400320
3.355248 -0.44263023 -0.18488194 4293400320
3.3300524 -0.43920296 -0.16441539 4293400320
3.3432293 -0.44084024 -0.14574017 4293400320
3.3572972 -0.44259432 -0.12679343 4293400320
3.3256915 -0.43832406 -0.10609151 4293269760
3.3413165 -0.44028315 -0.086882517 4293400320
3.3606119 -0.44272521 -0.067474462 4293400320
3.369653 -0.44381467 -0.047624756 4293400320
3.3502381 -0.44115421 -0.027387442 4293400320
3.3734488 -0.44411004 -0.0074542509 4293530880
3.3871877 -0.44581699 0.012723228 4293530880
3.3720934 -0.44372669 0.032766879 4293530880
3.37642 -0.44419381 0.052892882 4293530880
3.3949015 -0.44652358 0.073312305 4293530880
3.4054582 -0.44780946 0.093648255 4293530880
3.3749337 -0.44369057 0.11263378 4293530880
3.3809202 -0.44437531 0.13256338 4293530880
3.3874114 -0.44512603 0.15243614 4293530880
3.399555 -0.4466193 0.17249921 4293530880
3.3446183 -0.43929574 0.18872869 4293400320
3.3910034 -0.44528869 0.21040443 4293530880
3.4030359 -0.44676602 0.23004425 4293661440
3.3905661 -0.44502458 0.24777168 4293530880
3.3398139 -0.43825716 0.26208648 4293400320
3.4023724 -0.44636744 0.28504744 4293661440
3.430124 -0.44990569 0.3052533 4293661440
3.4209213 -0.44859326 0.32192978 4293661440
3.398252 -0.44551474 0.33681858 4293661440
3.3418593 -0.43801466 0.34760025 4293400320
3.4098504 -0.44682717 0.37096339 4293661440
3.4063928 -0.44626921 0.38645136 4293661440
3.3995523 -0.44526803 0.40107173 4293661440
3.3800075 -0.44260249 0.41362318 4293530880
3.3536248 -0.43904227 0.42467058 4293530880
3.4147248 -0.44694087 0.44644073 4293661440
3.408505 -0.44602099 0.45913425 4293661440
3.4140036 -0.44663537 0.47287565 4293661440
3.4054058 -0.44540441 0.48411331 4293661440
3.3851326 -0.44264615 0.49303386 4293661440
3.3722126 -0.44085094 0.5023427 4293530880
3.3974442 -0.44404584 0.51678598 4293661440
3.4107926 -0.44568527 0.52894372 4293792000
3.405874 -0.44493589 0.53768307 4293661440
3.4026527 -0.44440848 0.5460428 4293661440
3.3892131 -0.44254598 0.55208683 4293661440
3.3992765 -0.44375426 0.56130177 4293661440
3.3963325 -0.44326302 0.56773061 4293661440
3.386555 -0.44187963 0.5723291 4293661440
3.3856661 -0.44165689 0.57773775 4293661440
3.3814533 -0.44100022 0.58189338 4293661440
3.3807759 -0.44080496 0.58596581 4293661440
3.3619204 -0.43823841 0.58617979 4293661440
3.3663535 -0.43870986 0.58974469 4293661440
3.3709004 -0.43919563 0.59264058 4293661440
3.3755629 -0.43969598 0.59486246 4293661440
3.3656905 -0.43830183 0.59382284 4293661440
3.3791027 -0.43994161 0.59618521 4293661440
3.3792348 -0.43985066 0.59550267 4293661440
3.378026 -0.43958488 0.59388179 4293661440
3.3881478 -0.44079402 0.5935449 4293661440
3.4031894 -0.44264263 0.59335059 4293792000
3.3994932 -0.44205198 0.58918422 4293792000
3.3962188 -0.44151625 0.58440518 4293661440
3.3937969 -0.44109142 0.5790931 4293661440
3.3953605 -0.44118476 0.57378131 4293661440
3.4085617 -0.44279054 0.56973469 4293792000
3.4028318 -0.44193512 0.56184649 4293661440
3.3962018 -0.44096294 0.55317926 4293661440
3.3852932 -0.43943527 0.54321122 4293661440
3.3815403 -0.43883738 0.53379381 4293661440
3.3924963 -0.4401491 0.52605492 4293661440
3.4087496 -0.44214746 0.51844758 4293661440
3.401968 -0.44115567 0.50671268 4293661440
3.387974 -0.43922853 0.49338689 4293661440
3.3650451 -0.43553683 0.4050554 4293530880
3.3980598 -0.43969992 0.39388233 4293661440
3.4063427 -0.44065928 0.37921441 4293661440
3.3793159 -0.43704847 0.3602806 4293530880
3.3540151 -0.43366262 0.34137422 4293400320
3.3785169 -0.43672013 0.32714862 4293530880
3.3803909 -0.43684986 0.31023648 4293530880
3.3669603 -0.43500078 0.29163352 4293530880
3.3414056 -0.43158555 0.27185893 4293400320
3.3633924 -0.43431485 0.25566071 4293530880
3.3663425 -0.43458349 0.23759846 4293530880
3.3687351 -0.43477982 0.21920276 4293530880
3.3554847 -0.43295628 0.19960701 4293400320
3.3780928 -0.43576208 0.18186495 4293530880
3.3840237 -0.43641424 0.16286203 4293530880
3.3870535 -0.43669167 0.14348647 4293530880
3.3587232 -0.43292409 0.12277124 4293400320
3.373106 -0.43466595 0.10355635 4293530880
3.3769875 -0.43505314 0.083795711 4293530880
3.3804169 -0.43538171 0.063885033 4293530880
3.3434467 -0.43050486 0.043338574 4293400320
3.3525813 -0.43156919 0.023499772 4293400320
3.3624046 -0.43272161 0.0035223286 4293400320
3.3322182 -0.42872238 -0.016382176 4293269760
3.3475475 -0.43058351 -0.036412008 4293400320
3.3538313 -0.43127966 -0.056437589 4293400320
3.3646109 -0.43255377 -0.076584704 4293400320
3.3453856 -0.42996824 -0.095920272 4293400320
3.3639126 -0.4322381 -0.11623702 4293400320
3.380111 -0.43420738 -0.13655631 4293530880
3.3825662 -0.43440953 -0.15628615 4293530880
3.3473089 -0.42976642 -0.17391935 4293400320
3.3661535 -0.43207467 -0.19408658 4293400320
3.3681104 -0.43221319 -0.21319214 4293530880
3.3671553 -0.43197784 -0.23189203 4293530880
3.3625596 -0.43127534 -0.25006267 4293400320
3.3882051 -0.4344534 -0.27032849 4293530880
3.3998938 -0.43583953 -0.28939062 4293661440
3.3916347 -0.43466687 -0.30646086 4293530880
3.3488228 -0.42906493 -0.31981283 4293400320
3.3780613 -0.4327009 -0.33962616 4293530880
3.3852842 -0.43351394 -0.35703796 4293530880
3.3886762 -0.43383583 -0.37370664 4293530880
3.3819709 -0.4328644 -0.38883594 4293530880
3.3202291 -0.42484662 -0.39689529 4293400320
3.4019952 -0.43520319 -0.42175186 4293661440
3.3921149 -0.43382606 -0.43509844 4293661440
3.4054022 -0.43541381 -0.45094511 4293661440
3.3932881 -0.43375173 -0.46293122 4293661440
3.3799899 -0.43193921 -0.47413751 4293661440
3.3766305 -0.43139833 -0.48614162 4293530880
3.3687315 -0.43027759 -0.49690402 4293530880
3.3857563 -0.4323422 -0.51081038 4293661440
3.3784499 -0.43129772 -0.52050108 4293661440
3.3795116 -0.43132254 -0.53086919 4293661440
3.382025 -0.43153283 -0.54087085 4293661440
3.374362 -0.43044415 -0.54861414 4293661440
3.3678253 -0.42949989 -0.55587584 4293661440
3.3602502 -0.42842373 -0.56229496 4293530880
3.3459337 -0.4264884 -0.56689233 4293530880
3.3373673 -0.42528737 -0.57176459 4293530880
3.3278 -0.42395952 -0.57577318 4293530880
3.3157747 -0.42231917 -0.57865685 4293400320
3.3248417 -0.42336738 -0.58454502 4293530880
3.2632966 -0.41542011 -0.57728744 4293269760
3.2677045 -0.41587645 -0.58096284 4293269760
3.2624557 -0.41510314 -0.58224756 4293269760
3.2622056 -0.41496664 -0.58374411 4293269760
3.2669544 -0.41546652 -0.5854578 4293269760
3.3132095 -0.42124695 -0.59393203 4293400320
3.3045182 -0.42003575 -0.59187108 4293400320
3.324729 -0.42250058 -0.59429222 4293530880
3.3376122 -0.42403272 -0.59469861 4293530880
3.3465803 -0.42506668 -0.59370255 4293530880
3.3554456 -0.42608714 -0.59198362 4293530880
3.3761668 -0.42861339 -0.5916366 4293661440
3.372978 -0.42810184 -0.58639479 4293661440
3.3761747 -0.42840144 -0.5815841 4293661440
3.3746855 -0.42810625 -0.57529223 4293661440
3.3627515 -0.42648575 -0.5665831 4293530880
3.3706946 -0.42738819 -0.56057703 4293661440
3.3608527 -0.4260343 -0.55097556 4293530880
3.3573091 -0.42547989 -0.54180741 4293530880
3.3444808 -0.42374879 -0.53056574 4293530880
3.3335419 -0.42225811 -0.51908565 4293400320
3.3462448 -0.42376423 -0.51068872 4293530880
3.3742487 -0.42720824 -0.50391626 4293530880
3.3790965 -0.42771769 -0.49300724 4293661440
3.3677962 -0.42618221 -0.47921014 4293530880
3.3369102 -0.42216802 -0.46224412 4293400320
3.3337343 -0.42166308 -0.44872683 4293400320
3.3681421 -0.42591423 -0.439639 4293530880
3.3584166 -0.42458025 -0.42420137 4293530880
3.3447139 -0.42274398 -0.4078908 4293400320
3.3318179 -0.42101067 -0.39134458 4293400320
3.3554647 -0.42389786 -0.37860754 4293530880
3.3753049 -0.42630258 -0.36482105 4293530880
3.3779254 -0.42653042 -0.34866628 4293530880
3.3426304 -0.42196867 -0.32837939 4293400320
3.3425395 -0.42185515 -0.31137007 4293400320
3.3509059 -0.42280957 -0.29476798 4293400320
3.3579292 -0.42359403 -0.27764848 4293400320
3.3129838 -0.41781962 -0.25613585 4293269760
3.3433897 -0.42155519 -0.24025135 4293400320
3.3447952 -0.42163083 -0.22185154 4293400320
3.3565781 -0.42301518 -0.20383026 4293400320
3.3579903 -0.42309129 -0.18488856 4293400320
3.3414764 -0.42090788 -0.16485041 4293400320
3.3507001 -0.42196888 -0.14595091 4293400320
3.3684466 -0.42410314 -0.12711391 4293400320
3.3242252 -0.41843104 -0.10595959 4293269760
3.3527544 -0.42192295 -0.087109543 4293400320
3.3631372 -0.4231286 -0.067469098 4293400320
3.3712699 -0.42405042 -0.047606412 4293400320
3.3477936 -0.42099416 -0.027341295 4293400320
3.3760517 -0.42444786 -0.0074490206 4293530880
3.3978693 -0.42708984 0.012758698 4293530880
3.3845456 -0.42531157 0.032867976 4293530880
3.3978026 -0.42687574 0.053192098 4293530880
3.4157035 -0.42902273 0.073710419 4293661440
3.413094 -0.4285914 0.093792997 4293661440
3.3729947 -0.42345053 0.11249046 4293530880
3.3834541 -0.42466199 0.13256879 4293530880
3.4048181 -0.42724198 0.15310897 4293530880
3.4021015 -0.42679772 0.17250465 4293530880
3.3471231 -0.41979447 0.18873404 4293400320
3.4034457 -0.42675987 0.21102303 4293530880
3.409543 -0.42742136 0.23031683 4293661440
3.4114103 -0.4275519 0.24911223 4293661440
3.347259 -0.41940466 0.26247922 4293400320
3.4088726 -0.42702615 0.28538364 4293661440
3.4188514 -0.42817283 0.30402961 4293661440
3.4233561 -0.428633 0.32192373 4293661440
3.3909168 -0.42446512 0.33584699 4293530880
3.3443563 -0.41853076 0.34760562 4293400320
3.4123974 -0.42694718 0.37096885 4293661440
3.4089367 -0.42640951 0.38645682 4293661440
3.4168739 -0.42729828 0.40281832 4293661440
3.3874559 -0.42351297 0.41423032 4293530880
3.3561275 -0.41949043 0.42467597 4293530880
3.4123521 -0.42641783 0.44580397 4293661440
3.4198995 -0.42725623 0.46033016 4293661440
3.4126172 -0.42624053 0.47233734 4293661440
3.4226832 -0.42739293 0.48621067 4293792000
3.3876555 -0.42291123 0.49303928 4293661440
3.369817 -0.42057842 0.50161809 4293530880
3.4117532 -0.42570999 0.51858014 4293661440
3.4133327 -0.4258011 0.5289492 4293792000
3.4123313 -0.42556986 0.53830665 4293792000
3.4100854 -0.42518324 0.54683334 4293792000
3.4015315 -0.42400974 0.55368561 4293661440
3.4014189 -0.42388928 0.56124353 4293661440
3.3988585 -0.42346346 0.56773609 4293661440
3.3939667 -0.42274702 0.57316023 4293661440
3.3979676 -0.42313883 0.57941025 4293661440
3.3976614 -0.42299363 0.58425188 4293661440
3.3872001 -0.42158344 0.58664823 4293661440
3.3741963 -0.41985714 0.58788759 4293661440
3.3737423 -0.41969377 0.5906052 4293661440
3.3831794 -0.4207612 0.59436214 4293661440
3.3829563 -0.42062587 0.59572792 4293661440
3.3633006 -0.41807315 0.59296721 4293661440
3.3904076 -0.4213368 0.59774047 4293661440
3.3856516 -0.42063713 0.59619612 4293661440
3.4000838 -0.42232254 0.59731948 4293792000
3.4043481 -0.42274335 0.5959447 4293792000
3.4106011 -0.42341074 0.59420729 4293792000
3.4020121 -0.42223418 0.58918965 4293792000
3.4006789 -0.42195889 0.58474469 4293661440
3.4012029 -0.42191407 0.57993209 4293661440
3.4027684 -0.42199826 0.5746125 4293661440
3.4110849 -0.42291975 0.56974018 4293792000
3.4053502 -0.42209768 0.56185198 4293661440
3.4036133 -0.4217715 0.55398142 4293661440
3.3877974 -0.41969991 0.54321671 4293661440
3.3840411 -0.4191238 0.53379923 4293661440
3.399909 -0.42097929 0.52681971 4293661440
3.4210825 -0.42349076 0.5199433 4293792000
3.4093909 -0.42193073 0.5074482 4293661440
3.4042287 -0.42117965 0.49539179 4293661440
3.3635852 -0.41543117 0.40458715 4293530880
3.3979533 -0.41956615 0.39358553 4293661440
3.410589 -0.42101425 0.37941274 4293661440
3.3867416 -0.41795588 0.36081126 4293530880
3.361424 -0.4147175 0.34188128 4293530880
3.3859456 -0.41763222 0.32763153 4293530880
3.3917763 -0.41823885 0.31105685 4293530880
3.3644955 -0.41476032 0.29121152 4293530880
3.3488119 -0.4127138 0.272266 4293400320
3.3757646 -0.41592503 0.25641698 4293530880
3.37872 -0.41617647 0.23830129 4293530880
3.3815243 -0.41640899 0.21987775 4293530880
3.3578751 -0.41338235 0.19960785 4293400320
3.3855319 -0.4166761 0.1821366 4293530880
3.3988075 -0.41819721 0.16345787 4293530880
3.3974302 -0.41791373 0.14382523 4293530880
3.3747783 -0.41501224 0.12327194 4293530880
3.3796215 -0.41549486 0.10368539 4293530880
3.3794675 -0.41536248 0.08380118 4293530880
3.3779368 -0.41506082 0.063797139 4293530880
3.346493 -0.41108215 0.043351624 4293400320
3.3600039 -0.41263014 0.023539655 4293400320
3.3698342 -0.41372502 0.00353268 4293400320
3.3306923 -0.40880424 -0.016357042 4293269760
3.3500023 -0.41106349 -0.03640658 4293400320
3.3612521 -0.41233197 -0.056515843 4293400320
3.3670769 -0.41293395 -0.07657925 4293400320
3.3402522 -0.40952978 -0.095697187 4293400320
3.3770494 -0.4139311 -0.11660053 4293530880
3.3794096 -0.4141072 -0.13642244 4293530880
3.3850429 -0.41468444 -0.15628065 4293530880
3.3547153 -0.4108541 -0.17417142 4293400320
3.3718288 -0.41283846 -0.19426627 4293530880
3.3876166 -0.41465935 -0.21426509 4293530880
3.3758183 -0.41310117 -0.23231339 4293530880
3.3650186 -0.4116661 -0.25005722 4293400320
3.3857348 -0.41408899 -0.26992843 4293530880
3.4063351 -0.41649646 -0.2897217 4293661440
3.3980677 -0.41537145 -0.30681247 4293530880
3.3562105 -0.41013941 -0.32027897 4293400320
3.3796103 -0.41288832 -0.33952838 4293530880
3.3845563 -0.4133803 -0.35669518 4293530880
3.3862164 -0.41347054 -0.37315738 4293530880
3.384439 -0.41314092 -0.38883045 4293530880
3.3177233 -0.40488103 -0.39630115 4293400320
3.4094028 -0.41596416 -0.42235658 4293661440
3.4044356 -0.41524497 -0.43635505 4293661440
3.4096534 -0.41576904 -0.45117354 4293661440
3.4046147 -0.41504169 -0.46413255 4293661440
3.3913016 -0.41330573 -0.47537231 4293661440
3.3840041 -0.41230425 -0.48684296 4293661440
3.3760962 -0.41122901 -0.49762234 4293530880
3.3856256 -0.41227931 -0.51041347 4293661440
3.3858159 -0.41219142 -0.52125084 4293661440
3.3868754 -0.41220954 -0.53163344 4293661440
3.3933096 -0.41288218 -0.54227531 4293661440
3.3866169 -0.4119567 -0.55020064 4293661440
3.391741 -0.41246986 -0.55941057 4293661440
3.3724864 -0.41001686 -0.56392682 4293661440
3.3713782 -0.40977249 -0.57078248 4293661440
3.3437073 -0.4062984 -0.57242924 4293530880
3.3400018 -0.40573967 -0.57745916 4293530880
3.3093798 -0.4019101 -0.57711637 4293400320
3.3272562 -0.40397531 -0.58453959 4293530880
3.3315461 -0.4043892 -0.58892661 4293530880
3.2651882 -0.39622381 -0.58008921 4293269760
3.2785082 -0.39773613 -0.58468252 4293269760
3.2694595 -0.39653283 -0.58461255 4293269760
3.2644367 -0.39581883 -0.58457744 4293269760
3.3253858 -0.40310827 -0.5956772 4293530880
3.3205974 -0.40242162 -0.59431452 4293400320
3.3418007 -0.40488681 -0.59690547 4293530880
3.3498061 -0.40575111 -0.59643352 4293530880
3.3490043 -0.40554783 -0.59369707 4293530880
3.3715656 -0.40817523 -0.59439141 4293661440
3.3786111 -0.40892214 -0.59163111 4293661440
3.3807297 -0.40907225 -0.58731174 4293661440
3.3825319 -0.40918407 -0.58225226 4293661440
3.3869152 -0.40960842 -0.57695401 4293661440
3.3837879 -0.4091239 -0.5697096 4293661440
3.3829269 -0.40891394 -0.56219918 4293661440
3.3770006 -0.4080916 -0.55321723 4293661440
3.3620441 -0.40617815 -0.54217422 4293530880
3.353184 -0.40500259 -0.53155679 4293530880
3.3428142 -0.4036454 -0.52014828 4293530880
3.3548462 -0.40499526 -0.51162642 4293530880
3.3766844 -0.40752891 -0.50391072 4293530880
3.390378 -0.40907791 -0.49429089 4293661440
3.3702261 -0.40654066 -0.47920462 4293530880
3.3428476 -0.40313268 -0.46272731 4293400320
3.3548355 -0.40447617 -0.45123619 4293530880
3.3617091 -0.40520215 -0.43847767 4293530880
3.3756137 -0.40677574 -0.42606097 4293530880
3.352052 -0.40383169 -0.40848589 4293530880
3.3391488 -0.40217388 -0.39191785 4293400320
3.3628147 -0.40492347 -0.37915832 4293530880
3.3777351 -0.40661824 -0.3648155 4293530880
3.3754184 -0.4062362 -0.34815133 4293530880
3.3361425 -0.40140423 -0.32750073 4293400320
3.3400011 -0.40176716 -0.31090438 4293400320
3.3565218 -0.4036538 -0.29504433 4293400320
3.3702388 -0.40520221 -0.27846077 4293530880
3.3302143 -0.40028551 -0.25727797 4293400320
3.3507442 -0.40265334 -0.24060155 4293400320
3.3727176 -0.40519354 -0.22353821 4293530880
3.3702431 -0.40479395 -0.20450801 4293530880
3.3740635 -0.40515104 -0.18563518 4293530880
3.3399086 -0.40094581 -0.16464922 4293400320
3.3481452 -0.40183407 -0.14572933 4293400320
3.3609416 -0.40326938 -0.12673381 4293400320
3.3266096 -0.39904651 -0.10595412 4293269760
3.3601213 -0.4029679 -0.087233111 4293400320
3.3794458 -0.40518507 -0.067742862 4293530880
3.3836141 -0.40558305 -0.047741476 4293530880
3.3574953 -0.40234873 -0.027395792 4293400320
3.388329 -0.40594414 -0.0074657723 4293530880
3.3953383 -0.40668201 0.01274596 4293530880
3.3997891 -0.40711293 0.03299715 4293530880
3.3946784 -0.40639806 0.053111132 4293530880
3.4082208 -0.40791759 0.073502645 4293530880
3.4154127 -0.40867585 0.09379524 4293661440
3.3853307 -0.40497154 0.112826 4293530880
3.4015086 -0.40680549 0.13318536 4293530880
3.4122114 -0.4079833 0.15333706 4293661440
3.4134579 -0.40802923 0.17296176 4293661440
3.3594282 -0.40146452 0.18929732 4293400320
3.4076197 -0.40712464 0.21113649 4293530880
3.4080148 -0.40706867 0.2300553 4293661440
3.4138455 -0.40766215 0.24911787 4293661440
3.3496478 -0.39988893 0.26248473 4293400320
3.4261479 -0.40892437 0.28662959 4293661440
3.4301918 -0.40930316 0.30482545 4293661440
3.4308631 -0.40927899 0.32240492 4293661440
3.4032161 -0.40587497 0.33682963 4293661440
3.3506908 -0.39950407 0.34802106 4293400320
3.4237139 -0.40811259 0.37193879 4293661440
3.4212325 -0.4077121 0.3875792 4293661440
3.4193072 -0.40737796 0.40282398 4293661440
3.3898675 -0.40376422 0.41423592 4293530880
3.3585162 -0.39992434 0.42468151 4293530880
3.4246275 -0.40769741 0.44709408 4293661440
3.4174109 -0.40673262 0.45967445 4293661440
3.423898 -0.40739986 0.4735665 4293792000
3.4202003 -0.40685418 0.48551902 4293792000
3.408252 -0.40532663 0.49568796 4293661440
3.3771236 -0.40151757 0.50235367 4293530880
3.4190865 -0.40640447 0.51933086 4293792000
3.4344051 -0.4081201 0.53184021 4293792000
3.4196596 -0.40626034 0.53908497 4293792000
3.4125061 -0.40530369 0.546839 4293792000
3.4078667 -0.40464604 0.55432856 4293661440
3.4130387 -0.40515405 0.56276596 4293792000
3.4061677 -0.40423128 0.56855869 4293661440
3.4061673 -0.40412447 0.57481736 4293792000
3.405272 -0.40391129 0.58024943 4293792000
3.3902802 -0.40202513 0.58257675 4293661440
3.3820474 -0.40094161 0.58534777 4293661440
3.3765862 -0.40018713 0.58789313 4293661440
3.3859155 -0.40118656 0.59232104 4293661440
3.3855746 -0.40103886 0.59436774 4293661440
3.3853507 -0.40090483 0.59573352 4293661440
3.3852446 -0.40078461 0.59641689 4293661440
3.3976972 -0.4021517 0.59860712 4293661440
3.3929374 -0.4014796 0.59706181 4293661440
3.4064012 -0.40296498 0.59801155 4293792000
3.3979635 -0.40185723 0.5944137 4293661440
3.4042041 -0.40248653 0.59268081 4293792000
3.4142032 -0.40355977 0.59088784 4293792000
3.4030807 -0.40213451 0.58475035 4293661440
3.4133964 -0.4032442 0.58160484 4293792000
3.4139855 -0.40320349 0.57610452 4293792000
3.418391 -0.40361342 0.57056284 4293792000
3.4175537 -0.40340358 0.56347221 4293792000
3.4060142 -0.40192977 0.55398709 4293661440
3.3999941 -0.40110818 0.54479253 4293661440
3.386976 -0.39946076 0.53389132 4293661440
3.4023054 -0.40115893 0.52682531 4293661440
3.4234931 -0.40354696 0.51994896 4293792000
3.4216175 -0.40321359 0.50891387 4293792000
3.4164555 -0.40249273 0.49682564 4293661440
3.369895 -0.39628577 0.40506643 4293530880
3.4052751 -0.40033656 0.39416167 4293661440
3.4228575 -0.40229154 0.38051477 4293661440
3.3930717 -0.39867547 0.36123708 4293530880
3.3727555 -0.39617446 0.34279764 4293530880
3.3932664 -0.39847255 0.32811466 4293530880
3.3991029 -0.39904517 0.31151521 4293530880
3.3807104 -0.39677161 0.29241398 4293530880
3.3591588 -0.3941282 0.27292052 4293400320
3.3870461 -0.39728951 0.25709832 4293530880
3.396703 -0.39830953 0.23940594 4293530880
3.3986759 -0.39842737 0.22084251 4293530880
3.3829873 -0.39647356 0.20096341 4293530880
3.4034204 -0.39875603 0.18297511 4293530880
3.4093645 -0.39933872 0.16385582 4293530880
3.4097331 -0.39926761 0.14424993 4293530880
3.3771412 -0.39533511 0.12327757 4293530880
3.3779466 -0.39531612 0.10356744 4293530880
3.3841665 -0.39593098 0.083864488 4293530880
3.3889787 -0.39638063 0.063965984 4293530880
3.3571796 -0.39254582 0.043464702 4293400320
3.3673198 -0.39361927 0.023579722 4293400320
3.3811293 -0.39512116 0.0035471402 4293530880
3.3280542 -0.38880235 -0.016326826 4293269760
3.3573091 -0.3921099 -0.036455184 4293400320
3.3636 -0.39273223 -0.056510229 4293400320
3.3703439 -0.39340705 -0.076594472 4293400320
3.3542969 -0.39141992 -0.096027471 4293400320
3.3794067 -0.39423883 -0.11659489 4293530880
3.3938792 -0.39581454 -0.13690585 4293530880
3.4012957 -0.39656603 -0.15691639 4293530880
3.3596835 -0.39159808 -0.17430225 4293400320
3.3791385 -0.39375418 -0.19454627 4293530880
3.3850217 -0.39432687 -0.213946 4293530880
3.3818765 -0.39384699 -0.23256268 4293530880
3.3673635 -0.39204285 -0.25005159 4293400320
3.4019558 -0.39595959 -0.27102751 4293530880
3.4060853 -0.39632675 -0.28949305 4293661440
3.4058762 -0.39618874 -0.30729797 4293661440
3.3536022 -0.38999152 -0.31980178 4293400320
3.386904 -0.3937543 -0.34001896 4293530880
3.39679 -0.39479139 -0.35773006 4293530880
3.3984456 -0.39487094 -0.37423918 4293661440
3.3863699 -0.39335424 -0.38877624 4293530880
3.3249617 -0.38610545 -0.39688432 4293400320
3.4184358 -0.396855 -0.42317578 4293661440
3.4083745 -0.39557323 -0.43655086 4293661440
3.4083791 -0.39546105 -0.45068616 4293661440
3.4074726 -0.39524326 -0.46419409 4293661440
3.3940442 -0.39357257 -0.47542101 4293661440
3.3912694 -0.39313889 -0.48754412 4293661440
3.3872848 -0.39256519 -0.49891955 4293661440
3.3954842 -0.39340466 -0.5115391 4293661440
3.3970017 -0.39346921 -0.5226047 4293661440
3.4039464 -0.39416277 -0.53393698 4293661440
3.3956616 -0.39309171 -0.54226959 4293661440
3.3902001 -0.39234838 -0.55039567 4293661440
3.3989925 -0.39325592 -0.56021267 4293661440
3.3855028 -0.39158392 -0.56570566 4293661440
3.3786108 -0.39067644 -0.57160544 4293661440
3.3460219 -0.3867968 -0.57242364 4293530880
3.3472087 -0.3868258 -0.57829922 4293530880
3.3253732 -0.384193 -0.57949865 4293400320
3.3295577 -0.3845695 -0.58453399 4293530880
3.2679241 -0.37734002 -0.57727659 4293269760
3.272337 -0.37774488 -0.58095205 4293269760
3.2719705 -0.37759766 -0.58310825 4293269760
3.275631 -0.37791562 -0.58530611 4293269760
3.2666919 -0.37677917 -0.58457196 4293269760
3.3276823 -0.38371328 -0.59567159 4293530880
3.3179996 -0.38249034 -0.59343433 4293400320
3.3480198 -0.38584742 -0.59759814 4293530880
3.3472264 -0.3856498 -0.59555769 4293530880
3.3743134 -0.38866633 -0.59776527 4293661440
3.3787837 -0.38907495 -0.59524763 4293661440
3.3858342 -0.38978079 -0.59248167 4293661440
3.3967657 -0.39093339 -0.58968514 4293661440
3.3897588 -0.39001992 -0.5830887 4293661440
3.3921905 -0.39019364 -0.57744908 4293661440
3.3897424 -0.38980582 -0.57031363 4293661440
3.3901572 -0.38974774 -0.56300735 4293661440
3.3744223 -0.38783222 -0.55240899 4293661440
3.3780913 -0.38814917 -0.54438156 4293661440
3.36923 -0.38702559 -0.53372747 4293530880
3.3588588 -0.38572922 -0.5222798 4293530880
3.3620644 -0.3859936 -0.51236922 4293530880
3.3756609 -0.38745153 -0.50340629 4293530880
3.3895211 -0.38893902 -0.49382091 4293661440
3.3790309 -0.38763031 -0.48012096 4293530880
3.3553901 -0.38481307 -0.46413901 4293530880
3.3522153 -0.38434577 -0.45056874 4293530880
3.368943 -0.38616189 -0.43911412 4293530880
3.3868022 -0.38810688 -0.4271743 4293530880
3.3592832 -0.38484827 -0.4090808 4293530880
3.341439 -0.38270035 -0.39191222 4293400320
3.3740063 -0.3863304 -0.38015389 4293530880
3.3849897 -0.38748589 -0.36534294 4293530880
3.3915684 -0.38813639 -0.34957197 4293530880
3.338428 -0.38194877 -0.3274951 4293400320
3.3593078 -0.3842375 -0.31248215 4293400320
3.3677278 -0.38509923 -0.29582131 4293530880
3.367595 -0.38498202 -0.27804619 4293530880
3.3324933 -0.38086519 -0.25727233 4293400320
3.3562109 -0.3834765 -0.24082375 4293400320
3.3831947 -0.38645977 -0.22407387 4293530880
3.3775063 -0.3857075 -0.20480315 4293530880
3.3719647 -0.38497239 -0.18538713 4293400320
3.3534548 -0.38275638 -0.16519888 4293400320
3.3603587 -0.38344368 -0.1461558 4293400320
3.3694932 -0.38438532 -0.12696412 4293400320
3.3328533 -0.38010183 -0.1060751 4293269760
3.3723474 -0.38450801 -0.087485567 4293400320
3.3728118 -0.3844595 -0.067557611 4293400320
3.381871 -0.38539118 -0.047678415 4293530880
3.3624127 -0.38307086 -0.027411677 4293400320
3.3767295 -0.38460162 -0.0074286084 4293400320
3.3976526 -0.38688436 0.01275171 4293530880
3.402106 -0.38728949 0.033002909 4293530880
3.4041851 -0.3874239 0.053228889 4293530880
3.4276688 -0.38999549 0.073876366 4293661440
3.4395924 -0.39124966 0.094399251 4293661440
3.3916073 -0.38568509 0.11296374 4293530880
3.4087877 -0.38753766 0.13338499 4293530880
3.4158735 -0.38824093 0.15340295 4293661440
3.4262006 -0.3893123 0.17349438 4293661440
3.3656807 -0.38232872 0.18952614 4293400320
3.409936 -0.38725704 0.21114227 4293530880
3.4215837 -0.3884775 0.23081918 4293661440
3.4216168 -0.3883779 0.24952073 4293661440
3.3608384 -0.38137212 0.26318774 4293400320
3.4284742 -0.38894939 0.2866354 4293661440
3.4424181 -0.39042822 0.30570927 4293792000
3.4480314 -0.39096078 0.32380289 4293792000
3.4193692 -0.38760459 0.33820328 4293661440
3.3011928 -0.37409788 0.34265873 4293269760
3.4359145 -0.38927263 0.37301606 4293792000
3.4284887 -0.38832623 0.38814342 4293661440
3.4216242 -0.38744381 0.40282977 4293661440
3.4069602 -0.38567805 0.41604686 4293661440
3.3745937 -0.381908 0.42642978 4293530880
3.4287171 -0.38793311 0.44733071 4293792000
3.4295733 -0.38792491 0.46100301 4293792000
3.4212928 -0.38688251 0.47289258 4293661440
3.4225142 -0.3869155 0.48552483 4293792000
3.4021909 -0.38451138 0.49447882 4293661440
3.3931692 -0.38338631 0.50440347 4293661440
3.4263105 -0.38702795 0.52008182 4293792000
3.4318151 -0.38754404 0.53108674 4293792000
3.431572 -0.38741016 0.54060227 4293792000
3.4236431 -0.386408 0.54825801 4293792000
3.4199777 -0.38588759 0.55592769 4293792000
3.4202459 -0.3858113 0.56357908 4293792000
3.4231715 -0.38603467 0.57101542 4293792000
3.4123855 -0.38471064 0.57548374 4293792000
3.4212859 -0.38560766 0.58258915 4293792000
3.4160759 -0.38491273 0.58661646 4293792000
3.3931415 -0.38221982 0.58687681 4293661440
3.3974667 -0.38260031 0.59113342 4293661440
3.3970084 -0.3824414 0.59386605 4293661440
3.3917708 -0.38174397 0.59505999 4293661440
3.3964403 -0.3821623 0.59728742 4293661440
3.3875234 -0.38105062 0.59642267 4293661440
3.4097724 -0.38344681 0.600335 4293792000
3.4099038 -0.38335288 0.59964776 4293792000
3.4086924 -0.38310769 0.59801739 4293792000
3.4188364 -0.38413927 0.59766638 4293792000
3.420202 -0.38418314 0.59506994 4293792000
3.4116006 -0.38310662 0.59004742 4293792000
3.4200611 -0.38394737 0.58727735 4293792000
3.4205883 -0.38389629 0.58244425 4293792000
3.4211786 -0.38385206 0.57693607 4293792000
3.4206858 -0.38368604 0.57056868 4293792000
3.4198472 -0.38348103 0.56347805 4293792000
3.4094021 -0.38219813 0.55417198 4293661440
3.4022748 -0.38128781 0.54479837 4293661440
3.3990655 -0.38081709 0.53544247 4293661440
3.4193199 -0.38297647 0.52910918 4293792000
3.4257874 -0.38358942 0.5199548 4293792000
3.4207609 -0.38291413 0.50845206 4293792000
3.4102955 -0.38162985 0.49560475 4293661440
3.3820164 -0.37774277 0.40625647 4293530880
3.4174247 -0.38158754 0.39530846 4293661440
3.4290962 -0.38277802 0.38095915 4293661440
3.3953385 -0.378894 0.36124289 4293530880
3.3749311 -0.3765026 0.34279558 4293530880
3.4044359 -0.37968343 0.32897991 4293661440
3.4120204 -0.38041633 0.31249523 4293661440
3.3879175 -0.37761387 0.29284725 4293530880
3.3623133 -0.3746455 0.27300033 4293400320
3.3916349 -0.37780201 0.25728062 4293530880
3.4039252 -0.37905836 0.23976047 4293530880
3.408555 -0.3794603 0.22134204 4293530880
3.3802812 -0.37619704 0.20067514 4293530880
3.3967562 -0.37791824 0.18250179 4293530880
3.4116356 -0.37946069 0.16386166 4293530880
3.41312 -0.37951148 0.14430287 4293530880
3.3694575 -0.37453964 0.12292179 4293400320
3.3801949 -0.37562069 0.10357324 4293530880
3.3864183 -0.37619916 0.083870299 4293530880
3.3924861 -0.37675986 0.063995346 4293530880
3.3643813 -0.37352309 0.043534435 4293400320
3.3695586 -0.37398517 0.023585504 4293400320
3.388346 -0.37595823 0.0035578634 4293530880
3.3392105 -0.37038976 -0.016365474 4293269760
3.3561571 -0.37215829 -0.036412533 4293400320
3.3655419 -0.37308675 -0.05649953 4293400320
3.3780482 -0.3743608 -0.076713093 4293400320
3.3646734 -0.37276438 -0.096255243 4293400320
3.3997688 -0.37654158 -0.11721459 4293530880
3.4060619 -0.37712482 -0.13730077 4293530880
3.3985872 -0.37618253 -0.15668148 4293530880
3.3708446 -0.37299621 -0.17475995 4293400320
3.3813784 -0.37404945 -0.19454046 4293530880
3.3922248 -0.37513661 -0.21425359 4293530880
3.3841171 -0.37412596 -0.23255685 4293530880
3.3745499 -0.37295452 -0.25041372 4293530880
3.4042084 -0.37612122 -0.27102166 4293530880
3.4132922 -0.37701163 -0.2899079 4293661440
3.4130802 -0.37687427 -0.30773851 4293661440
3.3706639 -0.3720744 -0.32121071 4293530880
3.3890748 -0.37399545 -0.34000614 4293530880
3.3940935 -0.37443674 -0.35720396 4293530880
3.4070265 -0.37575138 -0.37493041 4293661440
3.388608 -0.37360579 -0.3887704 4293530880
3.3459125 -0.36878359 -0.39911577 4293400320
3.4295726 -0.37789854 -0.42426831 4293661440
3.4194994 -0.3766745 -0.43768087 4293661440
3.4218745 -0.37682322 -0.45216626 4293661440
3.4144304 -0.37589005 -0.4648293 4293661440
3.4051442 -0.37475464 -0.47665542 4293661440
3.4033465 -0.3744446 -0.48895192 4293661440
3.4068773 -0.37472135 -0.50146866 4293661440
3.402638 -0.374143 -0.51227325 4293661440
3.3992405 -0.37365773 -0.5225988 4293661440
3.4012785 -0.37377062 -0.5331614 4293661440
3.402807 -0.37382761 -0.54304707 4293661440
3.3924327 -0.3725763 -0.55038983 4293661440
3.3963253 -0.3728936 -0.55939901 4293661440
3.3916533 -0.37226999 -0.56635475 4293661440
3.3808339 -0.37097177 -0.5715996 4293661440
3.3704851 -0.36972612 -0.57622343 4293661440
3.3494098 -0.36730409 -0.57829344 4293530880
3.357404 -0.36807314 -0.58468974 4293530880
3.3415387 -0.36622474 -0.58624607 4293530880
3.3409359 -0.36605123 -0.58977932 4293530880
3.2832971 -0.35962537 -0.58250934 4293269760
3.2780344 -0.35894349 -0.58379978 4293269760
3.2738664 -0.35838208 -0.5846014 4293269760
3.2825379 -0.35922745 -0.58701634 4293269760
3.3396528 -0.36537689 -0.59741646 4293530880
3.3250697 -0.36367446 -0.59430319 4293400320
3.3502154 -0.36632085 -0.59759235 4293530880
3.3494208 -0.36612788 -0.59555191 4293530880
3.3814201 -0.36952192 -0.59862596 4293661440
3.3858933 -0.36990443 -0.59610367 4293661440
3.4006984 -0.37141624 -0.5946871 4293661440
3.3963065 -0.37082952 -0.58921379 4293661440
3.4012854 -0.37126702 -0.58468264 4293661440
3.3993113 -0.37094504 -0.57827687 4293661440
3.4066677 -0.37164211 -0.57278031 4293661440
3.3949685 -0.37025899 -0.56343192 4293661440
3.3939466 -0.37004188 -0.55523598 4293661440
3.3878033 -0.36926639 -0.54558408 4293661440
3.3763421 -0.36791143 -0.53449887 4293530880
3.3610532 -0.3661401 -0.52227402 4293530880
3.3843222 -0.36857256 -0.51541853 4293661440
3.3988609 -0.37005246 -0.50652927 4293661440
3.411411 -0.371315 -0.49667981 4293661440
3.3874872 -0.36860478 -0.48100272 4293661440
3.3584783 -0.36534256 -0.46425748 4293530880
3.3544016 -0.36479598 -0.45056292 4293530880
3.3800128 -0.36748019 -0.44026405 4293530880
3.3800626 -0.36738241 -0.42604065 4293530880
3.3713417 -0.36633092 -0.41027606 4293530880
3.3485529 -0.36375064 -0.39248517 4293400320
3.367312 -0.36568773 -0.37914678 4293530880
3.3871934 -0.36774579 -0.36533707 4293530880
3.3816695 -0.36704293 -0.34831893 4293530880
3.3406003 -0.36248034 -0.32748929 4293400320
3.3565431 -0.36411011 -0.3120161 4293400320
3.3699179 -0.36546031 -0.29581544 4293530880
3.3781106 -0.36624748 -0.27872753 4293530880
3.3465576 -0.36272267 -0.25818479 4293400320
3.3623581 -0.3643353 -0.24110246 4293400320
3.3903522 -0.36726907 -0.22439644 4293530880
3.3796992 -0.36601231 -0.20479728 4293530880
3.389044 -0.36692318 -0.1861999 4293530880
3.35797 -0.36345506 -0.16530828 4293400320
3.373064 -0.3649888 -0.14660786 4293400320
3.3820217 -0.36585727 -0.12734817 4293530880
3.3359215 -0.3607659 -0.1060982 4293269760
3.3695638 -0.36430615 -0.087350637 4293400320
3.3889134 -0.36629823 -0.067830987 4293530880
3.3930087 -0.36663944 -0.047799047 4293530880
3.3669322 -0.3637183 -0.02742503 4293400320
3.3928347 -0.36641705 -0.0074541303 4293530880
3.4097939 -0.36814788 0.012794321 4293530880
3.4043074 -0.36745289 0.033008836 4293530880
3.4024107 -0.36714593 0.053172942 4293530880
3.4298854 -0.37001023 0.073882341 4293661440
3.4418159 -0.37119508 0.094405249 4293661440
3.4082146 -0.36746588 0.11344841 4293530880
3.4142101 -0.36801031 0.13351659 4293530880
3.4306438 -0.36968011 0.15397179 4293661440
3.4284129 -0.36933643 0.17350036 4293661440
3.3728168 -0.36324072 0.1898109 4293400320
3.4260299 -0.36887336 0.21200673 4293661440
3.4337113 -0.3695977 0.23149307 4293661440
3.4238236 -0.36842936 0.24952671 4293661440
3.3679616 -0.36231154 0.26358101 4293400320
3.4356384 -0.36949447 0.28705484 4293661440
3.4396842 -0.36982602 0.30527627 4293661440
3.4502525 -0.37085894 0.32380891 4293792000
3.4354243 -0.36915976 0.33957714 4293661440
3.3082633 -0.35538366 0.34317693 4293269760
3.4404497 -0.36949155 0.37327391 4293792000
3.4257543 -0.36780792 0.387591 4293661440
3.4265304 -0.36778709 0.40315375 4293661440
3.4042161 -0.36528629 0.41545108 4293661440
3.381696 -0.3627646 0.42705804 4293530880
3.439795 -0.36889735 0.44849274 4293792000
3.4455745 -0.3694123 0.46286088 4293792000
3.4427578 -0.36900461 0.47555768 4293792000
3.4290385 -0.36742771 0.48614371 4293792000
3.4083114 -0.36510012 0.49505603 4293661440
3.400265 -0.36413282 0.50513947 4293661440
3.4344044 -0.36768603 0.52098143 4293792000
3.43893 -0.36806476 0.53185207 4293792000
3.4339876 -0.36742908 0.54064214 4293792000
3.4258375 -0.36645013 0.54826397 4293792000
3.4319854 -0.36700174 0.55752701 4293792000
3.422437 -0.36587334 0.56358504 4293792000
3.4292874 -0.36649945 0.571675 4293792000
3.4145701 -0.3648186 0.5754897 4293792000
3.4283779 -0.36618784 0.58342868 4293792000
3.414341 -0.36458027 0.58595008 4293792000
3.3953121 -0.36244002 0.58688277 4293661440
3.4094377 -0.36384189 0.5928418 4293792000
3.408977 -0.36368522 0.59558225 4293792000
3.4037344 -0.36301792 0.59678215 4293661440
