# .PCD v0.7 - Point Cloud Data file format
VERSION 0.7
FIELDS x y z rgba
SIZE 4 4 4 4
TYPE F F F U
COUNT 1 1 1 1
WIDTH 1127
HEIGHT 1
VIEWPOINT 0 0 0 1 0 0 0
POINTS 1127
DATA ascii
1.9624329 1.0485111 -0.34784573 4289614080
1.9632605 1.0490282 -0.34154359 4289614080
1.964124 1.0495639 -0.33485034 4289614080
1.9800013 1.058118 -0.33026522 4289614080
1.9896624 1.0633527 -0.32417366 4289744640
1.9716243 1.053793 -0.31324884 4289614080
1.9689163 1.0524205 -0.30448157 4289614080
1.9698949 1.0530171 -0.29594529 4289614080
1.9848357 1.0610727 -0.28909352 4289614080
1.9902121 1.0640191 -0.28043386 4289614080
1.9761801 1.0565954 -0.26877654 4289614080
1.9716834 1.0542657 -0.25820255 4289614080
1.9904231 1.064353 -0.25029859 4289614080
2.0069528 1.0732603 -0.24165364 4289744640
2.0091269 1.074496 -0.23091795 4289744640
1.9540848 1.0451494 -0.21367031 4289483520
2.0044301 1.0721326 -0.20768657 4289744640
2.0049107 1.0724627 -0.1960371 4289744640
2.0013545 1.0706345 -0.18379758 4289744640
1.9937524 1.0666429 -0.17105383 4289614080
2.0652335 1.1049353 -0.16448516 4289875200
2.1612768 1.1563667 -0.158649 4290266880
2.1661973 1.1590762 -0.14535467 4290266880
2.1605122 1.1561142 -0.1311997 4290266880
2.1479669 1.1494825 -0.11660517 4290266880
2.1419616 1.146348 -0.10235714 4290266880
2.1321104 1.1411557 -0.087919526 4290136320
1.9390664 1.0379658 -0.067228414 4289483520
1.8568033 0.9940269 -0.052085061 4289091840
1.8164411 0.97249937 -0.038860336 4288961280
1.77215 0.94886696 -0.026076011 4288830720
1.8907361 1.0123841 -0.015104529 4289222400
1.9698578 1.0547915 -0.0024901435 4289483520
2.089216 1.1187373 0.011418911 4290005760
1.8762292 1.004824 0.022778543 4289222400
1.4338365 0.76811117 0.026872665 4287525120
1.4503949 0.77702588 0.036871262 4287525120
1.4233977 0.76262653 0.045637049 4287394560
1.3519914 0.7244516 0.052261796 4287133440
1.6827221 0.9015637 0.076228313 4288439040
2.0310133 1.0881017 0.10535092 4289744640
2.1637597 1.1592532 0.12625083 4290266880
2.1167586 1.1341633 0.13704181 4290136320
2.1767006 1.1663399 0.15470929 4290397440
2.1834438 1.1700301 0.16883659 4290397440
2.1685493 1.162132 0.181052 4290266880
2.1178844 1.1350737 0.18967614 4290136320
2.1983824 1.1782705 0.21003795 4290397440
2.1948159 1.1764401 0.22258087 4290397440
2.1819415 1.1696233 0.23383752 4290397440
2.1569533 1.1563154 0.24332026 4290266880
2.0603764 1.1046481 0.24377201 4289875200
2.1852477 1.1716355 0.27033168 4290397440
2.1771743 1.1673899 0.28075147 4290397440
2.1672215 1.1621367 0.29052162 4290397440
2.1513312 1.1537007 0.29903984 4290266880
2.1151464 1.1343861 0.30414587 4290136320
2.183198 1.1709428 0.3240546 4290397440
2.1726227 1.1653556 0.33218303 4290397440
2.1743131 1.1663435 0.34177193 4290397440
2.1670389 1.1625255 0.34953931 4290397440
2.1655076 1.1617863 0.35779932 4290397440
2.1439676 1.1503186 0.36225548 4290266880
2.1632521 1.1607417 0.37318718 4290397440
2.161833 1.1600634 0.38017973 4290397440
2.1635251 1.1610539 0.38728249 4290397440
2.1595099 1.1589835 0.3929095 4290397440
2.1569879 1.1577142 0.39833525 4290397440
2.1479938 1.1529731 0.40207392 4290397440
2.1576762 1.1582512 0.40884328 4290397440
2.149596 1.1540004 0.41177493 4290397440
2.1576693 1.1584165 0.41732094 4290397440
2.1519973 1.155458 0.41972589 4290397440
2.1515183 1.1552861 0.42264387 4290397440
2.1389701 1.1486372 0.42268014 4290266880
2.1429756 1.1508722 0.42548335 4290397440
2.1427143 1.1508178 0.42694402 4290397440
2.1381886 1.1484745 0.42705178 4290266880
2.1424155 1.1508299 0.42840648 4290397440
2.1501753 1.1550828 0.42996636 4290397440
2.1502147 1.1551914 0.42947733 4290397440
2.1511097 1.1557598 0.42865509 4290397440
2.1552961 1.1580961 0.42798305 4290397440
2.1502767 1.1554891 0.42498231 4290397440
2.1480191 1.1543654 0.42203724 4290397440
2.1507595 1.1559263 0.41957965 4290397440
2.1509387 1.1561122 0.41612759 4290397440
2.1457925 1.1534374 0.41116813 4290397440
2.1513305 1.1565026 0.40777564 4290397440
2.155947 1.1590735 0.40371174 4290397440
2.1511493 1.1565865 0.39741629 4290397440
2.1516695 1.1569571 0.39165348 4290397440
2.1354611 1.1483378 0.38243648 4290266880
2.141546 1.1516993 0.37680107 4290266880
2.1549761 1.1590097 0.37196055 4290397440
2.1656349 1.1648319 0.36613098 4290397440
2.1614568 1.162679 0.35734898 4290397440
2.1285219 1.1455711 0.29135796 4290266880
2.1570771 1.161025 0.28444389 4290266880
2.1729393 1.1696533 0.27530971 4290397440
2.1663432 1.1662004 0.26297137 4290397440
2.1270769 1.1451688 0.24661671 4290136320
2.1431415 1.1539073 0.23653619 4290266880
2.1518366 1.1586818 0.22523923 4290266880
2.1547623 1.160352 0.21302105 4290266880
2.1154234 1.1392746 0.19659679 4290136320
2.0203831 1.0882112 0.17557269 4289744640
1.6330544 0.87979484 0.13183381 4288308480
1.5082053 0.81265372 0.11235271 4287786240
1.5344681 0.82686138 0.10465957 4287916800
1.5667658 0.84432107 0.096894346 4288047360
1.5227649 0.82069701 0.084358357 4287786240
1.621189 0.87377107 0.079309769 4288177920
2.0540147 1.1069589 0.087166451 4289875200
1.914941 1.0321416 0.068598904 4289352960
1.8538659 0.99932796 0.054092854 4289091840
1.8055823 0.97340006 0.040630583 4288961280
1.8788811 1.0129726 0.029728165 4289222400
1.8455187 0.99508113 0.016806183 4289091840
1.8270396 0.98520672 0.0043528024 4288961280
2.1018355 1.1333776 -0.0090338644 4290005760
2.1268923 1.1469767 -0.023424929 4290136320
2.1428947 1.1556979 -0.037970386 4290266880
2.1467819 1.1578898 -0.052398309 4290266880
2.1285543 1.1481603 -0.066142522 4290136320
2.1518168 1.1607977 -0.081125662 4290266880
2.1158741 1.1415151 -0.093726322 4290136320
2.0474548 1.1047175 -0.10411488 4289875200
1.9891411 1.0733632 -0.11407699 4289614080
1.9997416 1.0791694 -0.127534 4289744640
2.0019605 1.0804559 -0.14040427 4289744640
1.9786158 1.0679536 -0.15120699 4289614080
1.984453 1.071191 -0.16395453 4289614080
2.0163152 1.088469 -0.17889479 4289744640
2.016844 1.0888443 -0.19106992 4289744640
2.0109293 1.0857428 -0.20239668 4289744640
1.9852656 1.0719836 -0.2113383 4289614080
1.9913336 1.0753465 -0.22329852 4289614080
1.9887989 1.0740668 -0.23407198 4289614080
2.0042152 1.0824758 -0.24676162 4289744640
1.9889953 1.0743487 -0.25542194 4289744640
1.9664379 1.062259 -0.26266271 4289614080
1.9939898 1.0772203 -0.27630344 4289744640
1.9972835 1.0790862 -0.28643808 4289744640
1.994321 1.0775739 -0.29535913 4289744640
1.9866143 1.0734992 -0.30319884 4289744640
1.9786705 1.0692956 -0.31059119 4289614080
1.9706295 1.0650386 -0.3175489 4289614080
1.9667902 1.0630502 -0.32477272 4289614080
1.9832193 1.0720098 -0.33501139 4289744640
1.9676969 1.0637095 -0.33949211 4289614080
1.9785864 1.0696774 -0.34810999 4289744640
1.9789864 1.0699781 -0.35452661 4289744640
1.9719205 1.0662444 -0.35918203 4289614080
1.9630555 1.0615375 -0.363051 4289614080
1.9661793 1.063309 -0.36869553 4289614080
1.9650054 1.0627575 -0.37311509 4289614080
1.9569286 1.0584744 -0.37577498 4289614080
1.9523108 1.0560602 -0.37863505 4289614080
1.950702 1.055272 -0.38162541 4289614080
1.9481328 1.0539641 -0.38397765 4289614080
1.9408863 1.0501268 -0.38495016 4289614080
1.948362 1.0542493 -0.38838449 4289614080
1.9524367 1.0565331 -0.39069974 4289614080
1.9435841 1.0518254 -0.38997662 4289614080
1.9399985 1.0499656 -0.38984594 4289614080
1.9502655 1.055598 -0.39203551 4289614080
1.9485612 1.0547551 -0.39136735 4289614080
1.9631038 1.0627011 -0.39349085 4289614080
1.9584427 1.0602582 -0.391312 4289614080
1.961954 1.0622365 -0.39030465 4289614080
1.9639474 1.0633935 -0.38853511 4289614080
1.9603947 1.0615491 -0.38522044 4289614080
1.9633597 1.0632312 -0.38273436 4289614080
1.9700512 1.0669303 -0.38051075 4289614080
1.9658415 1.0647292 -0.37574124 4289614080
1.9711418 1.0676752 -0.37234521 4289614080
1.9689667 1.0665747 -0.36710289 4289614080
1.965326 1.0646801 -0.36117846 4289614080
1.9602143 1.0619887 -0.354592 4289614080
1.9484696 1.0557051 -0.34645146 4289614080
1.9492909 1.0562248 -0.3401745 4289614080
1.9505155 1.0569626 -0.33357069 4289614080
1.9616214 1.0630517 -0.32822526 4289614080
1.9790798 1.072582 -0.32345662 4289614080
1.9654498 1.0652744 -0.31324112 4289614080
1.9583936 1.0615264 -0.30380011 4289614080
1.9593664 1.0621274 -0.29528272 4289614080
1.9829792 1.0749934 -0.28972092 4289614080
1.9839777 1.0756086 -0.28042606 4289614080
1.9703583 1.0683032 -0.268819 4289614080
1.9678978 1.0670434 -0.25850797 4289614080
1.9806911 1.0740494 -0.24985136 4289614080
1.9949641 1.081858 -0.2409597 4289744640
1.9845058 1.0762635 -0.22880493 4289614080
1.9523945 1.0589318 -0.21414711 4289483520
1.9829527 1.075568 -0.20610555 4289614080
1.9887999 1.0788106 -0.19506934 4289614080
1.9994622 1.0846639 -0.18419164 4289744640
1.9796126 1.0739753 -0.17037009 4289614080
2.049324 1.1118454 -0.16372678 4289875200
2.1422193 1.1622915 -0.15774046 4290266880
2.1339567 1.1578889 -0.14364192 4290266880
2.1370595 1.1596491 -0.13018088 4290266880
2.1289384 1.1553224 -0.11593145 4290136320
2.1308532 1.1564381 -0.10213969 4290136320
2.1219096 1.1516644 -0.087766968 4290136320
1.9075046 1.0354359 -0.066343576 4289352960
1.8377974 0.99768937 -0.051711611 4289091840
1.8845791 1.0231363 -0.040411323 4289222400
1.7367071 0.94297439 -0.025638748 4288700160
1.8514042 1.0052719 -0.014840511 4289091840
1.8616499 1.0108986 -0.0023847551 4289091840
2.0659609 1.1218399 0.011330749 4289875200
1.694622 0.92038572 0.020591069 4288569600
1.5616907 0.84829921 0.029419281 4288047360
1.5900799 0.86376488 0.040610608 4288047360
1.5905703 0.86408871 0.051228646 4288177920
1.4830825 0.80579621 0.057568084 4287655680
1.6731865 0.90905559 0.076040395 4288439040
2.0021653 1.0877275 0.10418399 4289744640
2.1527705 1.1695733 0.12601277 4290266880
2.0969515 1.1393421 0.13619241 4290005760
2.1610951 1.1742506 0.15409061 4290266880
2.1634362 1.1756009 0.1678223 4290266880
2.1494694 1.1680945 0.18003041 4290266880
2.0902081 1.1359857 0.18779132 4290005760
2.1783431 1.1839356 0.20878524 4290397440
2.1791694 1.1844646 0.22169746 4290397440
2.1663389 1.1775746 0.23290402 4290397440
2.1335638 1.1598482 0.24144579 4290266880
2.037298 1.107623 0.24180634 4289875200
2.1661527 1.1777139 0.26882067 4290397440
2.1616027 1.1753219 0.27962926 4290397440
2.1516852 1.170013 0.28935537 4290266880
2.128 1.1572211 0.29673523 4290266880
2.0962954 1.1400689 0.3023921 4290136320
2.1583927 1.1739008 0.32138887 4290397440
2.1645648 1.1773374 0.332003 4290397440
2.150943 1.170014 0.33917099 4290397440
2.1549308 1.1722639 0.34869036 4290397440
2.1413114 1.1649408 0.3549237 4290266880
2.1294055 1.1585491 0.36093736 4290266880
2.14429 1.1667246 0.37108997 4290397440
2.1329749 1.1606536 0.37629396 4290266880
2.1358948 1.1623241 0.38354889 4290266880
2.1362371 1.162593 0.38990816 4290266880
2.1478279 1.1689807 0.39790347 4290397440
2.1447034 1.167365 0.40273371 4290397440
2.1422238 1.1661001 0.40720391 4290397440
2.143357 1.166801 0.41188419 4290397440
2.1344278 1.1620274 0.41413561 4290266880
2.1365685 1.1632768 0.41803971 4290397440
2.1360924 1.1631027 0.42094591 4290397440
2.1313598 1.1606126 0.42251432 4290266880
2.1275787 1.1586401 0.42376769 4290266880
2.1229932 1.1562301 0.42435744 4290266880
2.1228075 1.1562148 0.42532623 4290266880
2.1391175 1.1651797 0.42910659 4290397440
2.1304314 1.1605381 0.42737094 4290266880
2.1321125 1.1615406 0.42721412 4290266880
2.1279008 1.159335 0.4253765 4290266880
2.1320722 1.1616942 0.42471573 4290266880
2.1348526 1.1632967 0.42327452 4290266880
2.1338363 1.1628318 0.42058298 4290266880
2.1275406 1.1594919 0.41636825 4290266880
2.1359377 1.1641549 0.41453889 4290266880
2.1303735 1.1612135 0.40951118 4290266880
2.1399608 1.1665264 0.40691054 4290397440
2.1456883 1.1697376 0.40306881 4290397440
2.1400373 1.1667497 0.39662114 4290397440
2.1240807 1.1581459 0.38786003 4290266880
2.1243942 1.1584076 0.38166526 4290266880
2.1139717 1.1528184 0.37313136 4290266880
2.1431515 1.1688137 0.37109709 4290397440
2.1457815 1.1703399 0.36392856 4290397440
2.1424789 1.1686325 0.35533851 4290266880
2.116221 1.1549166 0.29059818 4290136320
2.1337047 1.1645467 0.28225797 4290266880
2.1582327 1.1780213 0.27431896 4290397440
2.1464157 1.1716704 0.26138324 4290266880
2.1125062 1.1532652 0.24570952 4290136320
2.1349843 1.1656241 0.23638991 4290266880
2.1371796 1.1669176 0.22442016 4290266880
2.1357198 1.1662165 0.21181303 4290266880
2.0999987 1.1468168 0.19578773 4290136320
2.0633698 1.1269186 0.17989458 4290005760
1.7067713 0.93235934 0.13824922 4288569600
1.6321386 0.89169401 0.12201521 4288308480
1.5625976 0.85380191 0.10693196 4288047360
1.5726452 0.85935837 0.09757559 4288047360
1.5936799 0.87091523 0.088597342 4288177920
1.6781886 0.91713601 0.082384273 4288439040
2.0637591 1.1277829 0.087869637 4290005760
1.925559 1.0523952 0.069210038 4289352960
1.826954 0.9986226 0.053477559 4289091840
1.7788199 0.97241151 0.040155731 4288830720
1.8694351 1.0219961 0.029678751 4289222400
1.8396875 1.0058283 0.016813429 4289091840
1.8423272 1.0073541 0.0044172788 4289091840
2.0824795 1.1386678 -0.0089745354 4290005760
2.1155262 1.1568221 -0.023366636 4290136320
2.122962 1.160982 -0.037732001 4290136320
2.1321018 1.1660739 -0.052198984 4290266880
2.1174409 1.1581568 -0.065998837 4290136320
2.1327376 1.1666149 -0.080656789 4290266880
2.1091855 1.1538352 -0.093718015 4290136320
2.0365989 1.1142431 -0.10388479 4289875200
1.9784703 1.08255 -0.1138187 4289614080
1.9890381 1.0884186 -0.12724754 4289614080
1.9984006 1.0936288 -0.14059032 4289744640
1.9915253 1.0899584 -0.15266123 4289744640
1.9835125 1.0856653 -0.16438691 4289614080
1.9951032 1.092095 -0.17757232 4289744640
1.9982243 1.0938922 -0.18990359 4289744640
1.9958289 1.0926713 -0.20150997 4289744640
1.9658825 1.076375 -0.20993675 4289614080
1.9806678 1.0845536 -0.22280148 4289614080
1.9859961 1.0875579 -0.23447479 4289744640
1.9900235 1.0898505 -0.24578762 4289744640
1.970497 1.0792513 -0.2538473 4289614080
1.9515018 1.068941 -0.26149148 4289614080
1.9841954 1.0869249 -0.27581298 4289744640
1.9831285 1.0864284 -0.2853069 4289744640
1.9793093 1.0844246 -0.29406297 4289744640
1.9815031 1.0857129 -0.30337092 4289744640
1.971275 1.0801986 -0.31040588 4289614080
1.9557049 1.0717579 -0.3161414 4289614080
1.9570899 1.0726017 -0.32419151 4289614080
1.959587 1.0740545 -0.33207151 4289614080
1.9701363 1.079918 -0.34098104 4289614080
1.9601849 1.0745515 -0.3459664 4289614080
1.9562566 1.0724838 -0.35156864 4289614080
1.9691985 1.0796587 -0.35981664 4289614080
1.952508 1.0705973 -0.36224243 4289614080
1.955623 1.0723876 -0.36787605 4289614080
1.9500215 1.0694008 -0.37144363 4289614080
1.9472684 1.0679744 -0.37510276 4289614080
1.9461237 1.0674292 -0.37862739 4289614080
1.9484707 1.0687976 -0.38239118 4289614080
1.9376376 1.0629404 -0.383118 4289614080
1.9304144 1.0590612 -0.38408536 4289483520
1.9300932 1.0589652 -0.38596496 4289483520
1.9376105 1.0631672 -0.38896286 4289614080
1.9374218 1.0631436 -0.38996899 4289614080
1.9295297 1.0588952 -0.3889702 4289483520
1.9319927 1.060325 -0.38959643 4289614080
1.9337471 1.0613661 -0.38962439 4289614080
1.9428365 1.0664307 -0.39066696 4289614080
1.9403303 1.0651344 -0.38892505 4289614080
1.9479576 1.0693972 -0.38874966 4289614080
1.9490794 1.0700909 -0.38681749 4289614080
1.9507196 1.0710688 -0.38453326 4289614080
1.9528099 1.0722935 -0.38188389 4289614080
1.9516995 1.0717617 -0.37816444 4289614080
1.9596037 1.0761769 -0.37573352 4289614080
1.951914 1.0720335 -0.36988565 4289614080
1.9540666 1.0732918 -0.36548135 4289614080
1.9469721 1.0694737 -0.35894305 4289614080
1.9418716 1.0667496 -0.35239077 4289614080
1.9336233 1.0622966 -0.3449032 4289483520
1.9257731 1.0580612 -0.33714151 4289483520
1.9352878 1.0633599 -0.33201733 4289483520
1.9553932 1.0744747 -0.32821754 4289614080
1.9684576 1.081724 -0.32273957 4289614080
1.9548682 1.0743359 -0.31254148 4289614080
1.9356726 1.0638672 -0.30123216 4289483520
1.9409785 1.0668552 -0.29344153 4289483520
1.9679873 1.0817649 -0.28844285 4289614080
1.9689777 1.0823833 -0.27918884 4289614080
1.9597479 1.0773865 -0.26821768 4289614080
1.9451032 1.0694137 -0.25632754 4289483520
1.9660555 1.0809991 -0.24879147 4289614080
1.989452 1.0939289 -0.24105164 4289744640
1.988883 1.0936903 -0.23002823 4289744640
1.9627329 1.0793926 -0.21595266 4289614080
1.9704598 1.0837121 -0.20545477 4289614080
1.9789865 1.0884718 -0.19471928 4289614080
1.9765108 1.0871838 -0.18265663 4289614080
1.9645816 1.0806988 -0.16961132 4289614080
2.0399764 1.1222205 -0.16349269 4289875200
2.1222923 1.1675528 -0.15676773 4290136320
2.1271725 1.1703141 -0.14363353 4290266880
2.1171396 1.164875 -0.12937489 4290136320
2.1177931 1.1653117 -0.11568549 4290136320
2.110688 1.1614817 -0.10149191 4290136320
2.0795879 1.1444542 -0.086294144 4290005760
1.8614641 1.0245575 -0.064955592 4289222400
1.8275716 1.0059825 -0.05158234 4289091840
1.7927171 0.98687577 -0.038586512 4288961280
1.7443229 0.96031797 -0.025821712 4288700160
1.8244863 1.0044847 -0.014671244 4289091840
1.8767537 1.0333087 -0.0023975431 4289222400
2.0640447 1.1364319 0.01136585 4290005760
1.7640539 0.97142947 0.021535624 4288830720
1.7040755 0.93848687 0.032263994 4288569600
1.6320301 0.89889896 0.041837849 4288308480
1.6252999 0.89525425 0.052534241 4288308480
1.822791 1.0040168 0.07110922 4289091840
1.7172933 0.9460113 0.078316033 4288569600
2.0703869 1.1404499 0.10810471 4290005760
2.1292949 1.1729563 0.12504134 4290266880
2.0936387 1.1534032 0.13642056 4290136320
2.1461203 1.1823765 0.15351841 4290266880
2.1427751 1.1806133 0.16675617 4290266880
2.1384482 1.1783094 0.17968708 4290266880
2.0748191 1.1433468 0.18701071 4290005760
2.1624858 1.1917059 0.20793448 4290397440
2.1635654 1.1923805 0.22082028 4290397440
2.1507864 1.1854217 0.23197781 4290266880
2.1302402 1.1741835 0.24184911 4290266880
2.01774 1.1122864 0.24025607 4289875200
2.1470616 1.1836097 0.26730958 4290266880
2.1413994 1.1805705 0.27790755 4290266880
2.1239541 1.1710382 0.28654435 4290266880
2.1203361 1.1691244 0.29662001 4290266880
2.0920868 1.1536366 0.30275851 4290136320
2.1384876 1.1792884 0.31944972 4290266880
2.1489861 1.185156 0.3306748 4290397440
2.1442766 1.1826419 0.33920956 4290397440
2.1272526 1.1733395 0.34531829 4290266880
2.1266851 1.1731082 0.35363424 4290266880
2.1182854 1.1685591 0.36020878 4290266880
2.1232929 1.1714017 0.36863834 4290266880
2.1304998 1.1754577 0.37706864 4290266880
2.1281109 1.1742233 0.38338202 4290266880
2.1372054 1.1793216 0.39134228 4290397440
2.1202345 1.1700457 0.39405459 4290266880
2.1214471 1.1707978 0.39964807 4290266880
2.1189804 1.169521 0.40408143 4290266880
2.1235683 1.1721357 0.40939459 4290266880
2.1233022 1.1720732 0.41330352 4290266880
2.1133559 1.1666706 0.41482827 4290266880
2.117198 1.1688751 0.4185653 4290266880
2.1211078 1.1711177 0.4218362 4290266880
2.1164763 1.1686475 0.422914 4290266880
2.1119056 1.1662109 0.42350078 4290266880
2.10396 1.1619117 0.42290702 4290266880
2.1159072 1.1685919 0.42581671 4290266880
2.1201813 1.1710379 0.42668495 4290266880
2.1166832 1.1691942 0.42548853 4290266880
2.1090353 1.1650594 0.42296284 4290266880
2.1175032 1.1698223 0.42317241 4290266880
2.111649 1.1666782 0.42002201 4290266880
2.1270216 1.1752552 0.42059138 4290266880
2.1116354 1.1668477 0.41458714 4290266880
2.1204863 1.1718248 0.41286629 4290266880
2.1183925 1.170758 0.40852091 4290266880
2.1244907 1.1742164 0.40527108 4290266880
2.1215603 1.1726881 0.39982027 4290266880
2.121105 1.1725272 0.39437941 4290266880
2.1043301 1.1633502 0.38549215 4290266880
2.109035 1.1660404 0.38012791 4290266880
2.1072159 1.1651263 0.37313968 4290266880
2.1198616 1.1722059 0.36824766 4290266880
2.1381183 1.1823881 0.36379996 4290397440
2.1269701 1.1763194 0.35390484 4290266880
2.0972898 1.1605115 0.28892902 4290136320
2.1225343 1.1745659 0.2816889 4290266880
2.1469812 1.1881818 0.27377227 4290397440
2.1317191 1.1798358 0.2604337 4290266880
2.091558 1.1577151 0.24405952 4290136320
2.1116066 1.1689003 0.23455729 4290136320
2.1301172 1.1792364 0.22440487 4290266880
2.112324 1.1694872 0.21017042 4290136320
2.0854301 1.1547008 0.19506034 4290136320
2.0899172 1.1572781 0.18280925 4290136320
1.9287337 1.0681666 0.15679613 4289483520
1.978826 1.0959796 0.14851315 4289614080
1.813303 1.0044466 0.12457003 4288961280
1.8020754 0.99831361 0.11224815 4288961280
1.9363254 1.0727198 0.10810644 4289483520
1.9014004 1.053471 0.093717955 4289352960
2.0666656 1.1450677 0.088286608 4290005760
1.9237642 1.0660286 0.069376484 4289483520
1.8167298 1.0068399 0.053355038 4288961280
1.7774949 0.98519242 0.040263161 4288830720
1.785584 0.98975408 0.028421961 4288830720
1.817174 1.0073348 0.016662959 4288961280
1.8364247 1.0180825 0.0044245375 4289091840
1.8912624 1.0485485 -0.0082233204 4289352960
2.0951598 1.1616105 -0.023211794 4290136320
2.100939 1.1649086 -0.037456881 4290136320
2.1042821 1.1668574 -0.051681604 4290136320
2.0975404 1.1632169 -0.065584563 4290136320
2.1136642 1.1722494 -0.080187999 4290136320
2.08145 1.1544892 -0.09278167 4290005760
2.022207 1.1217425 -0.10347711 4289875200
1.9633927 1.0892279 -0.11330999 4289614080
1.9704361 1.0932225 -0.12645964 4289614080
1.9874035 1.1027203 -0.14026025 4289744640
1.9891064 1.1037549 -0.15295693 4289744640
1.9686074 1.0924767 -0.16367204 4289614080
1.986738 1.1026216 -0.17738962 4289744640
1.9965414 1.1081491 -0.19034439 4289744640
1.9807163 1.0994607 -0.20062332 4289614080
1.9595764 1.0878224 -0.209929 4289614080
1.9656113 1.0912589 -0.22181527 4289614080
1.9674473 1.0923657 -0.23302986 4289614080
1.9705982 1.0942025 -0.24416962 4289614080
1.964174 1.0907257 -0.25383955 4289614080
1.9417657 1.0783769 -0.26101837 4289614080
1.9691479 1.0936614 -0.27459866 4289614080
1.9767637 1.0979763 -0.28529906 4289744640
1.968621 1.0935438 -0.29341102 4289614080
1.9664768 1.0924404 -0.30203614 4289614080
1.9562855 1.0868689 -0.30903396 4289614080
1.9459635 1.0812236 -0.31557381 4289614080
1.94648 1.0815958 -0.32346696 4289614080
1.9532948 1.0854654 -0.33206379 4289614080
1.9465222 1.0817893 -0.33798003 4289614080
1.9538897 1.085966 -0.34595868 4289614080
1.9499737 1.0838754 -0.35156092 4289614080
1.9464116 1.0819809 -0.35679939 4289614080
1.9419217 1.0795703 -0.36143389 4289614080
1.9493407 1.0837756 -0.36786836 4289614080
1.9437567 1.0807562 -0.37143594 4289614080
1.9323922 1.074524 -0.37343374 4289614080
1.9321151 1.074452 -0.37711 4289614080
1.9335946 1.0753561 -0.3806918 4289614080
1.9271042 1.0718303 -0.38225836 4289614080
1.9199047 1.0679094 -0.38322058 4289483520
1.9238895 1.0702047 -0.38595736 4289483520
1.9279388 1.0725361 -0.38826355 4289614080
1.9311936 1.0744258 -0.38996136 4289614080
1.9190229 1.0677385 -0.38809451 4289483520
1.9257811 1.0715756 -0.3895888 4289614080
1.9275293 1.0726268 -0.38961676 4289614080
1.9299278 1.0740396 -0.38931897 4289614080
1.9297864 1.0740396 -0.38805413 4289614080
1.9330839 1.0759521 -0.38702282 4289614080
1.9428105 1.0814408 -0.3868098 4289614080
1.9467225 1.0836952 -0.38497478 4289614080
1.9422214 1.0812691 -0.38103345 4289614080
1.9411131 1.0807301 -0.37732154 4289614080
1.9532992 1.087588 -0.37572578 4289614080
1.9456338 1.0833999 -0.36987796 4289614080
1.9400179 1.0803516 -0.36402124 4289614080
1.940707 1.0808114 -0.35893536 4289614080
1.9371275 1.0788953 -0.35265636 4289614080
1.9187667 1.0687511 -0.34335497 4289483520
1.9195747 1.0692755 -0.33713391 4289483520
1.9247379 1.0722244 -0.33126825 4289483520
1.9447763 1.0834548 -0.32748407 4289614080
1.9534718 1.0883713 -0.32131335 4289614080
1.9407867 1.0813831 -0.31128842 4289614080
1.9294401 1.075139 -0.30122453 4289483520
1.9303977 1.0757461 -0.29277909 4289483520
1.9514728 1.0875567 -0.28694332 4289614080
1.9548336 1.0895027 -0.27807462 4289614080
1.9499663 1.0868655 -0.26773509 4289614080
1.938838 1.0807402 -0.25631988 4289483520
1.964064 1.094866 -0.24933296 4289614080
1.9752246 1.1011575 -0.24009676 4289614080
1.9781299 1.1028502 -0.229518 4289744640
1.9480228 1.0861487 -0.21502277 4289614080
1.9554113 1.0903385 -0.20454061 4289614080
1.9595548 1.0927203 -0.19342816 4289614080
1.9657879 1.0962667 -0.18224697 4289614080
1.9504108 1.0877694 -0.1689277 4289614080
2.0275123 1.1308162 -0.16301335 4289875200
2.1076071 1.175537 -0.1561808 4290136320
2.1065421 1.1750211 -0.1426969 4290136320
2.098104 1.1703947 -0.12862217 4290136320
2.0957825 1.1691774 -0.11485022 4290136320
2.0818458 1.161484 -0.10042787 4290005760
1.8696579 1.0432451 -0.077893481 4289222400
1.7821146 0.99449658 -0.062407322 4288830720
1.8007227 1.0049392 -0.050989415 4288961280
1.7703438 0.98806262 -0.038227215 4288830720
1.7133712 0.95635134 -0.025447993 4288569600
1.8186008 1.0151092 -0.014664042 4289091840
1.8663327 1.0418015 -0.0023859632 4289222400
2.0696125 1.1552702 0.011445086 4290005760
2.1102734 1.1780304 0.025969222 4290136320
2.1158929 1.1812431 0.040337276 4290136320
2.1065726 1.1761203 0.054347966 4290136320
2.1022162 1.1737666 0.06833715 4290136320
2.1042144 1.1749588 0.082444526 4290136320
2.0992908 1.1722883 0.096170262 4290136320
2.1177864 1.1826882 0.1109591 4290136320
2.1176248 1.1826758 0.124766 4290136320
2.070317 1.1563475 0.13534229 4290005760
2.1348352 1.1924393 0.15321325 4290266880
2.1315019 1.1906574 0.16642363 4290266880
2.1149993 1.181523 0.1782974 4290136320
2.0637677 1.1529971 0.18662447 4290005760
2.142453 1.1970092 0.20668158 4290266880
2.1444042 1.1981785 0.21957994 4290266880
2.1350405 1.1930295 0.23103249 4290266880
2.1111972 1.1797934 0.24046999 4290266880
2.0077488 1.1220946 0.23984848 4289744640
2.136095 1.1938585 0.2668139 4290266880
2.1223378 1.1862543 0.27633289 4290266880
2.12252 1.1864362 0.28728828 4290266880
2.1013541 1.1746919 0.29492396 4290136320
2.068872 1.1566236 0.30037528 4290005760
2.1309204 1.1913717 0.31935966 4290266880
2.1212785 1.1860653 0.32747513 4290266880
2.1209178 1.185945 0.33660844 4290266880
2.1117349 1.1808946 0.34391806 4290266880
2.1041756 1.1767511 0.35103223 4290266880
2.0980616 1.1734153 0.35793346 4290266880
2.1077991 1.1789398 0.36714256 4290266880
2.1106732 1.1806288 0.37477815 4290266880
2.1177814 1.1846851 0.38276672 4290266880
2.113488 1.1823678 0.38826135 4290266880
2.1090708 1.1799814 0.39325932 4290266880
2.098593 1.1742058 0.39663205 4290266880
2.1078229 1.1794506 0.40326583 4290266880
2.1003485 1.1753546 0.4062387 4290266880
2.0957854 1.1728866 0.4092775 4290266880
2.0995512 1.1750771 0.41346371 4290266880
2.0940096 1.1720619 0.41533139 4290266880
2.0970497 1.1738473 0.41841203 4290266880
2.1010187 1.1761531 0.4211956 4290266880
2.1050587 1.1784991 0.4235065 4290266880
2.1005762 1.1760772 0.42360631 4290266880
2.096168 1.173697 0.42322111 4290266880
2.1004281 1.1761676 0.42408934 4290266880
2.0978 1.1747838 0.4230693 4290266880
2.0979106 1.1749331 0.42210615 4290266880
2.0934575 1.172528 0.41973245 4290266880
2.0988059 1.1756098 0.41883114 4290266880
2.0995002 1.1760868 0.41650426 4290266880
2.1047978 1.1791415 0.41459545 4290266880
2.0972772 1.17502 0.40968075 4290266880
2.1072304 1.1806825 0.40769657 4290266880
2.105562 1.1798383 0.4029724 4290266880
2.1092217 1.1819782 0.39879444 4290266880
2.1042478 1.1792831 0.39252388 4290266880
2.0954838 1.1744652 0.38512731 4290266880
2.0892756 1.1710783 0.37779728 4290136320
2.0926292 1.1730478 0.37176865 4290136320
2.1129925 1.1845478 0.36825603 4290266880
2.1191096 1.1880676 0.36174479 4290266880
2.1160676 1.186456 0.35324341 4290266880
2.0740361 1.1634977 0.28666058 4290136320
2.09919 1.1776936 0.27950281 4290136320
2.1224926 1.1908541 0.27153569 4290266880
2.1204696 1.1898152 0.2599099 4290266880
2.0780942 1.1661463 0.24328457 4290136320
2.0926044 1.1743782 0.23320903 4290136320
2.1110489 1.1848184 0.22312595 4290266880
2.0967829 1.1769117 0.20930979 4290136320
2.069972 1.1619663 0.19425115 4290005760
2.0859547 1.1710273 0.18306543 4290136320
2.0973237 1.1775012 0.17110477 4290136320
2.0961831 1.1769568 0.15786965 4290136320
2.0737898 1.1644861 0.14300518 4290005760
2.0923421 1.1749928 0.13083942 4290136320
2.1106443 1.1853609 0.11827659 4290136320
2.1019535 1.1805793 0.10400343 4290136320
2.0555997 1.1546547 0.088106938 4290005760
1.8800418 1.056191 0.068017714 4289222400
1.8064721 1.014972 0.053232484 4288961280
1.7586458 0.9882009 0.039968871 4288830720
1.8155463 1.0202335 0.029011665 4289091840
1.8069124 1.0154684 0.016628621 4288961280
1.7421447 0.97917598 0.0041892575 4288700160
1.840024 1.0342325 -0.0080338707 4289091840
2.0452113 1.1495752 -0.022737013 4289875200
2.093354 1.1767141 -0.037435211 4290136320
2.1018043 1.1815578 -0.051779304 4290136320
2.081748 1.1703856 -0.065297537 4290005760
2.1024396 1.1821079 -0.080015242 4290136320
2.065975 1.1617131 -0.092386797 4290005760
2.0112808 1.1310699 -0.1032471 4289744640
1.9448223 1.0938096 -0.11260098 4289483520
1.9640315 1.1046959 -0.12645185 4289614080
1.9687622 1.1074451 -0.13939452 4289614080
1.9759912 1.1115992 -0.15243869 4289614080
1.9622072 1.1039395 -0.16366425 4289614080
1.9802784 1.11419 -0.17738177 4289744640
1.972309 1.1097988 -0.18864679 4289614080
1.9742754 1.1109942 -0.2006155 4289614080
1.9532036 1.0992329 -0.20992126 4289614080
1.9514117 1.0983136 -0.22092699 4289614080
1.9567131 1.1013837 -0.23250882 4289614080
1.9607221 1.1037273 -0.24373247 4289614080
1.955494 1.1008744 -0.25353584 4289614080
1.9311203 1.0872488 -0.26042897 4289483520
1.9584154 1.1026937 -0.27398762 4289614080
1.9616849 1.1046212 -0.28404316 4289614080
1.954437 1.1006298 -0.29224378 4289614080
1.9511327 1.098857 -0.30065423 4289614080
1.9432724 1.0945195 -0.30797604 4289614080
1.9353154 1.0901266 -0.31486627 4289614080
1.93152 1.0880754 -0.3220256 4289614080
1.9348685 1.0900456 -0.33000371 4289614080
1.9281234 1.0863328 -0.33587709 4289614080
1.9432224 1.0949191 -0.3451882 4289614080
1.9436245 1.0952302 -0.3515532 4289614080
1.9280277 1.0865313 -0.3545824 4289614080
1.9312974 1.0884564 -0.36062539 4289614080
1.9266571 1.0859261 -0.36477619 4289614080
1.9220625 1.083421 -0.36849073 4289614080
1.921802 1.0833567 -0.37259543 4289614080
1.917232 1.0808642 -0.37542492 4289483520
1.9152739 1.0798426 -0.37831587 4289483520
1.9165332 1.0806335 -0.38139877 4289483520
1.905066 1.0742527 -0.38149869 4289483520
1.9133296 1.0789899 -0.38508838 4289483520
1.9087855 1.0765091 -0.38566223 4289483520
1.9128884 1.0789014 -0.38752663 4289483520
1.9084787 1.0764955 -0.38721886 4289483520
1.919504 1.0827898 -0.3895812 4289614080
1.9135251 1.0794984 -0.38804743 4289483520
1.9150569 1.0804409 -0.3875795 4289483520
1.919205 1.0828582 -0.38718328 4289614080
1.9310718 1.089628 -0.38787475 4289614080
1.9244606 1.0859785 -0.38440835 4289614080
1.9274988 1.0877699 -0.38241917 4289614080
1.9281605 1.0882208 -0.37950888 4289614080
1.9347824 1.0920334 -0.37731385 4289614080
1.9340433 1.091694 -0.37323803 4289614080
1.9315541 1.0903671 -0.36839923 4289614080
1.9336894 1.0916485 -0.36401355 4289614080
1.9300765 1.0896868 -0.35813209 4289614080
1.9222058 1.085322 -0.35108194 4289483520
1.9125062 1.0799243 -0.34334737 4289483520
1.9055631 1.0760812 -0.33576497 4289483520
1.9184569 1.0834323 -0.33126062 4289483520
1.929813 1.0899163 -0.32602486 4289614080
1.9350275 1.0929344 -0.31931984 4289614080
1.9301398 1.0902503 -0.31058887 4289614080
1.9145131 1.0815033 -0.29986948 4289483520
1.9197795 1.0845499 -0.29211664 4289483520
1.934516 1.0929434 -0.28537884 4289614080
1.9484513 1.1008856 -0.27806687 4289614080
1.9349532 1.093338 -0.26654029 4289614080
1.9281816 1.0895876 -0.25574046 4289483520
1.9489955 1.1014149 -0.24822672 4289614080
1.9644444 1.1102139 -0.23956282 4289614080
1.9713029 1.1141617 -0.22946768 4289744640
1.9334905 1.0928775 -0.21411385 4289483520
1.9533595 1.1041738 -0.20498604 4289614080
1.9531534 1.1041305 -0.1934204 4289614080
1.9506872 1.1028103 -0.1814355 4289614080
1.9396974 1.0966738 -0.16854452 4289483520
2.0165451 1.140168 -0.16265669 4289875200
2.0876884 1.1804441 -0.15520826 4290136320
2.0847073 1.1788371 -0.14167774 4290136320
2.0756752 1.1738099 -0.12766153 4290005760
2.0701957 1.1707898 -0.11381817 4290005760
1.9322556 1.0928996 -0.093557611 4289483520
1.7504917 0.9902271 -0.073202498 4288830720
1.828512 1.0343964 -0.064215161 4289091840
1.7948351 1.0154252 -0.050982282 4288961280
1.8202734 1.0298736 -0.03940675 4289091840
1.6781735 0.94959641 -0.025011241 4288569600
1.7830578 1.0089645 -0.014427595 4288961280
1.8106124 1.0246119 -0.0023312031 4288961280
2.0376015 1.1530449 0.011305923 4289875200
2.0955384 1.1858866 0.02587869 4290136320
2.0959179 1.1861787 0.040092438 4290136320
2.1205666 1.2001979 0.054902416 4290266880
2.1162205 1.1978178 0.069031894 4290266880
2.1008101 1.1891782 0.082590513 4290136320
2.0924225 1.1845108 0.096178576 4290136320
2.1021631 1.1900991 0.11050839 4290136320
2.1033089 1.1908253 0.12433603 4290136320
2.0548532 1.1634847 0.13477859 4290005760
2.1148198 1.1974955 0.15228072 4290266880
2.1080287 1.1937308 0.16513628 4290136320
2.0959258 1.1869596 0.17727554 4290136320
2.031853 1.1507727 0.18434483 4289875200
2.1319709 1.2075192 0.20635366 4290266880
2.1243823 1.2033033 0.21825027 4290266880
2.116029 1.1986542 0.22973362 4290266880
2.0956254 1.1871823 0.23948725 4290136320
1.9838644 1.1239837 0.2377786 4289744640
2.1247749 1.2038457 0.26627961 4290266880
2.1110642 1.1961625 0.27577588 4290266880
2.0991499 1.1894957 0.28506446 4290266880
2.0858347 1.1820347 0.29371479 4290136320
2.0456939 1.1593796 0.2979919 4290005760
2.1109986 1.1964476 0.31742033 4290266880
2.1022568 1.191577 0.32561204 4290266880
2.1062124 1.1938989 0.3353807 4290266880
2.1048155 1.193189 0.34392643 4290266880
2.0965066 1.1885631 0.35091093 4290266880
2.0868833 1.1831921 0.35720477 4290136320
2.0922899 1.1863375 0.36564672 4290266880
2.0874205 1.18366 0.37187451 4290136320
2.0902152 1.1853261 0.37903276 4290266880
2.0902388 1.1854222 0.38525975 4290266880
2.0853617 1.1827406 0.3901239 4290136320
2.0917127 1.1864237 0.39664036 4290266880
2.0906262 1.1858913 0.40129879 4290266880
2.0814526 1.1807745 0.40391544 4290136320
2.0769074 1.1782814 0.40693235 4290136320
2.0798063 1.180009 0.41092995 4290136320
2.0785706 1.1793928 0.4136332 4290136320
2.0824587 1.1816825 0.41687563 4290266880
2.0864155 1.1840116 0.41965213 4290266880
2.086159 1.1839519 0.42109272 4290266880
2.081692 1.181504 0.42118698 4290266880
2.0858643 1.183957 0.422535 4290266880
2.0823143 1.1820297 0.42182329 4290266880
2.0823505 1.1821373 0.42134356 4290266880
2.086405 1.1845249 0.42118114 4290266880
2.0856555 1.1841873 0.41955325 4290266880
2.0876334 1.1853977 0.4179813 4290266880
2.0806115 1.1815014 0.41412348 4290136320
2.0816035 1.1821529 0.41138381 4290136320
2.0818861 1.1824021 0.40802115 4290136320
2.0840194 1.1837022 0.4045406 4290266880
2.0885298 1.1863524 0.40103668 4290266880
2.0894258 1.1869512 0.39635998 4290266880
2.089613 1.187148 0.39108565 4290266880
2.0765815 1.1798395 0.3829177 4290136320
2.0746834 1.1788522 0.37640217 4290136320
2.0720103 1.1774249 0.36932522 4290136320
2.0954306 1.1908171 0.36640587 4290266880
2.1078484 1.1979624 0.36101615 4290266880
2.1091158 1.1987755 0.35325181 4290266880
2.0673153 1.1754031 0.28666869 4290136320
2.08813 1.1873242 0.27894104 4290136320
2.111294 1.2005824 0.2709876 4290266880
2.0971725 1.1926522 0.25789377 4290136320
2.0615845 1.1725198 0.24214049 4290005760
2.0713203 1.1781476 0.23159008 4290136320
2.0955489 1.1920153 0.22221072 4290136320
2.0778608 1.1820549 0.20809671 4290136320
2.0577068 1.170691 0.19372986 4290005760
2.0713906 1.178566 0.18237898 4290005760
2.0824957 1.1849759 0.17044728 4290136320
2.0893855 1.1889896 0.15787002 4290136320
2.0583875 1.1714557 0.14240253 4290005760
2.085556 1.1870037 0.13083816 4290136320
2.101835 1.1963599 0.11816362 4290136320
2.0907934 1.1901754 0.10378391 4290136320
2.0489311 1.166455 0.08810322 4290005760
1.8617796 1.0600646 0.067568727 4289222400
1.7797575 1.013478 0.0526051 4288961280
1.7451177 0.99384773 0.039782833 4288830720
1.8053086 1.0281842 0.02893451 4288961280
1.7801899 1.0139711 0.016422585 4288961280
1.7949693 1.0224661 0.0043429267 4288961280
1.7662489 1.0062 -0.0077673667 4288830720
1.7678998 1.0072216 -0.019809367 4288830720
2.0007443 1.139873 -0.035932228 4289744640
2.0734184 1.1813458 -0.051264595 4290005760
2.0630884 1.1755595 -0.064938985 4290005760
2.0869272 1.1892307 -0.079699323 4290136320
2.0577378 1.1727028 -0.092332087 4290005760
1.9960668 1.1376712 -0.10281651 4289744640
1.9417857 1.1068435 -0.11280394 4289614080
1.9455048 1.1090516 -0.12568587 4289614080
1.9593469 1.1170273 -0.1391958 4289614080
1.9505373 1.112098 -0.15098773 4289614080
1.9479887 1.1107355 -0.1630263 4289614080
1.9680469 1.1222551 -0.17687884 4289614080
1.9669534 1.1217221 -0.18876344 4289614080
1.9572635 1.1162894 -0.19955572 4289614080
1.9352273 1.1038183 -0.20868838 4289614080
1.9450669 1.1095154 -0.220943 4289614080
1.9460297 1.1101528 -0.23201165 4289614080
1.9457088 1.1100583 -0.24267508 4289614080
1.9384683 1.1060182 -0.25216901 4289614080
1.9205252 1.0958743 -0.25986281 4289483520
1.9442841 1.1095098 -0.27291736 4289614080
1.9466847 1.1109664 -0.28281036 4289614080
1.9394646 1.1069359 -0.29097041 4289614080
1.9416467 1.1082674 -0.30018514 4289614080
1.9283442 1.1007659 -0.30662593 4289614080
1.9219172 1.0971854 -0.31372413 4289483520
1.920936 1.0967109 -0.32132161 4289483520
1.9285712 1.1011525 -0.33001599 4289614080
1.9304352 1.1023014 -0.33738524 4289614080
1.9326054 1.1036248 -0.34443626 4289614080
1.9287177 1.101491 -0.35001048 4289614080
1.9174631 1.0951518 -0.35380241 4289614080
1.9207234 1.0970964 -0.35983264 4289614080
1.9203842 1.0969863 -0.36478326 4289614080
1.9115211 1.0920097 -0.36767504 4289483520
1.9112625 1.0919446 -0.37176961 4289483520
1.9109889 1.0918705 -0.37542856 4289483520
1.900478 1.0859506 -0.37662658 4289483520
1.9025906 1.0872383 -0.3798663 4289483520
1.9022089 1.0871012 -0.38216916 4289483520
1.8951229 1.0831348 -0.38267496 4289483520
1.9068447 1.0899101 -0.38652363 4289483520
1.8981061 1.0849987 -0.38578838 4289483520
1.8979868 1.0850101 -0.38634458 4289483520
1.9047005 1.088925 -0.38783666 4289483520
1.9107122 1.0924389 -0.38873199 4289483520
1.9130943 1.0938792 -0.38843414 4289614080
1.9007925 1.0869285 -0.38471544 4289483520
1.9128066 1.0938724 -0.38545313 4289614080
1.9181911 1.097028 -0.38439164 4289614080
1.9254971 1.1012821 -0.38324979 4289614080
1.9253016 1.1012486 -0.38016245 4289614080
1.9241987 1.1006961 -0.37645614 4289614080
1.9320228 1.1052465 -0.37404007 4289614080
1.9209781 1.0990098 -0.3675555 4289614080
1.9145374 1.0954041 -0.36156452 4289483520
1.9152168 1.0958689 -0.35651046 4289483520
1.9125124 1.0943986 -0.35042274 4289483520
1.8942657 1.0840394 -0.34115636 4289483520
1.899353 1.0870237 -0.33572859 4289483520
1.9048415 1.0902375 -0.32995012 4289483520
1.9157939 1.0965768 -0.32467762 4289483520
1.9330168 1.1065037 -0.31998566 4289614080
1.9195502 1.098875 -0.3098518 4289483520
1.9125729 1.0949577 -0.30049604 4289483520
1.9090306 1.0930051 -0.2913841 4289483520
1.9239047 1.1015894 -0.28469217 4289483520
1.9377922 1.1096101 -0.27739814 4289614080
1.9243355 1.1019837 -0.26589102 4289483520
1.9132723 1.0957258 -0.25453961 4289483520
1.9347001 1.1080627 -0.24715559 4289614080
1.9460808 1.1146504 -0.23804258 4289614080
1.948328 1.1160105 -0.22747794 4289614080
1.9035707 1.0904628 -0.21143557 4289483520
1.9410188 1.1119735 -0.20429209 4289614080
1.9467818 1.1153461 -0.19335034 4289614080
1.9432688 1.113408 -0.18126583 4289614080
1.9363135 1.1094983 -0.16872689 4289614080
2.0021739 1.1472852 -0.16195175 4289744640
2.0730817 1.1879675 -0.15454787 4290136320
2.0703681 1.1864909 -0.1410832 4290005760
2.0403082 1.1693513 -0.12582347 4290005760
1.9462875 1.1155733 -0.10731521 4289614080
1.7550821 1.0061182 -0.085244693 4288830720
1.7282991 0.99084044 -0.072443105 4288700160
1.7418656 0.99867696 -0.061326098 4288830720
1.7855023 1.0237429 -0.050805457 4288961280
1.806519 1.0358512 -0.039158817 4289091840
1.6726898 0.95923245 -0.024935301 4288569600
1.7685548 1.0142299 -0.014279093 4288830720
1.8168416 1.0419681 -0.0022588235 4289091840
2.0197968 1.1583542 0.011334745 4289875200
2.080013 1.1929427 0.025866337 4290136320
2.0871041 1.1970845 0.040152635 4290136320
2.0971537 1.2029228 0.054569349 4290136320
2.1006284 1.2049927 0.068845622 4290136320
2.0818009 1.1942768 0.082207762 4290136320
2.0862217 1.1968889 0.096307717 4290136320
2.0953469 1.2021989 0.11061133 4290136320
2.0829976 1.1951957 0.12363542 4290136320
2.0360041 1.1683246 0.13407439 4289875200
2.095778 1.2026809 0.15150136 4290136320
2.1011288 1.2058282 0.16523489 4290136320
2.0847392 1.1965064 0.1770048 4290136320
2.0328496 1.1668204 0.18513669 4289875200
2.1077034 1.2098366 0.20476827 4290266880
2.1053305 1.2085547 0.21709679 4290266880
2.1038105 1.2077622 0.22925085 4290266880
2.0766778 1.1922743 0.23819141 4290136320
2.0147862 1.1568398 0.24237293 4289875200
2.1057429 1.2091107 0.26484996 4290266880
2.0982902 1.2049142 0.27509534 4290266880
2.0922716 1.2015404 0.28515053 4290266880
2.0669475 1.1870859 0.29209343 4290136320
2.0346875 1.1686485 0.29744241 4290005760
2.0877414 1.1991813 0.31503302 4290136320
2.0899503 1.2005303 0.32484734 4290266880
2.090718 1.2010522 0.33408245 4290266880
2.0876236 1.1993569 0.34231049 4290266880
2.0783908 1.1941373 0.34909126 4290136320
2.0594561 1.183346 0.35373348 4290136320
2.0756991 1.1927549 0.36400345 4290136320
2.0760336 1.1930289 0.37112316 4290136320
2.073086 1.1914183 0.37722012 4290136320
2.0671177 1.1880727 0.38230446 4290136320
2.0699654 1.189791 0.38856813 4290136320
2.0685987 1.1890888 0.39359429 4290136320
2.0794947 1.1954318 0.40051979 4290266880
2.0728426 1.1916939 0.4036091 4290136320
2.0783072 1.1949177 0.40858486 4290266880
2.0652959 1.1875257 0.40943852 4290136320
2.0512514 1.1795393 0.40956751 4290136320
2.0628183 1.186271 0.41432738 4290136320
2.062494 1.1861695 0.41622606 4290136320
2.0622406 1.1861092 0.41765082 4290136320
2.066328 1.1885443 0.41946724 4290136320
2.0704873 1.1910216 0.42080921 4290136320
2.0678029 1.1895648 0.4202669 4290136320
2.055032 1.1823092 0.41718364 4290136320
2.0676107 1.1896285 0.41875654 4290136320
2.0702784 1.19125 0.4178223 4290136320
2.0645628 1.188051 0.41470921 4290136320
2.0609784 1.1860776 0.41154832 4290136320
2.0706952 1.1917546 0.41055372 4290136320
2.0750611 1.194355 0.40799683 4290136320
2.0721335 1.1927603 0.40352708 4290136320
2.0697141 1.1914582 0.39869648 4290136320
2.0791554 1.1969801 0.39567086 4290266880
2.0784855 1.1966853 0.39023986 4290266880
2.0654953 1.1893013 0.3820793 4290136320
2.0550404 1.1833755 0.37401274 4290136320
2.056653 1.1843941 0.36773777 4290136320
2.0722814 1.19348 0.36348829 4290136320
2.0846512 1.2006919 0.35815117 4290266880
2.085907 1.2015076 0.35044301 4290266880
2.0505121 1.1821766 0.28532287 4290005760
2.0723701 1.1948642 0.27779567 4290136320
2.0920055 1.2062732 0.26944399 4290266880
2.0770643 1.1977582 0.25630918 4290136320
2.0424533 1.1779054 0.24072947 4290005760
2.0642219 1.1905459 0.23160487 4290136320
2.0840535 1.2020721 0.22176732 4290136320
2.0707388 1.1944923 0.20811448 4290136320
2.0428822 1.1785277 0.19301319 4290005760
2.0591676 1.1880115 0.18194613 4290005760
2.075356 1.197441 0.17046976 4290136320
2.0692554 1.194019 0.1569082 4290136320
2.0392237 1.1767954 0.14158472 4290005760
2.0709271 1.1951748 0.13039309 4290136320
2.0859749 1.2039504 0.11770274 4290136320
2.0742788 1.1973004 0.10334699 4290136320
2.0281413 1.1707805 0.087537646 4289875200
1.8761705 1.0831975 0.068362124 4289352960
1.8339521 1.0589255 0.054443546 4289091840
1.7883096 1.0326738 0.040955726 4288961280
1.7861234 1.0314956 0.028755065 4288961280
1.761956 1.0176313 0.01634085 4288830720
1.7844791 1.0307131 0.0043672379 4288961280
1.7350713 1.0022773 -0.0076286835 4288830720
1.7652963 1.0198059 -0.019808654 4288830720
1.7616681 1.0177935 -0.031782012 4288830720
1.8217411 1.052559 -0.045231823 4289091840
2.0570538 1.1885138 -0.064922787 4290005760
2.0704908 1.1963687 -0.079296477 4290136320
2.0444093 1.181403 -0.092001058 4290005760
1.9856797 1.1475794 -0.10258439 4289744640
1.9264717 1.1134739 -0.11225291 4289483520
1.9345033 1.1182027 -0.12535608 4289614080
1.941017 1.1220552 -0.13832085 4289614080
1.8936743 1.0947939 -0.14705889 4289352960
1.881827 1.0880365 -0.15800339 4289352960
1.952145 1.1287545 -0.17600331 4289614080
1.9534386 1.1295921 -0.18806013 4289614080
1.9432955 1.1238203 -0.19876221 4289614080
1.9242719 1.1129148 -0.20816907 4289483520
1.9383879 1.1211622 -0.22088772 4289614080
1.939347 1.1218054 -0.23195629 4289614080
1.9390268 1.1217091 -0.24261981 4289614080
1.9361124 1.1201127 -0.2526736 4289614080
1.9053307 1.1024033 -0.25864545 4289483520
1.937606 1.1211525 -0.27286303 4289614080
1.9322678 1.1181533 -0.28163338 4289614080
1.9370944 1.1210321 -0.29156148 4289614080
1.9218016 1.1122746 -0.29809552 4289614080
1.9131438 1.1073533 -0.30521098 4289483520
1.906105 1.1033676 -0.31217065 4289483520
1.9109088 1.1062319 -0.32069957 4289483520
1.9133816 1.1077478 -0.3285026 4289483520
1.9195218 1.1113856 -0.33659083 4289614080
1.9139873 1.1082681 -0.34225601 4289614080
1.9178129 1.1105666 -0.34919125 4289614080
1.9151448 1.109107 -0.35455039 4289614080
1.9064311 1.104148 -0.35835218 4289483520
1.9095111 1.1060143 -0.36393455 4289614080
1.9039881 1.1029005 -0.36745557 4289483520
1.9012756 1.101413 -0.37107262 4289483520
1.9001499 1.1008437 -0.37455976 4289483520
1.8939402 1.0973303 -0.3765991 4289483520
1.8875173 1.0936929 -0.37813756 4289483520
1.8889174 1.0945845 -0.38079059 4289483520
1.8920106 1.0964564 -0.38334468 4289483520
1.8801622 1.0896748 -0.38242564 4289483520
1.883902 1.0919205 -0.38421479 4289483520
1.8914521 1.0963734 -0.38633433 4289483520
1.8947333 1.0983536 -0.38713497 4289483520
1.9007232 1.1019031 -0.38803416 4289483520
1.8903129 1.0959511 -0.38514346 4289483520
1.9021015 1.10286 -0.38631025 4289483520
1.9096254 1.1072985 -0.38614759 4289614080
1.9073185 1.1060404 -0.38354725 4289614080
1.904669 1.1045833 -0.38043693 4289483520
1.9067255 1.1058531 -0.37782106 4289614080
1.9175649 1.1122135 -0.37647822 4289614080
1.9168284 1.1118644 -0.37241286 4289614080
1.9143534 1.1105071 -0.36758551 4289614080
1.9045187 1.104883 -0.360953 4289483520
1.9051934 1.1053506 -0.35591206 4289483520
1.9016418 1.1033676 -0.34968147 4289483520
1.8877292 1.0953761 -0.3412022 4289483520
1.8931596 1.0986001 -0.33584264 4289483520
1.8897119 1.0966756 -0.32852158 4289483520
1.9126041 1.110027 -0.32531714 4289483520
1.9177805 1.1131046 -0.31863081 4289614080
1.9052122 1.1058894 -0.3086738 4289483520
1.8929242 1.0988358 -0.29851666 4289483520
1.89815 1.1019412 -0.29080468 4289483520
1.9095381 1.1086218 -0.28362903 4289483520
1.9268068 1.1187152 -0.27686831 4289614080
1.917688 1.1134984 -0.26597944 4289483520
1.9066625 1.1071743 -0.25463155 4289483520
1.913848 1.1114174 -0.24544196 4289483520
1.9263337 1.118737 -0.23655063 4289614080
1.8836573 1.0940413 -0.22081716 4289352960
1.8749317 1.0890485 -0.20909193 4289352960
1.934965 1.1239675 -0.20447366 4289614080
1.9322993 1.1224935 -0.19269699 4289614080
1.9331051 1.1230346 -0.18106444 4289614080
1.9180633 1.1143745 -0.1678433 4289483520
1.9806422 1.1507818 -0.16090113 4289744640
2.0559185 1.1945664 -0.15394172 4290005760
2.013041 1.1697448 -0.13780892 4289875200
1.8223898 1.0591025 -0.11297781 4289091840
1.7442786 1.013806 -0.09670724 4288830720
1.7533363 1.0191323 -0.085582033 4288830720
1.7059072 0.99164891 -0.071886338 4288700160
1.7315243 1.0065935 -0.061306469 4288830720
1.758586 1.022379 -0.050356224 4288830720
1.7752055 1.0321001 -0.038761109 4288961280
1.6919848 0.98381531 -0.025434766 4288569600
1.7503394 1.0177846 -0.014325274 4288830720
1.7984598 1.0458115 -0.0023930557 4288961280
1.9907981 1.1576484 0.011042064 4289744640
2.0641832 1.2003704 0.025586603 4290005760
2.0721154 1.2050576 0.039829198 4290136320
2.0815747 1.2106332 0.054176748 4290136320
2.0873275 1.2140548 0.068471394 4290136320
2.0659716 1.2017189 0.081690773 4290136320
2.0660603 1.2018479 0.095531724 4290136320
2.0751579 1.2072145 0.10974879 4290136320
2.0758057 1.207669 0.12346242 4290136320
2.0160284 1.1729897 0.13304843 4289875200
2.07215 1.2056996 0.15013732 4290136320
2.0688643 1.203867 0.16308586 4290136320
2.0727997 1.2062337 0.17643066 4290136320
2.0172148 1.1739841 0.18418434 4289875200
