# .PCD v0.7 - Point Cloud Data file format
VERSION 0.7
FIELDS x y z rgba
SIZE 4 4 4 4
TYPE F F F U
COUNT 1 1 1 1
WIDTH 1103
HEIGHT 1
VIEWPOINT 0 0 0 1 0 0 0
POINTS 1103
DATA ascii
1.6891233 -2.4947169 0.46733421 4292225280
1.6478581 -2.4336066 0.46402788 4292094720
1.6710794 -2.4677334 0.47824854 4292225280
1.6893423 -2.4945338 0.49068165 4292355840
1.7098486 -2.5246434 0.50335628 4292355840
1.6612045 -2.4526527 0.49499556 4292094720
1.6690807 -2.4641149 0.50275195 4292225280
1.6847425 -2.4870684 0.5123387 4292225280
1.6866307 -2.4896874 0.51718944 4292225280
1.6974146 -2.5054364 0.52419245 4292355840
1.6971995 -2.5049493 0.52720916 4292355840
1.6970413 -2.5045464 0.52962643 4292355840
1.7074391 -2.5197213 0.53472918 4292355840
1.6991105 -2.507261 0.53334653 4292355840
1.6969193 -2.5038583 0.53325891 4292355840
1.6914726 -2.4956527 0.53152293 4292355840
1.6916108 -2.4956877 0.53091931 4292355840
1.6785451 -2.476244 0.52555966 4292225280
1.6732723 -2.4682984 0.52204067 4292225280
1.6525761 -2.437604 0.51313567 4292094720
1.6983244 -2.5049148 0.52420872 4292355840
1.6827136 -2.4817221 0.51568061 4292225280
1.6671481 -2.4585991 0.50663936 4292094720
1.6927775 -2.4962268 0.50949222 4292355840
1.6745384 -2.4691637 0.49853399 4292225280
1.6568868 -2.4429708 0.48729539 4292094720
1.6945009 -2.4982615 0.4916611 4292355840
1.6841348 -2.4828103 0.48143262 4292225280
1.6456861 -2.4259639 0.46284282 4291964160
1.624066 -2.3939312 0.44873759 4291833600
1.5833855 -2.3338087 0.42917126 4291572480
1.511994 -2.2284315 0.40140069 4291180800
1.4692892 -2.1653452 0.38143554 4290919680
1.6970726 -2.4999468 0.36476782 4292225280
1.6662264 -2.4543412 0.34501347 4292094720
1.6936049 -2.4945014 0.3369517 4292225280
1.6731035 -2.464138 0.3189382 4292094720
1.6712172 -2.4611936 0.30430666 4292094720
1.6749009 -2.4664519 0.29033709 4292094720
1.6679362 -2.4560297 0.27423182 4292094720
1.6715723 -2.4612174 0.25959736 4292094720
1.672382 -2.4622431 0.24419901 4292094720
1.6703578 -2.4590967 0.22813177 4292094720
1.6954108 -2.4958112 0.21529303 4292225280
1.6717987 -2.4608853 0.19603013 4292094720
1.6236557 -2.3898573 0.17438267 4291703040
1.6085403 -2.367449 0.15671927 4291703040
1.6865182 -2.4820492 0.14732204 4292094720
1.6557522 -2.4366062 0.12779458 4291964160
1.6251211 -2.3913677 0.10876762 4291703040
1.4325505 -2.1078575 0.081088379 4290658560
1.4351221 -2.1114988 0.066330262 4290658560
1.4204556 -2.0897784 0.050831478 4290528000
1.429127 -2.1023939 0.036176607 4290528000
1.4329028 -2.107806 0.021229737 4290658560
1.4322107 -2.1066456 0.0061628101 4290528000
1.4061325 -2.0681472 -0.0087370742 4290397440
1.4196358 -2.0878668 -0.023739766 4290528000
1.4268578 -2.0983467 -0.038828116 4290528000
1.4217622 -2.0907118 -0.053560469 4290528000
1.4264008 -2.0973911 -0.06859538 4290528000
1.4382629 -2.1146903 -0.084073499 4290658560
1.4431314 -2.1217053 -0.099223636 4290658560
1.4172553 -2.0835211 -0.1119367 4290528000
1.4208454 -2.0886579 -0.12662619 4290528000
1.437072 -2.1123686 -0.14250243 4290658560
1.4310969 -2.1034436 -0.15612446 4290658560
1.4101385 -2.0724986 -0.16767552 4290528000
1.43265 -2.1054418 -0.18422353 4290658560
1.4459015 -2.124773 -0.19972247 4290658560
1.4470332 -2.1262922 -0.2134642 4290658560
1.4308194 -2.1023257 -0.22427249 4290658560
1.3478137 -1.9802302 -0.22346239 4290136320
1.4396461 -2.1150091 -0.25145501 4290658560
1.4457355 -2.1238117 -0.26505911 4290658560
1.4503803 -2.130491 -0.27819523 4290789120
1.420572 -2.0865641 -0.28420553 4290528000
1.3397561 -1.9677274 -0.27879769 4290136320
1.4469671 -2.1250467 -0.31239143 4290789120
1.4596866 -2.1435821 -0.32616562 4290789120
1.4545816 -2.1359413 -0.33564773 4290789120
1.4480482 -2.1262038 -0.3443372 4290789120
1.4333977 -2.1045499 -0.35056067 4290658560
1.4338343 -2.1050489 -0.35997891 4290658560
1.433534 -2.1044657 -0.3688027 4290658560
1.4379267 -2.1107719 -0.37843639 4290658560
1.442893 -2.1179192 -0.38784131 4290789120
1.4386952 -2.1116147 -0.39434314 4290658560
1.4387103 -2.1114945 -0.40152359 4290658560
1.4230529 -2.0883741 -0.40379387 4290658560
1.4209895 -2.0852053 -0.40937269 4290658560
1.3845075 -2.0315332 -0.40440664 4290397440
1.3868868 -2.0348873 -0.41018516 4290397440
1.3467064 -1.9757998 -0.40277469 4290136320
1.3547245 -1.9874293 -0.409201 4290266880
1.3622253 -1.9982982 -0.41503751 4290266880
1.3725414 -2.0132957 -0.42129049 4290397440
1.3701347 -2.0096295 -0.42316478 4290266880
1.3777629 -2.0206819 -0.42765075 4290397440
1.374894 -2.0163381 -0.42838645 4290397440
1.3698536 -2.0088105 -0.42793646 4290266880
1.3698553 -2.0086772 -0.42855626 4290266880
1.3671308 -2.0045469 -0.42782095 4290266880
1.3589048 -1.9923513 -0.42486507 4290266880
1.3590502 -1.9924299 -0.42403114 4290266880
1.3570226 -1.9893231 -0.42202485 4290266880
1.3887382 -2.0356791 -0.42997712 4290397440
1.3834772 -2.0278304 -0.42594373 4290397440
1.4276074 -2.0923731 -0.43653604 4290658560
1.4273593 -2.0918684 -0.43295708 4290658560
1.4401474 -2.1104674 -0.43279269 4290789120
1.4400675 -2.110208 -0.42822218 4290789120
1.4388684 -2.1083088 -0.42282602 4290658560
1.439213 -2.1086714 -0.41739625 4290658560
1.4398139 -2.1094093 -0.41155404 4290658560
1.4300892 -2.0950208 -0.40232664 4290658560
1.4246799 -2.0869555 -0.39391983 4290658560
1.4420325 -2.112232 -0.39129063 4290658560
1.4469472 -2.1192882 -0.38472179 4290789120
1.4571869 -2.1341417 -0.37904295 4290789120
1.4512544 -2.1253099 -0.36870211 4290789120
1.4394642 -2.1079013 -0.35656464 4290658560
1.4263434 -2.088547 -0.34385511 4290658560
1.4413998 -2.110451 -0.33753264 4290658560
1.4477633 -2.1196253 -0.32864442 4290789120
1.4446551 -2.1149321 -0.31721419 4290658560
1.4323548 -2.0967832 -0.30352747 4290658560
1.4331592 -2.0978193 -0.29236659 4290658560
1.4470869 -2.1180634 -0.28343758 4290658560
1.4490108 -2.1207364 -0.27171329 4290658560
1.4466881 -2.1171942 -0.25889561 4290658560
1.4228054 -2.0821021 -0.24216285 4290528000
1.4350491 -2.0998774 -0.23141189 4290658560
1.4413424 -2.1089442 -0.21928053 4290658560
1.4332973 -2.0970314 -0.20474511 4290528000
1.428393 -2.0897148 -0.19055593 4290528000
1.4444425 -2.1130526 -0.17884718 4290658560
1.4469762 -2.1166165 -0.16509232 4290658560
1.4431089 -2.110817 -0.15044187 4290658560
1.3452218 -1.9675061 -0.12684052 4290005760
1.4454762 -2.1139944 -0.12175155 4290658560
1.4447767 -2.112829 -0.10702711 4290658560
1.4273268 -2.0871696 -0.091132864 4290528000
1.4356271 -2.0991657 -0.076878533 4290528000
1.4469446 -2.1155713 -0.062501393 4290658560
1.4458218 -2.1137872 -0.047415268 4290658560
1.4037347 -2.0521176 -0.03138683 4290397440
1.4500648 -2.1197047 -0.017257504 4290658560
1.4369379 -2.1003742 -0.0020562655 4290528000
1.5577224 -2.2767715 0.014081445 4291311360
-3.42571 5.00669 -0.066800758 4278190335
1.7107377 -2.500082 0.051215913 4292225280
1.6234978 -2.3724291 0.065496348 4291703040
1.569868 -2.2939048 0.079597116 4291311360
1.6017789 -2.3403757 0.097720794 4291572480
1.7071334 -2.4941421 0.12162533 4292225280
1.6902132 -2.4692552 0.13759176 4292094720
1.6378895 -2.3926535 0.14982659 4291833600
1.6359284 -2.3896277 0.16595769 4291833600
1.672546 -2.442951 0.18616191 4291964160
1.701894 -2.4856496 0.20599936 4292225280
1.693601 -2.4733708 0.22126038 4292094720
1.6510609 -2.4110818 0.23132156 4291833600
1.6865433 -2.4627318 0.25198674 4292094720
1.6993754 -2.481302 0.26943675 4292225280
1.6909609 -2.4688494 0.28326166 4292094720
1.6838412 -2.4582889 0.29685128 4292094720
1.6639374 -2.4290671 0.30762365 4291964160
1.6454512 -2.4019186 0.3179895 4291833600
1.5389135 -2.2462506 0.30995941 4291180800
1.4623729 -2.1343856 0.30614713 4290789120
1.3971925 -2.039115 0.30325997 4290397440
-3.402092 4.9648056 -0.76378679 4278190335
1.4860578 -2.1685162 0.3443301 4290919680
1.5135493 -2.2084839 0.36120367 4291050240
1.5638555 -2.2817342 0.38363817 4291441920
1.5687449 -2.2887139 0.39486134 4291441920
1.5837172 -2.3104019 0.40829456 4291572480
1.5914267 -2.3214927 0.41952455 4291572480
1.6668509 -2.4313538 0.44858417 4292094720
1.6879833 -2.4620128 0.46304223 4292225280
1.6513959 -2.4084859 0.46106479 4291964160
1.6670021 -2.431083 0.47301993 4292094720
1.6876596 -2.4610434 0.48601988 4292225280
1.708346 -2.4910417 0.49863285 4292355840
1.6648664 -2.4274781 0.49186409 4292094720
1.6700234 -2.4348333 0.49875435 4292094720
1.6880521 -2.4609525 0.50897616 4292225280
1.6854978 -2.4570632 0.5124436 4292225280
1.700835 -2.4792542 0.52077901 4292225280
1.7006183 -2.4787714 0.52377611 4292225280
1.7060317 -2.4864945 0.52790201 4292355840
1.7031441 -2.4821186 0.52884609 4292355840
1.7086744 -2.4900107 0.53178573 4292355840
1.7003337 -2.4776893 0.52978647 4292225280
1.6981825 -2.4743879 0.52909219 4292225280
1.6849446 -2.4549341 0.52432913 4292225280
1.6823536 -2.4509938 0.52227211 4292225280
1.6692286 -2.4317083 0.51635009 4292094720
1.7019211 -2.4791675 0.52396363 4292355840
1.7022938 -2.4795434 0.52096593 4292355840
1.6837564 -2.4523768 0.51161271 4292225280
1.6630307 -2.4220271 0.50109118 4292094720
1.6938965 -2.4668138 0.50549465 4292225280
1.6704702 -2.4325345 0.49309507 4292094720
1.7083462 -2.4875219 0.49815884 4292355840
1.7034398 -2.4802108 0.49005359 4292225280
1.6935405 -2.4656312 0.48000661 4292225280
1.6625887 -2.4204054 0.4636226 4291964160
1.6323907 -2.3762832 0.44720474 4291833600
1.6210274 -2.3595827 0.43564031 4291703040
1.4918505 -2.1714053 0.39268774 4290919680
1.4924823 -2.1721787 0.38416457 4290919680
1.6981119 -2.4703813 0.36189136 4292225280
1.7071574 -2.4833734 0.35048684 4292225280
1.7030426 -2.477221 0.33595213 4292225280
1.6795452 -2.4428775 0.31744757 4292094720
1.6776375 -2.4399388 0.30288205 4292094720
1.678528 -2.4410694 0.28849551 4292094720
1.7066922 -2.4818616 0.2782217 4292225280
1.6695129 -2.4276323 0.25707659 4291964160
1.6810514 -2.4442458 0.24338134 4292094720
1.6790062 -2.441108 0.22736661 4291964160
1.6991827 -2.4702764 0.21394072 4292094720
1.6753631 -2.4354835 0.1947809 4291964160
1.623974 -2.36062 0.17293677 4291703040
1.6058935 -2.3341811 0.15513375 4291572480
1.677206 -2.4376705 0.14526549 4291964160
1.6471097 -2.3937671 0.12604895 4291833600
1.5767133 -2.2913051 0.10463247 4291441920
1.4389265 -2.0909302 0.080758341 4290528000
1.4634922 -2.1264842 0.067067727 4290658560
1.4490454 -2.105351 0.051414747 4290658560
1.454958 -2.1137993 0.036518112 4290658560
1.4547906 -2.113414 0.021371227 4290658560
1.4523987 -2.1097972 0.0061966795 4290658560
1.4317673 -2.0796878 -0.0088209193 4290528000
1.450489 -2.1067398 -0.024050042 4290658560
1.4577715 -2.1171749 -0.039333012 4290658560
1.4424242 -2.0947442 -0.053878158 4290528000
1.4420067 -2.0939972 -0.068757996 4290528000
1.4641644 -2.1260302 -0.084862046 4290658560
1.4690715 -2.1330123 -0.100151 4290789120
1.4401373 -2.0908606 -0.11277988 4290528000
1.4494205 -2.1041968 -0.12807804 4290658560
1.4601166 -2.1195824 -0.14356056 4290658560
1.4569179 -2.1147969 -0.1575945 4290658560
1.4357754 -2.0839672 -0.16927731 4290528000
1.4533808 -2.1093791 -0.1853058 4290658560
1.4690045 -2.131911 -0.20119454 4290789120
1.4757957 -2.141623 -0.21586286 4290789120
1.4622624 -2.1218412 -0.22725938 4290658560
1.4133992 -2.0507996 -0.23235124 4290397440
1.4654989 -2.1262517 -0.25380251 4290789120
1.4744562 -2.1391037 -0.2680352 4290789120
1.473267 -2.1372347 -0.2801919 4290789120
1.446241 -2.0978878 -0.28689075 4290658560
1.3669829 -1.9827843 -0.28205466 4290136320
1.4756646 -2.1402812 -0.31588951 4290789120
1.4845488 -2.1530221 -0.32891247 4290919680
1.4877815 -2.1575654 -0.34040219 4290919680
1.4767208 -2.1413813 -0.34818265 4290789120
1.456321 -2.1116579 -0.35315204 4290789120
1.4573178 -2.1129611 -0.3627778 4290789120
1.4620664 -2.1197035 -0.37295958 4290789120
1.4681246 -2.1283438 -0.38311389 4290789120
1.4630682 -2.1208708 -0.38993621 4290789120
1.4705594 -2.1315868 -0.39966616 4290789120
1.4588419 -2.1144602 -0.40369701 4290789120
1.4613949 -2.1180182 -0.41116494 4290789120
1.4409628 -2.0882652 -0.41161466 4290658560
1.4396857 -2.0862741 -0.41696632 4290658560
1.4093642 -2.0421975 -0.41330695 4290528000
1.4196395 -2.0569484 -0.42099613 4290528000
1.3797207 -1.9989748 -0.41322625 4290266880
1.3900813 -2.0138502 -0.41994262 4290397440
1.3926449 -2.0174286 -0.42384604 4290397440
1.3896559 -2.0129635 -0.42556447 4290397440
1.3923107 -2.0166736 -0.42851201 4290397440
1.4000491 -2.0277457 -0.43253583 4290397440
1.397203 -2.0234876 -0.43278995 4290397440
1.3949654 -2.0201113 -0.43272242 4290397440
1.3866211 -2.0078926 -0.43025196 4290397440
1.3867197 -2.0079007 -0.42989656 4290397440
1.3790312 -1.9966338 -0.42662853 4290266880
1.370829 -1.984625 -0.42271534 4290266880
1.4140123 -2.0470064 -0.43410245 4290528000
1.4059085 -2.0351379 -0.42919198 4290528000
1.4532174 -2.1034791 -0.44061211 4290789120
1.4501685 -2.0989251 -0.43615896 4290789120
1.4574631 -2.1093414 -0.4342958 4290789120
1.4629902 -2.1171982 -0.43136311 4290789120
1.47278 -2.1312227 -0.42913508 4290789120
1.4643301 -2.1188526 -0.4210932 4290789120
1.4627444 -2.116416 -0.4145768 4290789120
1.4579948 -2.1094022 -0.40671286 4290789120
1.4525459 -2.1013777 -0.3982327 4290658560
1.4649941 -2.1192441 -0.39416412 4290789120
1.4699553 -2.1262779 -0.38753885 4290789120
1.4859135 -2.1492171 -0.38325161 4290919680
1.4743086 -2.1322887 -0.37139666 4290789120
1.4624231 -2.1149566 -0.35919327 4290789120
1.4570858 -2.1070962 -0.34830084 4290658560
1.4615659 -2.1134329 -0.33936569 4290789120
1.4679871 -2.1225755 -0.33042237 4290789120
1.4705014 -2.1260684 -0.32016408 4290789120
1.4496304 -2.095752 -0.30459565 4290658560
1.4589212 -2.1090422 -0.29511032 4290658560
1.4758017 -2.1333015 -0.28662252 4290789120
1.480579 -2.1400638 -0.27529007 4290789120
1.4725851 -2.1283662 -0.26130646 4290789120
1.4485055 -2.0934229 -0.24445696 4290658560
1.4608594 -2.1111352 -0.23358655 4290658560
1.4672123 -2.1201737 -0.22133322 4290789120
1.4619406 -2.1124141 -0.20707515 4290658560
1.4408237 -2.0817616 -0.19059296 4290528000
1.4635916 -2.1145158 -0.17968972 4290658560
1.4658488 -2.1176348 -0.16583507 4290658560
1.463914 -2.1146977 -0.15132377 4290658560
1.3839453 -1.9990447 -0.12939136 4290266880
1.467427 -2.1194878 -0.12255825 4290658560
1.4684869 -2.1208761 -0.10786632 4290658560
1.4458086 -2.0879827 -0.091534622 4290528000
1.4552881 -2.1015315 -0.077274397 4290658560
1.4660685 -2.1169572 -0.06279362 4290658560
1.4717749 -2.1250544 -0.047859542 4290658560
1.38054 -1.9931891 -0.030608028 4290136320
1.4811803 -2.1383474 -0.017479245 4290789120
1.4679422 -2.1190937 -0.0020829297 4290658560
1.5778047 -2.2775362 0.01414279 4291311360
1.5371358 -2.2186825 0.029721314 4291050240
1.6812557 -2.4265404 0.049909178 4291964160
1.675442 -2.4179873 0.067022435 4291964160
1.6228533 -2.3419344 0.081590414 4291572480
1.6074176 -2.3195035 0.09723869 4291572480
1.7108217 -2.46855 0.12086137 4292094720
1.6966044 -2.4478714 0.13694869 4292094720
1.6461127 -2.3748624 0.14931056 4291703040
1.6361728 -2.3603637 0.16458459 4291703040
1.6816334 -2.4257829 0.18559711 4291964160
1.6975892 -2.4486351 0.203748 4292094720
1.644135 -2.3713727 0.21298926 4291703040
1.6542879 -2.3858564 0.22982222 4291833600
1.6872357 -2.4332113 0.2499678 4291964160
1.7030191 -2.4558082 0.26774132 4292094720
1.6945367 -2.4434123 0.28147113 4292094720
1.6873603 -2.4329011 0.29496774 4292094720
1.6701256 -2.4078901 0.30616885 4291964160
1.6514852 -2.3808556 0.31646946 4291833600
1.5383826 -2.2176533 0.30724487 4291180800
1.4827082 -2.1372523 0.30779222 4290789120
1.4334961 -2.0661769 0.30852154 4290528000
-3.4309602 4.9449 -0.76378679 4278190335
1.5405536 -2.2201867 0.3539539 4291180800
1.6061112 -2.3145108 0.38006866 4291572480
1.5997223 -2.3051493 0.38913554 4291572480
1.6153671 -2.3275368 0.40317619 4291703040
1.5836098 -2.2816255 0.40483284 4291441920
1.6021053 -2.3081186 0.41878742 4291572480
1.6702769 -2.4061706 0.44572577 4291964160
1.6938459 -2.43996 0.46074298 4292094720
1.7067263 -2.4583492 0.47250587 4292225280
1.6755066 -2.413219 0.47143552 4292094720
1.699155 -2.4471154 0.48521611 4292225280
1.7205794 -2.4778047 0.49798134 4292355840
1.6761682 -2.4136863 0.49104002 4292094720
1.6813687 -2.4210126 0.49792153 4292094720
1.6973004 -2.443789 0.50746304 4292225280
1.7076555 -2.4585335 0.51481652 4292225280
1.707381 -2.4579732 0.51838958 4292225280
1.7178415 -2.4728668 0.52463436 4292355840
1.7148695 -2.4684229 0.52617759 4292225280
1.6649528 -2.3964109 0.51264316 4291964160
1.7147233 -2.4678817 0.52918434 4292225280
1.7096827 -2.4604621 0.52822381 4292225280
1.7069501 -2.4563646 0.52735597 4292225280
1.7014672 -2.4483104 0.5250228 4292225280
1.696605 -2.4411504 0.52227211 4292225280
1.6777461 -2.4138534 0.51462567 4292094720
1.6645612 -2.3947232 0.50815767 4291964160
1.7082751 -2.4574475 0.51840585 4292225280
1.6873274 -2.4271505 0.50839227 4292094720
1.6714866 -2.4042029 0.49940988 4291964160
1.7026111 -2.448807 0.50382894 4292225280
1.6817989 -2.4187117 0.49227101 4292094720
1.7171772 -2.4694262 0.49653009 4292225280
1.7099719 -2.4588995 0.48780304 4292225280
1.707877 -2.4557226 0.48000661 4292225280
1.6710222 -2.4025686 0.46206304 4291964160
1.6960676 -2.4384151 0.46074954 4292094720
1.6255122 -2.336822 0.43317932 4291703040
1.5717368 -2.2593634 0.41024363 4291441920
1.5808386 -2.272295 0.40349287 4291441920
1.696035 -2.4368107 0.35841566 4292094720
1.7079841 -2.4538145 0.34771496 4292094720
1.7066648 -2.4517548 0.33384338 4292094720
1.6801212 -2.413461 0.31489444 4291964160
1.6861465 -2.4219542 0.30186754 4291964160
1.6847657 -2.4198086 0.28714249 4291964160
1.7125942 -2.4596133 0.27684689 4292094720
1.6836343 -2.4178596 0.25708228 4291964160
1.6844478 -2.4188659 0.24183439 4291964160
1.6795303 -2.4116428 0.22553781 4291964160
1.6998705 -2.4406857 0.2122412 4292094720
1.6809753 -2.4133942 0.19380422 4291964160
1.7010344 -2.4420297 0.17963479 4292094720
1.6851063 -2.4190011 0.16143274 4291964160
1.7104425 -2.4552073 0.14691502 4292094720
1.7000765 -2.4401641 0.1290255 4292094720
1.6803478 -2.4116855 0.11058971 4291964160
1.4785169 -2.1218696 0.082298569 4290658560
1.4862071 -2.1327634 0.067552604 4290789120
1.4635786 -2.1001499 0.051510599 4290658560
1.470121 -2.1093967 0.036605813 4290658560
1.4836661 -2.1286891 0.021630127 4290789120
1.4812543 -2.1250865 0.0062850062 4290789120
1.4518709 -2.082792 -0.0088512152 4290528000
1.4686882 -2.1067762 -0.02412815 4290658560
1.4792868 -2.1218374 -0.039558608 4290658560
1.4683329 -2.1059844 -0.054365341 4290658560
1.4650511 -2.1011367 -0.069249853 4290658560
1.4919598 -2.1395853 -0.085725881 4290789120
1.4923398 -2.139987 -0.10086164 4290789120
1.4660158 -2.102098 -0.11382125 4290658560
1.4691465 -2.106446 -0.12870961 4290658560
1.4821502 -2.1249483 -0.14448154 4290789120
1.4802955 -2.1221473 -0.15875696 4290789120
1.459316 -2.0919311 -0.17058657 4290658560
1.4731287 -2.1115901 -0.18622491 4290658560
1.4939501 -2.1412923 -0.2028712 4290789120
1.4997097 -2.1494038 -0.2174971 4290919680
1.4911374 -2.1369746 -0.22977977 4290789120
1.4441333 -2.0694737 -0.23538989 4290528000
1.4898793 -2.1348858 -0.25583762 4290789120
1.4965718 -2.1443322 -0.26975089 4290919680
1.4887707 -2.1330118 -0.28074339 4290789120
1.4720968 -2.1089814 -0.28954893 4290789120
1.3898886 -1.9910735 -0.28435573 4290266880
1.4966402 -2.143856 -0.31767181 4290919680
1.5038832 -2.1540873 -0.33038145 4290919680
1.5043576 -2.1546223 -0.34128857 4290919680
1.4999691 -2.1481931 -0.35067949 4290919680
1.4793829 -2.1185687 -0.35571831 4290789120
1.4832169 -2.1239171 -0.36611196 4290789120
1.4879986 -2.1306217 -0.37637582 4290789120
1.4924514 -2.1368546 -0.38618147 4290919680
1.4946574 -2.1398697 -0.39500138 4290919680
1.4903753 -2.1335964 -0.40164292 4290919680
1.4903786 -2.1334584 -0.40895474 4290919680
1.4772705 -2.1145527 -0.412137 4290789120
1.4745947 -2.1105814 -0.41768181 4290789120
1.4273074 -2.0427625 -0.40990892 4290528000
1.4376301 -2.0573986 -0.41805643 4290528000
1.394497 -1.9955373 -0.41006973 4290266880
1.399256 -2.0022135 -0.41556197 4290397440
1.4125245 -2.0210643 -0.4231452 4290397440
1.4179294 -2.028662 -0.42792526 4290528000
1.4177346 -2.0282476 -0.43052709 4290528000
1.4226667 -2.0351675 -0.43418953 4290528000
1.42031 -2.0316601 -0.43512428 4290528000
1.4225173 -2.0346816 -0.43694687 4290528000
1.4253387 -2.0385807 -0.43844944 4290528000
1.4203099 -2.0312524 -0.43702447 4290528000
1.4091226 -2.0151179 -0.43319535 4290397440
1.4120936 -2.0192316 -0.43321276 4290397440
1.4043889 -2.00808 -0.42945373 4290397440
1.4422927 -2.062139 -0.43909556 4290658560
1.4341229 -2.0503211 -0.43416017 4290528000
1.4561486 -2.0816712 -0.43782759 4290658560
1.4731119 -2.1057806 -0.43937591 4290789120
1.4864008 -2.1246347 -0.43923897 4290919680
1.4866116 -2.124794 -0.43468916 4290919680
1.4876606 -2.1261513 -0.42987546 4290919680
1.4908478 -2.1305637 -0.42516565 4290919680
1.4863739 -2.1240282 -0.41778556 4290789120
1.4838536 -2.1202848 -0.41050181 4290789120
1.4783641 -2.1122994 -0.40196109 4290789120
1.4852543 -2.1220024 -0.39631563 4290789120
1.4971151 -2.1388052 -0.39144367 4290919680
1.5023768 -2.1461785 -0.38430521 4290919680
1.5031722 -2.147171 -0.37555149 4290919680
1.4911945 -2.1299195 -0.3632496 4290789120
1.477864 -2.1107378 -0.35036787 4290789120
1.4875033 -2.1243629 -0.3425571 4290789120
1.4928402 -2.1318421 -0.33326632 4290789120
1.4948695 -2.1345975 -0.32281011 4290789120
1.481184 -2.1149139 -0.308687 4290789120
1.4820228 -2.1159699 -0.29734257 4290789120
1.4945296 -2.1336842 -0.28790143 4290789120
1.4998631 -2.1411555 -0.2766149 4290919680
1.4924407 -2.1304171 -0.26268825 4290789120
1.4715313 -2.1004288 -0.24634013 4290658560
1.481362 -2.1143198 -0.23496047 4290789120
1.489254 -2.1254418 -0.22285821 4290789120
1.481719 -2.1145465 -0.20820154 4290789120
1.4695257 -2.0970056 -0.19284512 4290658560
1.4947816 -2.1329029 -0.18206835 4290789120
1.4999287 -2.1401043 -0.16835739 4290789120
1.4870989 -2.1216569 -0.15252139 4290789120
1.4035958 -2.0023885 -0.13021407 4290266880
1.4889777 -2.1240532 -0.12340736 4290789120
1.4867835 -2.1207817 -0.10838717 4290789120
1.4745897 -2.1032474 -0.092666492 4290658560
1.473258 -2.1012077 -0.077665657 4290658560
1.4978957 -2.136204 -0.063713908 4290789120
1.4875882 -2.1213622 -0.048062891 4290789120
1.4059128 -2.0047557 -0.030998964 4290266880
1.4959733 -2.1330347 -0.017601427 4290789120
1.5281993 -2.1788385 -0.0022479515 4290919680
1.6150116 -2.3024578 0.014251783 4291441920
1.5789798 -2.2509382 0.030173812 4291311360
1.7145383 -2.4440224 0.050361622 4292094720
1.6952505 -2.4163668 0.067139171 4291964160
1.6473862 -2.347985 0.08202602 4291703040
1.6637591 -2.3711629 0.099699527 4291833600
1.7165748 -2.4462712 0.12014513 4292094720
1.6970747 -2.4183204 0.13573453 4291964160
1.6461619 -2.3456132 0.14796385 4291703040
1.6361415 -2.3311794 0.16310425 4291572480
1.681987 -2.3963404 0.18398124 4291833600
1.7089711 -2.434622 0.20329604 4292094720
1.7034081 -2.4265349 0.21872152 4291964160
1.6601521 -2.3647578 0.22861147 4291833600
1.7013948 -2.4233429 0.2498603 4291964160
1.7144482 -2.4417722 0.26718813 4292094720
1.6950251 -2.4139478 0.27910498 4291964160
1.6935123 -2.4116323 0.29347709 4291964160
1.6732777 -2.3826582 0.30409461 4291833600
1.6379162 -2.3321495 0.31116199 4291703040
1.5347272 -2.1850779 0.30387673 4291050240
1.5088456 -2.1480851 0.31052774 4290919680
1.4700537 -2.0927188 0.31367728 4290658560
-3.4597378 4.9248371 -0.76360255 4278190335
1.5944858 -2.2695529 0.3632158 4291441920
1.6153885 -2.2991519 0.37900397 4291572480
1.6419761 -2.3368375 0.39601293 4291703040
1.6180974 -2.3026998 0.40042409 4291572480
1.6418457 -2.3363397 0.41615701 4291703040
1.5962012 -2.2712362 0.41370693 4291441920
1.7221953 -2.4503496 0.45568988 4292225280
1.6972481 -2.4146934 0.45776528 4292094720
1.7159196 -2.4410946 0.4710401 4292225280
1.6867102 -2.3993807 0.470586 4291964160
1.7054477 -2.425873 0.48291174 4292094720
1.7213781 -2.4483695 0.49402213 4292225280
1.7367775 -2.4701076 0.50452167 4292355840
1.6926197 -2.4071438 0.49704793 4292094720
1.7007457 -2.4185388 0.50423211 4292094720
1.7083536 -2.4291954 0.51071656 4292094720
1.7188474 -2.4439538 0.51750869 4292225280
1.7157922 -2.4394469 0.51963371 4292225280
1.7133621 -2.4358294 0.52133149 4292225280
1.7132578 -2.4355185 0.52312326 4292225280
1.7183131 -2.4425418 0.52588147 4292225280
1.7132287 -2.4351518 0.52492237 4292225280
1.7104712 -2.4310701 0.52405965 4292225280
1.70494 -2.4230471 0.52173549 4292094720
1.7000344 -2.4159138 0.51899749 4292094720
1.6866834 -2.396781 0.51309192 4292094720
1.7335321 -2.4631884 0.52484608 4292355840
1.7174629 -2.4401927 0.51689923 4292225280
1.7014425 -2.4172695 0.50842685 4292094720
1.6718498 -2.3750679 0.49541417 4291964160
1.7145808 -2.4356101 0.50320852 4292225280
1.6901855 -2.4007957 0.49067345 4292094720
1.7179042 -2.4400053 0.49267799 4292225280
1.7077907 -2.4254789 0.48320332 4292094720
1.7113546 -2.4303782 0.47706389 4292094720
1.7257667 -2.4506819 0.47331843 4292225280
1.6886232 -2.3977764 0.45500222 4291964160
1.6448364 -2.3354449 0.43477657 4291703040
1.6291486 -2.3130159 0.42178971 4291703040
1.599793 -2.2711861 0.40503538 4291441920
1.6913188 -2.4001164 0.35446057 4291964160
1.7170888 -2.4365237 0.34667382 4292094720
1.7123197 -2.4295943 0.33217451 4292094720
1.7298737 -2.4543376 0.32153153 4292225280
1.6921922 -2.4007151 0.30043682 4291964160
1.6902213 -2.397759 0.2856808 4291964160
1.721719 -2.4422791 0.27600935 4292094720
1.6839037 -2.388478 0.25498477 4291833600
1.6898853 -2.3968027 0.24059463 4291964160
1.6906675 -2.3977523 0.22514008 4291964160
1.7140492 -2.4307506 0.21222389 4292094720
1.6840694 -2.3880758 0.19253594 4291833600
1.7123446 -2.4280093 0.17931221 4292094720
1.727001 -2.4486279 0.16405433 4292094720
1.7189488 -2.4370484 0.14639908 4292094720
1.6981277 -2.4073689 0.12778458 4291964160
1.7001184 -2.4100301 0.11093629 4291964160
1.5323279 -2.1720312 0.08456029 4290919680
1.512428 -2.1436806 0.068146296 4290789120
1.4924945 -2.1152861 0.052062884 4290789120
1.4962106 -2.1204116 0.036914483 4290789120
1.509869 -2.1396253 0.021795161 4290789120
1.5074373 -2.1360371 0.0063065626 4290789120
1.4835749 -2.1020837 -0.0090074763 4290658560
1.4970717 -2.1210661 -0.024430877 4290789120
1.5025678 -2.128711 -0.039890531 4290789120
1.4944037 -2.1170037 -0.054916091 4290789120
1.4991634 -2.1236048 -0.070321031 4290789120
1.5124581 -2.1422942 -0.086231731 4290789120
1.521484 -2.1549351 -0.10202951 4290919680
1.4949363 -2.1171935 -0.1151559 4290789120
1.4952079 -2.1174369 -0.12996002 4290789120
1.5083153 -2.1358566 -0.14586845 4290789120
1.5064404 -2.1330593 -0.16027822 4290789120
1.4852809 -2.1029582 -0.17223969 4290658560
1.499203 -2.1225283 -0.1880091 4290789120
1.5201918 -2.1521003 -0.2047846 4290919680
1.5179431 -2.1487737 -0.21837877 4290919680
1.514469 -2.143713 -0.23150365 4290919680
1.4207048 -2.0108569 -0.22971159 4290397440
1.5131892 -2.1416156 -0.2577512 4290919680
1.5228018 -2.1550767 -0.27226934 4290919680
1.5229614 -2.155159 -0.28487667 4290919680
1.5009762 -2.1239059 -0.2928479 4290789120
1.4152092 -2.0024107 -0.28719839 4290266880
1.5205996 -2.1513865 -0.32014912 4290919680
1.5301373 -2.1647363 -0.33343026 4291050240
1.5328978 -2.1684973 -0.34494829 4291050240
1.5261757 -2.1588442 -0.35391572 4291050240
1.51113 -2.1374187 -0.36040592 4290919680
1.5115565 -2.1378794 -0.37007973 4290919680
1.5163699 -2.1445446 -0.38043752 4290919680
1.5157119 -2.143471 -0.38901305 4290919680
1.5095928 -2.1346753 -0.39570391 4290919680
1.5113255 -2.1369832 -0.40397397 4290919680
1.5001973 -2.1211066 -0.40829614 4290919680
1.4975337 -2.1171994 -0.41438469 4290789120
1.4808834 -2.0935199 -0.41604137 4290789120
1.4528474 -2.0537486 -0.41383752 4290658560
1.4632512 -2.0683177 -0.42203057 4290658560
1.4277291 -2.0179727 -0.41640928 4290397440
1.4353691 -2.028636 -0.42279884 4290528000
1.4407723 -2.0361366 -0.4280726 4290528000
1.4513416 -2.0509369 -0.4344188 4290658560
1.4482962 -2.0464969 -0.43619984 4290528000
1.456681 -2.0582078 -0.44092035 4290658560
1.4537338 -2.0539067 -0.44170395 4290658560
1.4508373 -2.0496778 -0.44198009 4290658560
1.4457157 -2.0423062 -0.4410561 4290528000
1.442921 -2.0382226 -0.44032285 4290528000
1.4373317 -2.0301919 -0.43822223 4290528000
1.4374831 -2.0302706 -0.43736014 4290528000
1.42687 -2.0151465 -0.43272123 4290397440
1.4679365 -2.0730062 -0.44320408 4290658560
1.4625486 -2.0652597 -0.43909708 4290658560
1.4876086 -2.1005068 -0.4435764 4290789120
1.501869 -2.1205015 -0.44423258 4290919680
1.5072945 -2.12802 -0.44170898 4290919680
1.5206213 -2.146692 -0.44093105 4291050240
1.516554 -2.1408076 -0.4345701 4290919680
1.5226262 -2.149236 -0.43060198 4291050240
1.5124153 -2.134681 -0.42154962 4290919680
1.5075957 -2.1277366 -0.41357598 4290919680
1.5043504 -2.1230149 -0.40559429 4290919680
1.5050747 -2.1238959 -0.39822835 4290919680
1.5232695 -2.1494284 -0.39492777 4290919680
1.5285814 -2.15678 -0.38770869 4291050240
1.5219986 -2.1473489 -0.37703952 4290919680
1.5121653 -2.1333332 -0.3652361 4290919680
1.501029 -2.1174815 -0.35283667 4290789120
1.5109713 -2.1313648 -0.34499809 4290919680
1.5218685 -2.1465933 -0.33684537 4290919680
1.5262192 -2.1525869 -0.32675728 4290919680
1.507261 -2.1257067 -0.31142291 4290789120
1.4971954 -2.1113703 -0.29779726 4290789120
1.5236061 -2.1484721 -0.29096317 4290919680
1.5261158 -2.1518679 -0.27901158 4290919680
1.5186381 -2.1411817 -0.26496702 4290919680
1.489783 -2.1003578 -0.24720886 4290658560
1.5074799 -2.1251662 -0.23699526 4290789120
1.5125608 -2.1321871 -0.22433852 4290789120
1.5078512 -2.1254067 -0.20998158 4290789120
1.4926771 -2.1038778 -0.19412054 4290658560
1.5154874 -2.135886 -0.18291447 4290789120
1.521029 -2.1435535 -0.16915965 4290919680
1.5132946 -2.1325114 -0.15376692 4290789120
1.4319925 -2.0178075 -0.13159683 4290397440
1.5123053 -2.1308336 -0.12413871 4290789120
1.5129864 -2.1316514 -0.10921585 4290789120
1.4949094 -2.1060426 -0.092995577 4290658560
1.5045604 -2.1194978 -0.078484356 4290789120
1.5241964 -2.1470165 -0.064115271 4290919680
1.5138044 -2.1322362 -0.048322305 4290789120
1.4314528 -2.0161073 -0.031125071 4290397440
1.5245751 -2.1471214 -0.017599294 4290919680
1.5148898 -2.1333392 -0.0020181923 4290789120
1.6642373 -2.3435013 0.014778086 4291703040
1.6057818 -2.2610366 0.030640487 4291311360
1.7287334 -2.4339979 0.05058521 4292094720
1.69539 -2.3868923 0.066813692 4291833600
1.6500235 -2.3228676 0.081697963 4291572480
1.6665318 -2.3459518 0.099263631 4291703040
1.7226782 -2.4248266 0.11980791 4292094720
1.705331 -2.4002492 0.13549837 4291964160
1.6487907 -2.3205144 0.14719914 4291572480
1.6438934 -2.313468 0.16274621 4291572480
1.734852 -2.4413126 0.18843158 4292094720
1.7092346 -2.4051032 0.20187949 4291964160
1.7117171 -2.4084363 0.21820441 4291964160
1.6652162 -2.3428524 0.22763917 4291703040
1.7462771 -2.4567363 0.25456753 4292225280
1.7205422 -2.4203703 0.26615247 4292094720
1.7090361 -2.4040244 0.27931383 4291964160
1.6936716 -2.3822532 0.29130256 4291964160
1.6784616 -2.3607023 0.30273509 4291833600
1.6376259 -2.3031151 0.30874729 4291572480
1.5474087 -2.176091 0.30405283 4291050240
1.5518149 -2.1821423 0.31692657 4291050240
1.485075 -2.0881546 0.31444713 4290658560
1.4515728 -2.0409114 0.31790656 4290528000
1.6751518 -2.3551073 0.3786366 4291833600
1.656925 -2.3293269 0.38572907 4291703040
1.6394613 -2.3046229 0.39232442 4291572480
1.6771685 -2.3574719 0.41179714 4291833600
1.638769 -2.3033433 0.4121199 4291572480
1.6013552 -2.2506073 0.41177878 4291441920
1.7306852 -2.4322112 0.45432502 4292225280
1.7055337 -2.3967052 0.45636272 4292094720
1.7243612 -2.4230015 0.4696047 4292094720
1.6926222 -2.3782449 0.46848208 4291964160
1.7029316 -2.3925712 0.47835717 4292094720
1.7241479 -2.4222183 0.49086466 4292094720
1.7402494 -2.4446766 0.50148249 4292225280
1.6848645 -2.3667152 0.49079949 4291964160
1.7010664 -2.3893149 0.50026977 4292094720
1.7058816 -2.3959191 0.50586504 4292094720
1.7084634 -2.3993857 0.51022452 4292094720
1.7191008 -2.4141645 0.5164175 4292094720
1.7137948 -2.406553 0.51722825 4292094720
1.7216895 -2.4174783 0.52141845 4292094720
1.718788 -2.4132438 0.52173465 4292094720
1.7108048 -2.4018755 0.51989245 4292094720
1.7080239 -2.3978119 0.51901942 4292094720
1.705303 -2.3938329 0.51755768 4292094720
1.6917833 -2.3746965 0.5122233 4291964160
1.6868923 -2.3676739 0.50891697 4291964160
1.7255503 -2.4217722 0.51810348 4292225280
1.7150617 -2.4068916 0.51189113 4292094720
1.6823187 -2.3607838 0.49852759 4291964160
1.6827937 -2.3612933 0.49449492 4291964160
1.7150034 -2.4063299 0.49911961 4292094720
1.6932645 -2.37567 0.487441 4291964160
1.7292255 -2.4259624 0.4917497 4292225280
1.7190274 -2.4114952 0.48227537 4292094720
1.7168878 -2.4083335 0.47455204 4292094720
1.7262541 -2.4213109 0.46942839 4292094720
1.6916658 -2.3726385 0.45193499 4291964160
1.6976544 -2.3808794 0.44489768 4291964160
1.6766882 -2.3513191 0.43036923 4291833600
1.6101284 -2.2578282 0.40413716 4291441920
1.6995144 -2.3821349 0.35326204 4291964160
1.7226084 -2.4143443 0.34494165 4292094720
1.7235665 -2.4155266 0.33162066 4292094720
1.7331769 -2.428834 0.31951085 4292094720
1.6951777 -2.3754249 0.29850647 4291833600
1.6960746 -2.3765237 0.28432775 4291833600
1.7220423 -2.4127493 0.27380675 4292094720
1.6920097 -2.3705132 0.25412115 4291833600
1.6957207 -2.3755543 0.23945647 4291833600
1.6907116 -2.3683798 0.22331126 4291833600
1.7113813 -2.3971751 0.2101685 4291964160
1.6898433 -2.3668489 0.19162495 4291833600
1.7154474 -2.4025514 0.17817819 4291964160
1.7302197 -2.4230795 0.16302735 4292094720
1.7331249 -2.4269867 0.14641185 4292094720
1.7092282 -2.393364 0.12758152 4291964160
1.6444435 -2.3024957 0.10643991 4291572480
1.5838844 -2.2175555 0.086705118 4291180800
1.5336221 -2.147042 0.06855116 4290919680
1.5187466 -2.1260753 0.052561164 4290789120
1.5224947 -2.1311805 0.037272483 4290789120
1.5310347 -2.1429925 0.021937614 4290919680
1.5285829 -2.1394186 0.0063611893 4290919680
1.5097556 -2.1129274 -0.0090724565 4290789120
1.5233631 -2.1318297 -0.024636691 4290789120
1.53181 -2.1435082 -0.040313538 4290919680
1.5177637 -2.1237118 -0.055297174 4290789120
1.5144231 -2.1188967 -0.070434086 4290789120
1.5388688 -2.1529567 -0.086997285 4290919680
1.5421551 -2.1574113 -0.10254668 4290919680
1.5182914 -2.1238859 -0.1159751 4290789120
1.5243704 -2.1322479 -0.13138732 4290789120
1.5346773 -2.1465225 -0.14717974 4290919680
1.5327822 -2.1437297 -0.16172253 4290919680
1.5114434 -2.113745 -0.17381568 4290789120
1.5254748 -2.1332262 -0.18971433 4290919680
1.5466307 -2.162667 -0.20661695 4291050240
1.5501549 -2.1674511 -0.22116365 4291050240
1.5350536 -2.1461937 -0.23270608 4290919680
1.4936303 -2.08814 -0.23950338 4290658560
1.5424401 -2.1562345 -0.26056004 4290919680
1.5463361 -2.1615372 -0.27419132 4291050240
1.5493836 -2.1656537 -0.28742445 4291050240
1.521428 -2.1264374 -0.29438695 4290919680
1.44073 -2.0135155 -0.2899645 4290397440
1.5498691 -2.1659007 -0.32361993 4291050240
1.5520207 -2.1687634 -0.33541062 4291050240
1.5593653 -2.1788821 -0.3480128 4291050240
1.5525806 -2.1692581 -0.35707366 4291050240
1.5345207 -2.1438825 -0.36297187 4290919680
1.5292399 -2.1363628 -0.37132859 4290919680
1.5290742 -2.1359894 -0.38046989 4290919680
1.5420024 -2.1539061 -0.39250737 4291050240
1.541582 -2.1531761 -0.40076905 4291050240
1.53469 -2.1434076 -0.40685037 4291050240
1.5320922 -2.1396372 -0.41355392 4290919680
1.5265239 -2.1317196 -0.41894096 4290919680
1.5120291 -2.1113379 -0.42130789 4290919680
1.4785846 -2.0645006 -0.41771647 4290658560
1.4919411 -2.0830114 -0.42677993 4290789120
1.4503794 -2.0248497 -0.41955146 4290528000
1.4609492 -2.0394707 -0.42681155 4290528000
1.469263 -2.0509403 -0.43296647 4290658560
1.4690118 -2.0504537 -0.43611267 4290658560
1.4768417 -2.0612459 -0.44116235 4290658560
1.4795554 -2.0648966 -0.44418636 4290658560
1.4851876 -2.0726194 -0.44757727 4290789120
1.4765289 -2.0603991 -0.44613698 4290658560
1.4736589 -2.056258 -0.44591519 4290658560
1.4737093 -2.0561917 -0.44605348 4290658560
1.4657794 -2.044992 -0.44325605 4290658560
1.4630638 -2.0410678 -0.44152021 4290658560
1.4552338 -2.0300097 -0.43773344 4290528000
1.4960657 -2.0868306 -0.44802541 4290789120
1.4803021 -2.0647054 -0.44081721 4290658560
1.5136075 -2.1110191 -0.44766533 4290919680
1.5177374 -2.1166387 -0.44528499 4290919680
1.5305883 -2.134419 -0.44489983 4290919680
1.5469009 -2.1570239 -0.44491863 4291050240
1.545679 -2.1551771 -0.43933186 4291050240
1.5376536 -2.1438448 -0.43133599 4291050240
1.5411693 -2.1486042 -0.42609414 4291050240
1.5337863 -2.1381693 -0.41736516 4290919680
1.5333996 -2.1374884 -0.41009313 4290919680
1.5289509 -2.131146 -0.40128747 4290919680
1.5524883 -2.1638103 -0.39926478 4291050240
1.5578514 -2.1711411 -0.39195731 4291050240
1.5512224 -2.1617591 -0.38119456 4291050240
1.5402201 -2.1462841 -0.36903 4291050240
1.5248976 -2.1247914 -0.35557768 4290919680
1.5372391 -2.1418459 -0.34818989 4290919680
1.5482326 -2.1570201 -0.3399455 4291050240
1.544524 -2.1517107 -0.32804123 4291050240
1.530624 -2.132205 -0.31373447 4290919680
1.523378 -2.1219702 -0.30059952 4290919680
1.5442152 -2.1508524 -0.29256266 4290919680
1.5467491 -2.1542389 -0.28054875 4291050240
1.5479186 -2.1557248 -0.26794648 4291050240
1.5130287 -2.1069953 -0.24909231 4290789120
1.5337802 -2.1357515 -0.2392402 4290919680
1.5470457 -2.1540806 -0.22766125 4290919680
1.5370741 -2.1400545 -0.2123861 4290919680
1.5217825 -2.1186235 -0.19637327 4290789120
1.5418764 -2.146456 -0.1846662 4290919680
1.5474687 -2.154098 -0.17078285 4290919680
1.5347205 -2.1362112 -0.15475933 4290919680
1.4577116 -2.0288861 -0.13295192 4290397440
1.5416008 -2.1455033 -0.12560165 4290919680
1.5446241 -2.1495683 -0.11068192 4290919680
1.5269867 -2.1248827 -0.094308026 4290789120
1.527971 -2.1261113 -0.079148248 4290789120
1.5460703 -2.1511533 -0.064599738 4290919680
1.5402117 -2.1428595 -0.048859444 4290919680
1.4630229 -2.0353339 -0.031643108 4290397440
1.5458286 -2.1503892 -0.01779584 4290919680
1.5946481 -2.2181544 -0.0022073623 4291180800
1.7014774 -2.3665972 0.014878251 4291833600
1.6255361 -2.2608199 0.030661749 4291441920
1.7376395 -2.416575 0.050321274 4292094720
1.7011045 -2.365608 0.066384666 4291833600
1.7209424 -2.3930366 0.084405929 4291964160
1.6714275 -2.3240302 0.098638244 4291703040
1.7309517 -2.406636 0.11929324 4291964160
1.7140464 -2.3829737 0.13497359 4291964160
1.7196544 -2.3906119 0.15216744 4291964160
1.6404467 -2.2803485 0.16098018 4291441920
1.7350687 -2.4117205 0.18681319 4292094720
1.7203161 -2.3910561 0.20142841 4291964160
1.7146647 -2.3830435 0.21669649 4291964160
1.6648753 -2.3136928 0.22563984 4291703040
1.7518427 -2.434391 0.25319627 4292094720
1.7206639 -2.3909059 0.26390433 4291964160
1.700927 -2.3633244 0.27562836 4291833600
1.6959089 -2.3561959 0.28921795 4291833600
1.68116 -2.3355498 0.30066139 4291703040
1.6231519 -2.2548127 0.30344063 4291441920
1.5600728 -2.1670423 0.30396479 4291050240
1.5548583 -2.159656 0.31488475 4291050240
1.5289451 -2.1235225 0.32102618 4290919680
1.4798943 -2.0552607 0.32140121 4290658560
1.7085578 -2.372669 0.38296637 4291964160
1.7268672 -2.3979361 0.39866409 4292094720
1.7027025 -2.3642244 0.40407085 4291964160
1.6741086 -2.3243673 0.40763408 4291703040
1.6273047 -2.2592342 0.40584514 4291441920
1.6543519 -2.2966325 0.421886 4291703040
1.7309709 -2.4028385 0.45064479 4292094720
1.7033075 -2.3642812 0.45200574 4291964160
1.7303777 -2.4016969 0.46735939 4292094720
1.6897228 -2.3451142 0.46383026 4291833600
1.703006 -2.3633931 0.47444579 4291964160
1.730167 -2.4009273 0.48853457 4292094720
1.7435178 -2.4192939 0.49830505 4292225280
1.7540277 -2.4337161 0.5067628 4292225280
1.6982532 -2.3561728 0.49535796 4291964160
1.7117538 -2.3747466 0.50346035 4291964160
1.7166615 -2.3813972 0.50849068 4292094720
1.7164389 -2.3809309 0.51141703 4292094720
1.7220348 -2.3885348 0.51548624 4292094720
1.7161684 -2.3802402 0.51552266 4292094720
1.7276424 -2.3959956 0.52016616 4292094720
1.7190166 -2.3838747 0.51815367 4292094720
1.7081468 -2.368644 0.51485503 4291964160
1.7025206 -2.3606861 0.51253611 4291964160
1.7004101 -2.3576035 0.51067895 4291964160
1.6920196 -2.3458149 0.50634849 4291964160
1.7367535 -2.4076746 0.51726913 4292094720
1.720989 -2.3856621 0.5095309 4292094720
1.7046969 -2.3629212 0.50110394 4291964160
1.6884505 -2.3402467 0.49218044 4291833600
1.720342 -2.3842916 0.49666661 4292094720
1.6903414 -2.3425574 0.48271167 4291833600
1.729475 -2.3966322 0.48789757 4292094720
1.7249627 -2.3902209 0.48008689 4292094720
1.72569 -2.3910704 0.4731935 4292094720
1.7345511 -2.4031887 0.46794212 4292094720
1.6967849 -2.3507087 0.44971287 4291833600
1.7086031 -2.366925 0.44422823 4291964160
1.7013577 -2.3567319 0.43325728 4291964160
1.7161412 -2.3770528 0.42735642 4291964160
1.7023197 -2.3569012 0.35098487 4291833600
1.728503 -2.3929942 0.3433243 4291964160
1.7294635 -2.3941653 0.33006576 4291964160
1.7414758 -2.410635 0.3184461 4292094720
1.742416 -2.4117768 0.30434519 4292094720
1.7011486 -2.3545005 0.2828739 4291833600
1.7302383 -2.3946042 0.27288696 4291964160
1.7311023 -2.3956413 0.25789177 4291964160
1.7036947 -2.3575563 0.2386388 4291833600
1.7044816 -2.3584893 0.22331126 4291833600
1.7223973 -2.3831213 0.20981263 4291964160
1.7036043 -2.3569634 0.19162495 4291833600
1.7124581 -2.369056 0.17643104 4291833600
1.7355331 -2.4008195 0.16220725 4291964160
1.7419691 -2.4095633 0.14597054 4292094720
1.7452093 -2.4138856 0.1292153 4292094720
1.7117323 -2.367425 0.10990064 4291833600
1.6532217 -2.2863503 0.089770049 4291572480
1.562507 -2.1607521 0.069278382 4291050240
1.5510278 -2.1447358 0.053244993 4290919680
1.5489486 -2.1417191 0.037613984 4290919680
1.557559 -2.153482 0.022137515 4290919680
1.5521659 -2.1458836 0.006407192 4290919680
1.5361067 -2.1235411 -0.0091563016 4290789120
1.5474797 -2.1391218 -0.024824737 4290919680
1.5583385 -2.1539898 -0.040680733 4290919680
1.5441762 -2.1342731 -0.055805478 4290919680
1.5466661 -2.137573 -0.071353234 4290919680
1.565448 -2.1633875 -0.08778584 4291050240
1.5631311 -2.1600425 -0.10310289 4291050240
1.5446967 -2.1344273 -0.11704018 4290919680
1.5449654 -2.1346576 -0.13208821 4290919680
1.5612074 -2.1569562 -0.14851631 4291050240
1.5616332 -2.1574018 -0.16343758 4291050240
1.540115 -2.1275337 -0.17568442 4290919680
1.5542541 -2.1469235 -0.19173457 4290919680
1.5732367 -2.1730008 -0.20847641 4291050240
1.5791212 -2.1809845 -0.22347958 4291050240
1.564474 -2.1606116 -0.23525374 4291050240
1.474997 -2.0369051 -0.23460861 4290528000
1.5689859 -2.1665564 -0.26290751 4291050240
1.571207 -2.1694798 -0.27635539 4291050240
1.5701398 -2.1678629 -0.28892687 4291050240
1.5536108 -2.1448998 -0.29819101 4291050240
1.4745775 -2.0356526 -0.29438469 4290528000
1.5822625 -2.1841671 -0.32772112 4291180800
1.5815109 -2.1829853 -0.3390294 4291180800
1.5833176 -2.1853347 -0.3505109 4291180800
1.5820578 -2.1834514 -0.36092114 4291180800
1.5519437 -2.1417482 -0.36413524 4291050240
1.5579292 -2.1498663 -0.37524703 4291050240
1.5635616 -2.1574962 -0.38591686 4291050240
1.5686864 -2.1644247 -0.39608294 4291050240
1.5622244 -2.1553659 -0.40286395 4291050240
1.5691928 -2.1648371 -0.41264638 4291180800
1.5584474 -2.1498706 -0.41727975 4291050240
1.558624 -2.1499722 -0.42430556 4291050240
1.5382099 -2.1216726 -0.42515126 4290919680
1.5073848 -2.0790179 -0.4224236 4290789120
1.5179487 -2.0934494 -0.43072322 4290789120
1.4789398 -2.039516 -0.42436856 4290658560
1.4866968 -2.0500779 -0.4308368 4290658560
1.4863949 -2.049526 -0.43448874 4290658560
1.5000249 -2.0681832 -0.44173491 4290789120
1.505601 -2.0757341 -0.44613311 4290789120
1.5025502 -2.0713911 -0.44745901 4290789120
1.4972379 -2.0639312 -0.44757727 4290789120
1.5023881 -2.0708938 -0.45029709 4290789120
1.5023857 -2.0707536 -0.45094928 4290789120
1.4972311 -2.0635126 -0.44952634 4290789120
1.4973344 -2.0635185 -0.44915503 4290789120
1.4859213 -2.0476546 -0.44481021 4290658560
1.4780285 -2.0366433 -0.44101325 4290658560
1.4701841 -2.0257003 -0.4367328 4290528000
1.5085114 -2.0783725 -0.44560406 4290789120
1.53688 -2.1173177 -0.45089224 4290919680
1.546836 -2.130893 -0.45017204 4291050240
1.5568993 -2.1446142 -0.44890806 4291050240
1.5652448 -2.1559677 -0.44657427 4291050240
1.5721203 -2.1652949 -0.44325402 4291180800
1.5669338 -2.1580088 -0.43601516 4291050240
1.5617826 -2.1507726 -0.42832145 4291050240
1.559044 -2.1468592 -0.42082733 4291050240
1.5487388 -2.1325276 -0.41086563 4291050240
1.560511 -2.1485953 -0.40627825 4291050240
1.5702995 -2.1619298 -0.40059918 4291050240
1.5827365 -2.1789086 -0.39501762 4291180800
1.5748451 -2.1679015 -0.38388911 4291180800
1.5637586 -2.1524978 -0.37165859 4291050240
1.5483172 -2.1311021 -0.35813734 4290919680
1.5607641 -2.148092 -0.35067761 4291050240
1.5747672 -2.1672215 -0.34299341 4291050240
1.5681187 -2.1579292 -0.33037657 4291050240
1.5488669 -2.1312954 -0.31492314 4290919680
1.5526527 -2.1363637 -0.30391484 4290919680
1.5736673 -2.1651356 -0.29574758 4291050240
1.5762302 -2.1685185 -0.28359956 4291050240
1.5692359 -2.1587536 -0.26945481 4291050240
1.5393264 -2.1174679 -0.2513864 4290919680
1.5602522 -2.1461115 -0.24141487 4290919680
1.5654286 -2.1530893 -0.22851653 4291050240
1.5524561 -2.1351058 -0.21278904 4290919680
1.5452428 -2.1250448 -0.19779958 4290919680
1.5655034 -2.1527655 -0.18599057 4291050240
1.5764271 -2.1676438 -0.17258205 4291050240
1.5612327 -2.1466091 -0.15616895 4290919680
1.4924154 -2.0518537 -0.13502447 4290528000
1.5652387 -2.1518328 -0.12650393 4290919680
1.565938 -2.152652 -0.11130859 4290919680
1.5384765 -2.1147618 -0.094255075 4290789120
1.5573856 -2.1406126 -0.080024518 4290919680
1.5726931 -2.16151 -0.065184809 4291050240
1.5750242 -2.1645708 -0.049562883 4291050240
1.4889766 -2.0461795 -0.031946059 4290528000
1.5783367 -2.1688368 -0.018024301 4291050240
1.6671629 -2.2907441 -0.0022892258 4291572480
1.7121165 -2.3523567 0.014851184 4291833600
1.6802971 -2.3084862 0.031440448 4291572480
1.7375672 -2.3870094 0.049915574 4291964160
1.7456771 -2.3979921 0.067577712 4291964160
1.7260306 -2.3708477 0.083976567 4291833600
1.6708215 -2.2948618 0.097811766 4291572480
1.7308284 -2.3771241 0.11832824 4291964160
1.7137885 -2.3535659 0.13387118 4291833600
1.6645579 -2.2858059 0.14611116 4291572480
1.6537046 -2.2707522 0.16098018 4291441920
1.7432148 -2.3935034 0.18618564 4291964160
1.7259943 -2.3697026 0.20047328 4291964160
1.7197121 -2.3609214 0.21559231 4291833600
1.6812619 -2.3079824 0.2260344 4291703040
1.7548484 -2.4088404 0.25159797 4292094720
1.7316321 -2.3768151 0.26345816 4291964160
1.7146673 -2.3533742 0.27562836 4291833600
1.7043338 -2.3390372 0.28832573 4291833600
1.6976675 -2.3297343 0.30118096 4291833600
1.6251374 -2.2300532 0.30137774 4291311360
1.5867165 -2.1771874 0.30667934 4291180800
1.5843772 -2.1738338 0.31829244 4291180800
1.5764294 -2.1627865 0.32834491 4291050240
1.5646991 -2.1465514 0.33709711 4291050240
1.6995732 -2.3314261 0.37790138 4291833600
1.7267972 -2.3686152 0.3954553 4291964160
1.7001089 -2.3318534 0.40022445 4291833600
1.6736238 -2.2953751 0.4042528 4291703040
1.6375247 -2.245717 0.40512392 4291441920
1.6566321 -2.271771 0.41908494 4291572480
1.7449409 -2.3927126 0.45064479 4292094720
1.7112305 -2.3463333 0.45047289 4291964160
1.7414308 -2.3875844 0.46657965 4292094720
1.6975386 -2.3272526 0.46224582 4291833600
1.719655 -2.3574178 0.47524956 4291964160
1.7301702 -2.3716762 0.48462555 4292094720
1.7407252 -2.3859873 0.49352545 4292094720
1.7600409 -2.4123037 0.50443089 4292225280
1.7090466 -2.3422568 0.49451733 4291964160
1.7116183 -2.3456264 0.49939245 4291964160
1.7223752 -2.3602121 0.50610125 4291964160
1.7250547 -2.363728 0.50987214 4291964160
1.7277919 -2.3673224 0.51307207 4292094720
1.7218778 -2.3590636 0.51310021 4291964160
1.7276371 -2.3667979 0.51600391 4292094720
1.7276504 -2.3666601 0.51659107 4292094720
1.7190146 -2.3546748 0.51398695 4291964160
1.7081155 -2.339591 0.51010811 4291964160
1.7001781 -2.3285658 0.50652617 4291833600
1.7562408 -2.4051907 0.52136469 4292225280
1.7507516 -2.3975148 0.51726913 4292094720
1.7261425 -2.3636587 0.50697082 4291964160
1.707391 -2.3378277 0.49788353 4291964160
1.6822885 -2.3033042 0.48646411 4291703040
