# .PCD v0.7 - Point Cloud Data file format
VERSION 0.7
FIELDS x y z rgba
SIZE 4 4 4 4
TYPE F F F U
COUNT 1 1 1 1
WIDTH 1078
HEIGHT 1
VIEWPOINT 0 0 0 1 0 0 0
POINTS 1078
DATA ascii
3.2971544 -0.43870273 0.56431997 4293269760
3.3047724 -0.43961069 0.56018561 4293400320
3.2995787 -0.43881586 0.55323005 4293269760
3.3006599 -0.43885505 0.54668325 4293269760
3.2992094 -0.43855804 0.53908235 4293269760
3.2750463 -0.43524525 0.52722007 4293269760
3.2949708 -0.43778703 0.5218184 4293269760
3.3071005 -0.43929309 0.51449674 4293269760
3.3228528 -0.44127914 0.50706023 4293400320
3.3060334 -0.43894327 0.49409613 4293269760
3.2904336 -0.43677029 0.48084903 4293269760
3.2663827 -0.43291956 0.39479619 4293139200
3.2991025 -0.43714949 0.38401762 4293269760
3.3185899 -0.43962592 0.37103918 4293269760
3.2620821 -0.43204439 0.34937289 4293139200
3.147835 -0.41682729 0.321987 4292747520
2.7605355 -0.36549997 0.26896408 4291441920
2.6173308 -0.34647635 0.24187595 4290919680
2.5226495 -0.33387697 0.22017598 4290528000
2.4788127 -0.32800412 0.20334563 4290397440
2.4976676 -0.33041862 0.19150932 4290528000
2.4946928 -0.32994792 0.17772067 4290397440
2.3962727 -0.31687042 0.15757337 4290136320
2.4414828 -0.32276616 0.14686398 4290266880
2.4581656 -0.32489282 0.13395362 4290266880
2.4081495 -0.31821471 0.117507 4290136320
2.276644 -0.3007862 0.098065808 4289744640
2.3578038 -0.311423 0.087776907 4290005760
2.3703802 -0.31300867 0.074350186 4290005760
2.2766931 -0.30058065 0.058073986 4289744640
2.1757436 -0.28720105 0.042702693 4289352960
2.3489604 -0.30996472 0.031989012 4289875200
2.3011422 -0.30359057 0.017666068 4289744640
2.3302553 -0.30735469 0.0039599277 4289875200
2.35373 -0.31037435 -0.010071036 4290005760
2.3437145 -0.30898243 -0.024003426 4289875200
2.4010272 -0.31645507 -0.0389365 4290136320
2.3283412 -0.30681354 -0.051530935 4289875200
2.4341016 -0.3206583 -0.06835594 4290266880
2.4475365 -0.32235023 -0.08315143 4290266880
2.4235413 -0.31911823 -0.096498653 4290136320
2.4691417 -0.32503927 -0.11269068 4290397440
2.4932775 -0.32813564 -0.12817119 4290397440
2.5113285 -0.33043069 -0.14343953 4290528000
2.4880373 -0.32729211 -0.15613554 4290397440
2.5273454 -0.33237877 -0.17272365 4290528000
2.5946648 -0.341142 -0.19164823 4290789120
2.6123927 -0.34338915 -0.20713606 4290919680
2.6774724 -0.35185149 -0.22662784 4291050240
2.8086078 -0.36897942 -0.25254023 4291572480
2.9010208 -0.3810181 -0.2758348 4291833600
3.2394903 -0.42533019 -0.32454523 4293008640
3.296669 -0.43272844 -0.34656265 4293269760
3.303112 -0.4334704 -0.36315307 4293269760
3.2867448 -0.43122163 -0.37677816 4293139200
3.2560306 -0.42709348 -0.38811764 4293139200
3.333858 -0.4371894 -0.41222295 4293400320
3.3240139 -0.43579555 -0.42528978 4293400320
3.3292642 -0.43637905 -0.43979958 4293400320
3.3291817 -0.43626392 -0.45313129 4293400320
3.3208289 -0.4350661 -0.46479183 4293400320
3.3001182 -0.43225136 -0.47408447 4293269760
3.2969263 -0.43173006 -0.4852784 4293269760
3.3018131 -0.43226567 -0.49712041 4293269760
3.3088114 -0.43307698 -0.50875509 4293269760
3.2970512 -0.43143514 -0.516904 4293269760
3.2946916 -0.43102276 -0.52589822 4293269760
3.3072534 -0.43256044 -0.53670555 4293269760
3.2950914 -0.43086699 -0.5428766 4293269760
3.2884963 -0.42990133 -0.54929775 4293269760
3.2826252 -0.42903054 -0.55517972 4293269760
3.2550111 -0.42532131 -0.55666876 4293139200
3.267796 -0.42688689 -0.56441057 4293269760
3.2544453 -0.42504093 -0.56697422 4293139200
3.2337563 -0.42223838 -0.56755149 4293139200
3.2419643 -0.42320612 -0.57253653 4293139200
3.1805768 -0.41509798 -0.56448805 4292878080
3.1851037 -0.41558677 -0.56746024 4292878080
3.1799779 -0.41481707 -0.56804806 4292878080
3.2368414 -0.42212504 -0.57908863 4293139200
3.2368231 -0.42201915 -0.57926726 4293139200
3.2569058 -0.42453113 -0.58237416 4293139200
3.2473555 -0.42318326 -0.57949084 4293139200
3.2563205 -0.42424613 -0.5792433 4293139200
3.2823725 -0.42753211 -0.58134347 4293269760
3.279886 -0.4271031 -0.57768232 4293269760
3.2927825 -0.42867517 -0.57605332 4293269760
3.2971761 -0.42914051 -0.57224286 4293269760
3.2933245 -0.42853346 -0.56633431 4293269760
3.295325 -0.42868724 -0.56078172 4293269760
3.2937479 -0.42837587 -0.5539701 4293269760
3.2983346 -0.42886528 -0.54755199 4293269760
3.2941082 -0.4282096 -0.53903633 4293269760
3.2823129 -0.42657128 -0.52869964 4293269760
3.2665701 -0.42442113 -0.51719236 4293139200
3.2568791 -0.42305735 -0.50612611 4293139200
3.2832711 -0.42637616 -0.50005323 4293269760
3.3014271 -0.42862472 -0.49201182 4293269760
3.3150733 -0.43028712 -0.4826315 4293269760
3.2998207 -0.42820159 -0.46849236 4293269760
3.264003 -0.42345119 -0.45108512 4293139200
3.2607937 -0.42292887 -0.43784004 4293139200
3.2715495 -0.42421603 -0.42595458 4293139200
3.2577751 -0.42232504 -0.41040143 4293139200
3.1768601 -0.41174048 -0.38631073 4292878080
2.9677794 -0.38456833 -0.34743318 4292094720
2.7711661 -0.35902351 -0.31148559 4291441920
2.6062496 -0.33759293 -0.28046715 4290919680
2.5977015 -0.33640176 -0.26688969 4290789120
2.5989845 -0.33648255 -0.25407055 4290789120
2.5577679 -0.33106807 -0.23699464 4290658560
2.5164709 -0.32564583 -0.22007628 4290528000
2.5027659 -0.3237921 -0.20563647 4290528000
2.4240336 -0.31353763 -0.18608181 4290266880
2.4909911 -0.32210684 -0.17767014 4290397440
2.4543312 -0.3172909 -0.16144225 4290266880
2.4502504 -0.31668338 -0.14743245 4290266880
2.4424388 -0.31559458 -0.13310459 4290266880
2.3992822 -0.30994546 -0.11697417 4290136320
2.3711922 -0.30624282 -0.10187421 4290005760
2.3866222 -0.30815485 -0.088641241 4290005760
2.2823365 -0.29462987 -0.07129924 4289744640
2.3201063 -0.29942355 -0.058821827 4289875200
2.3684013 -0.30557111 -0.046049777 4290005760
2.2793219 -0.29401615 -0.030695464 4289744640
2.293067 -0.29571161 -0.017226124 4289744640
2.362983 -0.30463949 -0.0037097011 4290005760
2.3602898 -0.30421501 0.010381126 4290005760
2.2646101 -0.29182252 0.023538578 4289614080
2.3977304 -0.30887735 0.039074399 4290136320
2.4388487 -0.31408805 0.054175314 4290266880
2.4345157 -0.31345055 0.068459988 4290266880
2.3923912 -0.30795419 0.081363209 4290136320
2.462662 -0.31690842 0.098068401 4290266880
2.4957745 -0.32108283 0.11381657 4290397440
2.4369717 -0.31344587 0.12517512 4290266880
2.3787591 -0.30588865 0.13575722 4290005760
2.6352568 -0.3387481 0.1649918 4290919680
2.812897 -0.36146703 0.19159381 4291572480
3.2184803 -0.41343024 0.23654771 4292878080
3.2574191 -0.4183211 0.25695664 4293008640
3.3151834 -0.42562437 0.27906913 4293269760
3.323554 -0.42658928 0.29709411 4293269760
3.3285427 -0.42712006 0.31455663 4293269760
3.3221495 -0.42619157 0.33059284 4293269760
3.262866 -0.41848564 0.34070757 4293139200
3.322221 -0.4259834 0.36274382 4293269760
3.3275282 -0.42655462 0.3788141 4293269760
3.3144879 -0.42477608 0.39234626 4293269760
3.3016033 -0.42301843 0.40533796 4293269760
3.2808411 -0.42025346 0.41676381 4293139200
3.3073101 -0.42353335 0.43370512 4293269760
3.3159721 -0.42453369 0.44797254 4293269760
3.3248825 -0.42556536 0.46183044 4293400320
3.3080342 -0.42330304 0.47157183 4293269760
3.3104184 -0.42350033 0.483448 4293269760
3.3080091 -0.42308497 0.49407199 4293269760
3.3142624 -0.4237766 0.50542629 4293269760
3.3132277 -0.42353702 0.51510698 4293269760
3.3098056 -0.42299274 0.52380937 4293269760
3.3105078 -0.4229753 0.53254634 4293269760
3.3085783 -0.42262205 0.54024005 4293269760
3.3116426 -0.42290622 0.54811877 4293400320
3.3140805 -0.42311037 0.55526662 4293400320
3.2985117 -0.42101803 0.55873752 4293269760
3.3172085 -0.42329571 0.56733704 4293400320
3.3070467 -0.42189363 0.57037205 4293400320
3.2996395 -0.42084342 0.57318735 4293269760
3.3088613 -0.4219124 0.5782069 4293400320
3.3084168 -0.42174968 0.58087355 4293400320
3.3031983 -0.42097917 0.58201849 4293400320
3.3078671 -0.42146781 0.5842123 4293400320
3.3028786 -0.42072713 0.58402038 4293400320
3.3135421 -0.42197853 0.58589637 4293400320
3.3087852 -0.42126766 0.58436757 4293400320
3.3047345 -0.42064703 0.58227777 4293400320
3.3030522 -0.4203279 0.57992107 4293400320
3.2966919 -0.41941431 0.57607049 4293269760
3.307467 -0.42067894 0.57451928 4293400320
3.3000402 -0.41963032 0.56914234 4293269760
3.3045447 -0.42009786 0.5651499 4293269760
3.3121693 -0.42096141 0.56100774 4293400320
3.3108873 -0.42069381 0.55469662 4293400320
3.3080556 -0.42022967 0.54748696 4293269760
3.2822056 -0.4168449 0.53590852 4293269760
3.2913191 -0.41789752 0.52942622 4293269760
3.2842345 -0.41689515 0.51973075 4293269760
3.3056812 -0.41951117 0.51388663 4293269760
3.325367 -0.42190272 0.50705713 4293400320
3.3134415 -0.42028672 0.49482256 4293269760
3.292922 -0.4175826 0.48084596 4293269760
3.2737749 -0.4144944 0.39538476 4293139200
3.3015931 -0.4179104 0.38401455 4293269760
3.3210945 -0.42027313 0.37103608 4293269760
3.2694767 -0.41364437 0.34989455 4293139200
3.221282 -0.40745148 0.32920021 4293008640
2.9335711 -0.37099883 0.2854737 4291964160
2.6895735 -0.34008592 0.24830566 4291180800
2.533448 -0.32028544 0.22094214 4290528000
2.5058696 -0.3167246 0.20538682 4290528000
2.4995499 -0.31584892 0.19150701 4290528000
2.4916239 -0.31477094 0.17737018 4290397440
2.3931274 -0.30226684 0.15725009 4290136320
2.4433215 -0.30852354 0.14686172 4290266880
2.4367273 -0.30761606 0.13270237 4290266880
2.4099624 -0.30416611 0.11750478 4290136320
2.2823226 -0.28800365 0.098230898 4289744640
2.3546205 -0.29704291 0.087594472 4290005760
2.3600411 -0.29765269 0.073978119 4290005760
2.3121288 -0.29154506 0.058902521 4289744640
2.2061474 -0.27812865 0.043239236 4289483520
2.3844571 -0.30050653 0.032418214 4290005760
2.3415656 -0.2950345 0.017928643 4289875200
2.3518498 -0.29625583 0.0039753211 4289875200
2.3793101 -0.29963711 -0.010194064 4290005760
2.3841674 -0.30017415 -0.024432417 4290005760
2.421679 -0.30481642 -0.039258704 4290136320
2.3489358 -0.29559761 -0.051964778 4289875200
2.4597311 -0.30944803 -0.069043994 4290266880
2.4731715 -0.31106025 -0.083979227 4290397440
2.4491529 -0.30796662 -0.097465232 4290266880
2.4898252 -0.31299797 -0.11356541 4290397440
2.5238826 -0.31719625 -0.12967001 4290528000
2.5468907 -0.32000566 -0.14538766 4290658560
2.5225804 -0.31687599 -0.15820992 4290528000
2.4677854 -0.30992353 -0.16848718 4290397440
2.6203568 -0.32898208 -0.19341916 4290919680
2.6469898 -0.33224005 -0.20974594 4290919680
2.8098364 -0.35257152 -0.2377384 4291572480
2.9785655 -0.37363008 -0.26772493 4292094720
3.1373608 -0.39343345 -0.29822075 4292616960
3.2974422 -0.41338795 -0.33013555 4293139200
3.3113744 -0.41502988 -0.34785759 4293269760
3.3144586 -0.41531271 -0.36413574 4293269760
3.3059733 -0.41414711 -0.37871066 4293269760
3.2584634 -0.40809855 -0.38812062 4293139200
3.3363483 -0.41774064 -0.41222602 4293400320
3.331418 -0.41701961 -0.42592439 4293400320
3.3278146 -0.41646472 -0.43928128 4293400320
3.3316667 -0.41684204 -0.45313433 4293400320
3.3282213 -0.41630697 -0.46548444 4293400320
3.31373 -0.41439188 -0.47569326 4293269760
3.2993855 -0.41249591 -0.48528141 4293269760
3.294462 -0.41177732 -0.49564242 4293269760
3.3112783 -0.41377336 -0.50875813 4293269760
3.3093133 -0.41342384 -0.51844752 4293269760
3.3108673 -0.41351351 -0.52809602 4293269760
3.3057988 -0.41277674 -0.53607136 4293269760
3.2975457 -0.411643 -0.54287964 4293269760
3.2958395 -0.41132608 -0.55011994 4293269760
3.2801759 -0.40926915 -0.55435359 4293269760
3.2747657 -0.40849102 -0.55964154 4293269760
3.2565355 -0.40611571 -0.5620442 4293139200
3.261755 -0.40666267 -0.56783044 4293139200
3.2410493 -0.40398043 -0.56841391 4293139200
3.2492619 -0.40490001 -0.57340407 4293139200
3.2439001 -0.40412927 -0.57533008 4293139200
3.1825852 -0.39639565 -0.56659108 4292878080
3.1969965 -0.3980872 -0.57067382 4293008640
3.2392457 -0.40324026 -0.57909161 4293139200
3.2392268 -0.4031345 -0.57927018 4293139200
3.2593238 -0.40552938 -0.58237708 4293139200
3.2546513 -0.4048444 -0.58036715 4293139200
3.2636228 -0.40585494 -0.58011699 4293139200
3.2760115 -0.4072893 -0.57978576 4293269760
3.2862287 -0.40845305 -0.57837522 4293269760
3.3001125 -0.41007134 -0.57691306 4293269760
3.3045099 -0.41051108 -0.57309604 4293269760
3.305547 -0.41053349 -0.56802261 4293269760
3.3025739 -0.4100582 -0.56160438 4293269760
3.3042169 -0.41015553 -0.55532616 4293269760
3.3056729 -0.41022947 -0.54836929 4293269760
3.3014445 -0.40959859 -0.53984243 4293269760
3.2896419 -0.40802917 -0.52949345 4293269760
3.282712 -0.40706414 -0.51937312 4293269760
3.2681153 -0.40514985 -0.50750393 4293139200
3.2856994 -0.40722153 -0.50005621 4293269760
3.3038681 -0.40936434 -0.4920148 4293269760
3.3175237 -0.41094729 -0.48263448 4293269760
3.3022592 -0.40895078 -0.46849531 4293269760
3.280179 -0.40611205 -0.45299554 4293139200
3.2641003 -0.40401688 -0.43796393 4293139200
3.2838073 -0.40634727 -0.42724279 4293139200
3.2936609 -0.40745834 -0.41463545 4293269760
3.2626011 -0.40351281 -0.39648935 4293139200
3.1231771 -0.38618159 -0.3654418 4292616960
2.9044926 -0.35907 -0.32631066 4291833600
2.7520945 -0.34015745 -0.29603648 4291311360
2.6381216 -0.32599819 -0.27086955 4290919680
2.6196682 -0.32363462 -0.25591823 4290919680
2.5932539 -0.32028997 -0.24012995 4290789120
2.5509527 -0.31498745 -0.22295171 4290658560
2.5283492 -0.31211665 -0.20760392 4290528000
2.4495687 -0.30232173 -0.18792255 4290266880
2.5116348 -0.30989107 -0.17902599 4290528000
2.4749546 -0.30528924 -0.16269459 4290397440
2.4758303 -0.305316 -0.14888123 4290397440
2.3754966 -0.29287872 -0.12931386 4290005760
2.4248385 -0.29887572 -0.11815302 4290136320
2.3878095 -0.29423851 -0.10252613 4290005760
2.4161475 -0.29764724 -0.089695059 4290136320
2.3127825 -0.28485209 -0.07222227 4289744640
2.3456237 -0.28881526 -0.059445992 4289875200
2.3320572 -0.28707024 -0.045282267 4289875200
2.2948899 -0.28242508 -0.030895822 4289744640
2.3185706 -0.28525987 -0.017426467 4289875200
2.3631666 -0.29066265 -0.0037081435 4290005760
2.3659918 -0.29093215 0.010393261 4290005760
2.2613089 -0.27800047 0.023489211 4289614080
2.3994889 -0.29488891 0.039072253 4290136320
2.4455988 -0.30046901 0.054279309 4290266880
2.4273705 -0.29815236 0.068214081 4290136320
2.3941443 -0.29399726 0.08136107 4290136320
2.4969153 -0.30652121 0.09933126 4290397440
2.4976025 -0.30652362 0.11381434 4290397440
2.4486694 -0.30044448 0.12567356 4290266880
2.3805006 -0.29201168 0.13575511 4290005760
2.7197893 -0.33349505 0.17009345 4291180800
3.0494609 -0.37377852 0.20738108 4292355840
3.2870417 -0.40276578 0.24136478 4293139200
3.269697 -0.40053532 0.2577275 4293139200
3.3176064 -0.40629086 0.27906618 4293269760
3.3358705 -0.40841675 0.29796809 4293269760
3.3309743 -0.407709 0.31455368 4293269760
3.314697 -0.40561008 0.32961389 4293269760
3.2701855 -0.4000611 0.34121659 4293139200
3.3147769 -0.40540358 0.36167049 4293269760
3.3200924 -0.40594494 0.37769541 4293269760
3.3267653 -0.40665182 0.39350307 4293269760
3.3040116 -0.4037652 0.40533501 4293269760
3.2881582 -0.40172249 0.41738272 4293139200
3.3097212 -0.40424713 0.43370217 4293269760
3.3321638 -0.40687776 0.44981998 4293400320
3.3273053 -0.40617695 0.46182749 4293400320
3.3251884 -0.40581092 0.47365928 4293400320
3.3177416 -0.40479532 0.48415861 4293269760
3.3104177 -0.40379521 0.49406904 4293269760
3.3019509 -0.40265647 0.50318962 4293269760
3.3117139 -0.40373898 0.51449704 4293269760
3.3171172 -0.40428999 0.52457857 4293400320
3.3080137 -0.40307456 0.53175884 4293269760
3.3158841 -0.40392584 0.54103327 4293400320
3.31405 -0.40359581 0.54811585 4293400320
3.3125715 -0.40330923 0.55461049 4293400320
3.3058038 -0.4023796 0.55955982 4293269760
3.3196182 -0.40395302 0.56733406 4293400320
3.309448 -0.40261021 0.57036912 4293400320
3.3020349 -0.40160319 0.57318443 4293269760
3.3014805 -0.40143004 0.57650268 4293269760
3.3010364 -0.40127039 0.57916147 4293269760
3.3202646 -0.4034996 0.58458829 4293400320
3.3151557 -0.40277332 0.58506894 4293400320
3.3003838 -0.40087473 0.58315694 4293269760
3.3052859 -0.40136424 0.58401769 4293400320
3.3072712 -0.40149975 0.58367705 4293400320
3.3071287 -0.4013772 0.58227485 4293400320
3.3103352 -0.40166077 0.58077276 4293400320
3.3127747 -0.40185127 0.57844949 4293400320
3.3049693 -0.40080032 0.57367063 4293269760
3.3063431 -0.40086195 0.56981134 4293269760
3.3167245 -0.40201449 0.56681311 4293400320
3.3096695 -0.40105531 0.56017959 4293400320
3.3093641 -0.40091369 0.55404055 4293269760
3.3143663 -0.40141445 0.5481295 4293400320
3.2982993 -0.39936602 0.53813487 4293269760
3.2887955 -0.39811248 0.52863872 4293269760
3.295435 -0.3988117 0.52111775 4293269760
3.3169005 -0.40130287 0.51524955 4293400320
3.3277683 -0.40251198 0.50705421 4293400320
3.3158336 -0.40096536 0.49481967 4293269760
3.3002117 -0.39897421 0.48155665 4293269760
3.2761338 -0.39540336 0.3953819 4293139200
3.3079169 -0.39913279 0.38446763 4293269760
3.3234863 -0.40090609 0.37103319 4293269760
3.2807169 -0.39564872 0.35083616 4293139200
3.2561989 -0.39259282 0.33250475 4293008640
3.2041533 -0.38622314 0.31138346 4292878080
2.8108463 -0.33876729 0.25921905 4291572480
2.6035945 -0.31373212 0.22683752 4290789120
2.5076721 -0.30210748 0.20538463 4290528000
2.5161982 -0.30305523 0.1926295 4290528000
2.4983673 -0.30083224 0.17771618 4290397440
2.4047556 -0.28949782 0.15789011 4290136320
2.4401217 -0.29367471 0.14656606 4290266880
2.4384778 -0.2934013 0.13270023 4290266880
2.4116933 -0.29010719 0.11750268 4290136320
2.2889216 -0.27528432 0.098437898 4289744640
2.3652408 -0.28437871 0.087916873 4290005760
2.3718121 -0.28509423 0.074283317 4290005760
2.2575114 -0.27130085 0.057515416 4289614080
2.2126937 -0.2658526 0.043330166 4289483520
2.343101 -0.28142887 0.031865824 4289875200
2.3521802 -0.28244507 0.017987685 4289875200
2.3773649 -0.2853919 0.0039943075 4290005760
2.4098089 -0.28920737 -0.010342191 4290136320
2.3997753 -0.28793013 -0.024587719 4290136320
2.4522035 -0.2941373 -0.039749246 4290266880
2.3744414 -0.28474653 -0.052512147 4290005760
2.4892821 -0.29842532 -0.069846265 4290397440
2.4987574 -0.29948241 -0.084806934 4290397440
2.4796765 -0.29712099 -0.098632626 4290397440
2.5154114 -0.30131999 -0.11466964 4290528000
2.5544438 -0.30591124 -0.13116874 4290658560
2.5625899 -0.30680612 -0.14619111 4290658560
2.5531216 -0.30559435 -0.16003308 4290658560
2.5934548 -0.3103362 -0.17702982 4290789120
2.6499553 -0.3170076 -0.19548474 4290919680
2.8244879 -0.33777714 -0.22376646 4291572480
2.9834771 -0.35667923 -0.25235572 4292094720
3.2067294 -0.38324514 -0.28815767 4292878080
3.2101581 -0.38355458 -0.30496311 4292878080
3.3096747 -0.39533171 -0.33113188 4293269760
3.3186738 -0.39630225 -0.34838125 4293269760
3.3168218 -0.39597777 -0.3641386 4293269760
3.3083298 -0.39486152 -0.37871352 4293269760
3.2519112 -0.38803169 -0.38706276 4293008640
3.3387253 -0.3982777 -0.41222888 4293400320
3.333791 -0.39758527 -0.42592725 4293400320
3.3341224 -0.39752042 -0.43980551 4293400320
3.3340385 -0.39740601 -0.45313719 4293400320
3.320755 -0.39571989 -0.46410817 4293269760
3.3049304 -0.39373204 -0.47409031 4293269760
3.3066452 -0.39383236 -0.48600858 4293269760
3.3105536 -0.3941935 -0.49771866 4293269760
3.3136327 -0.39445567 -0.50876099 4293269760
3.3191118 -0.39500296 -0.51961952 4293400320
3.31322 -0.39419803 -0.52809882 4293269760
3.3081474 -0.39349076 -0.53607416 4293269760
3.3096874 -0.39356941 -0.5444991 4293269760
3.293282 -0.39151621 -0.54930359 4293269760
3.2825046 -0.39013234 -0.5543564 4293269760
3.2770898 -0.3893857 -0.55964434 4293269760
3.2686331 -0.38827825 -0.56373942 4293139200
3.2591765 -0.3870526 -0.56697994 4293139200
3.2384565 -0.38449129 -0.56755722 4293139200
3.2466753 -0.38536325 -0.57254225 4293139200
3.2422876 -0.38473991 -0.57463783 4293139200
3.1760399 -0.37678438 -0.56502414 4292878080
3.1894839 -0.37827644 -0.568928 4292878080
3.2454507 -0.38480511 -0.57979482 4293139200
3.2415204 -0.38423616 -0.57927293 4293139200
3.2416165 -0.3841441 -0.57879722 4293139200
3.265604 -0.38687998 -0.58191508 4293139200
3.2610424 -0.38623577 -0.57924908 4293139200
3.2783287 -0.38817653 -0.57978857 4293269760
3.2934434 -0.38985926 -0.57924044 4293269760
3.2975535 -0.39023972 -0.5760591 4293269760
3.3068454 -0.39123231 -0.5730989 4293269760
3.2931993 -0.38951343 -0.56549746 4293269760
3.3009901 -0.39032808 -0.56093985 4293269760
3.3114479 -0.39145711 -0.55615371 4293400320
3.3031075 -0.39036563 -0.54755777 4293269760
3.3076956 -0.39080083 -0.54048771 4293269760
3.3017693 -0.38999477 -0.53107798 4293269760
3.2850277 -0.38791293 -0.51937592 4293269760
3.2704201 -0.38608381 -0.50750667 4293139200
3.2880161 -0.38805306 -0.50005895 4293269760
3.301285 -0.38951099 -0.49128434 4293269760
3.3198614 -0.39159352 -0.48263732 4293269760
3.3045857 -0.38968611 -0.46849814 4293269760
3.2736344 -0.38593316 -0.45177209 4293139200
3.2663987 -0.38497487 -0.4379667 4293139200
3.2959681 -0.38835001 -0.42853084 4293269760
3.3009059 -0.38882416 -0.41526046 4293269760
3.281312 -0.38641143 -0.39849371 4293139200
3.2240973 -0.37957451 -0.37703902 4293008640
3.0789211 -0.36239719 -0.34576309 4292486400
2.9105175 -0.34249848 -0.3129532 4291833600
2.7741923 -0.32638097 -0.28472671 4291441920
2.6650019 -0.31346065 -0.26019388 4291050240
2.6188102 -0.30794773 -0.24234369 4290919680
2.5764899 -0.30289242 -0.22504345 4290789120
2.5687284 -0.30189714 -0.21079955 4290658560
2.480006 -0.29139993 -0.19014627 4290397440
2.5559959 -0.30023545 -0.18209158 4290658560
2.5093951 -0.29468548 -0.16486798 4290528000
2.5102825 -0.29470757 -0.15087239 4290528000
2.4009633 -0.281809 -0.13062827 4290136320
2.4553065 -0.28809991 -0.11957694 4290266880
2.4172666 -0.28356236 -0.10374109 4290136320
2.4416606 -0.28634086 -0.090598553 4290266880
2.3332641 -0.27356681 -0.072827637 4289875200
2.3671241 -0.2774547 -0.059966393 4290005760
2.3525574 -0.27567235 -0.045665268 4289875200
2.3252969 -0.27240559 -0.031308576 4289875200
2.3390636 -0.27393997 -0.017585414 4289875200
2.3673322 -0.27716935 -0.0037160811 4290005760
2.3583937 -0.27604687 0.010358097 4290005760
2.2678559 -0.26538765 0.023534646 4289614080
2.4110973 -0.28205091 0.039223842 4290136320
2.4423425 -0.28562197 0.054171082 4290266880
2.4340305 -0.28457141 0.068347447 4290266880
2.40078 -0.28060985 0.08152353 4290136320
2.4986587 -0.29195547 0.099329166 4290397440
2.4993458 -0.29195401 0.11381224 4290397440
2.4503779 -0.28616017 0.12567151 4290266880
2.4109213 -0.28147876 0.13736759 4290136320
2.8358767 -0.33094409 0.17714185 4291572480
3.259119 -0.38018209 0.22134222 4293008640
3.2982485 -0.38463521 0.24201067 4293139200
3.295742 -0.38423565 0.25958174 4293139200
3.3238766 -0.38740465 0.27939373 4293269760
3.3381932 -0.38896313 0.29796532 4293269760
3.3283479 -0.38770851 0.31408739 4293269760
3.3318319 -0.38800558 0.3310751 4293269760
3.2823412 -0.38214013 0.34223765 4293139200
3.3318963 -0.38779628 0.36327329 4293269760
3.3224008 -0.38658404 0.37769264 4293269760
3.3192117 -0.38610545 0.39234054 4293269760
3.3151824 -0.38552952 0.40641442 4293269760
3.294385 -0.38300604 0.41787741 4293269760
3.3169456 -0.38551921 0.43434113 4293269760
3.3344774 -0.38744715 0.44981721 4293400320
3.3197737 -0.38563254 0.4604663 4293269760
3.3363488 -0.3874484 0.47491071 4293400320
3.3249593 -0.38601935 0.48486939 4293400320
3.3078001 -0.38392195 0.4933368 4293269760
3.3091519 -0.38397187 0.50393146 4293269760
3.3179371 -0.38488337 0.51510131 4293269760
3.319416 -0.38494778 0.52457583 4293400320
3.3196268 -0.38486528 0.53324705 4293400320
3.3132775 -0.3840231 0.54023439 4293269760
3.3114431 -0.38370419 0.54730636 4293269760
3.3217125 -0.3847864 0.5557487 4293400320
3.3129902 -0.38367051 0.56038231 4293400320
3.3219149 -0.38459662 0.56733131 4293400320
3.3205507 -0.38433239 0.57187819 4293400320
3.3092136 -0.38291532 0.57402748 4293400320
3.3086574 -0.38274518 0.57735062 4293400320
3.3082118 -0.38258791 0.58001333 4293400320
3.3176653 -0.38357434 0.58372796 4293400320
3.3076596 -0.38231292 0.58334714 4293400320
3.3026628 -0.3816306 0.5831542 4293269760
3.3075678 -0.38209155 0.58401495 4293400320
3.3095539 -0.38221547 0.58367431 4293400320
3.3143041 -0.38265827 0.5831297 4293400320
3.307725 -0.38179421 0.5799154 4293400320
3.3111436 -0.38208342 0.57776618 4293400320
3.3072479 -0.38152939 0.57366788 4293269760
3.3135188 -0.38214722 0.57064849 4293400320
3.3150153 -0.38221478 0.56613094 4293400320
3.3119495 -0.38175687 0.56017685 4293400320
3.3155637 -0.38206834 0.55469096 4293400320
3.3078246 -0.38107285 0.54667455 4293269760
3.3143005 -0.38171375 0.54036134 4293269760
3.2910588 -0.37893543 0.52863598 4293269760
3.2932839 -0.37908772 0.52041984 4293269760
3.3054345 -0.3803812 0.5131222 4293269760
3.3300567 -0.38310757 0.50705147 4293400320
3.313199 -0.3810657 0.49408743 4293269760
3.3064132 -0.38018206 0.48212478 4293269760
3.2734489 -0.37573323 0.39478761 4293139200
3.3151207 -0.38040882 0.38503486 4293269760
3.3208277 -0.38095948 0.37048283 4293269760
3.2879059 -0.37708327 0.35135815 4293139200
3.2672045 -0.37460914 0.33339164 4293139200
3.2710309 -0.37494552 0.31761953 4293139200
3.057102 -0.35034895 0.28155002 4292355840
2.6883726 -0.3080461 0.23399436 4291050240
2.5291955 -0.28974667 0.20698716 4290528000
2.5228744 -0.28894478 0.19300231 4290528000
2.5040417 -0.28671229 0.17799267 4290528000
2.4064012 -0.27546984 0.15788814 4290136320
2.4467499 -0.28000739 0.14685759 4290266880
2.445106 -0.27974346 0.13296391 4290266880
2.4133422 -0.27603844 0.11750071 4290136320
2.2954497 -0.26249784 0.098645009 4289744640
2.3625717 -0.27009109 0.087759361 4290005760
2.3719726 -0.27109084 0.074236892 4290005760
2.2868645 -0.26130414 0.05819758 4289744640
2.2519534 -0.25724989 0.044033986 4289614080
2.3635767 -0.26991218 0.032104939 4290005760
2.3875659 -0.27257434 0.018216472 4290005760
2.4167426 -0.27582639 0.0040256353 4290136320
2.4402657 -0.27843231 -0.01049024 4290266880
2.4302237 -0.27721235 -0.024907108 4290136320
2.3975503 -0.27341509 -0.038796261 4290136320
2.4098327 -0.27473933 -0.053286653 4290136320
2.5108418 -0.28616408 -0.070419826 4290528000
2.5342214 -0.28874704 -0.085978545 4290528000
2.5200839 -0.28705966 -0.10020177 4290528000
2.5598032 -0.29149958 -0.11664626 4290658560
2.5799971 -0.29371652 -0.13240935 4290658560
2.5980606 -0.29569 -0.14813907 4290789120
2.592541 -0.29498184 -0.16242127 4290789120
2.6428006 -0.30061215 -0.18030941 4290919680
2.8226006 -0.32095495 -0.20819207 4291572480
2.9950614 -0.340453 -0.23722287 4292094720
3.1952212 -0.36308515 -0.27020389 4292878080
3.2854598 -0.37322816 -0.29507473 4293139200
3.2523706 -0.36937103 -0.30878699 4293008640
3.3158765 -0.37647393 -0.33153194 4293269760
3.315985 -0.37638283 -0.34786314 4293269760
3.3190722 -0.37662941 -0.36414129 4293269760
3.3105741 -0.37556252 -0.3787162 4293269760
3.2580633 -0.36950868 -0.38753679 4293139200
3.3360579 -0.37824261 -0.4116208 4293400320
3.3360505 -0.37813747 -0.42592996 4293400320
3.3324409 -0.37762436 -0.43928686 4293400320
3.3274353 -0.37695339 -0.45193207 4293269760
3.3180833 -0.37579086 -0.46342126 4293269760
3.2996435 -0.37360075 -0.47301078 4293269760
3.3137994 -0.3750982 -0.48673561 4293269760
3.3177073 -0.37543604 -0.49846181 4293269760
3.3109632 -0.37456945 -0.50800782 4293269760
3.3178327 -0.37524164 -0.51906925 4293269760
3.3154604 -0.3748692 -0.5281015 4293269760
3.3005738 -0.37308347 -0.53448379 4293269760
3.311924 -0.37426102 -0.54450172 4293269760
3.295507 -0.3723034 -0.54930627 4293269760
3.2935412 -0.37197754 -0.55585146 4293269760
3.302814 -0.37291959 -0.56367004 4293269760
3.279654 -0.37020308 -0.56526518 4293269760
3.2613761 -0.36803839 -0.56698257 4293139200
3.2406414 -0.36559787 -0.56755984 4293139200
3.2449503 -0.36598068 -0.57185316 4293139200
3.2532816 -0.36681631 -0.5762043 4293139200
3.1869876 -0.35924658 -0.56659639 4292878080
3.2477732 -0.36598939 -0.57896364 4293139200
3.2388322 -0.36487964 -0.57822144 4293139200
3.2437038 -0.36532477 -0.57927555 4293139200
3.2687194 -0.36803558 -0.58325762 4293269760
3.2629101 -0.36727798 -0.58104432 4293139200
3.2854669 -0.36971 -0.58320761 4293269760
3.2942359 -0.37059072 -0.58221889 4293269760
3.2907643 -0.37009528 -0.57838064 4293269760
3.3085825 -0.37199163 -0.577604 4293400320
3.304172 -0.37139037 -0.57225132 4293269760
3.3141005 -0.37239915 -0.56871539 4293400320
3.3023136 -0.37096983 -0.56079018 4293269760
3.2950492 -0.3700487 -0.55302233 4293269760
3.3151305 -0.37219551 -0.54918915 4293400320
3.3010883 -0.37051412 -0.5390448 4293269760
3.2990789 -0.37018263 -0.53028977 4293269760
3.277415 -0.36764824 -0.51782298 4293139200
3.2726138 -0.36700466 -0.50750929 4293139200
3.2803953 -0.36777076 -0.49856368 4293139200
3.3084133 -0.37080252 -0.49202025 4293269760
3.3220863 -0.37222642 -0.48263994 4293269760
3.3034508 -0.37003335 -0.4680247 4293269760
3.2797654 -0.3672764 -0.45231968 4293139200
3.2775369 -0.36692104 -0.43917298 4293139200
3.2981744 -0.36912268 -0.42853346 4293269760
3.2981846 -0.369017 -0.41464084 4293269760
3.2858264 -0.36752898 -0.39877889 4293139200
3.2538934 -0.36385462 -0.38028553 4293008640
3.2225595 -0.36024925 -0.36172912 4292878080
3.069484 -0.34305194 -0.32991624 4292355840
2.933707 -0.32779551 -0.30099317 4291964160
2.690522 -0.30056146 -0.26252702 4291180800
2.6482687 -0.29576004 -0.24492595 4290919680
2.6019723 -0.29051039 -0.22713511 4290789120
2.5991681 -0.29011306 -0.21317625 4290789120
2.5242712 -0.28167993 -0.1934424 4290528000
2.5814931 -0.28797427 -0.18380347 4290789120
2.5259447 -0.28170201 -0.16585693 4290528000
2.5407262 -0.28326595 -0.15262237 4290528000
2.4402745 -0.27199918 -0.13270818 4290266880
2.4857306 -0.27697912 -0.12100077 4290397440
2.4476726 -0.27266333 -0.10499931 4290266880
2.396909 -0.2669366 -0.088846467 4290136320
2.358659 -0.26260483 -0.073591709 4290005760
2.4064548 -0.26784155 -0.060953293 4290136320
2.3829401 -0.26514962 -0.046248734 4290005760
2.3506949 -0.26148921 -0.03165042 4289875200
2.3644724 -0.26294288 -0.017785585 4290005760
2.3887844 -0.26556545 -0.0037649921 4290005760
2.3257933 -0.25849485 0.010233846 4289875200
2.3031545 -0.25590655 0.023854723 4289744640
2.4166746 -0.26842606 0.039283384 4290136320
2.4489331 -0.27192518 0.054275326 4290266880
2.4396212 -0.27081284 0.068453848 4290266880
2.421248 -0.26869667 0.082146615 4290136320
2.5003169 -0.27737984 0.099327199 4290397440
2.5099404 -0.27836451 0.11420979 4290528000
2.46193 -0.27296558 0.12617019 4290266880
2.6418202 -0.29280248 0.15022901 4290919680
3.1515408 -0.34913522 0.19650111 4292616960
3.3039224 -0.36589414 0.224207 4293139200
3.3203831 -0.36760759 0.24345843 4293269760
3.306843 -0.36600223 0.26027551 4293139200
3.3359823 -0.36911625 0.28021696 4293269760
3.3443627 -0.36993408 0.29831347 4293269760
3.3404465 -0.36939275 0.3150118 4293269760
3.3262086 -0.3677116 0.33030024 4293269760
3.279568 -0.36245334 0.34172317 4293139200
3.3479342 -0.36989415 0.36476922 4293400320
3.3344741 -0.36830014 0.37880576 4293269760
3.3317721 -0.36789399 0.39355585 4293269760
3.3134251 -0.3657625 0.40593088 4293269760
3.2741556 -0.36132523 0.41504973 4293139200
3.3280067 -0.36715546 0.43549359 4293269760
3.3228841 -0.36648336 0.44796425 4293269760
3.3318114 -0.36735949 0.46182212 4293400320
3.3296905 -0.36701834 0.47365391 4293400320
3.3310869 -0.36706465 0.48543766 4293400320
3.3065319 -0.3642545 0.49282259 4293269760
3.316247 -0.36521703 0.50467342 4293269760
3.3250353 -0.36607701 0.51585752 4293400320
3.3265126 -0.36613253 0.52534539 4293400320
3.3218124 -0.36550885 0.53324443 4293400320
3.3160074 -0.36476409 0.54032087 4293269760
3.3132019 -0.36434942 0.54723465 4293269760
3.3288009 -0.36595663 0.5565626 4293400320
3.3151691 -0.364353 0.56037968 4293400320
3.3235054 -0.36516201 0.5672279 4293400320
3.3227329 -0.36497092 0.57187557 4293400320
3.3211851 -0.36469486 0.57571638 4293400320
3.3206263 -0.36452749 0.57904935 4293400320
3.3152814 -0.36383542 0.58086532 4293400320
3.3198435 -0.36422983 0.58372539 4293400320
3.3049343 -0.36249015 0.58248502 4293269760
3.3146222 -0.36344633 0.58487266 4293400320
3.3195295 -0.3638784 0.58573341 4293400320
3.3205376 -0.36388326 0.58521891 4293400320
3.3119667 -0.36283964 0.5823372 4293400320
3.3021429 -0.36165953 0.57856041 4293269760
3.3103619 -0.362454 0.57725108 4293400320
3.3094141 -0.3622455 0.57366532 4293269760
3.3156886 -0.36282676 0.57064593 4293400320
3.3211062 -0.36331412 0.56679475 4293400320
3.3190193 -0.36298114 0.56099951 4293400320
3.3142128 -0.36235127 0.5541023 4293269760
3.3148935 -0.36232108 0.5474788 4293269760
3.3027282 -0.36088836 0.53812957 4293269760
3.3069551 -0.36124572 0.53083032 4293269760
3.3003471 -0.36042061 0.52118945 4293269760
3.3125072 -0.36164325 0.51387846 4293269760
3.3371468 -0.36422619 0.50779349 4293400320
3.3153625 -0.36174643 0.49408486 4293269760
3.3117232 -0.36124575 0.48257938 4293269760
3.2755821 -0.35664475 0.39478511 4293139200
3.3083916 -0.36011067 0.38400641 4293269760
3.3279314 -0.36213183 0.37102792 4293269760
3.2851036 -0.35737282 0.35083094 4293139200
3.274277 -0.35609391 0.33389026 4293139200
3.2919624 -0.35791302 0.31942937 4293139200
3.2680676 -0.35521543 0.30063689 4293008640
2.8104341 -0.30542842 0.24436347 4291572480
2.5710361 -0.27935693 0.21023948 4290658560
2.5195577 -0.27369109 0.19262551 4290528000
2.5056694 -0.27210608 0.17799076 4290528000
2.4129255 -0.26197049 0.15820734 4290136320
2.4394073 -0.26476642 0.14632738 4290266880
2.4566219 -0.26655632 0.13349333 4290266880
2.4198744 -0.26249829 0.11773632 4290136320
2.3019063 -0.24964461 0.09885224 4289744640
2.3448517 -0.25422361 0.087058984 4289875200
2.4162421 -0.26187941 0.075536139 4290136320
2.3122015 -0.25054422 0.058782108 4289744640
2.2822404 -0.24723066 0.044570751 4289744640
2.3979149 -0.25967181 0.03252174 4290136320
2.4080026 -0.26068816 0.01834356 4290136320
2.4471402 -0.26484427 0.0040491596 4290266880
2.4796257 -0.26827908 -0.010683548 4290397440
2.455657 -0.26561242 -0.025171682 4290266880
2.4179897 -0.26146767 -0.039118126 4290136320
2.449163 -0.26475859 -0.054151982 4290266880
2.5502312 -0.27559268 -0.071507692 4290658560
2.5597076 -0.27653614 -0.086806074 4290658560
2.5455556 -0.27492976 -0.10116808 4290528000
2.5902603 -0.27967227 -0.11797991 4290789120
2.6144304 -0.28219786 -0.13411433 4290789120
2.6473844 -0.28566879 -0.15088822 4290919680
2.6180301 -0.28242314 -0.16393027 4290789120
2.668313 -0.28775874 -0.1819502 4291050240
2.9979935 -0.32318231 -0.22109403 4292094720
3.1869752 -0.34343648 -0.25237101 4292747520
3.3107972 -0.35666519 -0.27985966 4293269760
3.3219423 -0.35776132 -0.29817912 4293269760
3.2721312 -0.35229933 -0.31047451 4293139200
3.3180134 -0.35713172 -0.33153445 4293269760
3.3280101 -0.35810298 -0.34890723 4293269760
3.3261518 -0.35779941 -0.36468804 4293269760
3.3127058 -0.35625076 -0.3787187 4293269760
3.2650974 -0.35103321 -0.38812855 4293139200
3.3480732 -0.35984179 -0.4128449 4293400320
3.338197 -0.35867679 -0.42593247 4293400320
3.3483856 -0.35966587 -0.44111404 4293400320
3.3384423 -0.35849416 -0.4531424 4293400320
3.3300641 -0.35749093 -0.46480292 4293400320
3.3204658 -0.35635728 -0.47570127 4293269760
3.3198636 -0.35618857 -0.48731759 4293269760
3.3149216 -0.35555473 -0.49772382 4293269760
3.3130891 -0.35525426 -0.50801033 4293269760
3.3111205 -0.35493928 -0.51768523 4293269760
3.3175879 -0.35552764 -0.52810401 4293269760
3.3026912 -0.35382861 -0.53448623 4293269760
3.3140483 -0.35493991 -0.54450423 4293269760
3.2936964 -0.35265818 -0.54865336 4293269760
3.2956524 -0.35276347 -0.55585396 4293269760
3.2863057 -0.35166007 -0.56048757 4293269760
3.2729352 -0.35012713 -0.56374449 4293139200
3.2634649 -0.34901172 -0.56698501 4293139200
3.2476139 -0.34721521 -0.56842172 4293139200
3.2509446 -0.34746802 -0.57254732 4293139200
3.2553632 -0.3478367 -0.57620674 4293139200
3.2412899 -0.3462314 -0.57590854 4293139200
3.2547455 -0.34756419 -0.57984036 4293139200
3.2497139 -0.34692407 -0.57979983 4293139200
3.2457771 -0.34640095 -0.57927799 4293139200
3.275703 -0.34948778 -0.58413517 4293269760
3.2649944 -0.34824225 -0.58104676 4293139200
3.287565 -0.35054278 -0.58321011 4293269760
3.2914426 -0.35085091 -0.58135432 4293269760
3.2977622 -0.35141867 -0.57924551 4293269760
3.3106935 -0.35268974 -0.57760644 4293400320
3.3062797 -0.35211423 -0.57225376 4293269760
3.3073156 -0.35211864 -0.56718785 4293269760
3.3093209 -0.35222599 -0.56162679 4293269760
3.3206878 -0.35332838 -0.55698353 4293400320
3.3074315 -0.35181299 -0.54756284 4293269760
3.3047578 -0.35142279 -0.53930372 4293269760
3.3011796 -0.35093656 -0.53029221 4293269760
3.2844126 -0.34905007 -0.51860321 4293269760
3.2746964 -0.34791303 -0.50751173 4293139200
3.2923141 -0.34967726 -0.50006402 4293269760
3.3105173 -0.35150242 -0.49202269 4293269760
3.3291192 -0.35336861 -0.48335916 4293400320
3.3138249 -0.35163969 -0.46920261 4293269760
3.2779088 -0.34772596 -0.45177713 4293139200
3.2746906 -0.34727916 -0.4385131 4293139200
3.3002689 -0.34988284 -0.42853591 4293269760
3.3091588 -0.3507176 -0.41576332 4293269760
3.2879119 -0.34836134 -0.39878133 4293139200
3.264725 -0.34580112 -0.38131627 4293139200
3.2749081 -0.34677282 -0.36739993 4293139200
3.2515733 -0.34419879 -0.34936461 4293008640
3.1164227 -0.3298035 -0.31964079 4292616960
2.9138517 -0.30829054 -0.28427711 4291833600
2.6885657 -0.28439039 -0.24852175 4291050240
2.6472108 -0.27993461 -0.23096801 4290919680
2.6285658 -0.27787974 -0.21547097 4290919680
2.559582 -0.27051172 -0.19604899 4290658560
2.5318458 -0.26750138 -0.1801222 4290528000
2.5751743 -0.27199063 -0.16901712 4290658560
2.5711207 -0.27147943 -0.15437226 4290658560
2.4894814 -0.2627877 -0.13533488 4290397440
2.5151141 -0.26540872 -0.12237548 4290528000
2.4780326 -0.26141945 -0.10625743 4290397440
2.4272432 -0.25598854 -0.08993753 4290136320
2.3939447 -0.2524029 -0.074673295 4290005760
2.4417758 -0.2573607 -0.061836436 4290266880
2.4132791 -0.25428212 -0.046832114 4290136320
2.389966 -0.25175077 -0.032190524 4290005760
2.3987818 -0.25260031 -0.018060047 4290136320
2.4181373 -0.25455752 -0.0038326308 4290136320
2.3660457 -0.2490032 0.010370955 4290005760
2.2505438 -0.23678879 0.023338446 4289614080
2.4092474 -0.25338775 0.039143376 4290136320
2.4504757 -0.2576392 0.054273531 4290266880
2.4461281 -0.25710312 0.06858746 4290266880
2.3160539 -0.24337173 0.078613438 4289744640
2.5068591 -0.26331615 0.099518687 4290397440
2.5340898 -0.26609093 0.11521634 4290528000
2.5343785 -0.26603886 0.12974161 4290528000
2.8548415 -0.29954901 0.1620764 4291703040
3.2776074 -0.34375894 0.20415041 4293139200
3.3208828 -0.34818611 0.22520481 4293269760
3.3224683 -0.34824443 0.24345601 4293269760
3.2816436 -0.34386256 0.25814483 4293139200
3.3331201 -0.34914383 0.27980161 4293269760
3.3563683 -0.35146829 0.29918796 4293400320
3.3465028 -0.35032764 0.31538016 4293269760
3.3332431 -0.34883279 0.33078578 4293269760
3.2816236 -0.34332895 0.34172079 4293139200
3.3361881 -0.34892482 0.36326826 4293269760
3.326679 -0.34782353 0.3776876 4293269760
3.3239799 -0.34743413 0.39239368 4293269760
3.3154995 -0.34644136 0.40592846 4293269760
3.2762048 -0.34223309 0.41504735 4293139200
3.3251572 -0.34723502 0.43484947 4293269760
3.3249626 -0.3471075 0.44796184 4293269760
3.3427632 -0.34885651 0.46304229 4293400320
3.3366964 -0.3481164 0.47434828 4293400320
3.3243086 -0.34671804 0.48415086 4293269760
3.3268077 -0.3468715 0.49552026 4293400320
3.3271699 -0.34680223 0.50601125 4293400320
3.3369422 -0.34771279 0.51737267 4293400320
3.328589 -0.34673622 0.525343 4293400320
3.3150444 -0.34522012 0.53182977 4293269760
3.3278952 -0.34645057 0.54191077 4293400320
3.3201761 -0.34554127 0.54803902 4293400320
3.3210633 -0.3455272 0.55492729 4293400320
3.3221402 -0.34553286 0.56120253 4293400320
3.3206723 -0.34527421 0.56639248 4293400320
3.314116 -0.34448719 0.57004249 4293400320
3.3134499 -0.34431225 0.57402253 4293400320
3.327594 -0.34567469 0.57989758 4293400320
3.3222446 -0.34501356 0.58171755 4293400320
3.3307281 -0.34578776 0.58526659 4293400320
3.3216877 -0.34474429 0.58506119 4293400320
3.3117838 -0.34361202 0.58400977 4293400320
3.3029761 -0.342594 0.58246112 4293269760
3.3226008 -0.34452236 0.58521652 4293400320
3.314024 -0.34352866 0.58233482 4293400320
3.3237944 -0.34443524 0.58197641 4293400320
3.312417 -0.34315234 0.57724869 4293400320
3.3114681 -0.34294933 0.57366294 4293269760
3.3177457 -0.343494 0.57064354 4293400320
3.3192432 -0.34354404 0.56612599 4293400320
3.3230362 -0.34383139 0.56132668 4293400320
3.3197896 -0.343391 0.55468601 4293400320
3.3120396 -0.34248561 0.54666966 4293269760
3.3047743 -0.34163085 0.53812724 4293269760
3.3090034 -0.3419635 0.53082794 4293269760
3.2979696 -0.34072044 0.52049237 4293269760
3.3234062 -0.34324169 0.51524192 4293400320
3.3303592 -0.34385455 0.50645083 4293400320
3.3174133 -0.34241489 0.49408251 4293269760
3.3106177 -0.34161016 0.48211989 4293269760
3.2825429 -0.33805236 0.39537433 4293139200
3.3242688 -0.342242 0.38559991 4293269760
3.3349283 -0.34323436 0.37157318 4293269760
3.3019686 -0.33974189 0.35240263 4293139200
3.271347 -0.33649179 0.33338681 4293139200
3.2989426 -0.33922499 0.31990397 4293139200
3.312681 -0.34053326 0.30452344 4293269760
3.0941353 -0.31798989 0.26865256 4292486400
2.6518545 -0.27249414 0.21664855 4290919680
2.5211093 -0.25899485 0.19262372 4290528000
2.5121737 -0.25799966 0.17833714 4290528000
2.3995197 -0.24636824 0.15724251 4290136320
2.4597766 -0.25247133 0.14744101 4290266880
2.458133 -0.25222635 0.13349159 4290266880
2.4263308 -0.2488914 0.11797206 4290136320
2.3321452 -0.23916844 0.10006267 4289875200
2.3741291 -0.24339505 0.088066667 4290005760
2.4326417 -0.24931109 0.07598827 4290136320
2.3424623 -0.24000673 0.059488863 4289875200
2.3025398 -0.23584959 0.044921916 4289744640
2.4232605 -0.24812475 0.03282446 4290136320
2.4572301 -0.25152266 0.018667484 4290266880
2.4575946 -0.25148353 0.0040552919 4290266880
2.5050218 -0.25625336 -0.010806236 4290397440
2.4860108 -0.25423351 -0.025490897 4290397440
2.4483175 -0.25030702 -0.039608341 4290266880
2.4695604 -0.25239956 -0.054585475 4290266880
2.5806317 -0.26365849 -0.072338276 4290658560
2.5940852 -0.2649509 -0.087943107 4290789120
2.5709708 -0.26251265 -0.1021343 4290658560
2.6256344 -0.26800647 -0.11954309 4290789120
2.6448419 -0.26988268 -0.13561277 4290919680
2.6678746 -0.27214751 -0.15197752 4291050240
2.64346 -0.26957732 -0.16543917 4290919680
2.8330789 -0.2888059 -0.19317515 4291572480
3.1794548 -0.323982 -0.2344382 4292747520
3.2983057 -0.33597943 -0.26108846 4293139200
3.3303103 -0.33913305 -0.28134859 4293269760
3.3289244 -0.33888832 -0.29862839 4293269760
3.2790802 -0.33371612 -0.31094894 4293139200
3.3111281 -0.33687165 -0.33064264 4293269760
3.3250926 -0.33818746 -0.34838876 4293269760
3.32184 -0.33775324 -0.36399257 4293269760
3.3196671 -0.33742884 -0.37928811 4293269760
3.2621472 -0.33148521 -0.38754156 4293139200
3.3550498 -0.34081262 -0.41345802 4293400320
3.3451643 -0.33970466 -0.42656639 4293400320
3.3486516 -0.33995372 -0.44088221 4293400320
3.3503332 -0.3400194 -0.45448679 4293400320
3.3320904 -0.33806512 -0.46480528 4293400320
3.32741 -0.33748639 -0.47641098 4293269760
3.3179445 -0.3364231 -0.48674041 4293269760
3.3169367 -0.3362169 -0.49772614 4293269760
3.3249373 -0.33692279 -0.50952429 4293400320
3.3215756 -0.33647805 -0.51901078 4293269760
3.3146899 -0.33567688 -0.52732247 4293269760
3.3145187 -0.33555529 -0.53608161 4293269760
3.3111506 -0.33511034 -0.54369825 4293269760
3.3143432 -0.33532876 -0.5517686 4293269760
3.2839153 -0.33214927 -0.55353463 4293269760
3.2784898 -0.33149755 -0.55881357 4293269760
3.2788417 -0.33142957 -0.56442374 4293269760
3.2517178 -0.32858744 -0.56459802 4293139200
3.2495816 -0.32826903 -0.56842399 4293139200
3.2627134 -0.3294912 -0.57427883 4293139200
3.2573345 -0.32884532 -0.57620901 4293139200
3.2481503 -0.32781598 -0.57678288 4293139200
3.251817 -0.32808259 -0.57896835 4293139200
3.2565777 -0.32845914 -0.58067763 4293139200
3.24774 -0.32746542 -0.57928026 4293139200
3.2678874 -0.32939121 -0.58238721 4293139200
3.2583017 -0.32832223 -0.57950383 4293139200
3.2895513 -0.33136365 -0.58321238 4293269760
3.2934306 -0.33164918 -0.58135659 4293269760
3.2997534 -0.33218017 -0.57924783 4293269760
3.3126919 -0.3333759 -0.57760876 4293400320
3.308275 -0.33282614 -0.57225609 4293269760
3.3142147 -0.33331734 -0.56803286 4293269760
3.3152409 -0.33331448 -0.56229645 4293269760
3.3128762 -0.33297095 -0.55533636 4293269760
3.319242 -0.33350396 -0.54919392 4293400320
3.3140199 -0.33287355 -0.5404951 4293269760
3.3031681 -0.3316786 -0.53029448 4293269760
3.2974985 -0.33100402 -0.52036345 4293269760
3.2865009 -0.32979554 -0.50904161 4293269760
3.2942953 -0.33047122 -0.50006634 4293269760
3.3213673 -0.33307797 -0.49334487 4293269760
3.3311214 -0.33394822 -0.48336145 4293400320
3.312464 -0.33197281 -0.46872884 4293269760
3.2798789 -0.32860431 -0.45177937 4293139200
3.2717268 -0.32768291 -0.43785304 4293139200
3.3061984 -0.33102596 -0.42905229 4293269760
3.3111458 -0.33141416 -0.41576558 4293269760
3.2898855 -0.32918191 -0.39878359 4293139200
3.2716258 -0.32725084 -0.38189781 4293139200
3.2907166 -0.3290526 -0.36896124 4293139200
3.3042197 -0.33029497 -0.3548362 4293139200
3.2679811 -0.32656997 -0.33506614 4293008640
3.0761378 -0.30731601 -0.30002362 4292355840
2.824779 -0.28213593 -0.26104209 4291572480
2.6725874 -0.26686379 -0.23305947 4291050240
2.668817 -0.26640135 -0.21866634 4291050240
2.5849257 -0.25795242 -0.19788939 4290789120
2.5671077 -0.25609314 -0.18254629 4290658560
2.6055098 -0.25983557 -0.17092708 4290789120
2.6014633 -0.25934821 -0.15612206 4290789120
2.5108418 -0.2502422 -0.13643029 4290528000
2.5404708 -0.25310957 -0.12355397 4290528000
2.5083439 -0.24983096 -0.10751547 4290397440
2.4565361 -0.24459705 -0.090990953 4290266880
2.4291906 -0.24179859 -0.075754799 4290136320
2.4621341 -0.24499416 -0.062330645 4290266880
2.4336224 -0.24208143 -0.047214843 4290136320
2.4202468 -0.24067397 -0.032603037 4290136320
2.4340448 -0.24196556 -0.018342694 4290136320
2.3913395 -0.23764761 -0.0037674864 4290005760
2.3963141 -0.23806369 0.010472547 4290005760
2.308604 -0.22928536 0.023876429 4289744640
2.4345627 -0.24170122 0.039510343 4290136320
2.4569092 -0.24383758 0.054378025 4290266880
2.452558 -0.24332674 0.06872119 4290266880
2.3174322 -0.22986062 0.078611858 4289744640
2.5033786 -0.24820082 0.099323668 4290397440
2.5405676 -0.25180155 0.11543656 4290528000
2.6825082 -0.26576725 0.1371249 4291050240
3.1653936 -0.31345633 0.17937911 4292747520
3.311409 -0.32779568 0.20611127 4293139200
3.3268266 -0.3292129 0.22546929 4293269760
3.3244405 -0.32886946 0.24345376 4293269760
3.2969921 -0.32604977 0.25918764 4293139200
3.3350973 -0.32970712 0.27979934 4293269760
3.3534021 -0.3314068 0.29874724 4293400320
3.3444371 -0.33041352 0.31499904 4293269760
3.3302665 -0.32890713 0.33029556 4293269760
3.2835679 -0.32419291 0.34171858 4293139200
3.3332167 -0.3289831 0.36273083 4293269760
3.3286488 -0.32842526 0.37768537 4293269760
3.3358319 -0.32902586 0.39355117 4293269760
3.321413 -0.32749784 0.40640718 4293269760
3.2741928 -0.32274029 0.41454768 4293139200
3.336993 -0.32881784 0.43613064 4293400320
3.3456709 -0.32956457 0.45047078 4293400320
3.3407178 -0.32896963 0.46248606 4293400320
3.3386676 -0.32866061 0.47434601 4293400320
3.3311968 -0.32781881 0.48486215 4293400320
3.3287718 -0.32747352 0.49551803 4293400320
3.3251972 -0.32701546 0.50541335 4293269760
3.3241558 -0.32680658 0.5150941 4293269760
3.3354685 -0.32781091 0.52611285 4293400320
3.325845 -0.32675943 0.53323984 4293400320
3.3249443 -0.32656461 0.54111236 4293400320
3.3260612 -0.32656786 0.54868221 4293400320
3.3279288 -0.32664472 0.55574149 4293400320
3.3191886 -0.32568157 0.56037509 4293400320
3.318702 -0.32552794 0.56572384 4293400320
3.311161 -0.32468328 0.5692004 4293269760
3.3252082 -0.3259536 0.57571179 4293400320
3.3246477 -0.32579279 0.5790447 4293400320
3.3104844 -0.32430074 0.57932508 4293269760
3.3238761 -0.32550579 0.58372337 4293400320
3.3148303 -0.32451534 0.58351445 4293400320
3.3186312 -0.32478178 0.58486807 4293400320
3.3137393 -0.32419828 0.5840078 4293400320
3.3245511 -0.32514974 0.58521426 4293400320
3.3247936 -0.32506809 0.58387619 4293400320
3.3208413 -0.32457685 0.5811196 4293400320
3.3143597 -0.32383901 0.57724649 4293400320
