# .PCD v0.7 - Point Cloud Data file format
VERSION 0.7
FIELDS x y z rgba
SIZE 4 4 4 4
TYPE F F F U
COUNT 1 1 1 1
WIDTH 1126
HEIGHT 1
VIEWPOINT 0 0 0 1 0 0 0
POINTS 1126
DATA ascii
1.6506969 1.0439473 0.3331117 4288700160
1.6668963 1.0542657 0.33317533 4288700160
1.6660389 1.0537966 0.32941255 4288700160
1.6750695 1.0595824 0.32720229 4288700160
1.6672865 1.0547326 0.32132691 4288700160
1.6593579 1.0497899 0.31509411 4288700160
1.6451017 1.040843 0.30736157 4288569600
1.6374137 1.036051 0.30057043 4288569600
1.6695091 1.0564322 0.30064955 4288700160
1.6789889 1.0625049 0.29616413 4288700160
1.6630296 1.0524786 0.28687924 4288700160
1.6473999 1.0430549 0.23538886 4288569600
1.6611619 1.0518415 0.2286723 4288569600
1.6744269 1.0603145 0.22148788 4288700160
1.6631767 1.0532637 0.21080412 4288569600
1.6422117 1.0400592 0.19883528 4288569600
1.6513839 1.0459409 0.1903601 4288569600
1.6566923 1.0493759 0.18114381 4288569600
1.6534141 1.0473723 0.17077674 4288569600
1.6318665 1.0337946 0.15848704 4288439040
1.6381971 1.0378771 0.1488236 4288569600
1.6553881 1.0488414 0.13983408 4288569600
1.6497235 1.0453249 0.12868765 4288569600
1.6329091 1.0347426 0.11667747 4288439040
1.5188018 0.962502 0.098454572 4288047360
1.45304 0.92089105 0.084455378 4287786240
1.4778656 0.93668985 0.075902104 4287916800
1.4376674 0.91127503 0.064032845 4287655680
1.5649277 0.99200875 0.058952492 4288177920
1.5854235 1.0050709 0.048770372 4288308480
1.5311911 0.97075796 0.036471296 4288047360
1.4992932 0.9506011 0.025263237 4287916800
1.561318 0.98999566 0.015399029 4288177920
1.5154268 0.96096379 0.0043411986 4288047360
1.5249872 0.96709341 -0.006308666 4288047360
1.5449097 0.97979569 -0.017201366 4288177920
1.5447664 0.97977281 -0.027990937 4288177920
1.520342 0.9643485 -0.038139623 4288047360
1.5688007 0.99515486 -0.05024207 4288177920
1.5684958 0.99503052 -0.061063163 4288177920
1.5397071 0.97683525 -0.070510082 4288047360
1.5179147 0.96307635 -0.079855405 4288047360
1.5312744 0.97162026 -0.090905681 4288047360
1.5350024 0.97405332 -0.10140113 4288047360
1.4802297 0.93936199 -0.10758451 4287916800
1.4871926 0.94384623 -0.11782096 4287916800
1.5652894 0.99347925 -0.13411452 4288177920
1.5688398 0.99580187 -0.14440149 4288177920
1.5257732 0.9685331 -0.14999269 4288047360
1.5165923 0.96277207 -0.15842447 4288047360
1.4884133 0.94494891 -0.16447091 4287916800
1.5978259 1.0144821 -0.18601744 4288308480
1.5270131 0.96958935 -0.18661435 4288047360
1.5824558 1.0048629 -0.20233753 4288308480
1.5932995 1.011819 -0.21250664 4288308480
1.4962492 0.95025349 -0.20758779 4287916800
1.6263232 1.032934 -0.2341049 4288439040
1.6455481 1.0452169 -0.24517775 4288569600
1.6881911 1.0723772 -0.25976929 4288700160
1.6459914 1.0456437 -0.26102242 4288569600
1.7772368 1.1290978 -0.28988105 4289091840
1.7253805 1.0962291 -0.28891474 4288961280
1.7203227 1.0930914 -0.29521024 4288961280
1.7840685 1.133674 -0.31320724 4289222400
1.8107438 1.1507046 -0.32469064 4289222400
1.7903984 1.1378543 -0.32739851 4289222400
1.8412876 1.1702772 -0.34285426 4289352960
1.8846699 1.1979331 -0.35682303 4289614080
1.9513837 1.2404237 -0.37512696 4289875200
1.9875342 1.2634909 -0.3874127 4290005760
1.9773729 1.2571186 -0.39029452 4290005760
2.0082834 1.2768587 -0.40087402 4290136320
2.0171366 1.2825763 -0.40667111 4290136320
2.0348814 1.2939489 -0.41383627 4290266880
2.0942709 1.3318063 -0.42911011 4290397440
2.0503771 1.3039834 -0.42275468 4290266880
2.0458751 1.3012106 -0.42396599 4290266880
2.0258274 1.2885493 -0.42143902 4290136320
2.0173151 1.2832239 -0.42079771 4290136320
2.0369534 1.2958058 -0.42553711 4290266880
2.0410476 1.2985004 -0.42653731 4290266880
2.0329914 1.2934649 -0.42450038 4290266880
2.0314276 1.2925596 -0.42332396 4290136320
2.0171566 1.2835681 -0.41901392 4290136320
1.9500595 1.2409587 -0.40331045 4289875200
1.9063523 1.2132289 -0.39208362 4289744640
1.9128109 1.2174237 -0.39075747 4289744640
1.892171 1.2043707 -0.38346398 4289614080
1.8452166 1.1745657 -0.37051147 4289483520
1.7974613 1.1442466 -0.35715428 4289222400
1.7580521 1.1192367 -0.34523201 4289091840
1.7228283 1.0968879 -0.33391258 4288961280
1.7234336 1.0973495 -0.32923889 4288961280
1.6443555 1.0470713 -0.30919757 4288569600
1.6375076 1.042783 -0.30264065 4288569600
1.6340216 1.0406353 -0.29639053 4288569600
1.6305618 1.0385039 -0.28982916 4288569600
1.6271244 1.0363865 -0.28296539 4288569600
1.5340692 0.97718328 -0.26058242 4288177920
1.5189288 0.96760613 -0.25157735 4288047360
1.5238441 0.97080463 -0.24565032 4288047360
1.5204132 0.96868604 -0.23809321 4288047360
1.5950854 1.0163317 -0.24215609 4288439040
1.5799786 1.006776 -0.23203368 4288308480
1.5723921 1.0020113 -0.22286832 4288308480
1.581549 1.0079165 -0.21581656 4288308480
1.5663993 0.99833071 -0.20524034 4288308480
1.5503843 0.98819214 -0.19449331 4288177920
1.5511184 0.98872858 -0.18571606 4288177920
1.5644249 0.9972797 -0.17815587 4288177920
1.5449709 0.98494649 -0.16670603 4288177920
1.5330353 0.97740513 -0.15607229 4288047360
1.5336683 0.97787642 -0.14661489 4288047360
1.5342704 0.97832811 -0.13698554 4288047360
1.5230633 0.97124922 -0.12621953 4288047360
1.6237806 1.0355479 -0.12400757 4288439040
1.5718 1.0024673 -0.10968594 4288308480
1.5447336 0.98527312 -0.097505793 4288177920
1.6281905 1.0385761 -0.091814265 4288439040
1.6445653 1.0490938 -0.081566952 4288569600
1.6228206 1.0352943 -0.069377847 4288439040
1.6062473 1.0247922 -0.057597443 4288439040
1.6298301 1.0399102 -0.04714505 4288439040
1.6268699 1.0380933 -0.035730649 4288439040
1.5221347 0.97132987 -0.022794431 4288047360
1.5986441 1.0202241 -0.01274337 4288308480
1.5986477 1.0202969 -0.0015323731 4288308480
1.5412264 0.98371738 0.0093330331 4288177920
1.4570702 0.93006754 0.019034401 4287786240
1.4591475 0.93145794 0.029266931 4287786240
1.4598582 0.93197626 0.039460376 4287786240
1.5981518 1.0203338 0.054295778 4288308480
1.6562036 1.05747 0.067708105 4288569600
1.6427578 1.0489576 0.078433432 4288569600
1.661119 1.0607553 0.090625711 4288569600
1.6490234 1.0531043 0.10110195 4288569600
1.6331198 1.0430201 0.11104735 4288439040
1.6522832 1.0553322 0.12327724 4288569600
1.6555034 1.0574622 0.13433148 4288569600
1.6466115 1.0518553 0.1442204 4288569600
1.6268368 1.0392952 0.15281594 4288439040
1.6787883 1.0725584 0.16818079 4288700160
1.6731168 1.0690089 0.17787819 4288700160
1.666124 1.0646148 0.18716262 4288700160
1.6506828 1.0548213 0.19515856 4288569600
1.6161242 1.032809 0.20038827 4288439040
1.6697534 1.0671555 0.21643303 4288700160
1.6718647 1.0685788 0.22587276 4288700160
1.6491362 1.0541248 0.23159507 4288569600
1.6431025 1.0503408 0.23925051 4288569600
1.6289067 1.0413383 0.24534677 4288569600
1.669855 1.0675899 0.25959998 4288700160
1.6757375 1.071425 0.26833469 4288700160
1.6636479 1.0637687 0.2738612 4288700160
1.6539713 1.0576545 0.27937838 4288700160
1.642082 1.0501244 0.28411356 4288569600
1.6456059 1.0524509 0.29115641 4288569600
1.6560354 1.0591944 0.29914051 4288700160
1.6638 1.0642343 0.30636606 4288700160
1.6482214 1.0543425 0.30891708 4288569600
1.6498045 1.0554283 0.31428242 4288700160
1.6469305 1.0536625 0.31843245 4288569600
1.6349323 1.0460589 0.32041022 4288569600
1.636109 1.0468842 0.32456982 4288569600
1.6375182 1.0478584 0.32840449 4288569600
1.6313334 1.0439728 0.33032522 4288569600
1.6391485 1.0490468 0.33469731 4288569600
1.6387779 1.0488821 0.33702028 4288569600
1.6347284 1.0463628 0.33818763 4288569600
1.6425817 1.0514622 0.34142482 4288569600
1.6342627 1.0462093 0.3409026 4288569600
1.63808 1.0487256 0.34250867 4288569600
1.6340241 1.0462015 0.34206834 4288569600
1.6381381 1.048908 0.34293661 4288569600
1.6302826 1.0439503 0.34089938 4288569600
1.6369618 1.0482999 0.34150079 4288569600
1.6395924 1.0500571 0.34085259 4288569600
1.6337125 1.0463637 0.33804008 4288569600
1.6418834 1.0516697 0.33773541 4288569600
1.6424326 1.0520943 0.33545762 4288569600
1.6487368 1.0562057 0.33395234 4288700160
1.6491021 1.0565127 0.33084342 4288700160
1.651566 1.0581645 0.32776439 4288700160
1.6601745 1.0637535 0.3254979 4288700160
1.6528029 1.0591035 0.31971937 4288700160
1.6415751 1.0519814 0.3128759 4288569600
1.6306932 1.0450803 0.30580202 4288569600
1.6323637 1.0462232 0.30075726 4288569600
1.6591641 1.0634738 0.29989734 4288700160
1.6689067 1.0697925 0.29548013 4288700160
1.6610347 1.0648201 0.28760046 4288700160
1.6371164 1.0499555 0.23478961 4288569600
1.6382834 1.0507766 0.22636181 4288569600
1.6565096 1.0625402 0.219933 4288569600
1.6444581 1.0548828 0.20920703 4288569600
1.6285883 1.044775 0.19791947 4288569600
1.6374465 1.0505302 0.18945582 4288569600
1.6463598 1.0563217 0.18068391 4288569600
1.6355455 1.0494558 0.16955981 4288569600
1.6174277 1.037902 0.15766935 4288439040
1.6279267 1.0447115 0.14844102 4288439040
1.6332997 1.048232 0.13848177 4288569600
1.62765 1.0446783 0.12743841 4288439040
1.6228896 1.041695 0.11639324 4288439040
1.5131683 0.97133452 0.098454572 4288047360
1.4350424 0.92124748 0.08371985 4287655680
1.4480026 0.92963165 0.074645273 4287786240
1.5417168 0.9898656 0.068922848 4288177920
1.7728101 1.1383187 0.067032352 4289091840
1.7814848 1.1439676 0.055005655 4289091840
1.821752 1.1699058 0.043553751 4289222400
1.672142 1.0739024 0.028280705 4288700160
1.6767448 1.0769329 0.016599068 4288700160
1.6402665 1.0535765 0.0047163279 4288569600
1.5838569 1.0174137 -0.0065766131 4288308480
1.6076398 1.0327624 -0.017966507 4288439040
1.603284 1.0300354 -0.029159514 4288439040
1.5707985 1.0092347 -0.039552227 4288308480
1.6284461 1.0463454 -0.052346613 4288439040
1.6323333 1.0489155 -0.063785262 4288439040
1.5824921 1.0169585 -0.072739504 4288308480
1.5865391 1.0196297 -0.083776757 4288308480
1.6214312 1.0421259 -0.096616752 4288439040
1.6293139 1.0472646 -0.10803252 4288439040
1.612479 1.0365154 -0.11763343 4288439040
1.6364717 1.0520107 -0.13013078 4288569600
1.6028471 1.0304662 -0.13784453 4288439040
1.6628704 1.0691289 -0.15362713 4288700160
1.7023711 1.094601 -0.16797744 4288830720
1.7297558 1.1122859 -0.18136558 4288961280
1.7861282 1.1486143 -0.19810477 4289091840
1.7083008 1.0986414 -0.19962065 4288830720
1.7316962 1.1137644 -0.21241786 4288961280
1.7826426 1.1466104 -0.22878434 4289091840
1.8298607 1.1770626 -0.24496855 4289352960
1.8722711 1.2044265 -0.26072577 4289483520
1.7397246 1.1192369 -0.25136316 4288961280
1.7629853 1.1342798 -0.26365542 4289091840
1.8020669 1.1595045 -0.27832666 4289222400
1.8611162 1.1975812 -0.29623848 4289483520
1.9114664 1.2300652 -0.31293854 4289744640
1.7550827 1.1295073 -0.29498532 4289091840
1.7625079 1.1343641 -0.30357829 4289091840
1.7691152 1.1386954 -0.3117415 4289091840
1.7882124 1.1510668 -0.32184756 4289222400
1.8272653 1.1762861 -0.33538765 4289352960
1.8704695 1.2041816 -0.34958848 4289483520
1.8693558 1.2035476 -0.3552452 4289483520
1.9242051 1.2389468 -0.37128359 4289744640
1.9320209 1.2440652 -0.37799844 4289744640
1.9020101 1.224825 -0.37682155 4289744640
1.9851245 1.2784359 -0.3977313 4290005760
1.9687209 1.2679594 -0.39839277 4290005760
1.9693215 1.2684338 -0.40199944 4290005760
1.9315658 1.2442013 -0.39725089 4289875200
1.9551934 1.2595077 -0.40463552 4289875200
2.010345 1.2951249 -0.41815966 4290136320
1.9860624 1.2795697 -0.41471049 4290005760
2.0024214 1.2901983 -0.41925186 4290136320
1.9625546 1.2645987 -0.4115268 4290005760
1.9873453 1.2806613 -0.41686687 4290005760
1.9476207 1.2551491 -0.40819454 4289875200
2.0177708 1.3004471 -0.42204979 4290136320
1.9981195 1.2878708 -0.41661105 4290136320
1.9668748 1.2678198 -0.40830898 4290005760
1.9525516 1.258674 -0.40308696 4289875200
1.9601007 1.2636275 -0.40191522 4289875200
1.9252008 1.2412142 -0.39161667 4289744640
1.8742874 1.2084726 -0.37775612 4289614080
1.8350079 1.1832283 -0.36597836 4289352960
1.8326293 1.181776 -0.36122283 4289352960
1.7934157 1.1565688 -0.3488937 4289222400
1.7741332 1.1442125 -0.34019214 4289222400
1.7706484 1.1420437 -0.33419064 4289091840
1.771351 1.1425757 -0.32860205 4289091840
1.7720894 1.1431308 -0.32263681 4289091840
1.7570703 1.1335205 -0.31348437 4289091840
1.753705 1.1314275 -0.30611962 4289091840
1.7586781 1.1347142 -0.29985318 4289091840
1.7511929 1.1299627 -0.2911323 4289091840
1.7487116 1.1284394 -0.28295499 4289091840
1.7412415 1.1236964 -0.27369502 4288961280
1.7411435 1.1237106 -0.26531917 4288961280
1.7336727 1.1189663 -0.2555581 4288961280
1.7428783 1.1249855 -0.24795759 4288961280
1.7479148 1.1283143 -0.23941167 4288961280
1.7320706 1.1181635 -0.22779746 4288961280
1.7295651 1.116623 -0.21778372 4288961280
1.7154671 1.1075976 -0.20616277 4288830720
1.7345268 1.1199808 -0.19826673 4288961280
1.7277728 1.1156967 -0.18712902 4288961280
1.7274433 1.1155609 -0.17652291 4288961280
1.7166708 1.1086805 -0.1647242 4288830720
1.737448 1.1221763 -0.15570712 4288961280
1.7613168 1.1376711 -0.14651093 4289091840
1.7459998 1.1278553 -0.13384098 4288961280
1.7635676 1.139282 -0.12352929 4289091840
1.844342 1.1915451 -0.11685372 4289352960
1.8192747 1.1754313 -0.10297401 4289222400
1.8398429 1.1888024 -0.091594279 4289352960
1.9021432 1.229142 -0.081624046 4289614080
1.9726744 1.2748063 -0.071002059 4289875200
2.0005388 1.2929022 -0.058085214 4290005760
2.0774004 1.3426687 -0.045796603 4290266880
2.2080958 1.4272382 -0.033190873 4290789120
2.2380691 1.4467117 -0.017907344 4290919680
2.2185442 1.4341894 -0.0021345445 4290919680
1.8805386 1.2157677 0.011430469 4289483520
1.4314735 0.925511 0.018770142 4287655680
1.4461391 0.9350574 0.029114794 4287786240
1.4787495 0.95620877 0.040120922 4287916800
1.5272307 0.98762637 0.052080911 4288047360
1.6458185 1.0643878 0.067535922 4288569600
1.6366185 1.0585109 0.078433432 4288569600
1.6473615 1.0655326 0.090212315 4288569600
1.6470525 1.0654061 0.10135997 4288569600
1.6236622 1.0503483 0.1108185 4288439040
1.6419168 1.0622302 0.12296347 4288569600
1.6493143 1.0670896 0.13433148 4288569600
1.6362687 1.0587221 0.14385234 4288569600
1.620754 1.0487559 0.15281594 4288439040
1.6607989 1.0747421 0.16700308 4288700160
1.6668601 1.0787387 0.17787819 4288700160
1.6601086 1.0744433 0.18718693 4288700160
1.6403323 1.061717 0.19466288 4288569600
1.5900537 1.0292447 0.1978959 4288439040
1.6635076 1.0768657 0.21643303 4288700160
1.6566494 1.0724999 0.22465754 4288700160
1.6442977 1.0645769 0.23178269 4288569600
1.6335574 1.0576961 0.23875391 4288569600
1.6169724 1.0470297 0.24446391 4288439040
1.6519549 1.0697554 0.25778177 4288700160
1.6555386 1.0721499 0.26609603 4288700160
1.6495855 1.0683682 0.27256635 4288700160
1.6417251 1.0633504 0.2783516 4288569600
1.6362875 1.0599015 0.28417462 4288569600
1.6388642 1.0616436 0.29105303 4288569600
1.6500409 1.0689574 0.29917762 4288700160
1.6472754 1.0672394 0.30446309 4288700160
1.6383008 1.0614979 0.30821165 4288569600
1.6372743 1.0609058 0.31306764 4288569600
1.6335597 1.0585718 0.31703436 4288569600
1.6305472 1.0566924 0.32075197 4288569600
1.6277667 1.0549631 0.32412872 4288569600
1.6305931 1.0568676 0.32824498 4288569600
1.6297094 1.0563675 0.33123702 4288569600
1.6249723 1.0533695 0.33305019 4288569600
1.6292011 1.0561833 0.3363106 4288569600
1.6330189 1.0587313 0.33910432 4288569600
1.6317158 1.0579592 0.3404417 4288569600
1.6273788 1.05522 0.34074333 4288569600
1.6241412 1.0531931 0.34087145 4288569600
1.6323136 1.0585654 0.34299555 4288569600
1.628149 1.0559373 0.34212759 4288569600
1.6277109 1.0557258 0.34164202 4288569600
1.6279736 1.0559688 0.34090337 4288569600
1.6277617 1.0559042 0.33966628 4288569600
1.6336414 1.0597911 0.33929724 4288569600
1.6319702 1.0587797 0.33695945 4288569600
1.6285911 1.0566602 0.33388236 4288569600
1.6283616 1.0565839 0.33106658 4288569600
1.6313831 1.0586174 0.32852045 4288569600
1.6392384 1.0637878 0.32654235 4288700160
1.6458764 1.0681691 0.32390928 4288700160
1.6420804 1.0657789 0.31884095 4288700160
1.6381757 1.0633177 0.31340346 4288569600
1.6142008 1.047828 0.30384895 4288569600
1.6264541 1.0558547 0.30079678 4288569600
1.6448524 1.0678718 0.29843 4288700160
1.6499032 1.0712246 0.2932156 4288700160
1.6589524 1.0771739 0.28832164 4288700160
1.6309714 1.0594759 0.23478961 4288569600
1.6362984 1.0630094 0.22693942 4288569600
1.650291 1.0721732 0.219933 4288569600
1.6349491 1.0622789 0.20878114 4288569600
1.6141319 1.0488254 0.19690189 4288439040
1.6148819 1.049385 0.18754928 4288439040
1.6284883 1.0582994 0.17939621 4288569600
1.6168739 1.0508238 0.16825595 4288439040
1.6113532 1.0473078 0.15766935 4288439040
1.6092725 1.0460275 0.14729328 4288439040
1.6188017 1.0522938 0.13777001 4288439040
1.6173528 1.0514243 0.12710968 4288439040
1.6005239 1.0405555 0.11522202 4288439040
1.4259794 0.92714185 0.093131505 4287655680
1.4380242 0.93503737 0.084210202 4287786240
1.4023591 0.91190982 0.072564989 4287655680
1.7457232 1.1352667 0.078337379 4288961280
2.2167239 1.4416636 0.084133498 4290919680
2.2784162 1.4818875 0.070614435 4291180800
2.2789466 1.4823344 0.054689735 4291180800
2.2507434 1.4640903 0.038210131 4291050240
2.2686138 1.4758162 0.022543062 4291050240
2.2637901 1.4727796 0.006533734 4291050240
2.2385535 1.4564612 -0.0093301721 4290919680
2.2381155 1.4562763 -0.025106914 4290919680
2.2410066 1.4582577 -0.040911838 4290919680
2.2546871 1.4672606 -0.056986619 4291050240
2.1902299 1.4254124 -0.070670992 4290789120
2.164784 1.4089488 -0.084910706 4290658560
2.1796343 1.4187117 -0.10056547 4290789120
2.2169023 1.4430683 -0.11750487 4290919680
2.0146585 1.3115101 -0.12050138 4290005760
1.9937636 1.297997 -0.13269673 4290005760
2.0375755 1.3266109 -0.14920636 4290136320
2.1182899 1.3792568 -0.1690807 4290528000
1.9225837 1.2519149 -0.16596629 4289744640
1.919018 1.249679 -0.17796142 4289744640
1.9493172 1.2694972 -0.1930708 4289875200
2.0186636 1.3147496 -0.21245727 4290136320
2.0828409 1.3566412 -0.23188682 4290397440
1.9136418 1.2465204 -0.22446029 4289744640
1.9109931 1.2448806 -0.23529693 4289744640
1.9463089 1.2679734 -0.25073314 4289875200
2.0160091 1.3134716 -0.27090862 4290136320
2.0544231 1.3385911 -0.28717279 4290266880
1.8986356 1.2371703 -0.27536011 4289614080
1.9109854 1.245303 -0.28686911 4289744640
1.9369549 1.262313 -0.30029073 4289875200
1.9614872 1.2783884 -0.31339505 4289875200
2.0564585 1.3403774 -0.33794895 4290266880
1.8783087 1.2243454 -0.31689009 4289614080
1.882239 1.2269917 -0.32542682 4289614080
1.8838698 1.228139 -0.33321801 4289614080
1.8879397 1.2308768 -0.34108168 4289614080
1.9189246 1.251164 -0.35354337 4289744640
1.9431232 1.2670288 -0.3645409 4289875200
1.9870857 1.2957838 -0.37904644 4290005760
2.0288863 1.323133 -0.39296311 4290266880
2.0592086 1.3429998 -0.40440664 4290397440
2.0554245 1.3406239 -0.40875617 4290397440
2.1059613 1.3736801 -0.42353803 4290528000
2.1210232 1.3835996 -0.4308368 4290658560
2.0598989 1.3438189 -0.42208016 4290397440
2.0792208 1.3565171 -0.42923614 4290397440
2.1068528 1.374639 -0.43767214 4290528000
2.1023715 1.3718092 -0.43895659 4290528000
2.1218839 1.3846363 -0.44474837 4290658560
2.1059999 1.3743656 -0.4426074 4290528000
2.0934916 1.3662964 -0.44064462 4290528000
2.0777593 1.356122 -0.43748206 4290397440
2.0662241 1.3486857 -0.4346917 4290397440
2.1185644 1.3829447 -0.44481021 4290658560
2.1030529 1.3729134 -0.44015014 4290528000
2.1228309 1.38592 -0.4423531 4290658560
2.0711606 1.3522792 -0.42919198 4290397440
2.0718389 1.3528148 -0.42643586 4290397440
2.0128484 1.314387 -0.41099635 4290136320
1.9822224 1.2944771 -0.40102336 4290005760
1.9730332 1.2885644 -0.39499706 4290005760
1.9413959 1.2679895 -0.38411105 4289875200
1.9270716 1.2587203 -0.37631565 4289875200
1.9241155 1.2568756 -0.37034932 4289744640
1.9049919 1.244469 -0.36090887 4289744640
1.9057473 1.245048 -0.35487348 4289744640
1.9065411 1.2456521 -0.34843135 4289744640
1.9097807 1.2478544 -0.34202126 4289744640
1.9209452 1.2552353 -0.33658326 4289744640
1.9427687 1.2695829 -0.33249602 4289875200
1.9509375 1.2750087 -0.32556891 4289875200
1.9573233 1.2792697 -0.31791061 4289875200
1.9603108 1.2813102 -0.30929735 4289875200
1.9749148 1.2909443 -0.30208278 4290005760
1.979286 1.2938904 -0.29286987 4290005760
1.984596 1.2974507 -0.28341717 4290005760
2.013483 1.3164262 -0.27683237 4290136320
2.0727966 1.3552985 -0.27364275 4290397440
2.0710335 1.3542386 -0.26176986 4290397440
2.0956986 1.370461 -0.25281382 4290397440
2.1214604 1.3874029 -0.24341539 4290528000
2.1791799 1.4252484 -0.23691471 4290789120
2.1896031 1.4321636 -0.22459868 4290789120
2.2185519 1.4511977 -0.21369019 4290919680
2.2132025 1.4477979 -0.19909602 4290919680
2.2481067 1.4707319 -0.18771298 4291050240
2.253768 1.4745365 -0.17341995 4291050240
2.2659962 1.4826386 -0.15932432 4291050240
2.2660534 1.4827778 -0.14411741 4291050240
2.2577169 1.477424 -0.12827562 4291050240
2.2555692 1.4761199 -0.11271694 4291050240
2.2695494 1.4853708 -0.097759746 4291050240
2.2427945 1.467961 -0.081030898 4291050240
2.2638373 1.4818356 -0.065979593 4291050240
2.272862 1.4878447 -0.05029583 4291050240
2.2670064 1.4841135 -0.034205779 4291050240
2.2621031 1.481005 -0.018168379 4291050240
2.2511172 1.4739134 -0.0021741095 4291050240
1.8935018 1.2398506 0.011552975 4289614080
1.4101628 0.92342722 0.018560939 4287655680
1.4364845 0.94072813 0.029030273 4287786240
1.4564265 0.95385319 0.039665375 4287786240
1.4740406 0.96545535 0.050458014 4287916800
1.6310457 1.0683625 0.067184009 4288569600
1.6220653 1.0625529 0.078031346 4288439040
1.6369475 1.0723753 0.089982651 4288569600
1.628287 1.0667747 0.10058592 4288569600
1.6133397 1.0570545 0.11053244 4288439040
1.639874 1.0745133 0.12327724 4288569600
1.6430693 1.0766808 0.13433148 4288569600
1.6239738 1.0642407 0.14331414 4288569600
1.6048703 1.0517937 0.15189353 4288439040
1.658676 1.0871311 0.1674237 4288700160
1.664712 1.091162 0.17832434 4288700160
1.6429185 1.0769508 0.18595299 4288569600
1.6277342 1.0670706 0.19390234 4288569600
1.5885991 1.0414866 0.19846672 4288439040
1.661567 1.0893991 0.21700267 4288700160
1.6545718 1.084887 0.22522913 4288700160
1.6448894 1.0786122 0.232748 4288569600
1.6344897 1.0718663 0.23979884 4288569600
1.619624 1.0621904 0.24579625 4288569600
1.6598818 1.088667 0.26000413 4288700160
1.6550314 1.0855602 0.26702657 4288700160
1.6479465 1.0809871 0.27333158 4288700160
1.6505991 1.0828013 0.28092104 4288700160
1.6463331 1.0800768 0.28700727 4288700160
1.6475704 1.0809625 0.29371274 4288700160
1.6478359 1.0812107 0.2999149 4288700160
1.6494941 1.0823729 0.30603352 4288700160
1.6458751 1.0800722 0.31081519 4288700160
1.6432203 1.0784038 0.31540066 4288700160
1.6417753 1.0775293 0.31984177 4288700160
1.6488183 1.0822259 0.32558095 4288700160
1.647668 1.081545 0.32934073 4288700160
1.6443064 1.0794122 0.33226588 4288700160
1.6438307 1.0791739 0.33537942 4288700160
1.6413312 1.0776068 0.33768415 4288700160
1.6409593 1.0774363 0.34002787 4288700160
1.6406412 1.0773013 0.34198472 4288700160
1.6346982 1.0734724 0.34236306 4288700160
1.6468413 1.0815206 0.34613189 4288700160
1.6384594 1.0760897 0.34518653 4288700160
1.639931 1.0771298 0.345909 4288700160
1.6431895 1.079344 0.34660366 4288700160
1.6478276 1.0824647 0.34718218 4288700160
1.6479096 1.0825927 0.34639299 4288700160
1.6463306 1.0816294 0.34485021 4288700160
1.6452426 1.0809886 0.343009 4288700160
1.6419536 1.0789015 0.3403129 4288700160
1.6465567 1.0820001 0.3388522 4288700160
1.6439949 1.0803907 0.33551916 4288700160
1.6455358 1.0814773 0.33263367 4288700160
1.6455781 1.0815792 0.32905498 4288700160
1.6425483 1.0796616 0.32448676 4288700160
1.6442122 1.0808294 0.32047218 4288700160
1.6436816 1.0805545 0.31565586 4288700160
1.6277927 1.0701824 0.30757588 4288569600
1.6258024 1.0689471 0.30182293 4288569600
1.6382273 1.07719 0.2983616 4288700160
1.6645981 1.0946046 0.29695547 4288700160
1.6676229 1.0966687 0.29093412 4288700160
1.6166561 1.0636214 0.23361695 4288569600
1.6413428 1.079937 0.22850782 4288569600
1.6511889 1.0864897 0.22089255 4288700160
1.6486669 1.0849044 0.21133648 4288700160
1.6030508 1.0549589 0.1962966 4288439040
1.624537 1.069172 0.18939085 4288569600
1.6380984 1.078171 0.18114381 4288569600
1.623206 1.0684422 0.16955981 4288569600
1.5933994 1.0488944 0.15650791 4288439040
1.6114789 1.0608683 0.14805844 4288439040
1.6126434 1.0617074 0.13777001 4288439040
1.6111996 1.0608294 0.12710968 4288439040
1.5871798 1.045086 0.11469778 4288439040
1.4288929 0.9409256 0.093678229 4287786240
1.416703 0.93296236 0.083278537 4287655680
1.3928505 0.91731727 0.072348297 4287525120
1.7349066 1.14267 0.078149416 4288961280
2.2199724 1.4622513 0.084578708 4290919680
2.259433 1.488345 0.070293665 4291050240
2.2544081 1.4851365 0.054307595 4291050240
2.2338252 1.4716778 0.038067836 4290919680
2.2482865 1.4813064 0.022426452 4291050240
2.253993 1.4851677 0.0065303212 4291050240
2.2259202 1.4667706 -0.0093129771 4290919680
2.2410309 1.4768288 -0.025235714 4291050240
2.2573917 1.4877123 -0.041368503 4291050240
2.2527401 1.4847482 -0.05715508 4291050240
2.2323442 1.4714061 -0.072305255 4290919680
2.2585077 1.4887531 -0.088925608 4291050240
2.2799773 1.503008 -0.10559741 4291180800
2.2758996 1.5004225 -0.12109327 4291180800
2.2360873 1.4742764 -0.13425703 4291050240
2.2560339 1.4875292 -0.15072663 4291050240
2.2681694 1.4956329 -0.16672742 4291180800
2.2647817 1.4935012 -0.18146506 4291180800
2.2433567 1.4794738 -0.19439772 4291050240
2.2595558 1.4902588 -0.21034305 4291050240
2.2756903 1.5010027 -0.22625887 4291180800
2.275574 1.5010285 -0.24041252 4291180800
2.2684734 1.496447 -0.25352001 4291180800
2.2340484 1.4738386 -0.26304507 4291050240
2.2412169 1.4786688 -0.27701283 4291050240
2.2478921 1.4831742 -0.29069287 4291050240
2.2558818 1.4885477 -0.30430269 4291180800
2.2261021 1.4689978 -0.31236163 4291050240
2.227941 1.4703118 -0.32435632 4291050240
2.2300522 1.4718056 -0.33604765 4291050240
2.2475772 1.4834733 -0.34978127 4291050240
2.2653043 1.4952759 -0.36332297 4291180800
2.2532585 1.4874264 -0.37170804 4291180800
2.1788325 1.4383944 -0.36899921 4290789120
2.1677074 1.4311478 -0.37621772 4290789120
2.1864376 1.4436122 -0.38821718 4290919680
2.2027025 1.4544506 -0.399472 4290919680
2.2153192 1.4628814 -0.40971458 4291050240
2.2242827 1.4689008 -0.41888645 4291050240
2.2304554 1.4730779 -0.42710033 4291050240
2.2324307 1.4744833 -0.43404296 4291050240
2.214119 1.4624885 -0.43649542 4291050240
2.2142842 1.4626975 -0.44203538 4291050240
2.1610272 1.4276149 -0.43627796 4290789120
2.1677868 1.4321783 -0.44202322 4290789120
2.1123614 1.3956561 -0.43448874 4290658560
2.120085 1.4008548 -0.43934971 4290658560
2.1311622 1.4082702 -0.44441906 4290658560
2.1431282 1.4162741 -0.44918147 4290789120
2.142838 1.4161791 -0.45086217 4290789120
2.1467302 1.4188483 -0.45289716 4290789120
2.1268716 1.4058191 -0.44938698 4290658560
2.126807 1.4058723 -0.44952634 4290658560
2.118602 1.4005443 -0.44742003 4290658560
2.1652682 1.4314916 -0.45635948 4290789120
2.158036 1.4268076 -0.45338976 4290789120
2.2107384 1.4617524 -0.46243799 4291050240
2.2175033 1.4663254 -0.46128005 4291050240
2.2361498 1.4787563 -0.46202064 4291180800
2.2411416 1.4821587 -0.4593662 4291180800
2.2271669 1.4730172 -0.45230666 4291050240
2.2252343 1.4718394 -0.44719636 4291050240
2.2205102 1.4688151 -0.44102037 4291050240
2.2147219 1.4650862 -0.43414709 4291050240
2.2039711 1.4580739 -0.42584318 4290919680
2.1907189 1.4494057 -0.4166339 4290919680
2.1813259 1.4432896 -0.40774852 4290919680
2.197897 1.4543532 -0.40322 4290919680
2.2232161 1.4712074 -0.39968243 4291050240
2.2287474 1.4749684 -0.39201471 4291050240
2.2380357 1.4812164 -0.38450009 4291050240
2.2378676 1.4812063 -0.37488508 4291050240
2.2269351 1.4740709 -0.36309001 4291050240
2.2308831 1.4767849 -0.35333976 4291050240
2.23561 1.4800152 -0.34327182 4291050240
2.2483077 1.4885228 -0.33395395 4291050240
2.2342105 1.4792905 -0.32028964 4291050240
2.2370472 1.48127 -0.30875137 4291050240
2.2567308 1.4944054 -0.2990694 4291180800
2.2653399 1.5002086 -0.28742927 4291180800
2.2730393 1.5054104 -0.27526069 4291180800
2.2280629 1.4757236 -0.25662908 4291050240
2.2325902 1.4788232 -0.24365391 4291050240
2.2480848 1.489188 -0.23148347 4291050240
2.2430317 1.4859421 -0.21687829 4291050240
2.2201724 1.4708989 -0.20049055 4290919680
2.2463217 1.4883246 -0.18828478 4291050240
2.2440152 1.4868979 -0.17333317 4291050240
2.2481687 1.4897517 -0.15867844 4291050240
2.2532141 1.493197 -0.1438517 4291050240
2.2312899 1.4787687 -0.12726149 4291050240
2.2379391 1.4832766 -0.11226587 4291050240
2.2487772 1.4905617 -0.097237431 4291050240
2.2217069 1.4727191 -0.080577657 4290919680
2.2351677 1.4817431 -0.065394513 4291050240
2.2483215 1.4905647 -0.04994411 4291050240
2.2408307 1.4856999 -0.033940859 4291050240
2.237601 1.4836597 -0.018040709 4291050240
2.2379823 1.4840138 -0.0021697376 4291050240
1.9420831 1.2878898 0.011894968 4289875200
1.4247588 0.94489133 0.018825196 4287786240
1.4151475 0.93858123 0.028709097 4287655680
1.3749627 0.91199124 0.037590802 4287525120
1.5525227 1.0298343 0.053349026 4288177920
1.6305809 1.0816864 0.067423314 4288569600
1.6469285 1.0926055 0.07953231 4288569600
1.6492424 1.0942152 0.091007389 4288700160
1.6540067 1.097451 0.10256799 4288700160
1.6370591 1.0862801 0.1125892 4288569600
1.671699 1.1093413 0.12615342 4288700160
1.6726923 1.1100762 0.13727979 4288700160
1.6694868 1.1080242 0.14789779 4288700160
1.6397139 1.0883385 0.15578881 4288569600
1.700472 1.1287429 0.17230338 4288830720
1.7054533 1.1321266 0.18339203 4288830720
1.697606 1.1269941 0.19288269 4288830720
1.6939783 1.1246625 0.20257074 4288830720
1.7121249 1.1367879 0.21472284 4288961280
1.7136136 1.1378539 0.22466204 4288961280
1.7031878 1.1310081 0.23274007 4288830720
1.7040209 1.1316384 0.24204379 4288961280
1.7134969 1.1380091 0.25235862 4288961280
1.7107478 1.1362607 0.26062557 4288961280
1.7062478 1.1333491 0.26829669 4288961280
1.7158813 1.1398257 0.27791098 4288961280
1.7247835 1.1458174 0.28717831 4288961280
1.7217321 1.1438682 0.29415667 4288961280
1.7352765 1.1529453 0.30367878 4289091840
1.7274213 1.1478044 0.30913469 4288961280
1.7170422 1.1409857 0.31371543 4288961280
1.71075 1.1368819 0.31862196 4288961280
1.7162002 1.1405816 0.32534516 4288961280
1.719045 1.1425501 0.33122659 4288961280
1.720259 1.1434349 0.3364237 4288961280
1.7220705 1.144717 0.34135675 4288961280
1.7387934 1.155912 0.34889537 4289091840
1.7303513 1.1503782 0.35100144 4289091840
1.7447091 1.1600027 0.35733381 4289091840
1.7401543 1.1570532 0.35939667 4289091840
1.7323874 1.1519674 0.36035761 4289091840
1.7394342 1.1567321 0.36397636 4289091840
1.7391552 1.1566253 0.36564517 4289091840
1.7471368 1.1620126 0.36862865 4289091840
1.738777 1.1565313 0.36773458 4289091840
1.7345794 1.153818 0.36728486 4289091840
1.7345432 1.1538725 0.36728504 4289091840
1.7386556 1.1566869 0.36773244 4289091840
1.7387416 1.156823 0.36689654 4289091840
1.7322447 1.1525789 0.36424676 4289091840
1.7321266 1.1525788 0.36251694 4289091840
1.7232953 1.1467806 0.35855061 4289091840
1.729368 1.1509 0.35726818 4289091840
1.7270261 1.1494198 0.35382554 4289091840
1.7316881 1.1526011 0.35140029 4289091840
1.7255651 1.1486039 0.34638172 4289091840
1.732397 1.15323 0.34355795 4289091840
1.7189248 1.1443397 0.33632818 4288961280
1.7284124 1.1507343 0.33320963 4289091840
1.7353392 1.1554246 0.32916346 4289091840
1.7229753 1.1472706 0.32109812 4288961280
1.7442451 1.1615125 0.31889713 4289091840
1.7341312 1.1548562 0.31055486 4289091840
1.7486268 1.1645889 0.30624464 4289091840
1.7232074 1.148164 0.24997671 4288961280
1.7316129 1.1538433 0.24200705 4288961280
1.7541313 1.1689278 0.23557107 4289091840
1.7469203 1.1642017 0.22479691 4289091840
1.7251472 1.1497697 0.21206424 4288961280
1.7150552 1.1431214 0.20071664 4288961280
1.7292509 1.1526616 0.19196299 4288961280
1.7260721 1.1506209 0.18100239 4288961280
1.7168372 1.1445428 0.16928442 4288961280
1.7077267 1.1385468 0.15750824 4288830720
1.7162946 1.1443369 0.14719217 4288961280
1.7400225 1.1602364 0.13780364 4288961280
1.7335372 1.1559907 0.1257589 4288961280
1.430863 0.95422065 0.094170287 4287786240
1.4029338 0.93565869 0.082788192 4287655680
1.3957939 0.9309603 0.072781689 4287655680
1.7976106 1.1990438 0.08128725 4289222400
2.2022719 1.4690613 0.084229007 4290919680
2.2390809 1.493717 0.069930054 4291050240
2.2378149 1.4929739 0.054116495 4291050240
2.2168956 1.4791181 0.037925545 4290919680
2.2299719 1.4879439 0.022329859 4291050240
2.2253387 1.4849534 0.0064722593 4290919680
2.2015326 1.4691678 -0.0092465989 4290919680
2.215091 1.4783164 -0.025040176 4290919680
2.2287257 1.4875172 -0.041001305 4291050240
2.2382333 1.4939646 -0.057006899 4291050240
2.2112622 1.4760624 -0.071899749 4290919680
2.2423143 1.4968921 -0.088629901 4291050240
2.2512362 1.5029503 -0.10467005 4291050240
2.2471788 1.5003436 -0.12002821 4291050240
2.2150009 1.4789603 -0.13350609 4290919680
2.2398558 1.4956578 -0.15022542 4291050240
2.2546053 1.5056092 -0.16637236 4291050240
2.2487559 1.5018052 -0.18087901 4291050240
2.2362764 1.4935725 -0.19453494 4291050240
2.2613368 1.5104126 -0.21132445 4291180800
2.2843676 1.5258993 -0.22800165 4291180800
2.2752604 1.5199194 -0.24131088 4291180800
2.2716522 1.5176123 -0.25485912 4291180800
2.2456515 1.500344 -0.26543599 4291050240
2.2518518 1.504589 -0.27940604 4291180800
2.2639477 1.5127738 -0.29390398 4291180800
2.258738 1.5093954 -0.30586907 4291180800
2.2206814 1.4840649 -0.31280899 4291050240
2.2835875 1.5262084 -0.33374655 4291311360
2.2823558 1.5254889 -0.34526277 4291311360
2.2919698 1.532019 -0.35807297 4291311360
2.291357 1.5317136 -0.36892653 4291311360
2.2753696 1.5211298 -0.37681121 4291311360
2.2457783 1.5014496 -0.38181192 4291180800
2.2577116 1.5095304 -0.3933582 4291180800
2.2606959 1.5116284 -0.4029592 4291180800
2.2692959 1.517482 -0.41314551 4291311360
2.2540314 1.5073771 -0.41849142 4291180800
2.2637219 1.5139606 -0.42796776 4291180800
2.2633796 1.5138345 -0.43508634 4291311360
2.2627065 1.5134872 -0.44163629 4291311360
2.2556784 1.5088888 -0.44641405 4291180800
2.2582531 1.5107137 -0.45256227 4291180800
2.2237277 1.4877182 -0.45067847 4291050240
2.2281077 1.49075 -0.45608628 4291180800
2.2140205 1.4814254 -0.45716643 4291050240
2.1624141 1.4469932 -0.44986108 4290789120
2.1734374 1.4544685 -0.45499429 4290919680
2.1771617 1.4570597 -0.4580861 4290919680
2.1694996 1.4520307 -0.45824412 4290919680
2.1725543 1.4541739 -0.46012491 4290919680
2.1691375 1.4519856 -0.46009696 4290919680
2.1649792 1.4493006 -0.45937145 4290919680
2.2119458 1.4808421 -0.46894711 4291050240
2.2255132 1.4900265 -0.47087863 4291180800
2.232101 1.4945385 -0.47077179 4291180800
2.2353871 1.4968406 -0.46941021 4291180800
2.246752 1.504553 -0.46917984 4291180800
2.2581339 1.5122776 -0.46837536 4291311360
2.242799 1.50211 -0.46149194 4291180800
2.2549343 1.51034 -0.45972508 4291180800
2.2604232 1.5141193 -0.45603326 4291311360
2.2630429 1.5159773 -0.45121449 4291311360
2.2582054 1.5128394 -0.4443914 4291180800
2.247514 1.5057791 -0.43594408 4291180800
2.2457266 1.504684 -0.42875534 4291180800
2.2348137 1.4974738 -0.41937062 4291180800
2.2357435 1.4981985 -0.41175765 4291180800
2.2485261 1.5068666 -0.40580407 4291180800
2.2680278 1.5200391 -0.40047464 4291311360
2.2710118 1.5221424 -0.39168242 4291311360
2.248606 1.5072274 -0.37814862 4291180800
2.2265396 1.4925379 -0.36443719 4291050240
2.2152805 1.4850913 -0.35223302 4291050240
2.2348762 1.4983296 -0.34449375 4291050240
2.244231 1.5047035 -0.33464491 4291180800
2.2148707 1.485119 -0.31875217 4291050240
2.2329099 1.4973165 -0.30937913 4291050240
2.2475119 1.5072104 -0.29900634 4291180800
2.2549865 1.5123256 -0.28722873 4291180800
2.2487733 1.5082611 -0.27338162 4291180800
2.2069244 1.4802935 -0.2551834 4290919680
2.2265856 1.4935826 -0.24394415 4291050240
2.2319236 1.497265 -0.23071373 4291050240
2.233259 1.4982626 -0.21677373 4291050240
2.2074246 1.4810312 -0.2001152 4290919680
2.2240636 1.4922962 -0.18714474 4291050240
2.2187409 1.4888258 -0.17204803 4290919680
2.2270169 1.4944807 -0.15779743 4291050240
2.2204304 1.4901618 -0.14231056 4290919680
2.211025 1.4839505 -0.12659666 4290919680
2.2168155 1.4879378 -0.1116392 4290919680
2.2201407 1.490271 -0.096372992 4290919680
2.1973209 1.4750533 -0.080003552 4290919680
2.2148769 1.4869394 -0.065053217 4290919680
2.2279778 1.4958363 -0.049684949 4291050240
2.2279859 1.4959432 -0.033877745 4291050240
2.2172964 1.488867 -0.017946636 4290919680
2.2199161 1.4907272 -0.0021606062 4290919680
1.9428482 1.304758 0.011946012 4289875200
1.4316809 0.96153885 0.018990356 4287786240
1.3938849 0.93621796 0.028387919 4287655680
1.437744 0.96574199 0.039460376 4287786240
1.60209 1.0762073 0.055266824 4288439040
1.9958161 1.3407847 0.082847126 4290005760
2.0075994 1.3487921 0.097327411 4290136320
2.0313394 1.3648343 0.11252891 4290266880
2.0729859 1.3929106 0.12905072 4290397440
2.0446866 1.3739886 0.14117205 4290266880
2.0050945 1.3474751 0.15190272 4290136320
2.0222466 1.3590938 0.16661516 4290136320
2.0608299 1.3851185 0.18327822 4290397440
2.0216258 1.358861 0.19282308 4290136320
2.0530369 1.3800681 0.20883885 4290266880
2.0501232 1.378203 0.22131504 4290266880
2.0601242 1.3850201 0.23498504 4290397440
2.0621295 1.3864623 0.24755709 4290397440
1.9782159 1.3301338 0.24906182 4290005760
2.0085785 1.3506409 0.2643604 4290136320
2.00001 1.3449705 0.27436692 4290136320
2.0015347 1.3460871 0.28541264 4290136320
2.0037544 1.3476713 0.29625824 4290136320
2.0232255 1.3608593 0.30943295 4290266880
1.9712383 1.3259816 0.31117427 4290005760
1.9715562 1.3262855 0.32056722 4290005760
1.9731061 1.3274182 0.32980642 4290005760
1.9824065 1.3337655 0.34001458 4290136320
2.0015192 1.3467158 0.35163924 4290136320
2.0107331 1.3530072 0.36124 4290266880
1.9517695 1.3134201 0.35799378 4290005760
1.957459 1.3173381 0.36599404 4290005760
1.9572803 1.3173072 0.37249607 4290005760
1.9698142 1.3258328 0.38102686 4290005760
1.973183 1.3281904 0.3873938 4290136320
1.964583 1.3224913 0.39094946 4290005760
1.9860742 1.337049 0.4000695 4290136320
1.9740013 1.3290116 0.4019897 4290136320
1.9820094 1.3344935 0.40752074 4290136320
2.0011156 1.3474491 0.41490772 4290266880
1.9820945 1.3347318 0.4139103 4290136320
1.9890636 1.3395156 0.41783723 4290136320
1.992829 1.3421425 0.4206152 4290136320
2.0007463 1.3475659 0.42378709 4290266880
2.004647 1.3502848 0.42562011 4290266880
2.004534 1.3503001 0.4261044 4290266880
1.9848891 1.3371576 0.42193761 4290136320
1.9993877 1.3470162 0.42453101 4290266880
1.987234 1.3389188 0.42097053 4290136320
1.9910825 1.3416028 0.42031023 4290136320
1.9913058 1.3418442 0.41838971 4290136320
1.984172 1.3371277 0.41444272 4290136320
1.9955865 1.344911 0.41387776 4290136320
1.9854028 1.3381385 0.40835097 4290136320
2.0031705 1.3502052 0.40807983 4290266880
2.0002232 1.3483101 0.40308538 4290136320
2.0097983 1.3548563 0.40012908 4290266880
2.0085635 1.3541157 0.39453644 4290266880
2.0145288 1.3582293 0.38988715 4290266880
2.0374348 1.3737661 0.38797736 4290397440
2.0394192 1.3751972 0.38155812 4290397440
2.062881 1.3911121 0.37862819 4290397440
2.0508738 1.3831085 0.3687152 4290397440
2.0730093 1.3981315 0.36447561 4290528000
2.0859292 1.4074609 0.3037793 4290528000
2.1122236 1.4252993 0.29635602 4290658560
2.1444328 1.4471316 0.289114 4290789120
2.1215699 1.4318 0.27407631 4290658560
2.1089587 1.4233855 0.26025939 4290528000
2.0997703 1.4172801 0.24670291 4290528000
2.1163235 1.4285496 0.2358516 4290658560
2.1097541 1.4242117 0.2221031 4290528000
2.1002946 1.417922 0.20790531 4290528000
2.1063967 1.422138 0.19503954 4290528000
2.1156294 1.4284682 0.18215042 4290528000
2.1072702 1.4229206 0.1675421 4290528000
1.7627517 1.1903672 0.12837921 4289091840
1.4054197 0.9491291 0.092858136 4287655680
1.3858707 0.93599039 0.082101703 4287655680
1.3663371 0.92286015 0.071524851 4287525120
1.7864538 1.2067 0.081099287 4289222400
2.1929193 1.4813564 0.084199972 4290919680
2.2104597 1.4933064 0.069306724 4290919680
2.2166519 1.497591 0.053814806 4290919680
2.196641 1.484172 0.037726335 4290919680
2.1939228 1.4824358 0.022054996 4290919680
2.2083635 1.4922945 0.0064480668 4290919680
2.1763649 1.4707711 -0.0091767274 4290789120
2.1981554 1.4855976 -0.024946153 4290919680
2.2042816 1.4898387 -0.040710609 4290919680
2.2137535 1.4963419 -0.056604493 4290919680
2.1910305 1.481083 -0.071521275 4290919680
2.2136827 1.4964968 -0.087841347 4290919680
2.2267129 1.5054073 -0.10393589 4291050240
2.2334983 1.510097 -0.1197654 4291050240
2.1989002 1.4868054 -0.13305551 4290919680
2.2112534 1.4952594 -0.14888884 4290919680
2.2218175 1.5025046 -0.16459607 4291050240
2.22385 1.5039809 -0.17957747 4291050240
2.2065885 1.4924082 -0.19270551 4290919680
2.2409368 1.5157418 -0.21023977 4291050240
2.2429521 1.5172077 -0.22474648 4291050240
2.2582414 1.5276533 -0.24044576 4291180800
2.2388561 1.514642 -0.25216547 4291050240
2.2197719 1.5018328 -0.26340684 4291050240
2.241055 1.516335 -0.27915785 4291180800
2.2353699 1.5125908 -0.29133314 4291050240
2.2329857 1.5110797 -0.30356884 4291050240
2.192256 1.4836179 -0.31001726 4290919680
2.253407 1.5251054 -0.33062872 4291180800
2.2630396 1.5317284 -0.34368491 4291180800
2.2643645 1.5327288 -0.3551493 4291311360
2.2593482 1.5294367 -0.36520135 4291180800
2.2590857 1.5293626 -0.37558374 4291180800
2.2410922 1.517284 -0.38251165 4291180800
2.2436702 1.5191323 -0.3924472 4291180800
2.2499211 1.5234675 -0.40261397 4291180800
2.2548518 1.5269096 -0.41212845 4291180800
2.2522397 1.525244 -0.41980153 4291180800
2.2580333 1.529271 -0.4285695 4291311360
2.2550604 1.5273609 -0.43519044 4291311360
2.2522261 1.5255444 -0.44131806 4291180800
2.2391744 1.5168064 -0.44488919 4291180800
2.2371507 1.5155382 -0.45009521 4291180800
2.225404 1.5076824 -0.4527908 4291180800
2.2217071 1.5052797 -0.45656356 4291180800
2.2065516 1.4951124 -0.4574151 4291050240
2.2007525 1.491284 -0.45963666 4291050240
2.2043827 1.4938449 -0.46328664 4291050240
2.1449881 1.4536933 -0.453091 4290789120
2.1610029 1.464646 -0.45824412 4290919680
2.1444793 1.4535452 -0.45596477 4290789120
2.2033391 1.493542 -0.46918929 4291050240
2.2032709 1.4935967 -0.46933481 4291050240
2.1918683 1.4859674 -0.46651813 4291050240
2.2086422 1.4974405 -0.46914703 4291050240
2.211942 1.4997791 -0.46835509 4291050240
2.2303028 1.5123307 -0.47018489 4291180800
2.2313421 1.5131377 -0.46779487 4291180800
2.2550042 1.5292871 -0.46956638 4291311360
2.2531316 1.5281205 -0.46544212 4291311360
2.249424 1.5257092 -0.46040618 4291180800
2.2434721 1.5217751 -0.45439452 4291180800
2.2460079 1.5235982 -0.44958025 4291180800
2.243346 1.5218953 -0.44320461 4291180800
2.2408633 1.5203139 -0.4363648 4291180800
2.2328355 1.5149698 -0.42797208 4291180800
2.2178752 1.5049211 -0.41783029 4291050240
2.215627 1.5034971 -0.40965912 4291050240
2.2337446 1.5158942 -0.40472347 4291180800
2.2466123 1.5247297 -0.39825511 4291180800
2.2402816 1.5205359 -0.38790372 4291180800
2.2201197 1.5069535 -0.37482825 4291050240
2.2010622 1.4941188 -0.36168581 4291050240
2.205879 1.4974897 -0.35211942 4291050240
2.2238755 1.509809 -0.34414816 4291050240
2.220876 1.5078745 -0.33246675 4291050240
2.1965961 1.4914902 -0.3173674 4290919680
2.1905324 1.4874736 -0.30470315 4290919680
2.2145541 1.5038872 -0.29578239 4291050240
2.2222798 1.5092355 -0.28417793 4291050240
2.2229955 1.5098237 -0.27131262 4291050240
2.1784999 1.4797031 -0.25288931 4290919680
2.1939557 1.4903017 -0.24131642 4290919680
2.2020667 1.4959124 -0.22852448 4290919680
2.204704 1.4978054 -0.21484543 4290919680
2.1748385 1.4776156 -0.1979382 4290789120
2.2037797 1.4973798 -0.18616888 4290919680
2.2054095 1.4985884 -0.17168841 4290919680
2.2018304 1.4962575 -0.15662785 4290919680
2.1984239 1.4940436 -0.14145564 4290919680
2.186645 1.4861392 -0.12569438 4290919680
2.1924086 1.490157 -0.11084542 4290919680
2.1949551 1.4919887 -0.095655441 4290919680
2.1804233 1.482211 -0.079701394 4290789120
2.2020423 1.4970083 -0.064931333 4290919680
2.2020295 1.4971007 -0.04929997 4290919680
2.1952527 1.4925941 -0.03351168 4290919680
2.1920459 1.4905146 -0.017812248 4290919680
2.1981304 1.4947528 -0.0021478422 4290919680
1.9532775 1.3283399 0.012057521 4289875200
1.3979421 0.95074445 0.018615991 4287655680
1.3718716 0.93307686 0.028049836 4287525120
1.4279599 0.97129083 0.03934649 4287786240
1.4830898 1.0088581 0.05136361 4288047360
1.9232178 1.3083395 0.080148607 4289744640
2.1703641 1.4765695 0.10563345 4290789120
2.1756139 1.4802411 0.12099689 4290789120
2.1820688 1.4847331 0.13637772 4290919680
2.0886464 1.4212624 0.14477646 4290528000
2.1717794 1.4779317 0.16518004 4290789120
2.1815574 1.4846861 0.18045062 4290919680
2.1829879 1.48576 0.1949088 4290919680
2.0853708 1.4194168 0.19968851 4290528000
2.1945872 1.4938563 0.22411916 4290919680
2.1975031 1.4959422 0.23816186 4290919680
2.1933515 1.4932169 0.2511695 4290919680
2.1495574 1.463501 0.25907198 4290789120
2.0370238 1.3869774 0.25747889 4290266880
2.180094 1.4844921 0.288068 4290919680
2.1735716 1.4801506 0.29935449 4290919680
2.1671724 1.4758925 0.31025296 4290789120
2.1429462 1.4594926 0.31808981 4290789120
2.0748065 1.4131802 0.31857565 4290528000
2.1697524 1.477949 0.34386465 4290919680
2.1763382 1.4825351 0.3552624 4290919680
2.1692338 1.4777954 0.36402231 4290919680
2.1554332 1.4684926 0.37115261 4290789120
2.1516998 1.466048 0.37951809 4290789120
2.1307576 1.4518772 0.38431633 4290789120
2.1613951 1.4728528 0.39801058 4290919680
2.1616571 1.4731308 0.4057717 4290919680
2.1672921 1.4770707 0.41409487 4290919680
2.1579292 1.4707887 0.41906494 4290919680
2.1565735 1.469964 0.42507294 4290919680
2.1591096 1.471792 0.43135908 4290919680
2.1473634 1.4638839 0.43426985 4290789120
2.1507506 1.4662919 0.43971553 4290789120
2.1356966 1.4561272 0.44085729 4290789120
2.1465425 1.4636207 0.44682083 4290789120
2.1315267 1.4534801 0.44687623 4290789120
2.1465762 1.4638412 0.45270944 4290789120
2.1348379 1.4559345 0.45237091 4290789120
2.1386359 1.4586232 0.45478648 4290789120
2.1416938 1.4608074 0.45651674 4290789120
2.1301825 1.4530538 0.45460543 4290789120
2.1301367 1.4531207 0.45460564 4290789120
2.1406169 1.4603685 0.45631716 4290789120
2.1366539 1.4577632 0.45441476 4290789120
2.1479936 1.4655988 0.45522842 4290789120
2.1551697 1.4705944 0.45461139 4290919680
2.1554844 1.4709084 0.45200789 4290919680
2.1492879 1.4667788 0.44751966 4290789120
2.1558745 1.4713731 0.44516864 4290919680
2.1551378 1.4709696 0.44077662 4290919680
2.1605575 1.4747682 0.43712008 4290919680
2.1632149 1.4766818 0.43237823 4290919680
2.1623757 1.4762084 0.42643151 4290919680
2.1516597 1.468992 0.41807652 4290789120
2.151696 1.4691159 0.41135845 4290789120
2.1519737 1.4694046 0.40421098 4290789120
2.1682243 1.4806008 0.3995398 4290919680
2.1767333 1.4865113 0.3928932 4290919680
2.1702411 1.4821779 0.38308269 4290919680
2.1458325 1.466146 0.31374186 4290789120
2.1629329 1.4779297 0.30467382 4290789120
2.1909409 1.4971684 0.29655525 4290919680
2.1837919 1.4923837 0.28323296 4290919680
2.1515517 1.4704504 0.26656839 4290789120
2.1588569 1.4755424 0.25465074 4290789120
2.1704419 1.4835607 0.24284194 4290789120
2.1694837 1.4830056 0.22929682 4290789120
2.1446521 1.4661304 0.21313818 4290789120
2.1540458 1.4726514 0.20024264 4290789120
2.1706731 1.4841191 0.18763085 4290789120
2.1360915 1.4605736 0.17050725 4290658560
1.7057581 1.1664075 0.12472124 4288961280
1.3998661 0.95730126 0.092858136 4287655680
1.3721496 0.93841058 0.08161135 4287525120
1.3683587 0.93588108 0.071914904 4287525120
1.827232 1.249809 0.083279639 4289483520
2.1745896 1.4874986 0.083827518 4290789120
2.1934712 1.5005155 0.069047004 4290919680
2.1922107 1.4997543 0.053432666 4290919680
2.1712034 1.4854827 0.037437461 4290789120
2.1728694 1.4867228 0.021930058 4290789120
2.1839514 1.494406 0.0064021004 4290919680
2.1511512 1.4720613 -0.0091064228 4290789120
2.1696577 1.4848255 -0.024720499 4290789120
2.1798863 1.4919262 -0.04041991 4290919680
2.1926224 1.500744 -0.056286801 4290919680
2.1650441 1.4819678 -0.07095366 4290789120
2.1884315 1.4980774 -0.087184221 4290919680
2.2022378 1.5076301 -0.10320173 4290919680
2.2056382 1.5100597 -0.11874124 4290919680
2.1733801 1.4880749 -0.13203368 4290789120
2.1970696 1.5043961 -0.14852147 4290919680
2.1973784 1.504709 -0.16343229 4290919680
2.1948817 1.5031005 -0.17794243 4290919680
