# .PCD v0.7 - Point Cloud Data file format
VERSION 0.7
FIELDS x y z rgba
SIZE 4 4 4 4
TYPE F F F U
COUNT 1 1 1 1
WIDTH 1104
HEIGHT 1
VIEWPOINT 0 0 0 1 0 0 0
POINTS 1104
DATA ascii
3.4076872 0.18118097 -0.0027573146 4293400320
3.4103062 0.18142766 0.017432377 4293530880
3.3512385 0.17839085 0.036954124 4293269760
3.4155746 0.18192314 0.057827268 4293530880
3.4304478 0.1828234 0.078268006 4293530880
3.4305422 0.18293653 0.098375231 4293530880
3.3491161 0.17869993 0.1155644 4293269760
3.4165113 0.18240358 0.13767956 4293530880
3.4247987 0.18295394 0.15770182 4293530880
3.4124689 0.18240279 0.17658117 4293530880
3.2169118 0.17205125 0.18461387 4292878080
3.4214833 0.18310022 0.21544671 4293530880
3.4317741 0.18375905 0.23500951 4293530880
3.4131005 0.18286668 0.25228745 4293530880
3.2121198 0.17219977 0.25463578 4292878080
3.4498968 0.18505554 0.2916632 4293661440
3.4385645 0.18455601 0.30850393 4293661440
3.440465 0.1847664 0.326143 4293661440
3.3836846 0.18182369 0.33758643 4293400320
3.150707 0.16940379 0.32966185 4292616960
3.4405396 0.18509561 0.37631619 4293661440
3.4220853 0.18421061 0.39012223 4293530880
3.4116151 0.18375449 0.40427044 4293530880
3.3661809 0.1814134 0.41357744 4293400320
3.2952378 0.17769389 0.41878784 4293139200
3.4432542 0.18578409 0.45165855 4293661440
3.4367688 0.18554245 0.46433178 4293661440
3.4369447 0.18566023 0.47735435 4293661440
3.4115036 0.18439341 0.4861854 4293530880
3.3885281 0.18325835 0.49464259 4293530880
3.375586 0.18266477 0.50387752 4293530880
3.4330637 0.18588325 0.52318436 4293661440
3.4268854 0.18565671 0.53235143 4293661440
3.4331944 0.18610668 0.54284537 4293661440
3.4170961 0.18534169 0.54914635 4293661440
3.4192438 0.18556592 0.5577088 4293661440
3.41312 0.1853411 0.56426811 4293661440
3.4124861 0.18541421 0.57106578 4293661440
3.3940189 0.18451776 0.57418066 4293530880
3.4118032 0.1855921 0.58275551 4293661440
3.3845675 0.18421721 0.58295161 4293530880
3.3887837 0.18455347 0.58785093 4293530880
3.3970444 0.18511038 0.59277892 4293661440
3.4014823 0.18545939 0.59635895 4293661440
3.3760698 0.1841802 0.59399569 4293530880
3.4008732 0.1856405 0.59976673 4293661440
3.4105809 0.18627787 0.60218537 4293661440
3.3958247 0.18557893 0.5995813 4293661440
3.3821714 0.18493935 0.59647244 4293530880
3.3950367 0.18574981 0.59733933 4293530880
3.417731 0.18709917 0.59921688 4293661440
3.3995121 0.18620892 0.59322119 4293661440
3.4084644 0.18680668 0.59127915 4293661440
3.4149508 0.18726979 0.58820146 4293661440
3.411432 0.18718432 0.58271122 4293661440
3.4126909 0.18736093 0.57736099 4293661440
3.424242 0.18810299 0.573057 4293661440
3.4202271 0.18799022 0.56546915 4293661440
3.430176 0.18864514 0.5595203 4293661440
3.4216082 0.18828177 0.54990184 4293661440
3.4156251 0.18806016 0.54009962 4293661440
3.3986518 0.18723273 0.52799946 4293530880
3.4279444 0.18895449 0.52244025 4293661440
3.4340899 0.18940145 0.51264822 4293661440
3.4375937 0.18970302 0.50184429 4293661440
3.3799911 0.18721175 0.40866444 4293400320
3.4064922 0.18878695 0.39679438 4293530880
3.4223101 0.18977141 0.38304678 4293530880
3.4101348 0.18920374 0.36572364 4293530880
3.3906858 0.18823151 0.34736395 4293400320
3.3853714 0.18804318 0.33018643 4293400320
3.4182966 0.18997975 0.31623396 4293530880
3.4026995 0.18922013 0.29735819 4293530880
3.3680828 0.18740126 0.27675354 4293400320
3.3715668 0.18770137 0.2591379 4293400320
3.4002163 0.18940349 0.24299945 4293530880
3.3998411 0.18948974 0.22436856 4293400320
3.3653095 0.18767117 0.20343225 4293400320
3.3936343 0.1893577 0.18610659 4293400320
3.4154661 0.1906835 0.16793984 4293530880
3.4157631 0.19080772 0.14840645 4293530880
3.3740156 0.18858199 0.12712464 4293400320
3.3954751 0.18988842 0.10820287 4293400320
3.3994381 0.19021718 0.088458672 4293400320
3.3956237 0.19011076 0.068415724 4293400320
3.3693802 0.18874764 0.048024088 4293400320
3.3847158 0.1897134 0.028237291 4293400320
3.3755381 0.18930537 0.0081791589 4293400320
3.3483417 0.18788567 -0.011716129 4293269760
3.3654029 0.18894909 -0.031693637 4293269760
3.3811774 0.1899413 -0.051819097 4293400320
3.3829045 0.19014494 -0.07177683 4293400320
3.3471148 0.18823875 -0.09066128 4293269760
3.3747401 0.18989874 -0.11111686 4293400320
3.3979797 0.19131355 -0.13160416 4293400320
3.402873 0.19169629 -0.15140164 4293400320
3.3540876 0.18905373 -0.16839623 4293269760
3.3778753 0.19050097 -0.18870762 4293400320
3.4070127 0.19225161 -0.20941055 4293530880
3.4057035 0.19228508 -0.22816996 4293530880
3.3760867 0.19071932 -0.24461505 4293400320
3.4123948 0.19287795 -0.26560292 4293530880
3.4159238 0.19318509 -0.28396249 4293530880
3.4182477 0.19342424 -0.30194074 4293530880
3.412519 0.19320762 -0.31885812 4293530880
3.3891158 0.19198941 -0.33362576 4293400320
3.4095473 0.19325429 -0.35232225 4293530880
3.4111743 0.19345401 -0.36879241 4293530880
3.4155166 0.19380791 -0.38517383 4293530880
3.398164 0.19293039 -0.39862052 4293530880
3.4182115 0.1941763 -0.41601795 4293530880
3.4245968 0.19464697 -0.43140137 4293661440
3.4261403 0.19484268 -0.44572306 4293661440
3.4311049 0.19523315 -0.46001294 4293661440
3.4252656 0.19500884 -0.47233129 4293661440
3.3851204 0.19282998 -0.47921345 4293530880
3.3928854 0.19337924 -0.49221274 4293530880
3.3938727 0.19354248 -0.50369781 4293530880
3.4034975 0.19419861 -0.51592261 4293530880
3.4060674 0.1944526 -0.52652466 4293530880
3.4062915 0.19457278 -0.53616732 4293661440
3.408875 0.19482778 -0.54557115 4293661440
3.3939626 0.19408247 -0.55151516 4293530880
3.3817711 0.19349189 -0.55719906 4293530880
3.3935122 0.19427063 -0.56617713 4293530880
3.3919711 0.19428931 -0.57230318 4293530880
3.3772616 0.19355321 -0.57551414 4293530880
3.3719888 0.1933573 -0.57963014 4293530880
3.358748 0.19270392 -0.58167553 4293530880
3.3620644 0.19300015 -0.58589566 4293530880
3.3489251 0.19235146 -0.58655536 4293400320
3.3485353 0.19243461 -0.58875006 4293400320
3.3482616 0.1925244 -0.59027565 4293400320
3.3568022 0.1931213 -0.59266609 4293530880
3.3606966 0.19345127 -0.59354448 4293530880
3.3644309 0.1937723 -0.59369904 4293530880
3.3779104 0.19465511 -0.59487253 4293530880
3.3919799 0.19557279 -0.59544075 4293530880
3.3942831 0.19581257 -0.59323692 4293530880
3.3904376 0.19569761 -0.58926672 4293530880
3.3976808 0.19622278 -0.58653045 4293661440
3.4035299 0.19666785 -0.58285236 4293661440
3.3955097 0.19631144 -0.57612431 4293530880
3.3889818 0.19604087 -0.56900305 4293530880
3.3958158 0.19654323 -0.5634619 4293530880
3.3831911 0.19591917 -0.55405205 4293530880
3.3795135 0.19581273 -0.54550165 4293530880
3.3615701 0.19487904 -0.53407222 4293400320
3.3751223 0.19577108 -0.52703929 4293530880
3.3742983 0.19582964 -0.51712036 4293530880
3.3977411 0.19729726 -0.51025683 4293530880
3.4098489 0.19810782 -0.50099522 4293530880
3.3944566 0.19732055 -0.48713392 4293530880
3.3843679 0.19684078 -0.47356737 4293530880
3.3649271 0.19581613 -0.4582628 4293400320
3.3797302 0.19678411 -0.44711754 4293530880
3.3906724 0.19752811 -0.43485421 4293530880
3.4030836 0.1983584 -0.4221929 4293530880
3.3655884 0.19627899 -0.40297589 4293400320
3.3772349 0.19706467 -0.38930148 4293400320
3.3926864 0.19807321 -0.37550759 4293530880
3.4073629 0.19903748 -0.36106932 4293530880
3.3981037 0.19860373 -0.34366885 4293530880
3.3494699 0.1958669 -0.3221904 4293269760
3.3751149 0.19747292 -0.30761161 4293400320
3.3842399 0.1981135 -0.29101142 4293400320
3.3749669 0.19767705 -0.27251068 4293400320
3.3404264 0.19575927 -0.2519035 4293269760
3.374464 0.19786035 -0.23619187 4293400320
3.3790851 0.19823782 -0.2179534 4293400320
3.385936 0.19874647 -0.19955754 4293400320
3.3951492 0.1993943 -0.18099374 4293400320
3.3672867 0.19786412 -0.1603633 4293400320
3.3720775 0.19825192 -0.14124487 4293400320
3.3926008 0.19956549 -0.12248621 4293400320
3.3608537 0.19780396 -0.10177395 4293269760
3.3832774 0.19923037 -0.082645603 4293400320
3.3957357 0.20007104 -0.062979966 4293400320
3.3996387 0.20040818 -0.042991344 4293400320
3.3941705 0.20019282 -0.022847086 4293400320
3.4049799 0.20093772 -0.0027560245 4293400320
3.4186733 0.20185359 0.017480861 4293530880
3.3828001 0.19984211 0.037314359 4293400320
3.4184492 0.20205589 0.057894882 4293530880
3.4351096 0.20314895 0.078400046 4293530880
3.4344075 0.20321569 0.098518349 4293530880
3.3530064 0.19850485 0.11573658 4293269760
3.4243674 0.20283753 0.13804144 4293530880
3.4236746 0.20290442 0.15770182 4293530880
3.4163327 0.20257702 0.17683919 4293530880
3.2298074 0.1916185 0.18541484 4292878080
3.4353027 0.20391847 0.21638803 4293530880
3.420686 0.20315868 0.23432727 4293530880
3.4069993 0.20245323 0.25191939 4293530880
3.2249937 0.19173962 0.25574055 4292878080
3.4355891 0.20436873 0.29054931 4293661440
3.4573162 0.20577016 0.31028858 4293661440
3.4323611 0.20439313 0.32548213 4293661440
3.3925009 0.20212646 0.33857778 4293530880
3.1546307 0.18805352 0.33018142 4292616960
3.4443643 0.20543368 0.37685907 4293661440
3.4348395 0.20497388 0.39170572 4293661440
3.4154432 0.20392409 0.40485796 4293530880
3.378938 0.20185103 0.41528225 4293400320
3.3040493 0.1974815 0.42004678 4293269760
3.443017 0.20589609 0.45177713 4293661440
3.4395866 0.20579939 0.46486658 4293661440
3.4407485 0.20597738 0.4780412 4293661440
3.4103713 0.20426641 0.4861854 4293530880
3.4022195 0.20388542 0.49680617 4293530880
3.3178146 0.19893189 0.49541852 4293269760
3.4368567 0.20617786 0.52393657 4293661440
3.4494193 0.20704024 0.53603023 4293792000
3.4320519 0.20610602 0.54284537 4293661440
3.4346845 0.20637241 0.55215681 4293661440
3.4181046 0.20548399 0.5577088 4293661440
3.4169066 0.20551969 0.56508249 4293661440
3.4162705 0.20558916 0.57188982 4293661440
3.3978076 0.20458519 0.57501352 4293530880
3.4106638 0.20546684 0.58275551 4293661440
3.3972092 0.2047634 0.58532453 4293661440
3.4063382 0.20542105 0.59109366 4293661440
3.3806953 0.20398122 0.59012336 4293530880
3.3939824 0.20488994 0.59524322 4293530880
3.3837876 0.20438118 0.59555298 4293530880
3.3835428 0.20447309 0.59691036 4293530880
3.4045224 0.20584828 0.60131729 4293661440
3.3946857 0.20536056 0.5995813 4293661440
3.389884 0.20517695 0.59803325 4293530880
3.403728 0.2061222 0.59906965 4293661440
3.4040797 0.20625083 0.59702402 4293661440
3.4072196 0.20654853 0.59476608 4293661440
3.4122357 0.2069602 0.59213251 4293661440
3.4236391 0.20775978 0.58989644 4293661440
3.4191391 0.20759451 0.58422434 4293661440
3.4209621 0.20781307 0.57895535 4293661440
3.4329329 0.20864852 0.57470512 4293661440
3.4377854 0.20905183 0.56856382 4293661440
3.4339445 0.20892656 0.56032407 4293661440
3.4253809 0.20851354 0.55069411 4293661440
3.4144716 0.20795712 0.54009962 4293661440
3.4063807 0.20757176 0.52937901 4293661440
3.4218514 0.20862238 0.52168798 4293661440
3.436877 0.20964684 0.51323789 4293661440
3.426553 0.20912513 0.50040185 4293661440
3.3877614 0.20744723 0.4097431 4293530880
3.4053345 0.20863068 0.39679438 4293530880
3.4211464 0.20970729 0.38304678 4293530880
3.4188991 0.20967734 0.36678836 4293530880
3.3944962 0.20828779 0.34787273 4293530880
3.3941526 0.20837374 0.33115566 4293530880
3.4139104 0.20969436 0.31593582 4293530880
3.4104884 0.20959172 0.2981405 4293530880
3.3768814 0.2076329 0.27757123 4293400320
3.380368 0.20795386 0.25990304 4293400320
3.4040329 0.20951703 0.24335532 4293530880
3.3986793 0.20929469 0.22436856 4293400320
3.3691404 0.20758191 0.20373349 4293400320
3.3977568 0.20945218 0.18639643 4293400320
3.4242661 0.21119432 0.16843019 4293530880
3.4182816 0.21093301 0.14856675 4293530880
3.3678725 0.20792861 0.12693667 4293400320
3.4026942 0.21018577 0.10847011 4293400320
3.4015062 0.21021965 0.088542856 4293400320
3.3944583 0.20989114 0.068415724 4293400320
3.374512 0.2087642 0.048113752 4293400320
3.3735726 0.20881248 0.028153999 4293400320
3.388351 0.20983407 0.0082130283 4293400320
3.3521805 0.20769982 -0.011733597 4293269760
3.3642449 0.20855342 -0.031693637 4293269760
3.3750236 0.20932804 -0.051742598 4293400320
3.3867288 0.21016082 -0.071882732 4293400320
3.3509498 0.20804627 -0.090796448 4293269760
3.3785641 0.20986728 -0.11128113 4293400320
3.4033866 0.21151651 -0.13185906 4293400320
3.4086747 0.21195266 -0.15171213 4293530880
3.3579133 0.20890221 -0.16864656 4293269760
3.3890681 0.21094729 -0.18939836 4293400320
3.4084742 0.21226268 -0.20957282 4293530880
3.404402 0.21211645 -0.22816168 4293530880
3.3736229 0.21030511 -0.24452116 4293400320
3.4152634 0.21300861 -0.26591828 4293530880
3.4246869 0.21370435 -0.28478959 4293530880
3.4220338 0.21364672 -0.30238 4293530880
3.4113355 0.21308638 -0.31885812 4293530880
3.4018455 0.21260089 -0.33499512 4293530880
3.4033997 0.21280536 -0.35180914 4293530880
3.4189198 0.21388362 -0.36975828 4293530880
3.4093704 0.21339376 -0.38461441 4293530880
3.3920259 0.21241514 -0.39803889 4293530880
3.417022 0.21408822 -0.41601795 4293530880
3.4184535 0.21428572 -0.43077746 4293530880
3.424947 0.21480078 -0.44572306 4293661440
3.420017 0.21459946 -0.45868623 4293661440
3.4151728 0.21440321 -0.47110382 4293661440
3.3853335 0.21263668 -0.47941086 4293530880
3.3890891 0.21297945 -0.49183366 4293530880
3.398957 0.21370679 -0.50462866 4293530880
3.4046326 0.21417102 -0.51627505 4293530880
3.3950131 0.21367298 -0.52499938 4293530880
3.4051001 0.21441522 -0.53616732 4293661440
3.4125328 0.21499088 -0.54634768 4293661440
3.4065664 0.21472244 -0.55375713 4293661440
3.4042211 0.214682 -0.56109464 4293661440
3.3923228 0.21403864 -0.56617713 4293530880
3.3947182 0.21429685 -0.57296765 4293530880
3.380012 0.21347512 -0.57618499 4293530880
3.3757231 0.2133107 -0.58047581 4293530880
3.3526511 0.21195854 -0.58082366 4293400320
3.365799 0.21289593 -0.58675265 4293530880
3.3702071 0.21328105 -0.5904904 4293530880
3.357187 0.21256298 -0.59047896 4293530880
3.3695378 0.21345127 -0.59423566 4293530880
3.3693798 0.21354753 -0.59509635 4293530880
3.3595123 0.2130281 -0.59354448 4293530880
3.3730736 0.21399443 -0.59543407 4293530880
3.3816335 0.21464415 -0.59573835 4293530880
3.3956978 0.21564397 -0.59630382 4293661440
3.3926966 0.21556041 -0.59316909 4293530880
3.3990729 0.21607274 -0.5909763 4293661440
3.4013975 0.21632779 -0.58737963 4293661440
3.4111798 0.21705754 -0.58436906 4293661440
3.4041479 0.21671748 -0.57779443 4293661440
3.3939841 0.21617748 -0.5700447 4293530880
3.3969321 0.2164724 -0.56384683 4293530880
3.3957808 0.21650614 -0.55631095 4293530880
3.3895035 0.21621284 -0.54730821 4293530880
3.3800907 0.21571903 -0.53720528 4293530880
3.364064 0.21480231 -0.52549899 4293400320
3.3780324 0.21580079 -0.51787651 4293530880
3.3866646 0.21645907 -0.50877422 4293530880
3.3997502 0.21740268 -0.49968907 4293530880
3.3981888 0.21741003 -0.48784304 4293530880
3.378222 0.21623914 -0.47287562 4293530880
3.363729 0.21541756 -0.4582628 4293400320
3.3811476 0.21663973 -0.44746444 4293530880
3.3934236 0.21753334 -0.43536219 4293530880
3.406822 0.21849971 -0.42280746 4293530880
3.3657856 0.21597396 -0.40314332 4293400320
3.3760295 0.21673779 -0.38930148 4293400320
3.4004018 0.21840975 -0.37649602 4293530880
3.4021759 0.218631 -0.36064851 4293530880
3.4117823 0.21935597 -0.34517562 4293530880
3.3512554 0.2155702 -0.32247749 4293269760
3.3765402 0.21730314 -0.30785167 4293400320
3.3864121 0.21804529 -0.29130253 4293400320
3.3876836 0.21823405 -0.27363554 4293400320
3.3541558 0.21618001 -0.25302956 4293269760
3.3755939 0.21766821 -0.23635571 4293400320
3.3884256 0.21860252 -0.21863431 4293400320
3.3887053 0.21872747 -0.19979249 4293400320
3.3989124 0.21949352 -0.18125945 4293400320
3.3620896 0.21722165 -0.16017336 4293269760
3.3874655 0.21896803 -0.14194046 4293400320
3.3854747 0.21894616 -0.12227292 4293400320
3.3746061 0.21834971 -0.1022272 4293400320
3.3820593 0.21893866 -0.082645603 4293400320
3.3963053 0.21996802 -0.063013233 4293400320
3.3944221 0.21995315 -0.042940851 4293400320
3.3929465 0.21996458 -0.022847086 4293400320
3.4169648 0.22162947 -0.0027667235 4293530880
3.4165194 0.22170836 0.017476156 4293530880
3.3855698 0.21980676 0.037358403 4293400320
3.4321802 0.2229412 0.058148444 4293530880
3.4438441 0.2238075 0.078627817 4293530880
3.4361451 0.22341555 0.098603852 4293530880
3.3607688 0.21862067 0.11604651 4293269760
3.428113 0.22310963 0.13824248 4293530880
3.4274185 0.22317256 0.15793148 4293530880
3.4200773 0.22280245 0.1770972 4293530880
3.2385986 0.21108212 0.18598697 4292878080
3.4348121 0.22397907 0.21643566 4293530880
3.4294 0.22373436 0.23500951 4293530880
3.4157138 0.22294924 0.25265551 4293530880
3.2287958 0.21085066 0.25613514 4292878080
3.4582043 0.22594087 0.29256824 4293661440
3.4510891 0.22558488 0.30984241 4293661440
3.4430456 0.22516775 0.3266142 4293661440
3.4002023 0.22247316 0.33946997 4293530880
3.1574512 0.20668973 0.33059707 4292747520
3.443109 0.22549778 0.37685907 4293661440
3.4383268 0.22529307 0.39224645 4293661440
3.4181609 0.22407956 0.40532801 4293530880
3.3876088 0.22218359 0.41649994 4293530880
3.3127418 0.2173778 0.42130575 4293269760
3.4467061 0.2262771 0.45242649 4293661440
3.4432735 0.22616039 0.46553507 4293661440
3.444432 0.22634515 0.47872806 4293661440
3.4140627 0.22445722 0.48688984 4293661440
3.4098606 0.22428854 0.4981043 4293661440
3.3353512 0.21949281 0.49821958 4293400320
3.4395432 0.226458 0.52453834 4293661440
3.4388459 0.22652058 0.53458315 4293661440
3.4347353 0.22635819 0.54346913 4293661440
3.4422908 0.22696474 0.55358279 4293792000
3.4306374 0.22630462 0.55995929 4293661440
3.4254961 0.22607356 0.56671125 4293661440
3.4199357 0.22581449 0.57271391 4293661440
3.396558 0.22437806 0.57501352 4293530880
3.4066098 0.22514959 0.58227706 4293661440
3.4008753 0.22487789 0.58617198 4293661440
3.423764 0.22649939 0.59433645 4293661440
3.3833814 0.22393464 0.59081 4293530880
3.3829024 0.22400968 0.59351879 4293530880
3.3923669 0.22474344 0.5972833 4293530880
3.3822942 0.22418284 0.59691036 4293530880
3.3870809 0.22460699 0.59845763 4293530880
3.4081717 0.22611313 0.60218567 4293661440
3.4033713 0.22590204 0.60063469 4293661440
3.4113142 0.2265369 0.60062695 4293661440
3.3929918 0.22542721 0.5952996 4293530880
3.4157884 0.22704959 0.59648263 4293661440
3.4158878 0.22716399 0.59298587 4293661440
3.4254198 0.22790597 0.59042203 4293661440
3.4326255 0.22849371 0.58674628 4293661440
3.4246125 0.2280684 0.57978815 4293661440
3.4267383 0.2283181 0.57388103 4293661440
3.4325712 0.22881503 0.56791234 4293661440
3.437593 0.22925827 0.56112784 4293661440
3.4339597 0.22912432 0.55227852 4293661440
3.413202 0.22784701 0.54009962 4293661440
3.4149733 0.22807302 0.53091192 4293661440
3.4205778 0.22855526 0.52168798 4293661440
3.4405317 0.2299971 0.51397508 4293661440
3.4440358 0.23034003 0.50314248 4293661440
3.3864954 0.22718151 0.4097431 4293530880
3.4000108 0.22819547 0.39632225 4293530880
3.4347401 0.23063478 0.38471273 4293661440
3.4315085 0.23052606 0.36827898 4293661440
3.4001765 0.2285285 0.3485854 4293530880
3.4067838 0.2290801 0.33251262 4293530880
3.4175982 0.22991514 0.31639573 4293530880
3.4191489 0.23012736 0.29900974 4293530880
3.3795919 0.22757162 0.27789831 4293400320
3.384073 0.22798015 0.26028562 4293400320
3.4084857 0.22973236 0.24376519 4293530880
3.3997424 0.22925036 0.22452311 4293530880
3.3823161 0.22818202 0.20460714 4293400320
3.410126 0.23016578 0.18714538 4293530880
3.4162424 0.23068641 0.16809878 4293530880
3.4317946 0.23184492 0.14921023 4293530880
3.3846283 0.22876526 0.12761629 4293400320
3.4014118 0.23000701 0.10847011 4293400320
3.4052105 0.23037136 0.088672712 4293530880
3.3981655 0.23000197 0.068516284 4293400320
3.3732383 0.22842126 0.048113752 4293400320
3.3772871 0.22880201 0.028195644 4293400320
3.3920596 0.22990985 0.0082251253 4293400320
3.3509135 0.22722679 -0.011733597 4293269760
3.3729494 0.22882751 -0.03178766 4293400320
3.3737466 0.22898807 -0.051742598 4293400320
3.3954215 0.23056638 -0.072094522 4293400320
3.3616455 0.22837891 -0.091120765 4293269760
3.3762345 0.22947659 -0.11124655 4293400320
3.4070811 0.23168072 -0.13205226 4293530880
3.4213359 0.23275802 -0.15233342 4293530880
3.3656073 0.22907294 -0.16909713 4293400320
3.397743 0.23136744 -0.18995526 4293400320
3.4065855 0.23207708 -0.20953628 4293530880
3.3961434 0.23147289 -0.22769472 4293400320
3.3723404 0.22995697 -0.24452116 4293400320
3.4139643 0.23290302 -0.26591828 4293530880
3.432332 0.2342644 -0.28553399 4293530880
3.4257002 0.23391989 -0.30281922 4293530880
3.4189763 0.23356867 -0.31969407 4293530880
3.391613 0.23180638 -0.33411482 4293530880
3.4120262 0.23330925 -0.35283539 4293530880
3.4176157 0.23379934 -0.36975828 4293530880
3.4219489 0.23420379 -0.38618079 4293530880
3.3956854 0.23251343 -0.39862052 4293530880
3.4256206 0.23467131 -0.41722417 4293661440
3.4319949 0.23521632 -0.43264922 4293661440
3.4285841 0.23509078 -0.44636706 4293661440
3.4335413 0.23553905 -0.46067631 4293661440
3.4227607 0.23490755 -0.47233129 4293661440
3.3888905 0.23268996 -0.48009843 4293530880
3.3966768 0.2333318 -0.49312374 4293530880
3.4025886 0.23384532 -0.50536156 4293530880
3.4082589 0.23434259 -0.51702327 4293661440
3.4124439 0.23473805 -0.52789742 4293661440
3.408721 0.23458953 -0.53694355 4293661440
3.4063735 0.23453552 -0.54557115 4293661440
3.4101813 0.23490533 -0.55455786 4293661440
3.4082561 0.2348803 -0.56197572 4293661440
3.4008589 0.23447786 -0.56782019 4293661440
3.404134 0.23481113 -0.57477802 4293661440
3.388546 0.23384285 -0.5778622 4293530880
3.3793392 0.23331417 -0.58132154 4293530880
3.3923686 0.23432082 -0.58793098 4293530880
3.3694158 0.23284176 -0.58760971 4293530880
3.3639936 0.23257326 -0.58962917 4293530880
3.3685136 0.23299208 -0.59269983 4293530880
3.3731496 0.23341921 -0.59510237 4293530880
3.3680785 0.23317462 -0.59509635 4293530880
3.3631265 0.23293795 -0.59441268 4293530880
3.3717694 0.23364303 -0.59543407 4293530880
3.3950636 0.23536433 -0.59833574 4293661440
3.3894708 0.23508359 -0.59544075 4293530880
3.4012108 0.23600522 -0.59488797 4293661440
3.4115171 0.23682804 -0.59336972 4293661440
3.4000793 0.23614137 -0.58737963 4293661440
3.4098573 0.23692811 -0.58436906 4293661440
3.3979096 0.23620521 -0.57695937 4293661440
3.4015219 0.23656368 -0.57153249 4293661440
3.4005342 0.23660235 -0.56466395 4293661440
3.4043069 0.23697232 -0.55792445 4293661440
3.3931105 0.23630005 -0.54810369 4293530880
3.3791811 0.23543666 -0.53726959 4293530880
3.3696516 0.23487911 -0.52657664 4293530880
3.3820534 0.23585032 -0.51869482 4293530880
3.3991575 0.2371504 -0.51084989 4293530880
3.4073091 0.23782668 -0.50099522 4293530880
3.4018018 0.23754968 -0.48855212 4293530880
3.3867846 0.23660792 -0.47425911 4293530880
3.362417 0.2350117 -0.4582628 4293400320
3.3910534 0.23712027 -0.44895059 4293530880
3.4010737 0.2379283 -0.43651411 4293530880
3.4054911 0.23834485 -0.42280746 4293530880
3.3694227 0.23592684 -0.40373674 4293400320
3.3661973 0.23580727 -0.38831952 4293400320
3.3990717 0.23821749 -0.37649602 4293530880
3.4097724 0.23907506 -0.3615953 4293530880
3.4104464 0.23922999 -0.34517562 4293530880
3.3539145 0.23537038 -0.32285982 4293400320
3.3801839 0.23732063 -0.30830473 4293400320
3.393275 0.23834687 -0.29200739 4293530880
3.3899238 0.2382185 -0.27392393 4293400320
3.3617918 0.23634775 -0.25370517 4293400320
3.3858609 0.23814678 -0.23716773 4293400320
3.392072 0.23869073 -0.21895559 4293400320
3.3993196 0.23930806 -0.20049709 4293400320
3.3946748 0.23908824 -0.18110467 4293400320
3.3796985 0.23814015 -0.16107562 4293400320
3.3884749 0.23886554 -0.14203866 4293400320
3.4040012 0.24006753 -0.12299047 4293530880
3.363306 0.23730367 -0.10192504 4293269760
3.3857124 0.23899148 -0.082767494 4293400320
3.4089289 0.24073793 -0.063272394 4293530880
3.40206 0.24036026 -0.043054458 4293400320
3.3883743 0.23950033 -0.022825306 4293400320
3.4123824 0.24130502 -0.0027641046 4293530880
3.420157 0.24196279 0.017501678 4293530880
3.3987014 0.2405522 0.037518132 4293400320
3.4381154 0.24345037 0.058272038 4293530880
3.4483132 0.24428135 0.078761011 4293661440
3.4467628 0.24428035 0.098947704 4293661440
3.3743916 0.23925777 0.11656305 4293400320
3.4334915 0.24355659 0.13851425 4293530880
3.4360244 0.24384476 0.15839081 4293530880
3.4187212 0.24272475 0.1770972 4293530880
3.2373137 0.22994727 0.18598697 4292878080
3.4334488 0.2439872 0.21643566 4293530880
3.4419703 0.24470145 0.23596463 4293661440
3.4282837 0.24383666 0.25368607 4293530880
3.2324843 0.23001249 0.25652969 4292878080
3.4617989 0.24643904 0.29298884 4293661440
3.4600592 0.24642444 0.31077138 4293661440
3.4496071 0.24578896 0.32736692 4293661440
3.4038112 0.24263343 0.33996564 4293530880
3.1561935 0.22508219 0.33059707 4292747520
3.4516525 0.24626167 0.3779448 4293661440
3.4458754 0.24595831 0.39326441 4293661440
3.4217501 0.24434434 0.40591553 4293661440
3.3902171 0.24219964 0.41698703 4293530880
3.3153772 0.23695771 0.42180932 4293269760
3.4502742 0.24670808 0.45307586 4293661440
3.4517825 0.24692491 0.46687207 4293792000
3.4430547 0.2464093 0.47872806 4293661440
3.4215846 0.24498078 0.48815781 4293661440
3.3946779 0.24316148 0.49608496 4293530880
3.329083 0.23856804 0.49748245 4293269760
3.4381654 0.24649364 0.52453834 4293661440
3.4423959 0.24690565 0.53534961 4293792000
3.4530628 0.24777977 0.54658824 4293792000
3.4369707 0.24673359 0.55294901 4293661440
3.4292607 0.24628839 0.55995929 4293661440
3.4329779 0.24666376 0.5681771 4293661440
3.4283998 0.24644308 0.57436204 4293661440
3.4187968 0.24586076 0.57901102 4293661440
3.4052403 0.24499337 0.58227706 4293661440
3.4181843 0.24603258 0.58939242 4293661440
3.432214 0.24715081 0.59604317 4293792000
3.3820193 0.24364312 0.59081 4293530880
3.3815398 0.24371536 0.59351879 4293530880
3.4008236 0.24521258 0.59901363 4293661440
3.3956649 0.24494787 0.59951174 4293661440
3.3906262 0.24469146 0.59932578 4293530880
3.4067962 0.245966 0.60218567 4293661440
3.4019973 0.24572696 0.60063469 4293661440
3.41976 0.24711794 0.60235727 4293661440
3.4102874 0.24654114 0.59857595 4293661440
3.4193206 0.24730216 0.59734088 4293661440
3.4233513 0.24770179 0.59452194 4293661440
3.4191191 0.24750355 0.58957458 4293661440
3.431236 0.24848902 0.58674628 4293661440
3.4232256 0.24801703 0.57978815 4293661440
3.4401062 0.24934867 0.57635331 4293792000
3.4449568 0.24980906 0.57019258 4293792000
3.431277 0.24892543 0.56032407 4293661440
3.4325664 0.24912739 0.55227852 4293661440
3.4118166 0.24772917 0.54009962 4293661440
3.4185145 0.24832346 0.53167832 4293661440
3.4295428 0.24923287 0.52326787 4293661440
3.43066 0.24942242 0.51270878 4293661440
3.4444087 0.25053078 0.50340164 4293661440
3.3959286 0.24769688 0.41105211 4293530880
3.4174464 0.24937429 0.39851722 4293530880
3.4382939 0.25100416 0.38526803 4293661440
3.4406157 0.2512823 0.36940724 4293661440
3.4007683 0.2484795 0.34878856 4293530880
3.4004281 0.24856204 0.332028 4293530880
3.4162006 0.24982287 0.31639573 4293530880
3.4143686 0.24979675 0.29871389 4293530880
3.3931186 0.24834925 0.27912483 4293400320
3.401581 0.24907607 0.26173943 4293530880
3.4220114 0.25068012 0.2448328 4293530880
3.4262137 0.25109619 0.22636408 4293530880
3.38043 0.24784762 0.20457694 4293400320
3.411917 0.25026396 0.1873205 4293530880
3.4338367 0.25198022 0.16903389 4293530880
3.4353676 0.25220105 0.14942692 4293530880
3.3792515 0.24818814 0.1274659 4293400320
3.4049981 0.25018665 0.10862911 4293530880
3.4038105 0.25020692 0.088672712 4293530880
3.4067388 0.25052977 0.068717413 4293530880
3.3718503 0.24807057 0.048113752 4293400320
3.3758967 0.24847491 0.028195644 4293400320
3.395649 0.25003597 0.0082372213 4293400320
3.3405571 0.24608485 -0.011702156 4293269760
3.3665729 0.24810766 -0.031740647 4293400320
3.3773413 0.24900794 -0.051819097 4293400320
3.3993063 0.25073478 -0.072206803 4293400320
3.3602576 0.24796067 -0.091120765 4293269760
3.401403 0.2511043 -0.11212215 4293400320
3.4096596 0.25182155 -0.13220683 4293530880
3.4179325 0.2525405 -0.15224482 4293530880
3.3643022 0.24868418 -0.16910148 4293400320
3.4062946 0.25189582 -0.19051217 4293530880
3.4051754 0.25192061 -0.20953628 4293530880
3.4136431 0.25265488 -0.22896279 4293530880
3.3759167 0.24996927 -0.24488191 4293400320
3.4085023 0.25248975 -0.26560292 4293530880
3.4309089 0.25425792 -0.28553399 4293530880
3.4255717 0.25397059 -0.30293354 4293530880
3.4175575 0.25348437 -0.31969407 4293530880
3.3991373 0.25222549 -0.33499512 4293530880
3.4056489 0.25281626 -0.35232225 4293530880
3.4122295 0.25341257 -0.36932901 4293530880
3.4155715 0.25376865 -0.38562137 4293530880
3.4091301 0.25339776 -0.40036532 4293530880
3.4158762 0.2540071 -0.41621053 4293530880
3.4224119 0.25460124 -0.43162087 4293661440
3.4383812 0.25589785 -0.44782904 4293661440
3.4285629 0.25527543 -0.4602001 4293661440
3.4349482 0.25585938 -0.4742108 4293661440
3.3924143 0.25279829 -0.48079813 4293530880
3.405129 0.25385335 -0.49455714 4293530880
3.4110332 0.25440127 -0.50682724 4293661440
3.4183173 0.25505251 -0.51876569 4293661440
3.4208739 0.25535133 -0.52942264 4293661440
3.4220731 0.25554898 -0.53927219 4293661440
3.4187355 0.25540772 -0.5477801 4293661440
3.4237359 0.25588945 -0.55699503 4293661440
3.4068298 0.25473353 -0.56197572 4293661440
3.4170549 0.25560603 -0.57076329 4293661440
3.393858 0.25397804 -0.57328302 4293530880
3.3920414 0.25394925 -0.57870078 4293530880
3.396112 0.25436127 -0.58445179 4293661440
3.3909459 0.25408149 -0.58793098 4293530880
3.3680019 0.25246871 -0.58760971 4293530880
3.3674929 0.25253695 -0.5904904 4293530880
3.37201 0.25298223 -0.59356427 4293530880
3.366822 0.25269938 -0.59423566 4293530880
3.3666627 0.25279379 -0.59509635 4293530880
3.3889313 0.25457293 -0.59922552 4293530880
3.3791897 0.25394791 -0.59699553 4293530880
3.3887241 0.2547715 -0.59746993 4293530880
3.4085708 0.25637129 -0.59904832 4293661440
3.4046898 0.25618696 -0.59574741 4293661440
3.4105 0.2567319 -0.59344292 4293661440
3.4079227 0.25664556 -0.58898294 4293661440
3.4124274 0.25709262 -0.5850563 4293661440
3.4151559 0.25740609 -0.58013254 4293661440
3.4086406 0.25702271 -0.57297051 4293661440
3.4079518 0.25707844 -0.56613481 4293661440
3.407789 0.25717381 -0.5587312 4293661440
3.401521 0.25680825 -0.5496946 4293661440
3.397449 0.25660819 -0.54040259 4293530880
3.3820195 0.25554967 -0.52873307 4293530880
3.4003356 0.25704107 -0.52171952 4293530880
3.4000361 0.25712588 -0.5111984 4293530880
3.4223995 0.25892523 -0.50342733 4293661440
3.4058845 0.25778335 -0.48934582 4293530880
3.3816957 0.25605944 -0.4737474 4293530880
3.3708711 0.2553463 -0.45960999 4293400320
3.3846717 0.25649863 -0.44829592 4293530880
3.4005492 0.25780934 -0.43663216 4293530880
3.4040449 0.2581819 -0.42280746 4293530880
3.3719513 0.25585428 -0.40421149 4293400320
3.3772373 0.25636208 -0.38975877 4293400320
3.3936617 0.25771609 -0.3760567 4293530880
3.4092436 0.2590071 -0.36169311 4293530880
3.405817 0.25885439 -0.34485388 4293530880
3.3524864 0.25490698 -0.32285982 4293400320
3.3821235 0.25726733 -0.30861312 4293400320
3.3918288 0.25811276 -0.29200739 4293530880
3.3984172 0.2587215 -0.27472737 4293530880
3.3583727 0.25577903 -0.2535553 4293400320
3.3893893 0.25824842 -0.23751624 4293400320
3.4045544 0.25951144 -0.21985519 4293530880
3.4029682 0.25949809 -0.20079805 4293530880
3.3886385 0.25851244 -0.18085992 4293400320
3.3748641 0.25756824 -0.160914 4293400320
3.3820446 0.25822312 -0.14182977 4293400320
3.3985591 0.25959143 -0.12284639 4293400320
3.3668494 0.25727576 -0.10207611 4293400320
3.3932338 0.25939912 -0.082986899 4293400320
3.4074683 0.26059496 -0.063272394 4293530880
3.4105718 0.26094007 -0.043180685 4293530880
3.3869214 0.25923765 -0.022825306 4293400320
3.414907 0.26148757 -0.0027673366 4293530880
3.4245937 0.26233754 0.017531905 4293530880
3.3927488 0.2600053 0.037468512 4293400320
3.4266691 0.2627131 0.058102999 4293530880
3.4468315 0.26436779 0.078761011 4293661440
3.445281 0.26435775 0.098947704 4293661440
3.3819084 0.25960204 0.11687298 4293400320
3.4359992 0.26386273 0.13867508 4293530880
3.435864 0.2639609 0.15845162 4293530880
3.4176419 0.262669 0.17711756 4293530880
3.2458735 0.24957 0.1865591 4293008640
3.4468954 0.26513517 0.21737698 4293661440
3.4364209 0.26443809 0.23568581 4293661440
3.4209392 0.26335487 0.25325185 4293530880
3.249974 0.25029612 0.25802904 4293008640
3.4702394 0.26736948 0.29383007 4293792000
3.4684954 0.26734471 0.31166372 4293792000
3.4431534 0.26550022 0.32689571 4293661440
3.3721094 0.26012862 0.336945 4293400320
3.1597867 0.24384964 0.33111665 4292747520
3.4603691 0.2671558 0.37906325 4293661440
3.4404213 0.26572448 0.39281198 4293661440
3.4163229 0.26397115 0.40544727 4293530880
3.3887484 0.26194763 0.41698703 4293530880
3.2489598 0.25124478 0.41353837 4293008640
3.4537213 0.26718828 0.45372522 4293792000
3.4508381 0.26707432 0.46694687 4293792000
3.4409628 0.26641876 0.47864488 4293661440
3.4200993 0.26491147 0.48815781 4293661440
3.4020827 0.26362351 0.49738312 4293530880
3.3276367 0.25795993 0.49748245 4293269760
3.4514558 0.26766753 0.52679497 4293792000
3.4497659 0.26764551 0.53672916 4293792000
3.4348063 0.26659346 0.54393506 4293661440
3.439801 0.26708981 0.55364531 4293792000
3.4277675 0.26626378 0.55995929 4293661440
3.4364009 0.26704302 0.56899148 4293792000
3.421989 0.26603124 0.57353795 4293661440
3.4173064 0.2657752 0.57901102 4293661440
3.4037552 0.26482886 0.58227706 4293661440
3.4265184 0.26670825 0.59108734 4293661440
3.3958716 0.26443014 0.58998942 4293661440
3.3952751 0.26449102 0.5933848 4293661440
3.4036314 0.26524955 0.59765738 4293661440
3.3993373 0.26502234 0.59901363 4293661440
3.3990896 0.26511046 0.60037887 4293661440
3.394052 0.26482484 0.60019392 4293661440
3.4239602 0.26726666 0.60548449 4293661440
3.4093447 0.26623356 0.6021955 4293661440
3.408443 0.26627091 0.60062695 4293661440
3.4087932 0.266406 0.59857595 4293661440
3.4227324 0.26760358 0.59819919 4293661440
3.4267616 0.26802692 0.5953753 4293661440
3.4323571 0.26857305 0.59211701 4293792000
3.4385748 0.26916826 0.5882594 4293792000
3.4354849 0.26903498 0.58212012 4293792000
3.4385951 0.26938722 0.57635331 4293792000
3.4385245 0.26949039 0.5693782 4293792000
3.4435441 0.26999262 0.56257457 4293792000
3.4359784 0.26950806 0.55307072 4293661440
3.433949 0.26945743 0.54384255 4293661440
3.4258759 0.26893222 0.53305793 4293661440
3.4280324 0.26920986 0.52326787 4293661440
3.4439392 0.27056792 0.51492018 4293792000
3.4428906 0.27059436 0.50340164 4293661440
3.3993766 0.26786801 0.41165137 4293530880
3.4208865 0.26967111 0.39909485 4293661440
3.4456899 0.27173531 0.3862676 4293661440
3.4301722 0.27061996 0.36844897 4293661440
3.4091799 0.26907158 0.34980613 4293530880
3.4108253 0.26930925 0.33319077 4293530880
3.4285846 0.27081987 0.31768343 4293661440
3.426759 0.27078399 0.29993084 4293530880
3.3916142 0.26811406 0.27912483 4293400320
3.4009798 0.26896194 0.26180929 4293530880
3.4204926 0.27061322 0.2448328 4293530880
3.4183755 0.27055377 0.22594653 4293530880
3.3929374 0.2686477 0.2054251 4293400320
3.4153779 0.27053246 0.18759386 4293530880
3.4323103 0.27198219 0.16903389 4293530880
3.4288602 0.27181718 0.14921023 4293530880
3.3817327 0.26818815 0.12761629 4293400320
3.3951099 0.26935637 0.10836188 4293400320
3.4130166 0.2708849 0.088952146 4293530880
3.400238 0.2699782 0.068616852 4293400320
3.3653638 0.2673156 0.048042607 4293400320
3.3843601 0.26893148 0.028278936 4293400320
3.3941345 0.26981547 0.0082372213 4293400320
3.3639846 0.26752508 -0.011789483 4293269760
3.3741932 0.26844361 -0.031826701 4293400320
3.3887382 0.26970789 -0.05201719 4293400320
3.3942106 0.27025077 -0.072130777 4293400320
3.3727067 0.26864523 -0.091499239 4293400320
3.3998821 0.27091733 -0.11212215 4293400320
3.4165051 0.27234992 -0.13253152 4293530880
3.4213824 0.27284688 -0.15246671 4293530880
3.3817122 0.2697902 -0.17005269 4293400320
3.3930659 0.27080327 -0.18985732 4293400320
3.4126046 0.27247056 -0.21008754 4293530880
3.4071403 0.27214199 -0.2286291 4293530880
3.3756969 0.26973721 -0.24497581 4293400320
3.4119427 0.27274132 -0.26599032 4293530880
3.4253955 0.27392501 -0.28520316 4293530880
3.4379354 0.27503651 -0.30416346 4293661440
3.4160225 0.27339149 -0.31969407 4293530880
3.3902657 0.27143729 -0.33427098 4293530880
3.4189913 0.27384526 -0.35386163 4293530880
3.4245698 0.27440035 -0.37083143 4293661440
3.4189878 0.27406117 -0.38618079 4293530880
3.4026458 0.27285883 -0.39978373 4293530880
3.4265594 0.27488479 -0.41770032 4293661440
3.4362957 0.27577451 -0.43356708 4293661440
3.4417744 0.27632302 -0.44847307 4293661440
3.4417512 0.27642998 -0.46217865 4293661440
3.4339519 0.27591214 -0.47428712 4293661440
3.4047873 0.27367648 -0.48276952 4293530880
3.4085248 0.27408466 -0.49527386 4293661440
3.4170356 0.27487707 -0.50794846 4293661440
3.4128311 0.27464676 -0.51816714 4293661440
3.4323347 0.27632484 -0.5314365 4293661440
3.4279995 0.27608421 -0.54045039 4293661440
3.4160831 0.27523249 -0.54760271 4293661440
3.4221869 0.2758325 -0.55699503 4293661440
3.4141397 0.27529186 -0.56343657 4293661440
3.4194407 0.27582741 -0.57142055 4293661440
3.3972352 0.27414364 -0.57411355 4293661440
3.3944199 0.2740238 -0.57936913 4293661440
3.3985019 0.27446076 -0.58512837 4293661440
3.3844969 0.27343678 -0.58707911 4293530880
3.3762939 0.27288079 -0.58932376 4293530880
3.3659644 0.27215239 -0.5904904 4293530880
3.3793144 0.27333865 -0.59512031 4293530880
3.3702009 0.27270803 -0.59510237 4293530880
3.3700409 0.27280167 -0.59596425 4293530880
3.3824825 0.27391577 -0.59835732 4293530880
3.3825607 0.27402908 -0.59786302 4293530880
3.4058192 0.276021 -0.6007573 4293661440
3.4021103 0.275828 -0.59818524 4293661440
3.4197457 0.27736592 -0.59865451 4293661440
3.4138567 0.27699625 -0.59429777 4293661440
3.4112809 0.27689511 -0.58983213 4293661440
3.4256086 0.27816644 -0.58758408 4293661440
3.4136837 0.27730605 -0.58014709 4293661440
3.424979 0.27833194 -0.57597971 4293661440
3.4188297 0.27794033 -0.56820118 4293661440
3.4127734 0.27755588 -0.55980408 4293661440
3.4025693 0.27683359 -0.55011535 4293661440
3.3909743 0.27599746 -0.53961933 4293530880
3.3853974 0.27565062 -0.52950323 4293530880
3.3849013 0.27571726 -0.51958907 4293530880
3.4106591 0.27792323 -0.51303029 4293661440
3.4214213 0.2789084 -0.50351393 4293661440
3.4017107 0.27740923 -0.4889701 4293530880
3.3890305 0.27648231 -0.47499254 4293530880
3.3614221 0.27433628 -0.45853177 4293400320
3.3880603 0.27661747 -0.44895059 4293530880
3.4039323 0.27802098 -0.43726715 4293530880
3.4074285 0.27841428 -0.42342204 4293530880
3.3704033 0.27549565 -0.40421149 4293400320
3.3806369 0.27643904 -0.39033037 4293530880
3.4010184 0.2782132 -0.37704515 4293530880
3.4126322 0.27927122 -0.36221913 4293530880
3.4082174 0.27901772 -0.34525567 4293530880
3.3559048 0.27484119 -0.32333776 4293400320
3.3821518 0.27709776 -0.30875778 4293400320
3.3902674 0.27786988 -0.29200739 4293530880
3.391885 0.27810973 -0.27432564 4293530880
3.3667638 0.27615646 -0.25430599 4293400320
3.3961821 0.27867687 -0.23810199 4293530880
3.402391 0.27929398 -0.21981685 4293530880
3.415204 0.28045377 -0.20161305 4293530880
3.4010081 0.27939558 -0.18160392 4293530880
3.3796282 0.27774611 -0.16121559 4293400320
3.3846176 0.27826318 -0.14200325 4293400320
3.3962741 0.27932894 -0.12282054 4293400320
3.3702743 0.27729717 -0.1022272 4293400320
3.4033806 0.28012869 -0.08327356 4293530880
3.4009099 0.2800329 -0.063179836 4293400320
3.4089937 0.28080636 -0.043180685 4293530880
3.3925703 0.2795608 -0.022873962 4293400320
3.4133255 0.2813791 -0.0027673366 4293530880
3.4269936 0.28261423 0.017552324 4293530880
3.3861935 0.27935669 0.037413456 4293400320
3.435045 0.28349552 0.058272038 4293530880
3.4452326 0.28444526 0.078761011 4293661440
3.4526482 0.28516671 0.099205323 4293661440
3.3713746 0.27856067 0.11656305 4293400320
3.44261 0.28455541 0.13900645 4293661440
3.4433141 0.28472254 0.158869 4293661440
3.4290926 0.28365502 0.17779362 4293530880
3.2483442 0.26880625 0.18678795 4293008640
3.445292 0.28521299 0.21737698 4293661440
3.4497359 0.28569001 0.23670915 4293661440
3.4243162 0.28369319 0.25361991 4293530880
3.2484608 0.26922691 0.25802904 4293008640
3.4686227 0.28758326 0.29383007 4293792000
3.4668789 0.28754836 0.31166372 4293792000
3.4525485 0.28646898 0.32794058 4293661440
3.3893783 0.28133476 0.33882856 4293530880
3.1731799 0.26348963 0.33267537 4292747520
3.4637072 0.28772354 0.37960613 4293792000
3.4526772 0.28691652 0.39439547 4293661440
3.4236338 0.28461134 0.40650484 4293661440
3.3921103 0.28209805 0.41759589 4293530880
3.2375546 0.26934713 0.41227943 4293008640
3.4530907 0.28738782 0.45385465 4293792000
3.4492235 0.28717509 0.46694687 4293792000
3.439352 0.28646201 0.47864488 4293661440
3.4382298 0.2864773 0.49097553 4293661440
3.4152811 0.28467321 0.49954671 4293661440
3.3457901 0.27898681 0.50043094 4293400320
3.4498377 0.28777188 0.52679497 4293792000
3.4530718 0.28815091 0.53749561 4293792000
3.4430382 0.28742254 0.54549456 4293792000
3.4431062 0.28753713 0.55443752 4293792000
3.4399281 0.28738055 0.56220984 4293792000
3.4446189 0.2878814 0.57062024 4293792000
3.4439704 0.28793615 0.57749349 4293792000
3.4157 0.28568062 0.57901102 4293661440
3.4109955 0.28539506 0.58379018 4293661440
3.4199958 0.28625631 0.59023988 4293661440
3.3991828 0.28462178 0.59084278 4293661440
3.4074206 0.28541934 0.59578794 4293661440
3.4069362 0.28548658 0.59851962 4293661440
3.4016614 0.28515217 0.59970576 4293661440
3.401413 0.28523895 0.60107261 4293661440
3.4012837 0.28533575 0.60175651 4293661440
3.3924425 0.28470138 0.60019416 4293661440
3.4224565 0.28732848 0.60479689 4293661440
3.4226885 0.28745624 0.60342216 4293661440
3.4219065 0.28749883 0.60116261 4293661440
3.4250419 0.28787062 0.59888577 4293661440
3.4349606 0.28881294 0.59708202 4293792000
3.4444828 0.28972256 0.59448999 4293792000
3.4418597 0.2896108 0.58910006 4293792000
3.438772 0.28945979 0.58295292 4293792000
3.4369671 0.28941661 0.57635331 4293792000
3.4476342 0.29042393 0.57115716 4293792000
3.4419127 0.29005086 0.56257457 4293792000
3.4481242 0.29068339 0.55528897 4293792000
3.4323208 0.28945974 0.54384255 4293661440
3.4242508 0.28888753 0.53305793 4293661440
3.4352717 0.28992599 0.5246219 4293661440
3.4472322 0.29104447 0.51565731 4293792000
3.4461858 0.29106519 0.50412285 4293792000
3.4066615 0.2884227 0.41273004 4293530880
3.4242063 0.29001647 0.39967248 4293661440
3.4489996 0.29222551 0.38682291 4293661440
3.4473617 0.29219583 0.37047195 4293661440
3.4194529 0.28993848 0.35102758 4293530880
3.4042397 0.28875625 0.33270612 4293530880
3.4269485 0.29079092 0.31768343 4293661440
3.4251232 0.29074442 0.29993084 4293530880
3.4038975 0.28905037 0.28026956 4293530880
3.4073892 0.28945467 0.26242808 4293530880
3.4220793 0.29081088 0.2450635 4293530880
3.4290731 0.29151371 0.22676204 4293530880
3.3863416 0.28798816 0.20512386 4293400320
3.4226978 0.29118836 0.18808593 4293530880
3.4266167 0.29163018 0.1688343 4293530880
3.4371729 0.29263735 0.14964363 4293661440
3.3909876 0.28881249 0.12802686 4293400320
3.3984623 0.28955665 0.10852089 4293400320
3.4163606 0.29118973 0.089082003 4293530880
3.4175348 0.29139796 0.068998992 4293530880
3.372716 0.28768319 0.048170671 4293400320
3.3934553 0.28955957 0.028368549 4293400320
3.4006276 0.29027921 0.0082569439 4293400320
3.3585069 0.28679004 -0.011775942 4293269760
3.3865206 0.28928936 -0.03195833 4293400320
3.3920906 0.2898725 -0.052093688 4293400320
3.4110961 0.29160458 -0.072524488 4293530880
3.3710842 0.28829077 -0.091499239 4293400320
3.4121876 0.29191384 -0.11258214 4293530880
3.4198384 0.2926766 -0.13272473 4293530880
3.4287796 0.29355031 -0.15286997 4293530880
3.3751073 0.28906205 -0.16980237 4293400320
3.3981543 0.29114345 -0.19023372 4293530880
3.3986244 0.29129127 -0.20932782 4293530880
3.4154379 0.29284042 -0.22929651 4293530880
3.3790367 0.2898263 -0.24533655 4293400320
3.4152625 0.29304156 -0.26637772 4293530880
3.418777 0.29345131 -0.28478959 4293530880
3.4313123 0.29463586 -0.3037242 4293661440
3.4242921 0.29414141 -0.32062292 4293530880
3.4074662 0.29280394 -0.33612943 4293530880
3.4213021 0.29410115 -0.3542721 4293530880
3.4153357 0.29369637 -0.37001052 4293530880
3.4134955 0.29364613 -0.3857471 4293530880
3.4053469 0.29305294 -0.4002949 4293530880
3.4311855 0.29538512 -0.41846693 4293661440
3.4346306 0.2957904 -0.43356708 4293661440
3.4463854 0.29691181 -0.44929168 4293661440
3.4490554 0.29725099 -0.46338424 4293792000
3.4416037 0.2967177 -0.47557467 4293661440
3.4070811 0.29384917 -0.4833293 4293661440
3.4144075 0.2945891 -0.49636963 4293661440
3.4193182 0.29512101 -0.50853473 4293661440
3.4226487 0.29551679 -0.51991034 4293661440
3.4306667 0.29631764 -0.5314365 4293661440
3.4312537 0.29647696 -0.54122663 4293661440
3.4242594 0.29598102 -0.54918057 4293661440
3.4244554 0.29610634 -0.55763561 4293661440
3.423548 0.29613623 -0.56526434 4293661440
3.4177756 0.29574507 -0.57142055 4293661440
3.4093344 0.29512256 -0.57643908 4293661440
3.4025874 0.29464623 -0.58104634 4293661440
3.4066641 0.2951071 -0.58681977 4293661440
3.3828466 0.2931509 -0.58707911 4293530880
3.3697391 0.29212171 -0.5884667 4293530880
3.3878746 0.2938011 -0.59462428 4293530880
3.3776646 0.29302257 -0.59512031 4293530880
3.3734605 0.29276466 -0.59596908 4293530880
3.3634887 0.29200572 -0.59509635 4293530880
3.3906405 0.29447025 -0.60009372 4293661440
3.4039702 0.29573566 -0.60194147 4293661440
3.4041533 0.29585931 -0.6007573 4293661440
3.4053521 0.29607129 -0.59904832 4293661440
3.4092391 0.29651713 -0.59710747 4293661440
3.4220006 0.29773542 -0.59600735 4293661440
3.4147339 0.29721123 -0.59071857 4293661440
3.4277358 0.29845142 -0.58823729 4293661440
3.42085 0.29796016 -0.5816502 4293661440
3.4321418 0.29905233 -0.5774675 4293792000
3.4295845 0.29893807 -0.57026845 4293661440
3.4209301 0.29829198 -0.56141758 4293661440
3.4058161 0.29708192 -0.55091077 4293661440
3.4066153 0.29725945 -0.54237473 4293661440
3.3886554 0.29579958 -0.53027344 4293530880
3.3970239 0.29663759 -0.52170634 4293530880
3.4178486 0.29856426 -0.51436472 4293661440
3.4394515 0.30056024 -0.50641644 4293661440
3.4148288 0.29851666 -0.49109736 4293661440
3.3838208 0.29591313 -0.47449595 4293530880
3.3745732 0.29521129 -0.46055254 4293530880
3.3962674 0.29721659 -0.45025992 4293530880
3.4071956 0.29828081 -0.43790212 4293530880
3.4112816 0.29874653 -0.42410994 4293530880
3.3696442 0.29520676 -0.40431985 4293400320
3.3754168 0.29581934 -0.38992003 4293400320
3.3993397 0.29802352 -0.37704515 4293530880
3.4109473 0.29914916 -0.36221913 4293530880
3.421401 0.3001743 -0.34676245 4293530880
3.3542466 0.29438874 -0.32333776 4293400320
3.3854403 0.29723367 -0.30921084 4293400320
3.3885908 0.29761755 -0.29200739 4293530880
3.4001365 0.29873922 -0.27512911 4293530880
3.3700645 0.29620379 -0.25468132 4293400320
3.3994694 0.29889587 -0.23845051 4293530880
3.4046824 0.29946202 -0.22007388 4293530880
3.40854 0.2999092 -0.20131938 4293530880
3.4088776 0.30004683 -0.18211438 4293530880
3.3905392 0.29854006 -0.16181628 4293400320
3.4000607 0.29948607 -0.14272195 4293530880
3.4045439 0.29998875 -0.12318072 4293530880
3.3793519 0.29787597 -0.10255343 4293400320
3.3983016 0.29965389 -0.08319059 4293400320
3.4104764 0.30083543 -0.063389041 4293530880
3.4083829 0.30075866 -0.043194413 4293530880
3.4025967 0.30035582 -0.022952976 4293530880
3.4116282 0.30126107 -0.0027673366 4293530880
3.4252889 0.3025758 0.017552324 4293530880
3.3845086 0.29908061 0.037413456 4293400320
3.4432249 0.30437824 0.058439892 4293661440
3.457459 0.30574599 0.079079896 4293661440
3.4559066 0.30571812 0.099348441 4293661440
3.378654 0.29899114 0.11687298 4293400320
3.4408937 0.30460793 0.13900645 4293661440
3.4600942 0.30641723 0.15972286 4293661440
3.4382236 0.3045893 0.17835604 4293661440
3.2516952 0.28816786 0.18707401 4293008640
3.4525189 0.30607435 0.21794178 4293661440
3.4430439 0.30534339 0.23636805 4293661440
3.4226053 0.30363914 0.25361991 4293530880
3.251802 0.28858915 0.2584236 4293008640
3.4758213 0.30858037 0.29458717 4293792000
3.4740736 0.30853522 0.3124668 4293792000
3.4586673 0.30727649 0.32868624 4293661440
3.3876817 0.30107722 0.33882856 4293530880
3.190414 0.28364623 0.33464974 4292878080
3.466923 0.30833927 0.38014898 4293792000
3.4558954 0.30746794 0.394961 4293792000
3.4318092 0.30543366 0.40767992 4293661440
3.4052389 0.30317673 0.41942248 4293530880
