# .PCD v0.7 - Point Cloud Data file format
VERSION 0.7
FIELDS x y z rgba
SIZE 4 4 4 4
TYPE F F F U
COUNT 1 1 1 1
WIDTH 1104
HEIGHT 1
VIEWPOINT 0 0 0 1 0 0 0
POINTS 1104
DATA ascii
2.0245512 -1.9204738 0.41593617 4291441920
2.131644 -2.0219343 0.44709113 4291964160
2.1032491 -1.994875 0.44966006 4291833600
2.1260738 -2.0163968 0.46263361 4291964160
2.1532249 -2.0420189 0.47619823 4292094720
2.1183155 -2.0087857 0.47546855 4291964160
2.1348135 -2.0243034 0.4856618 4291964160
2.0745149 -1.9670025 0.47770327 4291703040
2.0846913 -1.9765271 0.48527592 4291833600
2.0942085 -1.9854256 0.49217704 4291833600
2.1009247 -1.9916677 0.49788058 4291833600
2.103415 -1.9939029 0.50201881 4291833600
2.1138382 -2.0036573 0.50748277 4291964160
2.1136062 -2.0033114 0.50980949 4291964160
2.1098723 -1.9996467 0.51069164 4291964160
2.1133609 -2.0028269 0.51272273 4291964160
2.1097751 -1.9993027 0.512438 4291964160
2.1062634 -1.9958495 0.5115701 4291833600
2.0963919 -1.9863704 0.50856119 4291833600
2.0894523 -1.9796704 0.50567484 4291833600
2.0797234 -1.9703287 0.50153393 4291703040
2.059335 -1.9508899 0.49426743 4291703040
2.1329761 -2.0205259 0.50891006 4291964160
2.1127293 -2.0012207 0.50048739 4291964160
2.130255 -2.0176945 0.50042868 4291964160
2.113709 -2.0018969 0.49178576 4291964160
2.1454675 -2.0318475 0.49376681 4292094720
2.1362021 -2.0229454 0.48567894 4291964160
2.1416571 -2.0279834 0.48038408 4292094720
2.1453984 -2.0313983 0.47412017 4292094720
2.135227 -2.0216403 0.46425822 4291964160
2.1014769 -1.9895604 0.44890001 4291833600
2.1125197 -1.9998893 0.44267824 4291833600
2.0898499 -1.9783036 0.42893726 4291703040
2.087311 -1.975776 0.41894677 4291703040
2.1188655 -2.0048296 0.35214674 4291833600
2.1364141 -2.0213065 0.34205732 4291964160
2.1520104 -2.0359344 0.33106896 4291964160
2.1367533 -2.021373 0.31496614 4291964160
2.1249804 -2.0101094 0.29920337 4291833600
2.1317472 -2.0163836 0.285752 4291833600
2.1456327 -2.0293901 0.272798 4291964160
2.1302326 -2.0146973 0.25583309 4291833600
2.1219273 -2.0067163 0.23960763 4291833600
2.128562 -2.0128639 0.2248182 4291833600
2.1492 -2.0322523 0.21106099 4291964160
2.1303277 -2.0142801 0.19318283 4291833600
2.1171222 -2.0016682 0.17585139 4291833600
2.1418333 -2.0249043 0.16138895 4291964160
2.1490571 -2.031606 0.14518759 4291964160
2.1155407 -1.9997953 0.12628463 4291833600
2.1097898 -1.9942336 0.10921249 4291703040
2.0396094 -1.9277757 0.089293949 4291441920
1.9360662 -1.8297946 0.06921123 4290919680
1.9110097 -1.8059999 0.052894279 4290789120
1.9206408 -1.8149875 0.037605476 4290919680
1.9202021 -1.8144588 0.022005431 4290919680
1.9209437 -1.8150454 0.0063936487 4290919680
1.898085 -1.7933339 -0.0091227312 4290789120
1.9125766 -1.8069119 -0.024739731 4290789120
1.9239062 -1.8175013 -0.040497974 4290919680
1.9218235 -1.8154196 -0.056004368 4290919680
1.9046084 -1.7990444 -0.070852824 4290789120
1.9305297 -1.8234142 -0.087297663 4290919680
1.9407643 -1.8329656 -0.10322729 4290919680
1.9272101 -1.8200496 -0.1177533 4290919680
1.9139792 -1.8074408 -0.13195953 4290789120
1.9289629 -1.8214759 -0.14797953 4290919680
1.9315407 -1.8237952 -0.16302226 4290919680
1.9076259 -1.801101 -0.17548883 4290789120
1.9116144 -1.8047533 -0.19017825 4290789120
1.9365321 -1.828163 -0.20695485 4290919680
1.9493828 -1.8401786 -0.22249156 4291050240
1.9507139 -1.8413193 -0.23657113 4291050240
1.8984464 -1.7918701 -0.2435326 4290789120
1.9331275 -1.8244895 -0.26125008 4290919680
1.9432534 -1.8339309 -0.27566513 4291050240
1.9373393 -1.8282343 -0.28752735 4291050240
1.927845 -1.8191603 -0.2984381 4290919680
1.8969164 -1.7898628 -0.305444 4290789120
1.9422634 -1.8325351 -0.32447088 4291050240
1.955906 -1.8452909 -0.33819008 4291050240
1.9576788 -1.8468472 -0.34956548 4291050240
1.9537433 -1.8430185 -0.35951507 4291050240
1.943149 -1.8329092 -0.36775488 4291050240
1.9259646 -1.8165854 -0.37418762 4290919680
1.9298922 -1.8201754 -0.38422826 4291050240
1.9398208 -1.8294244 -0.39508915 4291050240
1.9425755 -1.8319069 -0.40409392 4291050240
1.937263 -1.8267822 -0.41094694 4291050240
1.9412055 -1.8303846 -0.41928375 4291050240
1.9343524 -1.8238081 -0.42479584 4291050240
1.9229761 -1.8129678 -0.42876074 4291050240
1.9099746 -1.8005966 -0.43178827 4290919680
1.9102222 -1.8007168 -0.43727055 4290919680
1.8985932 -1.7896417 -0.43949685 4290919680
1.8562436 -1.7496123 -0.43397269 4290658560
1.8694687 -1.7619667 -0.44086489 4290789120
1.8076687 -1.7036133 -0.42946824 4290397440
1.8181477 -1.7133812 -0.43464896 4290528000
1.8215156 -1.716447 -0.43764102 4290528000
1.8177764 -1.7128158 -0.43841407 4290528000
1.8176849 -1.7126217 -0.43955013 4290528000
1.8212411 -1.7158643 -0.4410547 4290528000
1.8105253 -1.7056611 -0.43858683 4290528000
1.8684734 -1.7601422 -0.45222551 4290789120
1.8657748 -1.7574893 -0.45064521 4290789120
1.8516685 -1.744092 -0.4457944 4290658560
1.8902433 -1.7803137 -0.4530752 4290789120
1.9080503 -1.7969719 -0.45478359 4290919680
1.9176064 -1.805858 -0.45395482 4290919680
1.9277847 -1.815329 -0.45270896 4291050240
1.9330128 -1.8201375 -0.44974247 4291050240
1.9335777 -1.8205547 -0.44515499 4291050240
1.9426477 -1.8289795 -0.44198257 4291050240
1.9365081 -1.8230844 -0.43483087 4291050240
1.9269041 -1.8139286 -0.4264473 4291050240
1.9268159 -1.8137314 -0.41970849 4291050240
1.9187255 -1.8060023 -0.41077349 4290919680
1.9210696 -1.8080949 -0.40362099 4290919680
1.9372172 -1.8231781 -0.39882812 4291050240
1.9527553 -1.8376857 -0.39331588 4291050240
1.9499967 -1.8349742 -0.38361323 4291050240
1.9285686 -1.8146958 -0.36991954 4290919680
1.9123338 -1.7993064 -0.35699078 4290919680
1.9280658 -1.8139943 -0.34962478 4290919680
1.9406202 -1.825691 -0.34113434 4291050240
1.9444168 -1.8291476 -0.33062911 4291050240
1.9150031 -1.8013642 -0.31425872 4290919680
1.9232833 -1.8090392 -0.30384648 4290919680
1.9439737 -1.8283855 -0.294875 4291050240
1.9422705 -1.8266686 -0.28205955 4291050240
1.9415842 -1.8259082 -0.26909465 4291050240
1.9037583 -1.7902231 -0.25094581 4290789120
1.916283 -1.8018875 -0.23932709 4290919680
1.9323899 -1.8169185 -0.22769216 4290919680
1.9352089 -1.8194546 -0.21410789 4290919680
1.9109771 -1.7965591 -0.19745356 4290789120
1.9299208 -1.8142543 -0.18508157 4290919680
1.9320816 -1.8161713 -0.17074181 4290919680
1.9340529 -1.81791 -0.15616873 4290919680
1.9004971 -1.7862567 -0.13880162 4290789120
1.9306781 -1.8145093 -0.12596324 4290919680
1.9368631 -1.8202075 -0.11113977 4290919680
1.922176 -1.8062912 -0.095066905 4290919680
1.9302431 -1.8137578 -0.080069512 4290919680
1.9386619 -1.8215539 -0.064869232 4290919680
1.9432317 -1.8257327 -0.049366694 4290919680
1.9034281 -1.7882233 -0.032969471 4290789120
1.9487466 -1.8306836 -0.017966611 4290919680
2.014787 -1.8926039 -0.0022335604 4291311360
2.1099946 -1.9819131 0.014776549 4291703040
2.0822048 -1.9556869 0.03145545 4291572480
2.1474085 -2.0168018 0.049806368 4291833600
2.1577835 -2.0264182 0.067441791 4291964160
2.1237042 -1.9942882 0.083424047 4291833600
2.0592208 -1.9336126 0.097332411 4291441920
2.1429489 -2.0121067 0.11828934 4291833600
2.1340623 -2.0036364 0.13459916 4291833600
2.1183541 -1.9887632 0.15013929 4291703040
2.0084841 -1.8854959 0.15787019 4291311360
2.1479852 -2.0163276 0.18524638 4291964160
2.1417749 -2.0103714 0.2008723 4291833600
2.1120393 -1.9823353 0.21380335 4291703040
2.0683129 -1.9411721 0.22454138 4291572480
2.1724622 -2.0387909 0.25151658 4292094720
2.1493595 -2.0169828 0.26406929 4291964160
2.1086085 -1.978617 0.27371505 4291703040
2.0904672 -1.9614706 0.28558588 4291703040
2.0848892 -1.9561137 0.29869533 4291703040
2.0361016 -1.9102192 0.3049278 4291441920
2.0315032 -1.905785 0.31709182 4291441920
1.9812241 -1.8585004 0.32143244 4291180800
1.9939539 -1.8703239 0.33540156 4291180800
1.9946854 -1.8708923 0.34705538 4291311360
2.0933592 -1.9633187 0.37591398 4291703040
2.1270447 -1.9947859 0.39340934 4291833600
2.0987916 -1.9681656 0.39903787 4291703040
2.0484369 -1.9208239 0.39961484 4291572480
2.0684321 -1.9394515 0.41330537 4291572480
2.018389 -1.8924098 0.41239801 4291441920
2.1296849 -1.9966333 0.44423276 4291964160
2.1112311 -1.9792079 0.44889364 4291833600
2.1313 -1.9978958 0.46123001 4291964160
2.1542799 -2.0193105 0.47382158 4292094720
2.1199012 -1.9869604 0.47321802 4291833600
2.1364927 -2.0023854 0.48338157 4291964160
2.1531308 -2.0178518 0.49309072 4292094720
2.0817819 -1.9508629 0.48194465 4291703040
2.09567 -1.9637541 0.48982328 4291833600
2.1017056 -1.9692857 0.49533814 4291833600
2.1049297 -1.9721824 0.49962941 4291833600
2.114692 -1.9812045 0.50490791 4291833600
2.1288364 -1.9943303 0.51067173 4291964160
2.1078298 -1.9745268 0.50740403 4291833600
2.1213999 -1.9871136 0.5118556 4291964160
2.1141999 -1.9802445 0.51070178 4291833600
2.111387 -1.9774853 0.5100075 4291833600
2.1043351 -1.9707566 0.50769407 4291833600
2.0944805 -1.9614041 0.50411755 4291833600
2.1547003 -2.0176706 0.51677126 4292094720
2.1442773 -2.0077841 0.51183838 4291964160
2.1346421 -1.9986362 0.50652063 4291964160
2.1106837 -1.9760801 0.49726695 4291833600
2.1419742 -2.0052488 0.50042868 4291964160
2.1253366 -1.989548 0.49178576 4291964160
2.1536686 -2.0159428 0.49294272 4292094720
2.1526127 -2.0148275 0.48673278 4292094720
2.14623 -2.0087268 0.47877654 4291964160
2.1435001 -2.0060456 0.47110972 4291964160
2.133266 -1.9963421 0.46129507 4291964160
2.1029313 -1.9678303 0.44675401 4291833600
2.1039228 -1.9686342 0.43846583 4291833600
2.0876179 -1.9532548 0.42613617 4291703040
2.1265192 -1.9895271 0.42448252 4291833600
2.1276095 -1.9897382 0.35166734 4291833600
2.1452522 -2.0061114 0.3415952 4291964160
2.1493175 -2.0097864 0.32884771 4291964160
2.1412311 -2.0020988 0.31390142 4291833600
2.1459901 -2.0064223 0.30051053 4291964160
2.1398237 -2.000531 0.28526738 4291833600
2.1399622 -2.0005343 0.27059051 4291833600
2.1317458 -1.9927278 0.25461614 4291833600
2.1263018 -1.9875137 0.23878996 4291833600
2.1264131 -1.9874924 0.2233644 4291833600
2.1508017 -2.0101612 0.21006455 4291964160
2.139111 -1.999109 0.19291984 4291833600
2.1221848 -1.9831656 0.17530917 4291833600
2.1499467 -2.0089824 0.16111557 4291833600
2.1539292 -2.0125771 0.14472209 4291964160
2.1383369 -1.9978822 0.12694842 4291833600
2.1250238 -1.9853187 0.10940045 4291833600
2.0751967 -1.9386452 0.090355933 4291572480
1.9781061 -1.847827 0.070328034 4291050240
1.9426877 -1.8146271 0.053477548 4290919680
1.9429383 -1.8147466 0.037834387 4290919680
1.9482802 -1.8196216 0.022205332 4290919680
1.9490262 -1.8202037 0.0064517106 4290919680
1.9283082 -1.8007417 -0.0092174103 4290919680
1.9369578 -1.8087051 -0.024918374 4290919680
1.941449 -1.8127848 -0.040644232 4290919680
1.9499063 -1.820567 -0.056512669 4290919680
1.9325942 -1.8042895 -0.071501635 4290919680
1.9550016 -1.8250942 -0.087921932 4290919680
1.9689415 -1.8379922 -0.10415465 4291050240
1.9553086 -1.825151 -0.11881838 4291050240
1.9368801 -1.8078353 -0.13280998 4290919680
1.9496014 -1.8195945 -0.14874698 4290919680
1.9587269 -1.8279963 -0.16441509 4291050240
1.9392419 -1.8096977 -0.17742431 4290919680
1.9432442 -1.8133186 -0.19227064 4290919680
1.9646454 -1.8331734 -0.20881431 4291050240
1.9775589 -1.8451065 -0.22447665 4291050240
1.9788893 -1.8462316 -0.23867953 4291180800
1.9226869 -1.7936838 -0.24529742 4290919680
1.95432 -1.8230796 -0.26267415 4291050240
1.9713627 -1.8388619 -0.27812812 4291050240
1.9726778 -1.8399729 -0.29117611 4291050240
1.9631191 -1.8309418 -0.30224213 4291050240
1.9247448 -1.7950382 -0.3082357 4290919680
1.9812211 -1.8475922 -0.3291752 4291180800
1.9840393 -1.8501039 -0.34118494 4291180800
1.9825921 -1.8486378 -0.35208482 4291180800
1.9789467 -1.8451226 -0.36216849 4291180800
1.9748081 -1.8411478 -0.37171009 4291180800
1.9502765 -1.8181621 -0.37684655 4291050240
1.9614577 -1.8284707 -0.38838515 4291050240
1.9605768 -1.8275344 -0.39714116 4291050240
1.9669577 -1.8333669 -0.406937 4291180800
1.9576855 -1.8246094 -0.41301697 4291050240
1.9691812 -1.8352082 -0.4230096 4291180800
1.9695076 -1.8353966 -0.43016043 4291180800
1.950838 -1.8178838 -0.4326041 4291050240
1.9341493 -1.802219 -0.43487227 4291050240
1.9343933 -1.8023329 -0.44039235 4291050240
1.9263037 -1.7946825 -0.44348338 4290919680
1.8909305 -1.7616154 -0.43967515 4290789120
1.89052 -1.7611219 -0.44340199 4290789120
1.8420786 -1.715888 -0.43526083 4290528000
1.8454014 -1.7188749 -0.43876269 4290528000
1.8516684 -1.7246035 -0.4424639 4290658560
1.8486272 -1.7216626 -0.44342789 4290658560
1.8514163 -1.7241517 -0.4452703 4290658560
1.8513874 -1.7240161 -0.44591519 4290658560
1.8413334 -1.7145458 -0.44362247 4290528000
1.8959954 -1.7653327 -0.45638949 4290789120
1.878866 -1.7492737 -0.45133784 4290789120
1.8762171 -1.7466974 -0.44924685 4290789120
1.9142836 -1.7820238 -0.45634109 4290919680
1.9394019 -1.805293 -0.45974141 4291050240
1.9490142 -1.8141263 -0.45888007 4291050240
1.959253 -1.8235415 -0.457596 4291050240
1.9609064 -1.8249655 -0.45375073 4291180800
1.965089 -1.828743 -0.44994903 4291180800
1.9595824 -1.8235035 -0.44341075 4291050240
1.9612286 -1.8249204 -0.43798679 4291050240
1.9584005 -1.8221741 -0.43106094 4291050240
1.9471639 -1.8116051 -0.42183453 4291050240
1.9429599 -1.8075799 -0.4137001 4291050240
1.9511034 -1.8150417 -0.40770242 4291050240
1.9692109 -1.8317709 -0.40321079 4291180800
1.9808161 -1.84245 -0.39679888 4291180800
1.9780507 -1.839762 -0.38701689 4291180800
1.9528879 -1.8162439 -0.37254813 4291050240
1.9431015 -1.8070284 -0.36076289 4291050240
1.9560257 -1.818933 -0.35276717 4291050240
1.9686576 -1.8305643 -0.34418225 4291050240
1.9688498 -1.8306276 -0.33296445 4291050240
1.9465543 -1.8097832 -0.31770062 4290919680
1.9418576 -1.8053029 -0.305114 4290919680
1.9659203 -1.8275583 -0.29658383 4291050240
1.9769162 -1.8376646 -0.28553116 4291050240
1.9798818 -1.8403053 -0.27291182 4291180800
1.9425919 -1.8055304 -0.25467375 4290919680
1.9479038 -1.8103535 -0.24195482 4290919680
1.9632181 -1.8244715 -0.23006821 4291050240
1.9523481 -1.8142555 -0.21483099 4290919680
1.9389437 -1.8016856 -0.19925521 4290919680
1.9616514 -1.8226711 -0.18710297 4291050240
1.9704117 -1.8306952 -0.17318358 4291050240
1.9658211 -1.8263152 -0.15787202 4291050240
1.8827939 -1.7490698 -0.1367621 4290658560
1.9617087 -1.8222649 -0.1272929 4291050240
1.9650042 -1.8252113 -0.11214244 4291050240
1.960492 -1.8209053 -0.096435599 4291050240
1.9473692 -1.8086029 -0.080341458 4290919680
1.9708952 -1.8303372 -0.065589838 4291050240
1.9714193 -1.8307085 -0.049810968 4291050240
1.9314001 -1.7934326 -0.033272423 4290789120
1.9754918 -1.8342592 -0.018114354 4291050240
2.0613995 -1.9139044 -0.0022728338 4291441920
2.1225834 -1.9705865 0.014784054 4291703040
2.0730443 -1.9244735 0.031147147 4291441920
2.1517942 -1.9974539 0.049637329 4291833600
2.1629586 -2.0076909 0.067236796 4291964160
2.1279609 -1.9750811 0.08313781 4291703040
2.0638587 -1.9154636 0.097022481 4291441920
2.1615982 -2.0060489 0.1186716 4291964160
2.1485155 -1.9937822 0.1347758 4291833600
2.1262448 -1.972991 0.14988127 4291703040
2.0047984 -1.8601809 0.15672593 4291180800
2.15238 -1.9969907 0.18461883 4291833600
2.1432121 -1.9883593 0.19991717 4291833600
2.1235528 -1.9699965 0.21380335 4291703040
2.0657015 -1.9162076 0.22304203 4291441920
2.1667705 -2.0098357 0.24949765 4291964160
2.1668038 -2.0097399 0.26476938 4291964160
2.1128011 -1.9595283 0.27277267 4291703040
2.1018598 -1.9492577 0.28558588 4291703040
2.0926042 -1.940552 0.29817575 4291572480
2.0399072 -1.8915648 0.30384207 4291441920
2.0535009 -1.90405 0.31878841 4291441920
2.0702028 -1.9194154 0.33404824 4291572480
2.0434525 -1.8944942 0.34186521 4291441920
2.0074735 -1.8610207 0.34738794 4291311360
2.1399415 -1.9836994 0.38219696 4291833600
2.1211872 -1.9661906 0.39020056 4291833600
2.09642 -1.9431109 0.39642781 4291703040
2.0523319 -1.9021269 0.39820597 4291441920
2.0796967 -1.9273673 0.41330537 4291572480
2.0192239 -1.8712062 0.41033405 4291311360
2.1340301 -1.9774718 0.44272834 4291833600
2.157794 -1.9993664 0.45630932 4291964160
2.1429038 -1.9854445 0.46123001 4291964160
2.1486251 -1.99062 0.47001895 4291964160
2.1176848 -1.9618313 0.47016376 4291833600
2.1343706 -1.9771643 0.48028693 4291964160
2.1511023 -1.9925382 0.48995924 4291964160
2.1534171 -1.9945565 0.49582988 4291964160
2.0998435 -1.9448127 0.48814201 4291703040
2.1066356 -1.9509804 0.49381268 4291833600
2.1127694 -1.9565377 0.49877605 4291833600
2.1196935 -1.9628261 0.50336307 4291833600
2.1158457 -1.9591395 0.50480872 4291833600
2.1258025 -1.9682348 0.50896132 4291833600
2.1192105 -1.9620078 0.50856048 4291833600
2.1083572 -1.9518366 0.50653481 4291833600
2.1084185 -1.9517703 0.50653505 4291833600
2.0984356 -1.9424069 0.50353181 4291703040
2.0914164 -1.9357874 0.5006569 4291703040
2.1591899 -1.9983917 0.51504683 4291964160
2.1385858 -1.9791975 0.50771868 4291964160
2.1354027 -1.9761269 0.50396055 4291964160
2.1084173 -1.9510314 0.49404654 4291833600
2.1500032 -1.9893878 0.49958804 4291964160
2.1195219 -1.9610599 0.48778817 4291833600
2.1480017 -1.9872851 0.48898715 4291964160
2.1570725 -1.9955516 0.48510402 4291964160
2.1477535 -1.9868051 0.47652602 4291964160
2.1450038 -1.9841365 0.4688915 4291964160
2.1339839 -1.9738185 0.45895576 4291833600
2.1487319 -1.9873344 0.45401651 4291964160
2.146841 -1.9854606 0.44499183 4291964160
2.1525886 -1.9906505 0.43702343 4291964160
2.1427753 -1.9814507 0.42541578 4291964160
2.1216688 -1.9611353 0.34879088 4291833600
2.1496093 -1.9868364 0.34043998 4291833600
2.154422 -1.9911591 0.32784814 4291964160
2.1389849 -1.9767673 0.31187844 4291833600
2.1437619 -1.981057 0.2985771 4291833600
2.1338992 -1.9718187 0.28294119 4291833600
2.1548774 -1.9910781 0.27100506 4291833600
2.1294172 -1.967429 0.25296459 4291833600
2.1312568 -1.9690048 0.23805405 4291833600
2.1313651 -1.9689806 0.22267576 4291833600
2.1588132 -1.9942118 0.20970868 4291833600
2.1360621 -1.973071 0.19160485 4291833600
2.1413803 -1.9778588 0.17593996 4291833600
2.1513455 -1.9869378 0.16035016 4291833600
2.150943 -1.9864409 0.14374138 4291833600
2.1526687 -1.9879091 0.1271095 4291833600
2.1246002 -1.9618653 0.10878833 4291703040
2.1103356 -1.9485705 0.091390036 4291703040
2.0027936 -1.8491553 0.070821501 4291180800
1.9635116 -1.8127725 0.053759124 4290919680
1.9674376 -1.8162826 0.038104746 4291050240
1.9805679 -1.8282889 0.02245154 4291050240
1.9845816 -1.8318785 0.0065339655 4291050240
1.9497894 -1.7996501 -0.009269814 4290919680
1.9761208 -1.8238389 -0.025285061 4291050240
1.9769605 -1.8244989 -0.041164428 4291050240
1.9751749 -1.822736 -0.056936257 4291050240
1.9643784 -1.8126584 -0.072285615 4290919680
1.9832307 -1.8299395 -0.088710487 4291050240
2.0009146 -1.84614 -0.10527521 4291180800
1.9835312 -1.829986 -0.11988346 4291050240
1.964998 -1.8127731 -0.13401151 4290919680
1.977783 -1.8244526 -0.15008356 4291050240
1.9796152 -1.8260278 -0.16527261 4291050240
1.98129 -1.8274574 -0.18029416 4291050240
1.9691634 -1.8161578 -0.19378489 4291050240
1.9963859 -1.841149 -0.21104416 4291180800
2.009521 -1.853146 -0.22687531 4291180800
1.9928305 -1.8376384 -0.23906559 4291180800
1.9609205 -1.8080994 -0.24882704 4291050240
1.9861269 -1.831226 -0.26551071 4291050240
1.9987031 -1.8427052 -0.28046596 4291180800
2.0045631 -1.8479913 -0.29428828 4291180800
1.9942112 -1.8383321 -0.30537489 4291180800
1.9526974 -1.7999498 -0.31102741 4290919680
1.9989297 -1.8424495 -0.33032829 4291180800
2.0084867 -1.8511417 -0.34352851 4291180800
2.0181224 -1.8599051 -0.35646412 4291311360
2.0137157 -1.855727 -0.36654666 4291311360
1.9858607 -1.829942 -0.37177736 4291180800
1.9717588 -1.8168329 -0.37894574 4291050240
1.9849887 -1.8289078 -0.39092791 4291180800
1.9959264 -1.8388696 -0.40212464 4291180800
1.9941417 -1.8371096 -0.41033959 4291180800
1.9959044 -1.8386176 -0.41881302 4291180800
1.9915291 -1.8344713 -0.42550707 4291180800
1.9896832 -1.8326553 -0.43222755 4291180800
1.9755495 -1.8195225 -0.43572575 4291180800
1.9692945 -1.8136472 -0.44039097 4291050240
1.9474225 -1.7933908 -0.4409723 4291050240
1.9541368 -1.7994606 -0.44746995 4291050240
1.9185673 -1.7665951 -0.44370043 4290919680
1.928301 -1.7754458 -0.44982937 4290919680
1.8694427 -1.7211447 -0.43934971 4290658560
1.8764043 -1.7274451 -0.44373342 4290658560
1.8790784 -1.7297978 -0.44659778 4290658560
1.8789172 -1.7295406 -0.44826883 4290658560
1.8759229 -1.7266753 -0.44873706 4290658560
1.8787913 -1.7292066 -0.45008132 4290658560
1.875929 -1.7264633 -0.44952634 4290658560
1.9272639 -1.7735962 -0.46142098 4290919680
1.9209143 -1.7676413 -0.45895684 4290919680
1.9066571 -1.7544112 -0.45408025 4290789120
1.9456569 -1.790184 -0.46132585 4291050240
1.9579748 -1.801404 -0.46164834 4291050240
1.9805828 -1.8220893 -0.46380532 4291180800
1.9872545 -1.8281118 -0.46164048 4291180800
1.9889212 -1.8295296 -0.45775896 4291180800
1.9967607 -1.8366251 -0.45474306 4291180800
1.9941355 -1.8340949 -0.44880375 4291180800
1.9928933 -1.8328367 -0.44266596 4291180800
1.9900577 -1.8301134 -0.43567461 4291180800
1.9751338 -1.8162744 -0.42559418 4291180800
1.9687957 -1.8103321 -0.41694823 4291050240
1.9791092 -1.8197006 -0.41133207 4291180800
2.0009623 -1.8396775 -0.40751049 4291180800
2.00811 -1.8461328 -0.40010497 4291311360
1.9989384 -1.8375852 -0.38900235 4291180800
1.9882271 -1.8276232 -0.37725198 4291180800
1.9784006 -1.8184757 -0.36534333 4291050240
1.9870279 -1.8262904 -0.3564333 4291180800
1.9959266 -1.8343537 -0.34707534 4291180800
2.0010817 -1.8389755 -0.33659771 4291180800
1.9688271 -1.8092198 -0.31960997 4291050240
1.9735566 -1.8134515 -0.30842933 4291050240
1.9941006 -1.8322133 -0.29921961 4291180800
2.0051644 -1.8422629 -0.28805596 4291180800
2.0030165 -1.8401734 -0.27461824 4291180800
1.9596758 -1.8002427 -0.25553402 4290919680
1.9862881 -1.8245748 -0.24539804 4291050240
1.9774834 -1.8163724 -0.23049586 4291050240
1.9863675 -1.8244176 -0.21740106 4291050240
1.9670342 -1.8065467 -0.20105687 4291050240
1.9898713 -1.8274052 -0.18877587 4291050240
1.9948486 -1.8318607 -0.17439036 4291050240
1.9870126 -1.8245498 -0.15871747 4291050240
1.9142836 -1.7576565 -0.13830322 4290789120
1.987008 -1.8243155 -0.12824267 4291050240
1.996949 -1.8333268 -0.113354 4291050240
1.9751117 -1.8131646 -0.096633457 4291050240
1.985054 -1.8221767 -0.08145681 4291050240
1.9918364 -1.8282874 -0.065931134 4291050240
1.9975849 -1.8334483 -0.05020133 4291050240
1.9275403 -1.7690474 -0.033027809 4290789120
2.0038271 -1.8389455 -0.01827562 4291180800
2.1137111 -1.9396656 -0.0023180114 4291572480
2.1499157 -1.9727646 0.014894117 4291833600
2.0731695 -1.9022224 0.030981986 4291441920
2.167068 -1.9882528 0.049721591 4291833600
2.1672523 -1.9882964 0.067009024 4291833600
2.132066 -1.9558923 0.082851574 4291703040
2.0676188 -1.8966507 0.096678115 4291441920
2.1495216 -1.9716567 0.11737593 4291833600
2.1432767 -1.9658046 0.13372643 4291833600
2.1273997 -1.9511194 0.14915882 4291703040
2.00898 -1.8423959 0.15621102 4291180800
2.1639783 -1.9844166 0.18461883 4291833600
2.1510835 -1.9724674 0.19957605 4291833600
2.1247034 -1.9481549 0.2127728 4291703040
1.9952102 -1.8293062 0.21427637 4291050240
2.1747708 -1.9938107 0.24907705 4291964160
2.1617031 -1.9817052 0.26273081 4291833600
2.1139078 -1.9377674 0.27145332 4291703040
2.1065788 -1.9309274 0.28469366 4291703040
2.1112068 -1.9350474 0.2992149 4291703040
2.0479617 -1.8769611 0.30340779 4291441920
2.0850694 -1.9108499 0.32195538 4291572480
2.0813506 -1.9073213 0.33404824 4291572480
2.0471375 -1.8758508 0.34064749 4291441920
1.9970707 -1.8298576 0.34373701 4291180800
2.1561928 -1.9755319 0.38303727 4291964160
2.1223764 -1.9444264 0.38832876 4291703040
2.0938284 -1.918151 0.39381772 4291572480
2.053159 -1.8807751 0.39623356 4291441920
2.0697293 -1.8958347 0.40912247 4291572480
2.019151 -1.8493892 0.40812269 4291311360
2.1418695 -1.9616665 0.44197613 4291833600
2.1555598 -1.9740801 0.45339689 4291964160
2.1405942 -1.960251 0.45826691 4291833600
2.1601865 -1.9780679 0.47001895 4291964160
2.1319907 -1.952126 0.47080678 4291833600
2.142215 -1.9613642 0.47947255 4291833600
2.1517625 -1.9699812 0.48748702 4291964160
2.1650012 -1.9819765 0.49582988 4291964160
2.1009591 -1.923227 0.48578826 4291703040
2.1034274 -1.9253651 0.49042279 4291703040
2.1066887 -1.9282287 0.49467993 4291703040
2.1172855 -1.9378055 0.50010163 4291833600
2.1170509 -1.9374686 0.50239456 4291833600
2.1234283 -1.9431826 0.50567371 4291833600
2.1168008 -1.9369954 0.50526541 4291833600
2.116787 -1.9368604 0.5058403 4291833600
2.1095819 -1.9301461 0.50410432 4291703040
2.1060839 -1.9268241 0.50266469 4291703040
2.1806793 -1.9949446 0.51923406 4292094720
2.1606212 -1.9764701 0.51263267 4291964160
2.1537154 -1.9700286 0.50857693 4291964160
2.1367006 -1.9543419 0.50157112 4291833600
2.1095674 -1.9294025 0.49167359 4291703040
2.1477361 -1.9641876 0.49639362 4291964160
2.1236351 -1.9420236 0.48612252 4291833600
2.149353 -1.9654183 0.48667973 4291964160
2.1548276 -1.9703002 0.48200935 4291964160
2.1483662 -1.9642681 0.47411472 4291964160
2.1492403 -1.9649433 0.46730706 4291964160
2.1574547 -1.972329 0.46152437 4291964160
2.1464162 -1.9621137 0.45110404 4291833600
2.1474268 -1.9629139 0.44273517 4291833600
2.153199 -1.968066 0.43481201 4291964160
2.1570923 -1.9715 0.42597049 4291964160
2.1293941 -1.9453926 0.34819165 4291703040
2.1574819 -1.9709289 0.33986235 4291833600
2.1659863 -1.9785732 0.32784814 4291964160
2.146795 -1.9609187 0.31134608 4291833600
2.1442494 -1.95847 0.29705074 4291833600
2.138737 -1.9533118 0.28206885 4291833600
2.162765 -1.9751321 0.27054515 4291833600
2.1428423 -1.9568143 0.25320074 4291833600
2.1353328 -1.9498338 0.23723637 4291703040
2.1391189 -1.9531678 0.22229317 4291703040
2.1324301 -1.9469374 0.20604038 4291703040
2.1266549 -1.9415421 0.1897431 4291703040
2.1462326 -1.9592923 0.17539774 4291833600
2.1481364 -1.9609063 0.1592567 4291833600
2.1727965 -1.9832921 0.14442714 4291833600
2.1474512 -1.9600335 0.12612496 4291833600
2.1433754 -1.9561901 0.10916425 4291703040
2.1364825 -1.9497762 0.092028834 4291703040
2.0334609 -1.8556405 0.071522422 4291180800
1.9954574 -1.8208454 0.054342389 4291050240
1.9994066 -1.8243339 0.038517397 4291050240
2.0126088 -1.8362641 0.022693088 4291180800
2.0166445 -1.8398302 0.0066041243 4291180800
1.9846208 -1.8105 -0.0093851015 4291050240
1.9967396 -1.8214407 -0.025412668 4291050240
2.0126736 -1.83586 -0.04168462 4291180800
2.0064437 -1.8300619 -0.057529278 4291180800
1.9855375 -1.8108792 -0.072674751 4291050240
2.0182285 -1.8405783 -0.08979474 4291180800
2.0173509 -1.8396618 -0.10557426 4291180800
2.019258 -1.8412849 -0.12139231 4291180800
1.9932386 -1.8174441 -0.13521305 4291050240
2.0097756 -1.832407 -0.15169859 4291180800
2.0152986 -1.8373266 -0.16735516 4291180800
2.0096002 -1.8320158 -0.18189594 4291180800
1.9974017 -1.8207804 -0.19551653 4291050240
2.0210786 -1.8422474 -0.21251623 4291180800
2.0383728 -1.8578941 -0.22890668 4291311360
2.0285351 -1.8488107 -0.2420525 4291311360
1.9824603 -1.8067042 -0.25022033 4291050240
2.0217721 -1.8424146 -0.26883629 4291180800
2.0241103 -1.8444288 -0.28251842 4291180800
2.0292592 -1.8490039 -0.29632729 4291311360
2.0159061 -1.8367212 -0.30705315 4291180800
1.9349737 -1.7628711 -0.3065632 4290789120
2.0375164 -1.8561761 -0.33491197 4291311360
2.0471101 -1.8647984 -0.34827036 4291311360
2.0465193 -1.8641425 -0.35955539 4291311360
2.0399456 -1.8580374 -0.36934435 4291311360
2.0213907 -1.8410209 -0.37641451 4291311360
2.0086558 -1.829307 -0.38398197 4291180800
2.0095134 -1.8299725 -0.3936514 4291180800
2.0205028 -1.8398638 -0.40490952 4291311360
2.0187018 -1.8381079 -0.41318268 4291311360
2.0204675 -1.8395996 -0.42171103 4291311360
2.0262892 -1.8447838 -0.43063009 4291311360
2.0105495 -1.8303385 -0.4344365 4291180800
2.0007157 -1.8212712 -0.43892854 4291180800
1.9900436 -1.8114419 -0.44266337 4291180800
1.9789932 -1.8012694 -0.44573712 4291050240
1.9431627 -1.768545 -0.44259 4290919680
1.9426802 -1.7679944 -0.44688708 4290919680
1.9561069 -1.7801014 -0.45388874 4291050240
1.89693 -1.7261403 -0.44343859 4290789120
1.9039255 -1.7323965 -0.44784716 4290789120
1.9066111 -1.7347307 -0.45073169 4290789120
1.9064471 -1.7344719 -0.45241818 4290789120
1.9136342 -1.7409009 -0.4553239 4290789120
1.9063181 -1.7341356 -0.45424747 4290789120
1.8997976 -1.7280951 -0.45282558 4290789120
1.9550496 -1.7782413 -0.46558496 4291050240
1.9486669 -1.772324 -0.46311268 4290919680
1.9379787 -1.7624917 -0.45908627 4290919680
1.9735456 -1.7947246 -0.46545115 4291050240
1.982287 -1.8025603 -0.46489659 4291180800
2.0050185 -1.8231156 -0.46703219 4291180800
2.0117285 -1.8291016 -0.46484235 4291311360
2.0170553 -1.8338288 -0.46176723 4291311360
2.0285902 -1.8441997 -0.45953709 4291311360
2.0223076 -1.8383721 -0.45272592 4291311360
2.0276372 -1.8431007 -0.44799051 4291311360
2.0172992 -1.8335878 -0.43929222 4291311360
2.0178411 -1.8339645 -0.43248683 4291311360
2.0005147 -1.8181022 -0.42141515 4291180800
2.0072346 -1.8240943 -0.41496173 4291180800
2.0292122 -1.8439502 -0.41106886 4291311360
2.0400677 -1.8536975 -0.40431362 4291311360
2.023941 -1.838928 -0.39177626 4291311360
2.0149589 -1.8306514 -0.38029391 4291180800
2.0065639 -1.8229092 -0.36857659 4291180800
2.0123107 -1.8280149 -0.35905197 4291180800
2.0278723 -1.8420349 -0.35075822 4291311360
2.029393 -1.8432997 -0.3395476 4291311360
2.0006502 -1.817078 -0.32305187 4291180800
2.0046804 -1.8206236 -0.31163037 4291180800
2.0253444 -1.8392742 -0.30229473 4291180800
2.0333714 -1.8464472 -0.29055771 4291311360
2.0313818 -1.8445241 -0.2770291 4291311360
1.995188 -1.8115453 -0.258784 4291050240
2.0108941 -1.8256904 -0.24711965 4291180800
2.019753 -1.8336176 -0.23417358 4291180800
2.0146759 -1.8288929 -0.21932936 4291180800
1.9989384 -1.8144921 -0.20323387 4291050240
2.0182123 -1.8318719 -0.19044876 4291180800
2.0232224 -1.8363036 -0.17593253 4291180800
2.0227427 -1.8357524 -0.16071445 4291180800
1.9488944 -1.7686192 -0.14005694 4290789120
2.0220137 -1.8348589 -0.12980978 4291180800
2.0176384 -1.8307731 -0.11392099 4291180800
2.0137663 -1.8271443 -0.098002151 4291180800
2.0075457 -1.8213851 -0.081942908 4291050240
2.0350327 -1.8462068 -0.067003772 4291180800
2.0260057 -1.8379014 -0.050645605 4291180800
1.9518862 -1.7705516 -0.033267647 4290789120
2.0301261 -1.8414066 -0.018417316 4291180800
2.1254079 -1.9277093 -0.0023184826 4291572480
2.1228309 -1.9252505 0.014628522 4291572480
2.0158031 -1.8280687 0.029965008 4291180800
2.1645536 -1.962842 0.049400669 4291833600
2.1721342 -1.9695919 0.066804022 4291833600
2.1226909 -1.9246373 0.0820501 4291572480
2.0927017 -1.8973265 0.097332411 4291441920
2.1718423 -1.9689543 0.11796636 4291833600
2.1546934 -1.953284 0.13372643 4291833600
2.1313322 -1.9319844 0.14864279 4291703040
2.0233786 -1.8340123 0.15649709 4291180800
2.154058 -1.9523382 0.18279894 4291833600
2.1484935 -1.9471718 0.19827981 4291703040
2.128628 -1.929046 0.21203668 4291703040
2.0028794 -1.8149731 0.21396072 4291050240
2.1797047 -1.9750843 0.24831995 4291964160
2.1797411 -1.9749926 0.26352012 4291964160
2.1251616 -1.9254184 0.27145332 4291703040
2.1141059 -1.9152808 0.28419799 4291572480
2.0479383 -1.8552189 0.28871122 4291311360
2.1225026 -1.922645 0.31278619 4291703040
2.0998492 -1.9020046 0.32252091 4291572480
2.0850673 -1.888496 0.3328732 4291572480
2.0514107 -1.8578954 0.33955157 4291311360
2.0003445 -1.811532 0.34247807 4291180800
2.167666 -1.962936 0.38303727 4291964160
2.1233845 -1.9227153 0.386457 4291703040
2.1539414 -1.9502614 0.40298006 4291833600
2.128932 -1.9274952 0.40868261 4291703040
2.0734041 -1.8771026 0.40768009 4291441920
2.1010756 -1.9020343 0.42243466 4291572480
2.1503305 -1.9465003 0.44137439 4291833600
2.1670244 -1.9614879 0.45339689 4291964160
2.1446552 -1.9411178 0.45670739 4291833600
2.1687462 -1.9627984 0.46938518 4291964160
2.1257646 -1.9237769 0.46694875 4291703040
2.1397061 -1.9362714 0.4763779 4291833600
2.1529644 -1.9481462 0.4851796 4291833600
2.1699314 -1.9633751 0.49433079 4291964160
2.1759889 -1.9687316 0.50047612 4291964160
2.111686 -1.9104327 0.48974481 4291703040
2.1178873 -1.915922 0.49467993 4291703040
2.1212337 -1.9188281 0.4983851 4291703040
2.1173453 -1.9151899 0.49980795 4291703040
2.1208351 -1.9182253 0.50238609 4291703040
2.1280501 -1.9246296 0.50526541 4291833600
2.1207314 -1.9178892 0.50410408 4291703040
2.1105652 -1.9085751 0.50167358 4291703040
2.093168 -1.8927232 0.49694163 4291572480
2.1747317 -1.9663522 0.51508129 4291964160
2.16114 -1.9539392 0.51004606 4291964160
2.1476178 -1.941591 0.50445724 4291833600
2.1305087 -1.9260014 0.497475 4291833600
2.1171172 -1.9137745 0.4908261 4291703040
2.1518304 -1.9450309 0.49471235 4291833600
2.12833 -1.9236674 0.4846234 4291703040
2.15345 -1.946249 0.48503157 4291833600
2.1589503 -1.9510969 0.48038056 4291964160
2.1531835 -1.9457622 0.47266793 4291833600
2.1606519 -1.9523879 0.46730706 4291964160
2.1615803 -1.9531037 0.45996481 4291964160
2.1541452 -1.9462626 0.45033762 4291833600
2.1522245 -1.9444045 0.44138119 4291833600
2.1674514 -1.9580374 0.43537897 4291964160
2.1545904 -1.946296 0.42322993 4291833600
2.1443765 -1.93628 0.34879088 4291833600
2.1521802 -1.9432037 0.33723798 4291833600
2.1664124 -1.9559304 0.32618219 4291833600
2.1646166 -1.9541857 0.31227419 4291833600
2.1519313 -1.942611 0.29654196 4291833600
2.1389987 -1.9308144 0.280615 4291703040
2.1668439 -1.9558259 0.2696254 4291833600
2.1542068 -1.9442965 0.25320074 4291833600
2.1252 -1.9179951 0.2348651 4291703040
2.1430602 -1.9339917 0.22152801 4291703040
2.1578071 -1.9471771 0.20739269 4291833600
2.1408939 -1.9317927 0.19000611 4291703040
2.1464949 -1.9367244 0.17449404 4291703040
2.1595244 -1.9483576 0.1592567 4291833600
2.1776404 -1.9645779 0.14398582 4291833600
2.1551251 -1.9441428 0.12590827 4291703040
2.1350265 -1.9258901 0.1081657 4291703040
2.1474316 -1.9369578 0.092012793 4291703040
2.0702841 -1.8672538 0.072433718 4291311360
2.0275633 -1.8286068 0.054925658 4291180800
2.0315354 -1.8320736 0.038930047 4291180800
2.0410957 -1.840579 0.022892989 4291180800
2.04144 -1.8407731 0.0066500902 4291180800
2.0092463 -1.8116295 -0.0094514797 4291050240
2.0288553 -1.8291944 -0.025685333 4291180800
2.0411589 -1.8401709 -0.042051818 4291180800
2.034894 -1.834407 -0.058037583 4291180800
2.0138743 -1.8153435 -0.073323563 4291050240
2.0404692 -1.8392004 -0.090305969 4291180800
2.0495603 -1.8472781 -0.10669482 4291311360
2.0403409 -1.8388524 -0.1220136 4291180800
2.0261161 -1.825917 -0.13671933 4291180800
2.0312166 -1.830398 -0.15250942 4291180800
2.0437653 -1.8415896 -0.16882521 4291311360
2.0343237 -1.8329662 -0.18316402 4291180800
2.03317 -1.8318111 -0.19796968 4291180800
2.0569623 -1.8531299 -0.21515045 4291311360
2.0595286 -1.8553247 -0.23006465 4291311360
2.0570352 -1.8529615 -0.24416089 4291311360
2.0107083 -1.8111162 -0.25244957 4291180800
2.0418928 -1.8390888 -0.27008232 4291311360
2.0592136 -1.8545722 -0.285905 4291311360
2.0577285 -1.8531176 -0.29890287 4291311360
2.0509417 -1.8468889 -0.3107453 4291311360
2.0089662 -1.8089755 -0.31661081 4291180800
2.0613828 -1.8560567 -0.33705175 4291441920
2.0682631 -1.8621341 -0.35001734 4291441920
2.0667343 -1.86064 -0.36119625 4291441920
2.0647323 -1.8587204 -0.37186512 4291441920
2.05638 -1.8510845 -0.38091528 4291311360
2.0369422 -1.8334713 -0.38734064 4291311360
2.0377955 -1.8341235 -0.3970916 4291311360
2.0515835 -1.8464168 -0.40897533 4291311360
2.0506902 -1.8454962 -0.41752213 4291311360
2.0487823 -1.8436629 -0.42537171 4291311360
2.0546274 -1.8488057 -0.43435594 4291441920
2.0461378 -1.8410503 -0.4398011 4291311360
2.0252354 -1.8221278 -0.44197121 4291311360
2.0255048 -1.8222551 -0.44818211 4291311360
2.0070543 -1.8055419 -0.44968045 4291180800
1.9673631 -1.769724 -0.44574603 4291050240
1.9705387 -1.7724687 -0.45091236 4291050240
1.9840319 -1.7844929 -0.45794815 4291050240
1.931865 -1.7374626 -0.44923118 4290789120
1.9381604 -1.7430145 -0.45350355 4290919680
1.9415891 -1.7459875 -0.45658803 4290919680
1.9377595 -1.7424337 -0.457432 4290919680
1.941321 -1.7455258 -0.45948401 4290919680
1.9376271 -1.7420944 -0.45928156 4290919680
1.9340013 -1.7387246 -0.45855579 4290919680
1.9866163 -1.7859142 -0.47061646 4291050240
1.9794687 -1.7793763 -0.46796113 4291050240
1.9731212 -1.7735584 -0.46495542 4291050240
2.0088792 -1.8055856 -0.47129536 4291180800
2.0206022 -1.8160076 -0.47139302 4291311360
2.0331976 -1.8272121 -0.47110826 4291311360
2.0509446 -1.8430446 -0.47141457 4291441920
2.0485291 -1.8407577 -0.4665094 4291311360
2.0554307 -1.8468425 -0.46317184 4291441920
2.0505967 -1.8423829 -0.45664811 4291441920
2.0484276 -1.8403176 -0.45020732 4291311360
2.0455742 -1.837638 -0.44311044 4291311360
2.0372994 -1.8300887 -0.43436465 4291311360
2.0323904 -1.8255635 -0.42588207 4291311360
2.0428321 -1.8348268 -0.42010373 4291311360
2.0575793 -1.8479557 -0.41462725 4291441920
2.0685003 -1.8576466 -0.40779662 4291441920
2.0662906 -1.8555448 -0.39787447 4291441920
2.0469604 -1.83807 -0.38430601 4291311360
2.0385318 -1.8303859 -0.3724834 4291311360
2.0509591 -1.8414279 -0.36402744 4291311360
2.0525937 -1.842779 -0.35317117 4291311360
2.0605831 -1.8498349 -0.34295711 4291311360
2.0318921 -1.8239629 -0.3263751 4291180800
2.0329969 -1.8248395 -0.31437409 4291180800
2.0537786 -1.8433769 -0.30493051 4291311360
2.0692577 -1.8571528 -0.2941345 4291441920
2.0635679 -1.8519291 -0.27994221 4291311360
2.0197849 -1.8125218 -0.26060018 4291180800
2.0429921 -1.8332319 -0.24974738 4291311360
2.0444918 -1.8344615 -0.23579863 4291311360
2.0460708 -1.8357624 -0.22157905 4291311360
2.0272899 -1.818797 -0.20503554 4291180800
2.0429595 -1.8327391 -0.19177315 4291180800
2.0480011 -1.8371458 -0.17715341 4291311360
2.051239 -1.839934 -0.16212407 4291311360
1.9844404 -1.7799042 -0.14186378 4290919680
2.0391681 -1.8288755 -0.13022479 4291180800
2.0498414 -1.8383319 -0.11513256 4291311360
2.022356 -1.8135679 -0.097904295 4291180800
2.0434253 -1.8323462 -0.082970254 4291180800
2.0524535 -1.8403254 -0.067223176 4291311360
2.06199 -1.8487594 -0.051274996 4291311360
1.980037 -1.775169 -0.033570595 4290919680
2.07656 -1.8615874 -0.018739849 4291311360
2.1507509 -1.9279759 -0.0023338345 4291703040
2.1310332 -1.91018 0.014608104 4291572480
2.1063631 -1.8879472 0.031147147 4291441920
2.1751969 -1.9495201 0.04938351 4291833600
2.1686823 -1.9435587 0.066348478 4291833600
2.1368458 -1.9149059 0.0821646 4291572480
2.0895786 -1.8724296 0.096678115 4291441920
2.1654172 -1.9402645 0.11700135 4291833600
2.1585972 -1.9340312 0.1332671 4291703040
2.138833 -1.9162022 0.14838478 4291703040
2.0191574 -1.8088692 0.15535283 4291050240
2.1724634 -1.9460858 0.18339553 4291833600
2.156086 -1.9312929 0.1979387 4291703040
2.1257164 -1.9039693 0.21063808 4291572480
2.009707 -1.7999477 0.21356615 4291050240
2.1800406 -1.9523797 0.24705812 4291833600
2.1742599 -1.9470795 0.26148155 4291833600
2.1326351 -1.9096835 0.27098215 4291703040
2.1252289 -1.9029311 0.28419799 4291572480
2.0587125 -1.8432558 0.28871122 4291311360
2.1336682 -1.9102461 0.31278619 4291703040
2.1071937 -1.8864245 0.32195538 4291572480
2.0856757 -1.867043 0.33122808 4291441920
2.0481489 -1.8333341 0.33723789 4291311360
1.9931244 -1.7839679 0.33945659 4291050240
2.1613338 -1.9344032 0.37992033 4291833600
2.1197813 -1.8970935 0.38378298 4291572480
2.1541958 -1.927771 0.4009195 4291833600
2.1253705 -1.9018552 0.40586486 4291703040
2.0666068 -1.8491545 0.40421835 4291441920
2.0125535 -1.800675 0.40252057 4291180800
2.1693492 -1.9408407 0.44294953 4291833600
2.1607401 -1.9330163 0.44971806 4291833600
2.1308978 -1.9061986 0.45140499 4291703040
2.1551239 -1.9277482 0.46399814 4291833600
2.1720257 -1.9427439 0.47461614 4291964160
2.1333008 -1.9079863 0.47246888 4291703040
2.1466334 -1.9197893 0.48122406 4291833600
2.1563435 -1.9283514 0.48866758 4291833600
2.163173 -1.9343364 0.49492797 4291833600
2.0941286 -1.8724778 0.48313451 4291572480
2.0974286 -1.8753099 0.48734105 4291572480
2.0971243 -1.8749193 0.49014571 4291572480
2.1108432 -1.8870653 0.49566936 4291703040
2.1106803 -1.8868004 0.49736819 4291703040
2.1003113 -1.8774126 0.49607381 4291572480
2.1069045 -1.8831868 0.49820086 4291572480
2.0966837 -1.8739328 0.49577036 4291572480
2.0931449 -1.8706517 0.49434021 4291572480
2.1582441 -1.9287093 0.50850606 4291833600
2.1548593 -1.9255626 0.50590748 4291833600
2.1412628 -1.9132918 0.50033754 4291833600
2.1203854 -1.8945175 0.49252552 4291703040
2.1172071 -1.8915582 0.48828366 4291703040
2.1425424 -1.9140722 0.49000481 4291833600
2.1181762 -1.8921847 0.47979298 4291703040
2.1470985 -1.9178998 0.481076 4291833600
2.1563001 -1.9259974 0.47728592 4291833600
2.1562722 -1.9258506 0.47087488 4291833600
2.16083 -1.9297996 0.46490595 4291833600
2.1515572 -1.9213965 0.45544213 4291833600
2.147758 -1.9178826 0.44665873 4291833600
2.1458182 -1.9160292 0.43777055 4291833600
2.1677556 -1.935495 0.43316758 4291833600
2.1649461 -1.9328642 0.42304483 4291833600
2.1408069 -1.9105327 0.34639385 4291703040
2.149384 -1.9180659 0.33504301 4291703040
2.1673901 -1.9340118 0.32462731 4291833600
2.1722558 -1.9382311 0.31174183 4291833600
2.1491091 -1.9174569 0.29460856 4291703040
2.1464984 -1.9150064 0.28013036 4291703040
2.1640842 -1.9305735 0.26787779 4291833600
2.1588073 -1.9257442 0.25241843 4291703040
2.1333635 -1.9029269 0.23453803 4291572480
2.1475947 -1.9154998 0.22083937 4291703040
2.1410627 -1.9095531 0.20471056 4291703040
2.149369 -1.91684 0.18976387 4291703040
2.1510375 -1.9182065 0.17395183 4291703040
2.1604059 -1.926439 0.15849128 4291703040
2.1711576 -1.935904 0.14280899 4291833600
2.1626871 -1.9282293 0.12569158 4291703040
2.1424813 -1.9100933 0.10797775 4291703040
2.1586804 -1.9244136 0.092012793 4291703040
2.0915751 -1.8644729 0.072797328 4291441920
2.0598266 -1.8360554 0.055508923 4291311360
2.0529196 -1.8297831 0.039134871 4291180800
2.0726869 -1.847285 0.023126209 4291311360
2.0708592 -1.8455392 0.0067107831 4291311360
2.0347099 -1.8132086 -0.0095214033 4291180800
2.0588794 -1.8346308 -0.025929673 4291311360
2.0650885 -1.8400472 -0.042323224 4291311360
2.0634625 -1.838482 -0.058545884 4291311360
2.0490475 -1.8255234 -0.074215673 4291180800
2.08324 -1.8558685 -0.091718793 4291311360
2.0744648 -1.8479342 -0.10742898 4291311360
2.0763834 -1.8495262 -0.12352246 4291311360
2.0508902 -1.8267028 -0.13767055 4291180800
2.0671971 -1.8411106 -0.1544029 4291311360
2.076076 -1.8489016 -0.17060152 4291311360
2.0665774 -1.840326 -0.1850995 4291311360
2.0520668 -1.8272884 -0.19876964 4291311360
2.0818715 -1.8537111 -0.21662252 4291441920
2.0956097 -1.8658257 -0.23287685 4291441920
2.0893722 -1.8601543 -0.24670854 4291441920
2.0420492 -1.817908 -0.25505033 4291180800
2.0771034 -1.8489977 -0.27331012 4291441920
2.0778296 -1.8495271 -0.28698868 4291441920
2.0900273 -1.8602668 -0.30201504 4291441920
2.0765133 -1.8481215 -0.31298298 4291441920
2.040988 -1.8163886 -0.31998414 4291180800
2.1010833 -1.8697525 -0.34175605 4291572480
2.1009872 -1.8695488 -0.35370594 4291572480
2.1027286 -1.87098 -0.36557555 4291572480
2.1007035 -1.8690598 -0.37637594 4291572480
2.078232 -1.8489493 -0.38296106 4291441920
2.0690436 -1.8406582 -0.39139903 4291441920
2.0695741 -1.8410137 -0.40118709 4291441920
2.0763495 -1.8469239 -0.41176024 4291441920
2.0820937 -1.8519163 -0.42171195 4291441920
2.08829 -1.8573101 -0.43132025 4291441920
2.0830803 -1.8525596 -0.4380818 4291441920
2.0819182 -1.8514087 -0.44516569 4291441920
2.0535204 -1.8260397 -0.44581458 4291311360
2.0604215 -1.8320603 -0.45353848 4291441920
2.0352318 -1.8095479 -0.45362374 4291311360
1.9953277 -1.7739565 -0.4497326 4291050240
2.0021987 -1.7799528 -0.45577621 4291180800
2.0157571 -1.7918928 -0.46285322 4291180800
1.9596306 -1.7418892 -0.45332006 4290919680
1.9733193 -1.7539459 -0.45933133 4291050240
1.965718 -1.7470793 -0.45986071 4290919680
1.9692286 -1.7500886 -0.46244583 4290919680
1.9691262 -1.7498869 -0.46364415 4290919680
1.9617311 -1.7432048 -0.46257976 4290919680
1.961767 -1.7431264 -0.46272323 4290919680
1.9552461 -1.7372223 -0.46077952 4290919680
2.007473 -1.7835127 -0.47211695 4291180800
2.0010939 -1.7777328 -0.46909836 4291180800
2.0370407 -1.8095527 -0.47542068 4291311360
2.0488276 -1.8199081 -0.47549605 4291311360
2.0688601 -1.837586 -0.47688267 4291441920
2.0719767 -1.8402379 -0.4737764 4291441920
2.0805976 -1.8477778 -0.4713527 4291441920
2.0801671 -1.8472785 -0.46631277 4291441920
2.0786848 -1.8458453 -0.4605003 4291441920
2.0731363 -1.8408018 -0.45327297 4291441920
2.0776556 -1.8446978 -0.4477241 4291441920
2.069346 -1.8372039 -0.43890753 4291441920
2.0673759 -1.8353385 -0.4309651 4291441920
2.0675333 -1.8353621 -0.42297721 4291441920
2.0880876 -1.8534909 -0.41859177 4291441920
2.0974617 -1.8616941 -0.41136086 4291572480
2.0948346 -1.8592448 -0.40127811 4291441920
2.0820792 -1.8478068 -0.38887152 4291441920
2.0664999 -1.8338646 -0.37563509 4291311360
2.0717168 -1.8383778 -0.36580443 4291441920
2.0848114 -1.8498806 -0.35685405 4291441920
2.0854301 -1.8503125 -0.34529245 4291441920
2.0751653 -1.8410883 -0.33159727 4291441920
2.0651457 -1.832083 -0.31768942 4291311360
2.0897646 -1.8538061 -0.30866456 4291441920
2.0978975 -1.860903 -0.29665929 4291441920
2.0900187 -1.853797 -0.2820605 4291441920
2.0586097 -1.8258225 -0.26423252 4291311360
2.0674758 -1.8335699 -0.25143018 4291311360
2.0809071 -1.8453647 -0.23875447 4291311360
2.0724583 -1.837756 -0.22327332 4291311360
2.0476272 -1.815622 -0.20601901 4291180800
2.075249 -1.8399978 -0.19379455 4291311360
2.084476 -1.8480619 -0.17937411 4291311360
2.0828397 -1.8464943 -0.16376862 4291311360
2.0164471 -1.7875223 -0.14340492 4291050240
2.0781934 -1.842142 -0.13202935 4291311360
2.0784619 -1.8422633 -0.11613522 4291311360
2.0613077 -1.8269428 -0.099272989 4291311360
2.0750117 -1.8389724 -0.083816305 4291311360
2.0906286 -1.8526957 -0.068118811 4291441920
2.0834978 -1.8462594 -0.051541459 4291311360
2.0195332 -1.7894651 -0.034062888 4291050240
2.1053336 -1.8653729 -0.018901115 4291441920
2.1582046 -1.9120967 -0.0023297945 4291703040
2.1346412 -1.8911005 0.01455706 4291572480
2.0257399 -1.7945102 0.029799847 4291050240
2.1797822 -1.930847 0.049231373 4291833600
2.1694918 -1.9216102 0.066029593 4291703040
2.13749 -1.8931451 0.081763864 4291572480
2.0570581 -1.8217924 0.094680801 4291180800
2.1575525 -1.9106723 0.11597296 4291703040
2.1584952 -1.911386 0.13257103 4291703040
2.1320164 -1.8878192 0.1471463 4291572480
2.01546 -1.7845 0.15426579 4291050240
2.1762924 -1.9267799 0.18276799 4291833600
2.1627042 -1.9146284 0.19751884 4291703040
2.115118 -1.872382 0.20850335 4291572480
1.9843299 -1.7564925 0.20977834 4290919680
2.1910105 -1.9393195 0.24701664 4291833600
2.1904616 -1.9387109 0.26206714 4291833600
2.1656272 -1.9166095 0.27375072 4291703040
2.1005111 -1.858863 0.27943954 4291441920
2.0083401 -1.7771833 0.28019023 4291050240
2.1686094 -1.9188842 0.31626409 4291833600
2.166404 -1.9168116 0.32929015 4291833600
2.1208372 -1.8763757 0.33507025 4291572480
2.0052707 -1.7740178 0.32847035 4291050240
1.9611313 -1.7348589 0.33228058 4290919680
2.1919281 -1.938904 0.38330603 4291964160
2.1678011 -1.9174408 0.39044774 4291833600
2.1268091 -1.8810637 0.39377615 4291572480
2.104526 -1.8612375 0.39980677 4291572480
2.0276806 -1.7931621 0.39455438 4291180800
2.05493 -1.8171449 0.40887162 4291311360
2.1925213 -1.9386921 0.44536701 4291964160
2.1788623 -1.9264925 0.45114604 4291833600
2.160008 -1.909701 0.45520687 4291833600
2.13451 -1.8870384 0.45718509 4291703040
2.1478126 -1.8986785 0.46690008 4291703040
2.101505 -1.8576248 0.46302208 4291572480
2.1082678 -1.8634846 0.47018152 4291572480
2.118041 -1.8720046 0.47750774 4291572480
2.1249173 -1.8779632 0.48366353 4291703040
2.1274245 -1.8800601 0.48828077 4291703040
2.1381207 -1.8893929 0.49422976 4291703040
2.144454 -1.8948694 0.49861893 4291703040
2.1338799 -1.8854067 0.4984909 4291703040
2.1374052 -1.8884019 0.50106454 4291703040
2.1410043 -1.891462 0.50307369 4291703040
2.1336074 -1.8848079 0.50190985 4291703040
2.1299763 -1.8814809 0.50104195 4291703040
2.1264198 -1.8782206 0.49960583 4291703040
2.1199846 -1.8724179 0.4969129 4291703040
2.1128833 -1.8660278 0.49349168 4291572480
2.0992067 -1.8538316 0.4879784 4291572480
2.1488895 -1.8975871 0.49656996 4291703040
2.1353557 -1.8855164 0.48992732 4291703040
