# .PCD v0.7 - Point Cloud Data file format
VERSION 0.7
FIELDS x y z rgba
SIZE 4 4 4 4
TYPE F F F U
COUNT 1 1 1 1
WIDTH 1104
HEIGHT 1
VIEWPOINT 0 0 0 1 0 0 0
POINTS 1104
DATA ascii
3.0702007 -1.3109293 -0.10319178 4293139200
3.1022098 -1.324476 -0.08453498 4293269760
3.1193426 -1.3316753 -0.065074928 4293400320
3.1195116 -1.3316389 -0.045086868 4293400320
3.1024263 -1.3242446 -0.024915922 4293269760
3.1253998 -1.3339328 -0.0049969247 4293400320
3.1380782 -1.3392299 0.015168021 4293400320
3.113863 -1.328797 0.035054289 4293400320
3.132134 -1.3364778 0.055347487 4293400320
3.1606495 -1.3485241 0.076060057 4293530880
3.1557186 -1.3463124 0.096027538 4293530880
3.0985405 -1.3218334 0.11389625 4293269760
3.1348357 -1.3371933 0.13495696 4293400320
3.1375148 -1.3382258 0.1546607 4293400320
3.1431658 -1.3405243 0.17439234 4293530880
3.0803609 -1.3136561 0.18977313 4293269760
3.1488245 -1.3427157 0.21308197 4293530880
3.1527905 -1.3442954 0.2322198 4293530880
3.1386166 -1.3381478 0.24970244 4293530880
3.0759776 -1.3113588 0.26259854 4293269760
3.1614676 -1.3476599 0.28799504 4293530880
3.169729 -1.3510673 0.30656171 4293661440
3.1526899 -1.3437006 0.32228991 4293530880
3.1182227 -1.3289145 0.33559546 4293400320
3.0422366 -1.2964542 0.34346598 4293139200
3.1584952 -1.3458394 0.37287784 4293530880
3.158232 -1.345616 0.38869926 4293530880
3.1476977 -1.3410207 0.40276566 4293530880
3.1187863 -1.3286046 0.41383636 4293400320
3.1112239 -1.3252757 0.42710298 4293400320
3.1488621 -1.3411818 0.44622755 4293530880
3.1595523 -1.3456185 0.46123597 4293661440
3.1596034 -1.3455276 0.47421083 4293661440
3.1469405 -1.3400279 0.48468533 4293530880
3.1314352 -1.3333197 0.49405903 4293530880
3.1311615 -1.3330911 0.50521111 4293530880
3.1474538 -1.3399082 0.51851076 4293661440
3.1516054 -1.3415608 0.52927995 4293661440
3.1505742 -1.3410089 0.53857696 4293661440
3.1478086 -1.3397192 0.54694277 4293661440
3.1535292 -1.3420377 0.55615622 4293661440
3.1452746 -1.3384142 0.56225246 4293661440
3.1482809 -1.339578 0.56969446 4293661440
3.1501997 -1.3402791 0.57628542 4293661440
3.1330791 -1.3328874 0.57869208 4293530880
3.1282885 -1.330737 0.58266234 4293530880
3.1322212 -1.3322937 0.58757329 4293530880
3.1362553 -1.3338929 0.59182394 4293661440
3.1394868 -1.3351506 0.59523588 4293661440
3.1355724 -1.333372 0.59659362 4293661440
3.1263285 -1.3293293 0.5962292 4293530880
3.1307926 -1.3311096 0.597776 4293530880
3.1263018 -1.3290861 0.59691054 4293530880
3.1386983 -1.3342347 0.59856611 4293661440
3.1308012 -1.3307641 0.59564728 4293530880
3.1257176 -1.3284886 0.59257114 4293530880
3.1406133 -1.3346961 0.59257829 4293661440
3.1372123 -1.3331343 0.58842695 4293661440
3.1405423 -1.33443 0.58484811 4293661440
3.1399155 -1.3340456 0.57984382 4293661440
3.1461742 -1.3365835 0.5754233 4293661440
3.1422288 -1.33479 0.56846052 4293661440
3.1377323 -1.3327627 0.56075281 4293530880
3.1434236 -1.3350586 0.55421007 4293661440
3.1283319 -1.3285357 0.54338318 4293530880
3.1253369 -1.3271457 0.53407621 4293530880
3.1359949 -1.3315475 0.5264619 4293530880
3.1514893 -1.3379997 0.51897037 4293661440
3.1460335 -1.3355649 0.50739825 4293530880
3.144197 -1.3346652 0.4958522 4293530880
3.1157994 -1.3218445 0.40653428 4293400320
3.1241531 -1.3252637 0.39261875 4293400320
3.1427174 -1.333009 0.3794145 4293530880
3.1274085 -1.3263998 0.36167762 4293400320
3.1090004 -1.3184785 0.34335116 4293400320
3.1225812 -1.3241105 0.32820189 4293400320
3.1352737 -1.329365 0.31245247 4293530880
3.1206892 -1.3230647 0.29364631 4293400320
3.1020572 -1.3150513 0.27432004 4293400320
3.1142545 -1.3200951 0.25745621 4293400320
3.1310501 -1.3270849 0.24052066 4293400320
3.1271105 -1.3252938 0.22164948 4293400320
3.0977795 -1.3127528 0.20093074 4293269760
3.1264284 -1.3247591 0.18376286 4293400320
3.1322505 -1.3271005 0.16483799 4293400320
3.1397817 -1.3301648 0.14573993 4293400320
3.1046579 -1.3151761 0.12466816 4293269760
3.1192195 -1.3212159 0.10559095 4293400320
3.1210287 -1.3218584 0.085860573 4293400320
3.1233692 -1.3227257 0.066023842 4293400320
3.1025887 -1.3138109 0.045738913 4293269760
3.1094573 -1.3165942 0.025904205 4293269760
3.1179981 -1.3200841 0.0059550288 4293400320
3.0766172 -1.3024595 -0.013896569 4293269760
3.1000526 -1.3122488 -0.033899751 4293269760
3.1136754 -1.3178872 -0.054000609 4293400320
3.1240051 -1.322132 -0.074141972 4293400320
3.0875769 -1.3066076 -0.092939503 4293269760
3.1127341 -1.3171208 -0.11340673 4293400320
3.1363771 -1.3269923 -0.13400647 4293400320
3.1322789 -1.3251365 -0.15340707 4293400320
3.0960932 -1.3097202 -0.17082933 4293269760
3.1097212 -1.3153574 -0.19066475 4293400320
3.1213427 -1.3201457 -0.21032642 4293400320
3.1285172 -1.3230543 -0.22957593 4293400320
3.1081991 -1.3143479 -0.2464889 4293400320
3.1396823 -1.3275254 -0.26729301 4293530880
3.1585405 -1.3353678 -0.28702623 4293530880
3.1523867 -1.3326451 -0.30425298 4293530880
3.1315033 -1.3237025 -0.31957868 4293400320
3.1240561 -1.3204354 -0.33576545 4293400320
3.1378262 -1.3261278 -0.35389021 4293530880
3.1459188 -1.3294221 -0.3711004 4293530880
3.1333299 -1.3239851 -0.38544399 4293530880
3.1193662 -1.317969 -0.39905873 4293400320
3.158112 -1.3342017 -0.41907391 4293530880
3.1565111 -1.3334036 -0.4334555 4293530880
3.1628675 -1.3359638 -0.44846302 4293661440
3.1525309 -1.33148 -0.46058831 4293530880
3.1533577 -1.3317072 -0.47378132 4293530880
3.1217594 -1.3182548 -0.48145431 4293530880
3.133527 -1.3230989 -0.4951764 4293530880
3.1299229 -1.3214583 -0.50594288 4293530880
3.1342938 -1.323182 -0.51742166 4293530880
3.1367114 -1.3240817 -0.52801049 4293530880
3.1377957 -1.3244191 -0.53778183 4293530880
3.144783 -1.327246 -0.54796916 4293530880
3.134774 -1.3229064 -0.55456316 4293530880
3.1408398 -1.3253447 -0.56334502 4293530880
3.1299005 -1.3206143 -0.56842172 4293530880
3.1239803 -1.3180007 -0.57371408 4293530880
3.123168 -1.3175405 -0.57926458 4293530880
3.1147122 -1.3138595 -0.58271229 4293530880
3.0979962 -1.3066986 -0.58390313 4293400320
3.1011026 -1.3078914 -0.58812481 4293400320
3.089021 -1.3026854 -0.58877814 4293400320
3.093245 -1.3043497 -0.59183943 4293400320
3.0885003 -1.3022358 -0.59249806 4293400320
3.0838645 -1.3001686 -0.59248257 4293400320
3.0919032 -1.30344 -0.59420574 4293400320
3.0920238 -1.3033766 -0.5937168 4293400320
3.1037955 -1.3082196 -0.59476393 4293530880
3.1290894 -1.3187555 -0.59768414 4293530880
3.1221848 -1.3157337 -0.59375775 4293530880
3.1213942 -1.3152865 -0.59030712 4293530880
3.1344965 -1.3206879 -0.58877653 4293530880
3.1435783 -1.3243963 -0.58577722 4293661440
3.1325896 -1.3196571 -0.57836926 4293530880
3.1311572 -1.3189405 -0.57207376 4293530880
3.1375167 -1.3215034 -0.56652647 4293530880
3.1213648 -1.3145938 -0.55629098 4293530880
3.1271183 -1.3169019 -0.54933447 4293530880
3.1185243 -1.313174 -0.53923869 4293530880
3.1113291 -1.3100353 -0.52881014 4293400320
3.1109149 -1.3097497 -0.51894879 4293400320
3.1384258 -1.3212091 -0.51305389 4293530880
3.1396735 -1.3216218 -0.50219244 4293530880
3.1335735 -1.3189449 -0.48960528 4293530880
3.118288 -1.3124063 -0.47511247 4293400320
3.0986693 -1.3040471 -0.45956248 4293400320
3.1169837 -1.3116368 -0.44911164 4293400320
3.1264091 -1.3154888 -0.43675926 4293530880
3.128077 -1.3160796 -0.42278719 4293530880
3.0979059 -1.3032883 -0.40418231 4293400320
3.1104565 -1.3084539 -0.3907702 4293400320
3.1223779 -1.3133544 -0.37672544 4293400320
3.1341288 -1.3181826 -0.362124 4293530880
3.1284766 -1.315698 -0.34508646 4293400320
3.0829959 -1.2964809 -0.3235597 4293269760
3.1058345 -1.3059675 -0.30894896 4293400320
3.10131 -1.3039584 -0.29118598 4293269760
3.1123517 -1.3084881 -0.27452576 4293400320
3.0840304 -1.2964852 -0.25420594 4293269760
3.1050167 -1.3051912 -0.23770334 4293269760
3.1239543 -1.3130355 -0.22055189 4293400320
3.1113789 -1.3076469 -0.20090875 4293400320
3.118176 -1.3103925 -0.18233068 4293400320
3.1000562 -1.3026775 -0.16217646 4293269760
3.1101079 -1.3067895 -0.14336577 4293269760
3.1186528 -1.3102686 -0.12421776 4293400320
3.0823925 -1.2949418 -0.10333858 4293269760
3.1098719 -1.3063675 -0.084528223 4293269760
3.1224365 -1.3115326 -0.064973161 4293400320
3.131825 -1.3153641 -0.045145608 4293400320
3.1100869 -1.3061351 -0.024909168 4293269760
3.12726 -1.3132324 -0.0049819211 4293400320
3.1393735 -1.318206 0.01514252 4293400320
3.1215355 -1.3106149 0.035060909 4293400320
3.1398649 -1.3181951 0.055354308 4293400320
3.1592307 -1.3262084 0.075843997 4293530880
3.1681156 -1.3298252 0.096175112 4293530880
3.1061866 -1.3037468 0.113903 4293269760
3.1508639 -1.3223723 0.13532132 4293530880
3.1423047 -1.3186747 0.15452194 4293400320
3.1426306 -1.3187025 0.17393911 4293400320
3.0787518 -1.2918159 0.18921253 4293269760
3.1437044 -1.3189346 0.212217 4293400320
3.1568856 -1.3243499 0.23195571 4293530880
3.1467505 -1.3199927 0.24974059 4293530880
3.0706902 -1.2880099 0.26150721 4293139200
3.1641188 -1.3270513 0.28753382 4293530880
3.1630313 -1.3264854 0.30516663 4293530880
3.1652546 -1.3273064 0.32278612 4293530880
3.1474848 -1.3197519 0.33792129 4293530880
3.0497351 -1.2786964 0.3434726 4293139200
3.1641195 -1.3264989 0.37263012 4293530880
3.1596024 -1.3244962 0.38791814 4293530880
3.1462934 -1.3188117 0.40160227 4293530880
3.1228082 -1.3088669 0.41335797 4293400320
3.1143131 -1.3051999 0.42648268 4293400320
3.1682343 -1.3276651 0.44787753 4293661440
3.1754494 -1.3305736 0.46242532 4293661440
3.1628168 -1.325173 0.47353324 4293661440
3.1501241 -1.3197483 0.48399013 4293530880
3.1354949 -1.3135136 0.49349082 4293530880
3.126097 -1.309469 0.50316072 4293530880
3.1506429 -1.3196288 0.51776779 4293530880
3.1466007 -1.317825 0.52714753 4293530880
3.1537735 -1.3207133 0.53780645 4293661440
3.1601114 -1.3232515 0.54773945 4293661440
3.1430783 -1.3160127 0.55295759 4293530880
3.1530151 -1.3200558 0.56225932 4293661440
3.1469281 -1.317396 0.56805795 4293661440
3.1543119 -1.3203702 0.57562792 4293661440
3.1407876 -1.3146002 0.57869893 4293530880
3.1482666 -1.3176134 0.58495212 4293661440
3.1308348 -1.3102105 0.58587813 4293530880
3.1394243 -1.3136872 0.59097487 4293530880
3.1344838 -1.311507 0.59283519 4293530880
3.1387396 -1.3131709 0.5957377 4293530880
3.1467388 -1.3163989 0.59865731 4293661440
3.1466691 -1.3162538 0.59934115 4293661440
3.1339881 -1.3108385 0.59691733 4293530880
3.1382353 -1.3124973 0.59701639 4293530880
3.1339531 -1.3105916 0.59479135 4293530880
3.1424904 -1.3140417 0.59429759 4293661440
3.1356046 -1.3110484 0.59018862 4293530880
3.1494687 -1.316722 0.58928478 4293661440
3.143712 -1.3142 0.58400989 4293530880
3.1430821 -1.3138191 0.57901245 4293530880
3.1493542 -1.3163199 0.57459974 4293661440
3.1581404 -1.31987 0.56994641 4293661440
3.1499929 -1.3163493 0.56157166 4293661440
3.1465902 -1.3148097 0.55341554 4293530880
3.1360152 -1.3102762 0.54339004 4293530880
3.1238959 -1.3050987 0.53252828 4293530880
3.1345756 -1.309437 0.52494061 4293530880
3.1592274 -1.319605 0.51897722 4293661440
3.1537576 -1.3172021 0.5074051 4293530880
3.1473494 -1.3144077 0.49514022 4293530880
3.1051168 -1.2960155 0.40415362 4293400320
3.1439233 -1.3120756 0.39414454 4293530880
3.1535492 -1.315967 0.37979773 4293530880
3.1334307 -1.3074578 0.36149397 4293400320
3.1074433 -1.2965038 0.34234515 4293400320
3.1299629 -1.3057688 0.32817963 4293400320
3.1392858 -1.3095324 0.31209332 4293400320
3.1237433 -1.3029332 0.29322091 4293400320
3.0958631 -1.2911943 0.2731075 4293269760
3.1230874 -1.3024161 0.25756195 4293400320
3.1355922 -1.3075036 0.2402869 4293400320
3.135154 -1.3071984 0.22168311 4293400320
3.1134636 -1.2980412 0.2014623 4293269760
3.1403558 -1.3091193 0.18413803 4293400320
3.1503925 -1.3131759 0.16539593 4293400320
3.134491 -1.3064311 0.14514343 4293400320
3.1122651 -1.2970541 0.12467494 4293269760
3.1200788 -1.300185 0.10536755 4293400320
3.1249831 -1.302104 0.085765421 4293400320
3.1180978 -1.2991153 0.065755829 4293269760
3.110188 -1.2957008 0.045745689 4293269760
3.1100109 -1.2955049 0.025850967 4293269760
3.1127083 -1.2965052 0.0059347157 4293269760
3.0758419 -1.2810432 -0.013854071 4293139200
3.099334 -1.2906963 -0.033804022 4293269760
3.1166828 -1.2977918 -0.053914901 4293269760
3.1316531 -1.3038967 -0.074135147 4293400320
3.0868285 -1.2851297 -0.092685126 4293269760
3.120353 -1.2989511 -0.11339993 4293400320
3.1394401 -1.3067663 -0.13380401 4293400320
3.1436341 -1.308387 -0.15357967 4293400320
3.0944476 -1.2878133 -0.17031711 4293269760
3.1219399 -1.2991216 -0.19093882 4293400320
3.1381958 -1.3057569 -0.21093693 4293400320
3.1361706 -1.3047924 -0.22956911 4293400320
3.1121185 -1.2946733 -0.24619159 4293269760
3.147362 -1.3091983 -0.26728615 4293530880
3.1558201 -1.3125902 -0.28607506 4293530880
3.1508975 -1.3104218 -0.30336282 4293530880
3.1353903 -1.3038565 -0.31918892 4293400320
3.1295347 -1.301302 -0.33552757 4293400320
3.145498 -1.3078113 -0.35388336 4293530880
3.1453466 -1.3076264 -0.37012339 4293530880
3.1457789 -1.3076839 -0.38602358 4293530880
3.1141498 -1.2944278 -0.39741674 4293400320
3.1658306 -1.3157668 -0.419067 4293530880
3.1627622 -1.3143706 -0.43324861 4293530880
3.1730185 -1.3185066 -0.448798 4293661440
3.1739645 -1.3187773 -0.46257865 4293661440
3.1622157 -1.3137788 -0.47394699 4293530880
3.1293859 -1.3000319 -0.48144749 4293530880
3.1274714 -1.2991176 -0.49301231 4293530880
3.1421361 -1.3050833 -0.50667125 4293530880
3.1510808 -1.3086749 -0.51891595 4293530880
3.1534996 -1.3095585 -0.52953368 4293530880
3.1409752 -1.304243 -0.53700989 4293530880
3.1433413 -1.3051053 -0.54637975 4293530880
3.1460745 -1.30612 -0.55519879 4293530880
3.1348367 -1.3013405 -0.56089634 4293530880
3.1420963 -1.304233 -0.56923878 4293530880
3.1316054 -1.2997646 -0.57370728 4293530880
3.1225955 -1.2959113 -0.57774401 4293530880
3.1177619 -1.2937905 -0.58185738 4293530880
3.1010053 -1.2867275 -0.58304214 4293400320
3.1177697 -1.293561 -0.58983684 4293530880
3.0883687 -1.2812591 -0.58721691 4293400320
3.0916932 -1.2825222 -0.59009904 4293400320
3.0878465 -1.2808138 -0.590927 4293400320
3.11217 -1.2907784 -0.59645241 4293530880
3.1076319 -1.2887834 -0.59576607 4293400320
3.1156826 -1.2920045 -0.59679228 4293530880
3.1200137 -1.2936844 -0.59640783 4293530880
3.1330793 -1.298982 -0.59698492 4293530880
3.129797 -1.2975081 -0.59375095 4293530880
3.1335549 -1.2989504 -0.59115744 4293530880
3.1293914 -1.2971125 -0.58638531 4293530880
3.1339386 -1.2988816 -0.58255947 4293530880
3.1447787 -1.3032565 -0.57919985 4293530880
3.1445291 -1.3030397 -0.57311153 4293530880
3.1427519 -1.3021907 -0.56608617 4293530880
3.1417353 -1.3016568 -0.5585497 4293530880
3.1301763 -1.2967601 -0.54852974 4293530880
3.1261215 -1.2949699 -0.5392319 4293530880
3.1052144 -1.2862066 -0.52648568 4293400320
3.1184924 -1.29159 -0.518942 4293400320
3.1378455 -1.2994864 -0.51170832 4293530880
3.1478648 -1.3035201 -0.50227249 4293530880
3.145777 -1.302545 -0.49030989 4293530880
3.130456 -1.2960963 -0.47579977 4293530880
3.1025512 -1.2844442 -0.45901492 4293400320
3.1175191 -1.2905252 -0.44809312 4293400320
3.1386023 -1.2991341 -0.43738979 4293530880
3.1356907 -1.29782 -0.42278033 4293530880
3.1054454 -1.2852048 -0.40417552 4293400320
3.0959933 -1.2811882 -0.38800818 4293269760
3.1299756 -1.2951281 -0.37671861 4293400320
3.1371596 -1.2979885 -0.36158875 4293400320
3.1360879 -1.2974362 -0.3450796 4293400320
3.0821447 -1.275033 -0.32268086 4293269760
3.1041856 -1.2840344 -0.30803126 4293269760
3.113457 -1.2877578 -0.29160923 4293400320
3.1165135 -1.2889128 -0.27421999 4293400320
3.0877717 -1.2769301 -0.25389111 4293269760
3.1142235 -1.2877508 -0.23782265 4293269760
3.1161938 -1.288457 -0.21946722 4293269760
3.1300116 -1.2940569 -0.20161231 4293400320
3.1168904 -1.2885298 -0.18180878 4293269760
3.1092503 -1.285267 -0.16225587 4293269760
3.1147089 -1.2874138 -0.1432236 4293269760
3.1174581 -1.2884418 -0.12386424 4293269760
3.0899973 -1.2769966 -0.10333565 4293269760
3.1103644 -1.2852986 -0.084331378 4293269760
3.1358461 -1.2957106 -0.065086007 4293400320
3.123709 -1.2905928 -0.044915818 4293400320
3.1049793 -1.282755 -0.02480372 4293269760
3.1361043 -1.2954936 -0.0049768141 4293400320
3.1360171 -1.2953498 0.015094472 4293400320
3.1161892 -1.2870604 0.034920488 4293269760
3.1357977 -1.2950437 0.055153441 4293400320
3.1598363 -1.3048533 0.075680465 4293530880
3.1628702 -1.3059962 0.095788047 4293530880
3.1044879 -1.2818048 0.11357024 4293269760
3.1409614 -1.2967418 0.1345734 4293400320
3.1491957 -1.3000298 0.15449262 4293400320
3.1539507 -1.3018821 0.17415048 4293400320
3.0779159 -1.2704197 0.18870868 4293139200
3.1581635 -1.3034016 0.21268493 4293530880
3.1599331 -1.3040221 0.2316239 4293530880
3.1460862 -1.2982044 0.2490893 4293400320
3.1016145 -1.2797633 0.26351166 4293269760
3.1671872 -1.3066841 0.28712255 4293530880
3.1777427 -1.3109248 0.30585203 4293530880
3.1683283 -1.3069347 0.32232428 4293530880
3.1459165 -1.2975891 0.33694163 4293530880
3.0534515 -1.2593796 0.34306556 4293139200
3.1671948 -1.306137 0.37209657 4293530880
3.1635873 -1.3045402 0.38747457 4293530880
3.1585116 -1.3023388 0.40219429 4293530880
3.1257885 -1.2887493 0.41275835 4293400320
3.0984962 -1.2773988 0.42329508 4293269760
3.1596844 -1.3024898 0.44559434 4293530880
3.1621799 -1.3034062 0.45938468 4293530880
3.17048 -1.3067126 0.47354019 4293661440
3.1623337 -1.3032466 0.4846991 4293530880
3.1600263 -1.3021848 0.49615827 4293530880
3.1336694 -1.2912227 0.50316757 4293530880
3.1582739 -1.3012395 0.5177747 4293530880
3.1450827 -1.2956978 0.5256263 4293530880
3.1568434 -1.3004258 0.537036 4293530880
3.1595449 -1.3014249 0.54632467 4293661440
3.1552525 -1.2995456 0.55376589 4293530880
3.156086 -1.2997754 0.56145424 4293661440
3.154546 -1.2990284 0.56806487 4293661440
3.1482677 -1.2963321 0.57314348 4293530880
3.1438308 -1.2943933 0.57786757 4293530880
3.147682 -1.2958637 0.5834378 4293530880
3.138411 -1.2919368 0.58588499 4293530880
3.133353 -1.2897427 0.58841407 4293530880
3.1375122 -1.2913388 0.59198225 4293530880
3.141778 -1.2929783 0.59488177 4293530880
3.1415977 -1.2927892 0.59624285 4293530880
3.1287746 -1.2874026 0.59449983 4293530880
3.1324587 -1.288802 0.59519273 4293530880
3.1458249 -1.2941804 0.59702325 4293530880
3.132421 -1.2885555 0.59307259 4293530880
3.1455331 -1.2938279 0.59344465 4293530880
3.1431859 -1.2927468 0.59019548 4293530880
3.1525252 -1.2964672 0.58844072 4293661440
3.1431065 -1.2924803 0.58249557 4293530880
3.1461198 -1.2936009 0.57818109 4293530880
3.156966 -1.2979382 0.57460666 4293661440
3.1529984 -1.2961905 0.56765252 4293530880
3.1512187 -1.2953411 0.56044227 4293530880
3.1414101 -1.2911948 0.55117851 4293530880
3.135371 -1.2885966 0.5419752 4293530880
3.1360121 -1.2887414 0.5333125 4293530880
3.1419473 -1.2910591 0.52491397 4293530880
3.1622851 -1.2992884 0.51823431 4293661440
3.1476486 -1.2931607 0.50520778 4293530880
3.1457951 -1.2922802 0.49370947 4293530880
3.1172044 -1.2797754 0.40475729 4293400320
3.1469154 -1.2918406 0.3935762 4293530880
3.1565616 -1.2956749 0.37925172 4293530880
3.1409917 -1.2891686 0.36150086 4293400320
3.1107974 -1.2766672 0.34189606 4293400320
3.1329093 -1.285612 0.32770428 4293400320
3.1453876 -1.2906058 0.31195411 4293400320
3.1342311 -1.2859107 0.29350466 4293400320
3.0950301 -1.2697222 0.27238271 4293269760
3.1248057 -1.2818046 0.25708967 4293400320
3.1370649 -1.2867064 0.23982742 4293400320
3.1423347 -1.2887436 0.22166319 4293400320
3.1082413 -1.2746531 0.20064549 4293269760
3.1416466 -1.2882167 0.18377657 4293400320
3.147496 -1.29049 0.16485171 4293400320
3.145817 -1.2896795 0.14532509 4293400320
3.093801 -1.2682538 0.12363973 4293269760
3.1251478 -1.2809697 0.10529142 4293269760
3.1232624 -1.2800756 0.085517362 4293269760
3.120985 -1.2790209 0.065664515 4293269760
3.1143603 -1.2761868 0.045703165 4293269760
3.1091747 -1.2739424 0.025787152 4293269760
3.1174273 -1.2771986 0.0059357267 4293269760
3.0790877 -1.2613853 -0.013829441 4293139200
3.1004119 -1.2699914 -0.033729009 4293269760
3.1165979 -1.2764934 -0.053778615 4293269760
3.1317198 -1.2825587 -0.073953301 4293400320
3.0943761 -1.2671585 -0.092681758 4293269760
3.1275942 -1.2806262 -0.11338328 4293400320
3.1462145 -1.2881204 -0.13376395 4293400320
3.1426773 -1.2865509 -0.1531592 4293400320
3.1073625 -1.271986 -0.17060919 4293269760
3.1131437 -1.2742288 -0.1899406 4293269760
3.1427894 -1.286229 -0.2107323 4293400320
3.1250446 -1.2788519 -0.22820309 4293400320
3.1162937 -1.2751528 -0.24592406 4293269760
3.1471798 -1.2876568 -0.26662415 4293400320
3.165581 -1.2950555 -0.28626364 4293530880
3.164124 -1.2943373 -0.30389681 4293530880
3.1374955 -1.2833329 -0.31863129 4293400320
3.1392274 -1.2839191 -0.33575174 4293400320
3.1576669 -1.2913315 -0.35439193 4293530880
3.1529105 -1.2892665 -0.37011647 4293530880
3.1614203 -1.2926209 -0.38700327 4293530880
3.1345093 -1.2815073 -0.39904505 4293400320
3.1618176 -1.2925397 -0.41752821 4293530880
3.162647 -1.2927569 -0.43218905 4293530880
3.1828079 -1.3008682 -0.44909555 4293661440
3.1770053 -1.298377 -0.46190596 4293661440
3.16523 -1.2934481 -0.47325572 4293530880
3.1369061 -1.2817649 -0.4814406 4293530880
3.1441486 -1.2846016 -0.4944436 4293530880
3.1600802 -1.2909845 -0.50833344 4293530880
3.1494973 -1.2865455 -0.51740795 4293530880
3.1610751 -1.2911507 -0.52952671 4293530880
3.1447823 -1.2843831 -0.53636658 4293530880
3.1508911 -1.2867568 -0.54637283 4293530880
3.1499746 -1.2862642 -0.5545494 4293530880
3.1515005 -1.2867682 -0.56251729 4293530880
3.1414216 -1.282539 -0.5677489 4293530880
3.1345594 -1.2796226 -0.57286751 4293530880
3.1337433 -1.2791727 -0.57840991 4293530880
3.125246 -1.275591 -0.58185053 4293530880
3.1130106 -1.2704859 -0.58388954 4293400320
3.1206918 -1.273502 -0.5889706 4293530880
3.1039894 -1.2665775 -0.58876455 4293400320
3.0909042 -1.2611291 -0.58853197 4293400320
3.0989037 -1.2642757 -0.59161544 4293400320
3.0988038 -1.2641211 -0.59246898 4293400320
3.1114397 -1.2691566 -0.59506279 4293400320
3.1277165 -1.2756752 -0.5976553 4293530880
3.1142671 -1.2700812 -0.59388214 4293400320
3.1269121 -1.2751193 -0.59438163 4293530880
3.1373029 -1.2792386 -0.59374404 4293530880
3.136507 -1.2788006 -0.59029341 4293530880
3.141458 -1.2807037 -0.58723003 4293530880
3.1505804 -1.2843055 -0.58424252 4293530880
3.152318 -1.2848996 -0.57919294 4293530880
3.1475003 -1.2828246 -0.5722757 4293530880
3.1502848 -1.2838455 -0.56607926 4293530880
3.1410394 -1.2799689 -0.55708635 4293530880
3.1422493 -1.2803494 -0.5493207 4293530880
3.129039 -1.2748603 -0.53843939 4293530880
3.1218057 -1.271805 -0.5280239 4293400320
3.1213861 -1.2715236 -0.51817656 4293400320
3.1407828 -1.2793064 -0.51095772 4293530880
3.1645691 -1.2888741 -0.50372154 4293530880
3.1487277 -1.2823172 -0.48959151 4293530880
3.1345606 -1.2764428 -0.47527939 4293400320
3.113652 -1.2678273 -0.45954889 4293400320
3.124984 -1.2723275 -0.44808626 4293400320
3.1378481 -1.2774503 -0.43623567 4293400320
3.1407623 -1.2785259 -0.42244655 4293400320
3.1091206 -1.2655489 -0.4036817 4293400320
3.1090395 -1.2654078 -0.38870439 4293269760
3.1350319 -1.2758679 -0.37642002 4293400320
3.1415322 -1.2784019 -0.36122221 4293400320
3.1401834 -1.2777447 -0.34469938 4293400320
3.0899823 -1.2572299 -0.32272223 4293269760
3.112813 -1.2664027 -0.30814296 4293269760
3.1092303 -1.2648391 -0.29051444 4293269760
3.1169608 -1.2678734 -0.27359974 4293269760
3.0817637 -1.2534639 -0.25278899 4293139200
3.1041126 -1.2624383 -0.23648234 4293269760
3.1190233 -1.2683896 -0.21913669 4293269760
3.1328721 -1.2739083 -0.20130935 4293400320
3.1150916 -1.2665782 -0.18126571 4293269760
3.0991011 -1.2599763 -0.16133764 4293269760
3.1121604 -1.265174 -0.14276052 4293269760
3.1198163 -1.2681764 -0.12365659 4293269760
3.0926378 -1.2570332 -0.10317156 4293139200
3.1165423 -1.2666335 -0.08429084 4293269760
3.1291649 -1.2716517 -0.06478852 4293269760
3.1293318 -1.2716124 -0.044882901 4293269760
3.1074862 -1.2626374 -0.024758723 4293269760
3.1306245 -1.2719231 -0.0049518901 4293269760
3.1471 -1.2785027 0.015119306 4293400320
3.1236327 -1.2688714 0.03492735 4293269760
3.1503744 -1.2796162 0.05528599 4293400320
3.1522307 -1.2802618 0.075322725 4293400320
3.1567321 -1.2819802 0.09537901 4293400320
3.1191669 -1.2666321 0.11384351 4293269760
3.1516118 -1.2796869 0.13471553 4293400320
3.1604166 -1.2831503 0.15468137 4293400320
3.1589441 -1.2824448 0.17401738 4293400320
3.0806367 -1.2505782 0.18843178 4293139200
3.1620014 -1.2834678 0.21244279 4293530880
3.1658125 -1.2849046 0.23150913 4293530880
3.1630769 -1.2836865 0.24984664 4293530880
3.0997763 -1.2579143 0.26273414 4293269760
3.1701257 -1.2863262 0.28671131 4293530880
3.1807077 -1.2905064 0.30541527 4293530880
3.1758857 -1.2884421 0.32233125 4293530880
3.1534197 -1.2792273 0.33694857 4293530880
3.0561247 -1.2396894 0.34255508 4293139200
3.1839612 -1.2913846 0.37318453 4293530880
3.1637602 -1.283089 0.38658011 4293530880
3.1614399 -1.282039 0.4016161 4293530880
3.1286404 -1.2686416 0.41215876 4293400320
3.0838139 -1.2503743 0.42029184 4293269760
3.1672158 -1.2840478 0.44560131 4293530880
3.1697166 -1.2849499 0.45939165 4293530880
3.1780357 -1.2882078 0.47354716 4293661440
3.1561036 -1.2792151 0.48259988 4293530880
3.1675558 -1.283741 0.49616525 4293530880
3.1411352 -1.2729326 0.50317448 4293530880
3.1593859 -1.2802101 0.51673239 4293530880
3.1608906 -1.2807075 0.52702051 4293530880
3.1643624 -1.2820007 0.53704292 4293530880
3.1533401 -1.2774272 0.54396206 4293530880
3.1545317 -1.2777972 0.55233032 4293530880
3.1590278 -1.2795041 0.56064916 4293530880
3.1492555 -1.275437 0.56577104 4293530880
3.1511924 -1.2761079 0.57231992 4293530880
3.1467452 -1.2741956 0.5770362 4293530880
3.1460378 -1.2737961 0.58175451 4293530880
3.1413133 -1.2717718 0.58504093 4293530880
3.14081 -1.2714546 0.58842099 4293530880
3.1449785 -1.2730266 0.59198916 4293530880
3.1401222 -1.2709486 0.59316307 4293530880
3.1490724 -1.274453 0.59624982 4293530880
3.1362181 -1.2691413 0.59450674 4293530880
3.1316924 -1.267197 0.59364128 4293530880
3.1441762 -1.2721285 0.59530067 4293530880
3.1398711 -1.270273 0.59307951 4293530880
3.1530137 -1.2754688 0.59345162 4293530880
3.163449 -1.2795694 0.59259897 4293661440
3.1463165 -1.2725297 0.58589464 4293530880
3.1569879 -1.2767247 0.58368778 4293530880
3.1490288 -1.273392 0.57734972 4293530880
3.1562414 -1.2761884 0.57311875 4293530880
3.1604929 -1.2777878 0.5676595 4293530880
3.1541336 -1.2751012 0.55963725 4293530880
3.1442995 -1.2710116 0.55038404 4293530880
3.1290874 -1.2647507 0.53961253 4293400320
3.1388834 -1.2685884 0.53254199 4293530880
3.1402481 -1.2690212 0.5233928 4293530880
3.1826327 -1.286013 0.52034086 4293661440
3.1597118 -1.2766404 0.5059495 4293530880
3.1532671 -1.2739195 0.49371642 4293530880
3.1200004 -1.2597243 0.40416729 4293400320
3.1543851 -1.2734731 0.39358315 4293530880
3.1640534 -1.2772512 0.37925866 4293530880
3.1484461 -1.2708356 0.3615078 4293400320
3.122793 -1.2603706 0.34240934 4293400320
3.1357276 -1.2654653 0.32722896 4293400320
3.1436145 -1.2685238 0.31104603 4293400320
3.1287305 -1.2624025 0.2923013 4293400320
3.1106918 -1.2550107 0.27312115 4293269760
3.1285183 -1.2620749 0.25679243 4293400320
3.1408045 -1.2669048 0.23955156 4293400320
3.1359038 -1.2648083 0.22069104 4293400320
3.1109827 -1.2546456 0.2003535 4293269760
3.1339476 -1.2637768 0.18289712 4293400320
3.1405084 -1.2662979 0.16410133 4293400320
3.1475995 -1.2690321 0.14506955 4293400320
3.1049151 -1.2517183 0.12379791 4293269760
3.1279197 -1.2608619 0.1051417 4293269760
3.1306648 -1.2618455 0.085524261 4293269760
3.123744 -1.258937 0.06557323 4293269760
3.1028085 -1.2503867 0.045429368 4293269760
3.1211801 -1.2576616 0.025833275 4293269760
3.1155367 -1.2552685 0.0059231981 4293269760
3.0905554 -1.2450925 -0.013840507 4293139200
3.1095204 -1.2526045 -0.033740953 4293269760
3.1139648 -1.2542719 -0.05360138 4293269760
3.1336446 -1.2620691 -0.073818132 4293269760
3.1052988 -1.2505429 -0.092781559 4293269760
3.12818 -1.2596269 -0.11313118 4293269760
3.1427279 -1.2653571 -0.13329554 4293400320
3.1456869 -1.2664251 -0.15293781 4293400320
3.1054528 -1.2501217 -0.1700969 4293269760
3.1297762 -1.2597824 -0.1904954 4293269760
3.1280034 -1.2589481 -0.20924388 4293269760
3.1278124 -1.25875 -0.22786009 4293269760
3.1190414 -1.2551028 -0.24555403 4293269760
3.1546268 -1.2692866 -0.26661718 4293400320
3.1530576 -1.2685338 -0.2844561 4293400320
3.167841 -1.2743534 -0.30352962 4293530880
3.1319983 -1.2598273 -0.31731874 4293400320
3.1420362 -1.2637399 -0.33525339 4293400320
3.1580756 -1.2700634 -0.3535963 4293530880
3.1523428 -1.2676388 -0.36917186 4293400320
3.155988 -1.2689821 -0.38542327 4293530880
3.1165714 -1.2530284 -0.39582545 4293400320
3.1738992 -1.2759337 -0.4181267 4293530880
3.1701241 -1.2742963 -0.43218204 4293530880
3.1774492 -1.2771168 -0.44727862 4293530880
3.1771541 -1.276877 -0.46083331 4293530880
3.1669559 -1.2726617 -0.4723919 4293530880
3.1397257 -1.26161 -0.48073158 4293400320
3.1515787 -1.2662487 -0.49443665 4293530880
3.1501064 -1.2655385 -0.50553262 4293530880
3.1569388 -1.2681614 -0.51740098 4293530880
3.1593719 -1.2690187 -0.52798975 4293530880
3.1650457 -1.2711763 -0.53853965 4293530880
3.1629157 -1.2702029 -0.54715711 4293530880
3.1528342 -1.2660397 -0.55373937 4293530880
3.149786 -1.264699 -0.56088245 4293530880
3.14884 -1.2642019 -0.56774193 4293530880
3.1328092 -1.2576551 -0.57119477 4293530880
3.1329079 -1.2575783 -0.57688928 4293530880
3.1198184 -1.2522132 -0.57946908 4293400320
3.1203594 -1.2523146 -0.58388269 4293400320
3.1198285 -1.2519866 -0.58741683 4293400320
3.1067441 -1.2466263 -0.58789414 4293400320
3.110997 -1.2482169 -0.59095222 4293400320
3.1062164 -1.2461866 -0.59160858 4293400320
3.1142013 -1.2492731 -0.59400183 4293400320
3.1187806 -1.2509944 -0.59505588 4293400320
3.1259542 -1.2537552 -0.59590864 4293530880
3.1261842 -1.2537339 -0.59474337 4293530880
3.1434302 -1.2605296 -0.59610564 4293530880
3.1364727 -1.2576288 -0.59218585 4293530880
3.1393311 -1.2586606 -0.58942932 4293530880
3.1488657 -1.2623664 -0.58722305 4293530880
3.1534343 -1.2640829 -0.58339059 4293530880
3.157001 -1.2653983 -0.57868296 4293530880
3.1457653 -1.2607864 -0.57061094 4293530880
3.1577106 -1.2654568 -0.56607229 4293530880
3.1484427 -1.2616341 -0.55707943 4293530880
3.1404903 -1.2583389 -0.54771811 4293530880
3.1318285 -1.2547606 -0.53764683 4293400320
3.1291618 -1.2535825 -0.52801704 4293400320
3.1168077 -1.248528 -0.51619697 4293400320
3.1481824 -1.2609732 -0.5109508 4293530880
3.1591642 -1.2652568 -0.50167614 4293530880
3.1515493 -1.2620993 -0.48887306 4293530880
3.1373458 -1.2563068 -0.47457835 4293400320
3.120985 -1.2496524 -0.45954198 4293400320
3.1277409 -1.2522458 -0.4474223 4293400320
3.1464803 -1.2596319 -0.43640086 4293400320
3.1444714 -1.2587191 -0.42194605 4293400320
3.1182806 -1.2481368 -0.40391272 4293400320
3.1071343 -1.2435719 -0.38754955 4293269760
3.1331823 -1.2538788 -0.37531009 4293400320
3.148926 -1.2600646 -0.36121523 4293400320
3.1475732 -1.2594153 -0.34469244 4293400320
3.0921683 -1.2371609 -0.32218692 4293269760
3.1143103 -1.2459042 -0.30756211 4293269760
3.1152956 -1.246191 -0.29039142 4293269760
3.1196654 -1.2478303 -0.27318871 4293269760
3.0931783 -1.2371398 -0.253122 4293269760
3.1180861 -1.2469856 -0.23698099 4293269760
3.1204736 -1.2478328 -0.21871868 4293269760
3.1356041 -1.2537702 -0.20100637 4293400320
3.126687 -1.2501014 -0.18150575 4293269760
3.1139967 -1.2449261 -0.16172424 4293269760
3.1231883 -1.2484908 -0.14292264 4293269760
3.1322558 -1.2520053 -0.12385046 4293269760
3.0952656 -1.2371284 -0.10301125 4293139200
3.114583 -1.2447357 -0.084035389 4293269760
3.131876 -1.2515336 -0.064686649 4293269760
3.1227553 -1.2477862 -0.044679474 4293269760
3.1147876 -1.2444994 -0.024751842 4293269760
3.1333358 -1.2517966 -0.0049385326 4293269760
3.1368465 -1.2530912 0.015038353 4293269760
3.1216826 -1.2469331 0.034828927 4293269760
3.1494157 -1.2578932 0.055145122 4293400320
3.1549911 -1.2600105 0.075218201 4293400320
3.1639414 -1.263474 0.095379829 4293400320
3.1181362 -1.2450933 0.11354478 4293269760
3.1506584 -1.25796 0.13436492 4293400320
3.1548457 -1.2595227 0.15405197 4293400320
3.1605518 -1.2616909 0.17370428 4293400320
3.0878677 -1.2325972 0.18843861 4293139200
3.1647871 -1.2631639 0.2121384 4293400320
3.1656396 -1.2633957 0.23096041 4293400320
3.1563613 -1.2595882 0.24873753 4293400320
3.083463 -1.2304189 0.26074317 4293139200
3.1729348 -1.2659786 0.28630009 4293530880
3.1810961 -1.2691226 0.3047438 4293530880
3.1879597 -1.2717488 0.3228071 4293530880
3.14833 -1.2558461 0.33562297 4293400320
3.0632923 -1.2218517 0.34256187 4293139200
3.1797502 -1.2681484 0.37182471 4293530880
3.1711786 -1.2646236 0.38658711 4293530880
3.1540787 -1.2577018 0.39974907 4293530880
3.1359751 -1.250381 0.4121657 4293400320
3.091043 -1.2323753 0.42029867 4293269760
3.1700335 -1.2637278 0.44496134 4293530880
3.167938 -1.2627829 0.4580664 4293530880
3.180882 -1.2678268 0.47286972 4293530880
3.1680987 -1.2626258 0.48330894 4293530880
3.1529114 -1.2564684 0.49272186 4293530880
3.1484945 -1.2545995 0.50318146 4293530880
3.1667871 -1.2617705 0.51673943 4293530880
3.1682947 -1.262259 0.52702749 4293530880
3.1635137 -1.2602444 0.53565061 4293530880
3.1561379 -1.2571973 0.54317921 4293530880
3.1655874 -1.2608457 0.55297846 4293530880
3.1618409 -1.2592427 0.55984414 4293530880
3.1657944 -1.260703 0.56742144 4293530880
3.1549048 -1.256258 0.57166255 4293530880
3.1449513 -1.2521859 0.57536662 4293530880
3.1579809 -1.2572558 0.58260661 4293530880
3.1450031 -1.251981 0.5843671 4293530880
3.1399209 -1.2498468 0.5868873 4293530880
3.1440995 -1.2513951 0.59044838 4293530880
3.1438084 -1.2511657 0.59247983 4293530880
3.1436267 -1.2509795 0.59383535 4293530880
3.1435552 -1.250837 0.59451365 4293530880
3.1435943 -1.2507381 0.59451395 4293530880
3.1561069 -1.2555966 0.59617239 4293530880
3.142638 -1.2501284 0.5922237 4293530880
3.152148 -1.2537924 0.59191084 4293530880
3.1534498 -1.2541938 0.5893535 4293530880
3.1536732 -1.2541665 0.58590162 4293530880
3.1597888 -1.2564797 0.58284968 4293530880
3.1538808 -1.2540159 0.57689744 4293530880
3.1544547 -1.254127 0.57146478 4293530880
3.1622658 -1.2571121 0.56666005 4293530880
3.1532514 -1.2534146 0.55818254 4293530880
3.1589897 -1.2555755 0.55167383 4293530880
3.136399 -1.246488 0.53961945 4293400320
3.1425447 -1.2488104 0.53192705 4293530880
3.1523786 -1.2525963 0.52419734 4293530880
3.1597424 -1.2554007 0.51539886 4293530880
3.1670923 -1.2581989 0.50595647 4293530880
3.1523535 -1.25223 0.49242949 4293530880
3.1235919 -1.24005 0.40369672 4293400320
3.1571307 -1.2532315 0.39301488 4293530880
3.1668184 -1.2569524 0.37871274 4293530880
3.152096 -1.2509936 0.36109078 4293400320
3.1254556 -1.2403108 0.34190986 4293400320
3.143044 -1.2471633 0.32723591 4293400320
3.1426172 -1.2468733 0.31022948 4293400320
3.1360292 -1.2441413 0.29230824 4293400320
3.100343 -1.2298777 0.27158347 4293269760
3.1295149 -1.2413182 0.25628254 4293269760
3.1434927 -1.2467359 0.23920503 4293400320
3.1432166 -1.2465051 0.220698 4293400320
3.1052442 -1.2313406 0.19952361 4293269760
3.1458964 -1.2473236 0.18317506 4293400320
3.143187 -1.2461288 0.16386551 4293400320
3.1465771 -1.2473497 0.14469077 4293400320
3.107507 -1.2317561 0.12361922 4293269760
3.1330256 -1.2417401 0.10507501 4293269760
3.1286662 -1.2398927 0.085276246 4293269760
3.127305 -1.2392324 0.065501615 4293269760
3.1007411 -1.2285961 0.045298725 4293139200
3.1191542 -1.2357638 0.025761673 4293269760
3.1162894 -1.234509 0.0059165191 4293269760
3.0838075 -1.221534 -0.013774102 4293139200
3.113785 -1.2332764 -0.033702407 4293269760
3.1212175 -1.2360963 -0.053594466 4293269760
3.1232789 -1.2367907 -0.07339973 4293269760
3.1041641 -1.2291083 -0.092527077 4293139200
3.1270995 -1.2380598 -0.11282425 4293269760
3.1370361 -1.2418686 -0.13274094 4293269760
3.1530101 -1.2480643 -0.15293084 4293400320
3.1127625 -1.2320275 -0.1700944 4293269760
3.1302361 -1.2388159 -0.19007559 4293269760
3.1436372 -1.2439928 -0.20979246 4293400320
3.1350913 -1.2404933 -0.22785315 4293269760
3.1170242 -1.2332309 -0.24482085 4293269760
3.1480596 -1.2453768 -0.26544091 4293400320
3.1687346 -1.2534261 -0.28519776 4293530880
3.1650925 -1.251865 -0.30255792 4293400320
3.1438997 -1.2433698 -0.31777716 4293400320
3.1363866 -1.2402809 -0.33387041 4293400320
3.1570945 -1.248341 -0.35266143 4293400320
3.16892 -1.2528911 -0.37024274 4293530880
3.1587055 -1.2487355 -0.38485447 4293400320
3.119199 -1.233013 -0.39523456 4293269760
3.1729686 -1.2541267 -0.4170298 4293530880
3.1774936 -1.2557925 -0.43217501 4293530880
3.1756117 -1.2549287 -0.44597882 4293530880
3.1845386 -1.2583321 -0.46082625 4293530880
3.1789231 -1.2559948 -0.47306913 4293530880
3.1599154 -1.2483723 -0.48269042 4293530880
3.1589017 -1.2478529 -0.49442965 4293530880
3.1620257 -1.2489666 -0.50626081 4293530880
3.1559961 -1.2464684 -0.51604301 4293530880
3.1621149 -1.2487639 -0.52721775 4293530880
3.159533 -1.2476269 -0.53635263 4293530880
3.1702619 -1.2517408 -0.54715008 4293530880
3.16067 -1.2478392 -0.55382222 4293530880
3.1662788 -1.2499335 -0.56250334 4293530880
3.1515636 -1.2440127 -0.5669111 4293530880
3.1446693 -1.2411772 -0.57202071 4293530880
3.1576049 -1.2461611 -0.58007783 4293530880
3.1144845 -1.2290446 -0.57713562 4293400320
3.1184356 -1.2304872 -0.58216733 4293400320
3.110714 -1.227329 -0.58434266 4293400320
3.1102886 -1.2270472 -0.58719635 4293400320
3.1099696 -1.2268077 -0.58938503 4293400320
3.1097589 -1.226611 -0.59090644 4293400320
3.113322 -1.2279018 -0.59245527 4293400320
3.1260157 -1.2327899 -0.59504896 4293400320
3.1215539 -1.2309186 -0.59368938 4293400320
3.1251886 -1.2322376 -0.5931738 4293400320
3.1461384 -1.2403765 -0.5952332 4293530880
3.1437461 -1.239321 -0.59217888 4293530880
3.1466105 -1.2403362 -0.58942229 4293530880
3.1561666 -1.2439864 -0.58721602 4293530880
3.1566193 -1.2440518 -0.58262336 4293530880
3.1597326 -1.245165 -0.57783854 4293530880
3.1530569 -1.2424245 -0.57060397 4293530880
3.1558499 -1.2434119 -0.5644263 4293530880
3.1511478 -1.2414495 -0.55626333 4293530880
3.1477675 -1.2400078 -0.54771113 4293530880
3.1310911 -1.2333342 -0.53627312 4293400320
3.1226208 -1.2298911 -0.52569252 4293400320
3.1286271 -1.2321446 -0.51694852 4293400320
3.1554749 -1.2425973 -0.51094377 4293530880
3.1618781 -1.2450058 -0.50094116 4293530880
3.1610134 -1.2445555 -0.48920053 4293530880
3.1366954 -1.2348807 -0.47337902 4293400320
3.1115425 -1.2248795 -0.45709106 4293269760
3.125757 -1.2303613 -0.44610131 4293400320
3.1408422 -1.2361847 -0.43460932 4293400320
3.1471326 -1.2385494 -0.42132214 4293400320
3.1153374 -1.2259407 -0.40259546 4293269760
3.1143258 -1.2254356 -0.38754264 4293269760
3.1274834 -1.2305003 -0.37375897 4293400320
3.1417782 -1.2360113 -0.3595601 4293400320
3.1418929 -1.2359486 -0.34327248 4293400320
3.0909848 -1.2158357 -0.3213155 4293139200
3.1168807 -1.2259053 -0.30709976 4293269760
3.1262112 -1.2294647 -0.29072848 4293269760
3.120934 -1.2272847 -0.27266368 4293269760
3.0919793 -1.215804 -0.25243524 4293139200
3.1215827 -1.2273269 -0.23669334 4293269760
3.1314046 -1.2310783 -0.21897066 4293269760
3.136353 -1.2329152 -0.20058513 4293269760
3.1339157 -1.2318515 -0.1814988 4293269760
3.1211953 -1.2267503 -0.16171731 4293269760
3.1220374 -1.2269751 -0.14253542 4293269760
3.1260056 -1.2284271 -0.12331428 4293269760
3.1024189 -1.2190619 -0.10300436 4293139200
3.1217802 -1.2265565 -0.084028453 4293269760
3.1356699 -1.2319025 -0.064609453 4293269760
3.1439321 -1.2350389 -0.044868987 4293269760
3.1266375 -1.2281457 -0.024780877 4293269760
3.1383855 -1.2326497 -0.0049285404 4293269760
3.1487463 -1.2366086 0.015068485 4293400320
3.1251688 -1.227252 0.034793735 4293269760
3.1473806 -1.2358596 0.054987844 4293400320
3.1576226 -1.2397707 0.075113714 4293400320
3.1805522 -1.2486572 0.095668368 4293400320
3.1337087 -1.230178 0.11385737 4293269760
3.1532803 -1.2377468 0.13417326 4293400320
3.1714277 -1.244756 0.15451358 4293400320
3.1631975 -1.2414213 0.17345567 4293400320
3.0903463 -1.2127523 0.18816181 4293139200
3.1627979 -1.2410498 0.21152264 4293400320
3.1682994 -1.2430987 0.23062871 4293400320
3.1682861 -1.2429858 0.24911025 4293400320
3.0859354 -1.2106031 0.26035786 4293139200
3.1756148 -1.2456418 0.28588891 4293530880
3.1884332 -1.2505562 0.30475089 4293530880
3.1860418 -1.2495104 0.32187656 4293530880
3.1379857 -1.2305739 0.3337554 4293400320
3.0703557 -1.2039725 0.3425687 4293139200
3.1741221 -1.2445138 0.37031838 4293530880
3.1692374 -1.2424915 0.38546783 4293530880
3.1678343 -1.2418329 0.40057686 4293530880
3.138582 -1.2302682 0.41156617 4293400320
3.1027861 -1.2161431 0.42093268 4293269760
3.1807542 -1.2465634 0.44544703 4293530880
3.1788149 -1.245694 0.45858985 4293530880
3.1835988 -1.2474566 0.47219229 4293530880
3.1661777 -1.2405267 0.48191184 4293530880
3.1601746 -1.2380668 0.49272889 4293530880
3.1382458 -1.2293743 0.50039631 4293400320
3.1611912 -1.2382438 0.51464689 4293530880
3.1709898 -1.2419672 0.52627051 4293530880
3.1618009 -1.2382606 0.53413689 4293530880
3.1634052 -1.238777 0.54318625 4293530880
3.1554103 -1.2355379 0.54994011 4293530880
3.1608496 -1.2375541 0.55838948 4293530880
3.1638954 -1.2386334 0.56578505 4293530880
3.1621666 -1.2378449 0.57166958 4293530880
3.1439261 -1.2305996 0.5738647 4293530880
3.1514792 -1.2334409 0.58007824 4293530880
3.1476512 -1.2318317 0.58352309 4293530880
3.1517334 -1.2333149 0.5877502 4293530880
3.1513331 -1.2330452 0.59045541 4293530880
3.1510406 -1.2328174 0.5924868 4293530880
3.1508577 -1.2326323 0.59384239 4293530880
3.1461987 -1.2306976 0.59365493 4293530880
3.1494541 -1.2318559 0.59426242 4293530880
3.1541908 -1.2335922 0.59444988 4293530880
3.1626947 -1.2367997 0.59464401 4293530880
3.1548076 -1.2336032 0.59105802 4293530880
3.1606994 -1.2357893 0.58936054 4293530880
3.1609228 -1.2357607 0.58590865 4293530880
3.1670518 -1.2380382 0.58285671 4293530880
3.1611295 -1.2356089 0.57690448 4293530880
3.1571112 -1.2339232 0.57064134 4293530880
3.1659708 -1.2372656 0.56603009 4293530880
3.1604967 -1.2350112 0.55818957 4293530880
3.1524549 -1.2317547 0.54927659 4293530880
3.1473556 -1.229647 0.54027069 4293530880
3.1451623 -1.2286737 0.5311566 4293400320
3.1559365 -1.2327608 0.52359307 4293530880
3.1669991 -1.2369593 0.51540589 4293530880
3.1651506 -1.2361193 0.50449395 4293530880
3.1666896 -1.2366009 0.49354339 4293530880
3.1265988 -1.220197 0.40316662 4293400320
3.1567831 -1.2318454 0.39207813 4293400320
3.1694546 -1.2366647 0.37816685 4293530880
3.1546953 -1.230791 0.36056781 4293400320
3.127991 -1.2202629 0.34141037 4293269760
3.1409795 -1.2252049 0.32627839 4293400320
3.1535366 -1.2299777 0.31060252 4293400320
3.1339388 -1.2222211 0.29145074 4293269760
3.1116304 -1.21341 0.27195612 4293269760
3.1320453 -1.2212431 0.25590929 4293269760
3.1414053 -1.2247685 0.23850504 4293400320
3.1492128 -1.2276884 0.22062008 4293400320
3.1123626 -1.2132167 0.19953056 4293269760
3.1438026 -1.2253393 0.18264009 4293269760
3.1518772 -1.2283621 0.16395006 4293400320
3.1491332 -1.2271723 0.14448346 4293400320
3.1062469 -1.2103561 0.12329209 4293139200
3.1271644 -1.2183782 0.10464343 4293269760
3.12745 -1.2183686 0.085053742 4293269760
3.1309855 -1.2196237 0.065435164 4293269760
3.1078444 -1.2104981 0.045305647 4293139200
3.1262987 -1.2175584 0.025768636 4293269760
3.1234267 -1.2163203 0.005923477 4293269760
3.1001894 -1.2071601 -0.013806891 4293139200
3.1078684 -1.2100272 -0.033557188 4293139200
3.1283643 -1.2178787 -0.053587496 4293269760
3.1388156 -1.2218223 -0.073587634 4293269760
3.1066122 -1.2091788 -0.092382602 4293139200
3.1274104 -1.2171456 -0.11257227 4293269760
3.1442163 -1.2235585 -0.13273394 4293269760
3.1555707 -1.2278513 -0.15269953 4293400320
3.1152315 -1.2120498 -0.16983476 4293269760
3.1290236 -1.2172903 -0.18956313 4293269760
3.1500885 -1.2253561 -0.20973626 4293400320
3.1422639 -1.2221944 -0.22784615 4293269760
3.1228433 -1.214528 -0.24471143 4293269760
3.1547058 -1.2267869 -0.26538736 4293400320
3.1607893 -1.2290291 -0.28383017 4293400320
3.1639745 -1.2301451 -0.30175593 4293400320
3.1464486 -1.2232171 -0.31730333 4293400320
3.1472688 -1.2234154 -0.33425653 4293400320
3.1528609 -1.2254667 -0.35138109 4293400320
3.1539223 -1.2257586 -0.36764878 4293400320
3.1566632 -1.2267025 -0.38372388 4293400320
3.1216996 -1.2130095 -0.39464363 4293269760
3.1777732 -1.2346567 -0.41670248 4293530880
3.1786051 -1.234859 -0.43133503 4293530880
3.1891518 -1.2388316 -0.44685036 4293530880
3.1825752 -1.2361591 -0.45948774 4293530880
3.1732569 -1.2324232 -0.47114605 4293530880
3.1462829 -1.2218385 -0.4795115 4293400320
3.1636777 -1.2284683 -0.49404228 4293530880
3.1554153 -1.2251445 -0.50404811 4293530880
3.1561575 -1.2253141 -0.51488847 4293530880
3.1613212 -1.2271987 -0.5258798 4293530880
3.1667478 -1.229185 -0.5363456 4293530880
3.163691 -1.2278818 -0.54476923 4293530880
3.1586833 -1.2258227 -0.55220908 4293530880
3.1624558 -1.227168 -0.5605408 4293530880
3.1499238 -1.222193 -0.56532133 4293530880
3.1518466 -1.222822 -0.57201368 4293530880
3.1556196 -1.2241682 -0.57838893 4293530880
3.1133213 -1.2076603 -0.57560217 4293400320
3.1301448 -1.2140651 -0.58301455 4293400320
3.1132183 -1.2073922 -0.58347636 4293400320
3.112792 -1.2071134 -0.58632582 4293400320
3.1207373 -1.2100779 -0.5900715 4293400320
3.1205251 -1.2098823 -0.59159476 4293400320
3.1121583 -1.2065285 -0.59088176 4293400320
3.1285534 -1.2127652 -0.5941714 4293400320
3.119489 -1.2091422 -0.59194279 4293400320
3.1231306 -1.21044 -0.59143054 4293400320
3.1404665 -1.2170397 -0.5928055 4293530880
3.1509128 -1.2209711 -0.59217185 4293530880
3.1537828 -1.2219695 -0.58941525 4293530880
3.1576068 -1.2233372 -0.58614278 4293530880
3.1592174 -1.2238481 -0.58177137 4293530880
3.1540611 -1.2217405 -0.57548678 4293530880
3.16484 -1.2257997 -0.5714258 4293530880
3.1547599 -1.2217878 -0.56294423 4293530880
3.1537249 -1.2212762 -0.55544716 4293530880
3.1432962 -1.2171309 -0.54568654 4293400320
3.1382229 -1.2150582 -0.53626615 4293400320
3.1297326 -1.2116644 -0.52568555 4293400320
3.1228456 -1.2088916 -0.51481771 4293400320
3.1597059 -1.2230368 -0.51046032 4293530880
3.1666324 -1.2256051 -0.50054836 4293530880
3.1589777 -1.2225355 -0.48777059 4293530880
3.1438358 -1.2165722 -0.47337201 4293400320
3.1223938 -1.2081747 -0.45763543 4293269760
3.128248 -1.2103297 -0.44543731 4293400320
3.1458154 -1.2170116 -0.43430266 4293400320
3.1496661 -1.2183914 -0.42069817 4293400320
3.1131647 -1.2041781 -0.40139693 4293269760
3.1038055 -1.200455 -0.38535464 4293269760
3.1324143 -1.2114021 -0.37349218 4293269760
3.1442869 -1.2158816 -0.3590247 4293400320
3.1478314 -1.2171435 -0.34313414 4293400320
3.0980146 -1.1977941 -0.32130858 4293139200
3.115608 -1.2044835 -0.30627304 4293269760
3.1296022 -1.209782 -0.2903775 4293269760
3.1233809 -1.2072732 -0.27225259 4293269760
3.0943577 -1.1959609 -0.25205061 4293139200
3.1240261 -1.2073106 -0.23633547 4293269760
3.1301439 -1.2095666 -0.21838109 4293269760
3.1397562 -1.2131712 -0.20034128 4293269760
3.1326535 -1.2103236 -0.18100925 4293269760
3.11431 -1.203138 -0.16099092 4293269760
3.1244707 -1.2069541 -0.14231718 4293269760
3.1284461 -1.2083827 -0.12312483 4293269760
3.104804 -1.199155 -0.10284397 4293139200
3.1158137 -1.203298 -0.083673552 4293269760
3.136914 -1.2113332 -0.064482808 4293269760
3.1417429 -1.2130903 -0.044730991 4293269760
3.1227314 -1.2056514 -0.024689032 4293269760
3.1371145 -1.2110935 -0.0049099866 4293269760
3.1540325 -1.2175124 0.015066287 4293400320
3.1359813 -1.2104453 0.034842726 4293269760
3.1414642 -1.2124538 0.054764848 4293269760
3.1647897 -1.2213411 0.075120784 4293400320
3.1702538 -1.223341 0.095146783 4293400320
3.1231019 -1.205058 0.11321907 4293269760
3.1557736 -1.2175459 0.13398165 4293400320
3.1646414 -1.2208573 0.15383877 4293400320
3.1668892 -1.2216166 0.17327157 4293400320
3.0926986 -1.1929206 0.18788502 4293139200
3.1653154 -1.2207961 0.2112183 4293400320
3.1700883 -1.222528 0.23024306 4293400320
3.1661646 -1.2209091 0.24838595 4293400320
3.0929329 -1.1925921 0.26036477 4293139200
3.1874645 -1.2288986 0.28631428 4293530880
3.1919439 -1.2305155 0.30440298 4293530880
3.1886191 -1.2291266 0.32141483 4293530880
3.1488135 -1.2136898 0.33415708 4293400320
