# .PCD v0.7 - Point Cloud Data file format
VERSION 0.7
FIELDS x y z rgba
SIZE 4 4 4 4
TYPE F F F U
COUNT 1 1 1 1
WIDTH 1079
HEIGHT 1
VIEWPOINT 0 0 0 1 0 0 0
POINTS 1079
DATA ascii
3.3309474 -0.60178202 -0.43337539 4293400320
3.3344555 -0.60230768 -0.41966102 4293400320
3.2936432 -0.59482878 -0.40006149 4293269760
3.3092954 -0.59754825 -0.38698059 4293269760
3.3265567 -0.60055715 -0.37350425 4293400320
3.3395984 -0.60280329 -0.35899532 4293400320
3.3287802 -0.60074258 -0.34151337 4293400320
3.2990217 -0.59526509 -0.32191226 4293269760
3.3111529 -0.5973466 -0.30613008 4293269760
3.3286977 -0.60040379 -0.2903572 4293400320
3.3309617 -0.60070413 -0.27282849 4293400320
3.3098276 -0.59678543 -0.25318646 4293269760
3.3266358 -0.59970814 -0.23619187 4293269760
3.3315139 -0.60047942 -0.21797284 4293400320
3.3270748 -0.59957141 -0.19890468 4293269760
3.3201737 -0.59822011 -0.17953753 4293269760
3.318625 -0.5978334 -0.16031331 4293269760
3.3301742 -0.59980595 -0.14148988 4293269760
3.333014 -0.60020936 -0.1220595 4293269760
3.3102415 -0.59600109 -0.10167717 4293269760
3.3263805 -0.59879899 -0.082419038 4293269760
3.3454139 -0.60211676 -0.062934473 4293400320
3.3286605 -0.59899348 -0.04269575 4293269760
3.3299582 -0.59911901 -0.022735244 4293269760
3.3533826 -0.60322475 -0.002753037 4293400320
3.3500297 -0.60251296 0.017374448 4293400320
3.3079267 -0.59483325 0.037009176 4293269760
3.3664408 -0.60524613 0.057827268 4293400320
3.3796573 -0.60751271 0.078234039 4293530880
3.3660624 -0.60495979 0.097933568 4293400320
3.2534232 -0.5846104 0.11389841 4293008640
3.3746963 -0.60629261 0.13797532 4293530880
3.3810086 -0.60731703 0.15795189 4293530880
3.335026 -0.59894919 0.17508487 4293400320
3.1026397 -0.55711347 0.18064545 4292616960
3.3819964 -0.60716546 0.21605581 4293530880
3.3766947 -0.60610414 0.23459713 4293530880
3.3403065 -0.5994643 0.25049204 4293400320
3.1079206 -0.55765861 0.24995133 4292616960
3.3989551 -0.60976911 0.29152486 4293530880
3.4024813 -0.61029142 0.30969253 4293661440
3.38502 -0.6070497 0.32553709 4293530880
3.2679417 -0.58594757 0.33076116 4293139200
3.0302873 -0.54323745 0.32165211 4292355840
3.3990147 -0.60922873 0.37715352 4293661440
3.3860941 -0.60680312 0.39160162 4293530880
3.3679082 -0.60343492 0.40485975 4293530880
3.3021519 -0.59154612 0.41157183 4293269760
3.1929691 -0.57188368 0.41164994 4292878080
3.39516 -0.6079874 0.45177713 4293661440
3.3923485 -0.60737395 0.46494138 4293661440
3.3836083 -0.60569936 0.47672167 4293661440
3.3766873 -0.60435098 0.48815781 4293530880
3.3292463 -0.59575218 0.49298814 4293400320
3.2766886 -0.58624101 0.49615565 4293269760
3.3786089 -0.6043663 0.52229351 4293661440
3.3870606 -0.60576832 0.53373098 4293661440
3.3796885 -0.60434026 0.54206556 4293661440
3.3823121 -0.60469973 0.5513646 4293661440
3.3659887 -0.60167229 0.55690503 4293530880
3.3745468 -0.60309261 0.56589687 4293661440
3.3690886 -0.60200793 0.57188982 4293661440
3.364495 -0.60107803 0.57734537 4293530880
3.3636098 -0.60081089 0.58275551 4293530880
3.3552167 -0.59920293 0.58617198 4293530880
3.3409646 -0.59654933 0.58785093 4293530880
3.3244314 -0.59348947 0.58840686 4293400320
3.3288348 -0.59416765 0.59196687 4293530880
3.3372295 -0.59555787 0.59555298 4293530880
3.3282874 -0.59385419 0.59534955 4293530880
3.3664551 -0.60055518 0.60287988 4293661440
3.3529007 -0.59802848 0.60044944 4293530880
3.3433423 -0.59621525 0.59803325 4293530880
3.3521736 -0.59768146 0.59820449 4293530880
3.3648767 -0.5998373 0.5983547 4293661440
3.3517869 -0.59739524 0.59322119 4293530880
3.3654737 -0.59972554 0.59212995 4293661440
3.367058 -0.59989876 0.58820146 4293661440
3.3751743 -0.60123539 0.58471406 4293661440
3.3806643 -0.60210377 0.58006948 4293661440
3.3813612 -0.60211831 0.57391721 4293661440
3.3858378 -0.60280567 0.56772923 4293661440
3.3753948 -0.60083705 0.55839556 4293661440
3.3786309 -0.60130358 0.55069411 4293661440
3.3591433 -0.59772646 0.53869605 4293530880
3.3648047 -0.59862483 0.53014547 4293530880
3.3743281 -0.60020971 0.52154934 4293530880
3.3849096 -0.60198218 0.51245636 4293661440
3.3896563 -0.60271651 0.50184429 4293661440
3.3427131 -0.59367025 0.40985361 4293400320
3.3640621 -0.5973528 0.39737201 4293530880
3.3812497 -0.60029525 0.38377941 4293530880
3.3754885 -0.59916306 0.36710218 4293530880
3.3398619 -0.59273094 0.34696952 4293400320
3.3433423 -0.59324026 0.33067104 4293400320
3.3644211 -0.59687144 0.31562281 4293530880
3.3584702 -0.59570688 0.29761437 4293400320
3.336308 -0.59166777 0.27799022 4293400320
3.3298352 -0.59041196 0.25952047 4293400320
3.3598421 -0.59562361 0.24348049 4293400320
3.359098 -0.59538287 0.2247861 4293400320
3.3144069 -0.58735424 0.20316124 4293269760
3.3467865 -0.59298384 0.18610659 4293400320
3.3594904 -0.59512585 0.16749853 4293400320
3.367379 -0.59641421 0.14835006 4293400320
3.3176718 -0.58750278 0.12674873 4293269760
3.3411715 -0.59155589 0.10795962 4293400320
3.349283 -0.59288353 0.088370278 4293400320
3.3341699 -0.59010023 0.068114892 4293269760
3.3109386 -0.58588135 0.047849238 4293269760
3.3217971 -0.58769518 0.028098654 4293269760
3.333545 -0.58966559 0.0081899334 4293269760
3.2915709 -0.58213425 -0.011677849 4293139200
3.3009498 -0.58368605 -0.031519257 4293269760
3.328835 -0.5885089 -0.051726494 4293269760
3.3400912 -0.59039074 -0.071853608 4293400320
3.3032129 -0.58376509 -0.090715259 4293269760
3.3324037 -0.58881593 -0.11124655 4293269760
3.3431954 -0.5906145 -0.13127947 4293400320
3.3582797 -0.59317046 -0.15149024 4293400320
3.2983863 -0.58248472 -0.1678956 4293269760
3.3218758 -0.58652532 -0.1881507 4293269760
3.3329504 -0.58837265 -0.2076955 4293400320
3.3454492 -0.59047079 -0.22723559 4293400320
3.2989044 -0.58214873 -0.24232955 4293269760
3.3357668 -0.58854574 -0.26322868 4293400320
3.3540063 -0.59165514 -0.28266847 4293400320
3.3556986 -0.59184498 -0.30050984 4293400320
3.3444664 -0.58975559 -0.31681347 4293400320
3.3344667 -0.58788425 -0.33277509 4293400320
3.3566599 -0.59168833 -0.35164037 4293400320
3.3596151 -0.59210038 -0.36822429 4293530880
3.3506336 -0.59040898 -0.38306192 4293400320
3.3432109 -0.58899271 -0.39757362 4293400320
3.3619859 -0.59219152 -0.41480535 4293530880
3.3667591 -0.59292328 -0.4299483 4293530880
3.3722141 -0.59377468 -0.44473779 4293530880
3.36606 -0.59258205 -0.4574922 4293530880
3.3696012 -0.59309638 -0.47103542 4293530880
3.3084044 -0.58221775 -0.47478053 4293400320
3.3227596 -0.58463633 -0.48865104 4293400320
3.3307824 -0.58594006 -0.50111091 4293400320
3.3341253 -0.58642012 -0.51233131 4293400320
3.3349462 -0.58645654 -0.52258992 4293400320
3.3453081 -0.58817035 -0.53377491 4293530880
3.3335776 -0.58599997 -0.5408181 4293400320
3.3347909 -0.58610523 -0.5493083 4293530880
3.3426864 -0.58738458 -0.55828476 4293530880
3.3350906 -0.58594185 -0.56402892 4293530880
3.3283334 -0.58464694 -0.56923097 4293400320
3.312376 -0.58173656 -0.5721572 4293400320
3.3164465 -0.58234406 -0.57785529 4293400320
3.3026435 -0.57981342 -0.57975322 4293400320
3.3069117 -0.58045566 -0.58413303 4293400320
3.2931294 -0.57792985 -0.58463407 4293400320
3.2976208 -0.57861125 -0.587686 4293400320
3.2925251 -0.57761055 -0.58834219 4293400320
3.314431 -0.58134615 -0.59313768 4293400320
3.3008373 -0.57885498 -0.59089065 4293400320
3.3140423 -0.58106333 -0.59274596 4293400320
3.319098 -0.5818423 -0.59244567 4293400320
3.3296254 -0.58357996 -0.59242058 4293530880
3.3212719 -0.5820083 -0.58834338 4293400320
3.3283267 -0.5831368 -0.58630723 4293530880
3.3340085 -0.58402431 -0.58333045 4293530880
3.3308666 -0.5833661 -0.57812667 4293530880
3.3392074 -0.58471876 -0.57423311 4293530880
3.3332996 -0.58357638 -0.56721818 4293530880
3.332092 -0.58325708 -0.56035686 4293530880
3.3306925 -0.58290422 -0.5528186 4293400320
3.315218 -0.58008873 -0.54234409 4293400320
3.3006155 -0.57742673 -0.53145987 4293400320
3.3020103 -0.57756382 -0.52257234 4293400320
3.3176668 -0.58019489 -0.51529068 4293400320
3.3428609 -0.58449268 -0.50877422 4293530880
3.3629713 -0.58790004 -0.5007565 4293530880
3.3311791 -0.58223438 -0.48448232 4293400320
3.315697 -0.57942104 -0.47019467 4293400320
3.3164175 -0.57943958 -0.45772392 4293400320
3.33007 -0.58171713 -0.44646287 4293400320
3.3392825 -0.58321834 -0.43401039 4293400320
3.3415241 -0.58350164 -0.42011565 4293400320
3.2931402 -0.57494617 -0.39958674 4293269760
3.3166354 -0.57894081 -0.38743788 4293269760
3.3397906 -0.5828746 -0.3746025 4293400320
3.3404582 -0.58288294 -0.35871661 4293400320
3.3322237 -0.58133823 -0.34151337 4293400320
3.2975309 -0.57517898 -0.32143432 4293269760
3.3243878 -0.57975596 -0.30703619 4293269760
3.3233056 -0.57945961 -0.28958744 4293269760
3.3294954 -0.5804311 -0.27242678 4293400320
3.3167746 -0.57810611 -0.25345591 4293269760
3.3349872 -0.58117259 -0.23654039 4293400320
3.3398714 -0.58191562 -0.21829413 4293400320
3.3397958 -0.58179432 -0.19945915 4293400320
3.3285217 -0.57972264 -0.17980325 4293269760
3.3318925 -0.58020186 -0.16078819 4293269760
3.3385339 -0.58125037 -0.14169876 4293400320
3.3462999 -0.58249414 -0.12241969 4293400320
3.3136578 -0.5767048 -0.10167717 4293269760
3.3347373 -0.58026552 -0.082540922 4293269760
3.3399999 -0.58107316 -0.062767871 4293400320
3.3320937 -0.57958984 -0.04269575 4293269760
3.3383183 -0.5805645 -0.02276884 4293269760
3.3568404 -0.58367699 -0.002753037 4293400320
3.3534832 -0.58298475 0.017374448 4293400320
3.298681 -0.57335091 0.036867734 4293139200
3.3665571 -0.58503968 0.057769734 4293400320
3.3938887 -0.58967948 0.078482613 4293530880
3.36953 -0.58533818 0.097933568 4293400320
3.2518506 -0.56479025 0.11372623 4293008640
3.3830936 -0.58747542 0.13817637 4293530880
3.3844895 -0.58760828 0.15795189 4293530880
3.3345232 -0.57882529 0.17487846 4293269760
3.1107512 -0.53988099 0.18093152 4292616960
3.3815432 -0.58676845 0.21580479 4293530880
3.3801684 -0.58642048 0.23459713 4293530880
3.3437424 -0.57999277 0.25049204 4293400320
3.1062057 -0.53869009 0.24955676 4292616960
3.4161952 -0.5923391 0.29270256 4293661440
3.4108863 -0.59130812 0.3101387 4293661440
3.3903623 -0.5876404 0.32571602 4293530880
3.2663977 -0.56604838 0.33026549 4293139200
3.0334008 -0.52557313 0.32165211 4292355840
3.4162195 -0.59179056 0.37867355 4293661440
3.3934882 -0.58774298 0.39205405 4293530880
3.3630428 -0.5823611 0.40386015 4293530880
3.3104324 -0.57314372 0.41218069 4293269760
3.1962469 -0.55327106 0.41164994 4292878080
3.3908253 -0.58684289 0.45073771 4293661440
3.3958294 -0.5875991 0.46494138 4293661440
3.3870797 -0.58597547 0.47672167 4293661440
3.380151 -0.58466744 0.48815781 4293530880
3.3238852 -0.57482755 0.49169001 4293400320
3.2800486 -0.5671404 0.49615565 4293269760
3.3927126 -0.5865109 0.52393657 4293661440
3.3905325 -0.58602434 0.53373098 4293661440
3.3831522 -0.58463925 0.54206556 4293661440
3.3857777 -0.58498341 0.5513646 4293661440
3.3830533 -0.58440322 0.55915552 4293661440
3.3916147 -0.58577245 0.5681771 4293661440
3.3676791 -0.5815295 0.57106578 4293530880
3.3543367 -0.57911706 0.57501352 4293530880
3.3458323 -0.57754052 0.57908267 4293530880
3.3683627 -0.58132064 0.58786696 4293661440
3.341985 -0.57666016 0.58742934 4293530880
3.3462784 -0.57729274 0.59166825 4293530880
3.3458295 -0.57710707 0.59438103 4293530880
3.3454957 -0.57694125 0.59641814 4293530880
3.3452783 -0.57679552 0.59777749 4293530880
3.3364437 -0.57516438 0.59689504 4293530880
3.356328 -0.57848364 0.60044944 4293530880
3.3516121 -0.57756233 0.59890044 4293530880
3.3604519 -0.57897699 0.59906965 4293530880
3.3683145 -0.58022267 0.5983547 4293661440
3.381916 -0.58245623 0.59794283 4293661440
3.3727949 -0.58077627 0.5928126 4293661440
3.3753524 -0.58110744 0.58904898 4293661440
3.3786199 -0.58156073 0.58471406 4293661440
3.3889737 -0.5832333 0.58090234 4293661440
3.3809237 -0.58173853 0.57325792 4293661440
3.3892922 -0.58306885 0.56772923 4293661440
3.3934288 -0.58367074 0.56080687 4293661440
3.3869421 -0.58244544 0.55148631 4293661440
3.3664627 -0.57881474 0.53931987 4293530880
3.3584964 -0.57733643 0.52861261 4293530880
3.3826394 -0.58137733 0.52230155 4293661440
3.3896277 -0.58246875 0.51264822 4293661440
3.3899865 -0.58242077 0.50138229 4293661440
3.3461154 -0.57418483 0.40985361 4293400320
3.3674853 -0.57774299 0.39737201 4293530880
3.3895872 -0.58142531 0.38433474 4293530880
3.3838222 -0.58032697 0.36763453 4293530880
3.352083 -0.57477528 0.34788534 4293400320
3.3516469 -0.57459205 0.33115566 4293400320
3.3629341 -0.5764184 0.31516293 4293400320
3.3556483 -0.57506102 0.29706234 4293400320
3.3308575 -0.57070488 0.27725431 4293400320
3.3430459 -0.57268518 0.26028562 4293400320
3.3632553 -0.57603836 0.24348049 4293400320
3.36251 -0.57580197 0.2247861 4293400320
3.331547 -0.57039207 0.20400469 4293269760
3.3590424 -0.57499093 0.18659864 4293400320
3.3678231 -0.57638508 0.16774371 4293400320
3.3671544 -0.5761618 0.14818975 4293400320
3.3264573 -0.56909043 0.12695554 4293269760
3.3406205 -0.57140547 0.10783242 4293400320
3.3477535 -0.57251728 0.088240422 4293400320
3.3464208 -0.57218117 0.068295904 4293400320
3.3102679 -0.56589258 0.047791082 4293269760
3.3373384 -0.57041246 0.028201524 4293269760
3.3383143 -0.57047129 0.0081933467 4293269760
3.2989264 -0.5636338 -0.011692096 4293139200
3.318094 -0.56680137 -0.03165089 4293269760
3.3420634 -0.57078779 -0.051879492 4293400320
3.347502 -0.57160842 -0.071940169 4293400320
3.3114848 -0.56535113 -0.090850428 4293269760
3.3357778 -0.56939065 -0.11124655 4293269760
3.3465798 -0.57112634 -0.13127947 4293400320
3.3567545 -0.5727542 -0.15126835 4293400320
3.3115692 -0.56493729 -0.16839623 4293269760
3.330158 -0.56800079 -0.18842916 4293269760
3.3314021 -0.56810528 -0.20738924 4293269760
3.3439147 -0.570131 -0.22690189 4293400320
3.3071563 -0.56375676 -0.24269031 4293269760
3.3440533 -0.56993836 -0.26361606 4293400320
3.3524845 -0.57126695 -0.28225493 4293400320
3.3590899 -0.57228392 -0.30050984 4293400320
3.3527534 -0.571096 -0.31727788 4293400320
3.3427408 -0.56928241 -0.33326414 4293400320
3.3551474 -0.57128686 -0.35112727 4293400320
3.3630078 -0.5725165 -0.36822429 4293530880
3.3540165 -0.57087743 -0.38306192 4293400320
3.3505023 -0.570171 -0.39803889 4293400320
3.3458064 -0.5692637 -0.41239288 4293400320
3.3613532 -0.57180023 -0.42882523 4293530880
3.3684301 -0.57289517 -0.443791 4293530880
3.3782494 -0.57445604 -0.45868623 4293530880
3.3681161 -0.57262409 -0.47035348 4293530880
3.3254066 -0.5652554 -0.47673973 4293400320
3.3300121 -0.5659306 -0.4892244 4293400320
3.3364367 -0.56691462 -0.50145614 4293400320
3.3326113 -0.56615686 -0.51158315 4293400320
3.3400571 -0.56731385 -0.52286398 4293400320
3.3403127 -0.5672493 -0.53244144 4293530880
3.3554325 -0.56970847 -0.54381597 4293530880
3.3332832 -0.56584007 -0.54850763 4293400320
3.3411877 -0.56707388 -0.55747324 4293530880
3.3384478 -0.56650096 -0.56402892 4293530880
3.3268223 -0.5644207 -0.56840044 4293400320
3.3205688 -0.56325245 -0.57299578 4293400320
3.3149245 -0.56218791 -0.57700956 4293400320
3.3059654 -0.56056166 -0.57975322 4293400320
3.3189795 -0.56266105 -0.58567572 4293400320
3.2964408 -0.55873358 -0.58463407 4293400320
3.292196 -0.55790776 -0.58613002 4293400320
3.3006897 -0.5592404 -0.5892089 4293400320
3.2957041 -0.55828917 -0.5891943 4293400320
3.3138635 -0.56125826 -0.59262705 4293400320
3.3173714 -0.56174517 -0.59274596 4293400320
3.3224316 -0.5624947 -0.59244567 4293400320
3.3281131 -0.56334901 -0.5915575 4293400320
3.3343196 -0.56429183 -0.59006226 4293530880
3.3365252 -0.56455731 -0.58716202 4293530880
3.3373544 -0.56458974 -0.58333045 4293530880
3.3361492 -0.56427807 -0.57846314 4293530880
3.3376966 -0.56443197 -0.57339805 4293530880
3.3415053 -0.56496805 -0.56804472 4293530880
3.3279974 -0.56257665 -0.55910754 4293400320
3.3291667 -0.56266671 -0.55201185 4293400320
3.3136742 -0.55994123 -0.54154861 4293400320
3.3058681 -0.55851537 -0.53177261 4293400320
3.3101907 -0.55913866 -0.52334249 4293400320
3.3266408 -0.5618099 -0.51616734 4293400320
3.3413339 -0.56418329 -0.50803286 4293400320
3.3614616 -0.56747323 -0.50003088 4293530880
3.339395 -0.56364012 -0.4851914 4293400320
3.3190165 -0.56009328 -0.47019467 4293400320
3.3148515 -0.55928332 -0.45705032 4293400320
3.3382907 -0.56313014 -0.44711754 4293400320
3.3514266 -0.5652377 -0.43515337 4293400320
3.344867 -0.56402332 -0.42011565 4293400320
3.3150373 -0.55888623 -0.40184176 4293269760
3.3261249 -0.56064808 -0.38815823 4293400320
3.3446949 -0.5636701 -0.37477785 4293400320
3.3487005 -0.564237 -0.35924259 4293400320
3.3541954 -0.56505448 -0.34342197 4293400320
3.3008261 -0.55595714 -0.32143432 4293269760
3.3227987 -0.55955064 -0.30658314 4293269760
3.3315377 -0.56091464 -0.29001507 4293400320
3.3288889 -0.56036109 -0.2721054 4293269760
3.31164 -0.55735058 -0.25281113 4293269760
3.3333979 -0.56090474 -0.23619187 4293269760
3.3481255 -0.5632748 -0.21861543 4293400320
3.3431287 -0.56232613 -0.19945915 4293400320
3.3456144 -0.5626362 -0.18054643 4293400320
3.3352163 -0.56077975 -0.16078819 4293269760
3.3467903 -0.56261766 -0.14190766 4293400320
3.3447092 -0.56215978 -0.12223959 4293400320
3.3317473 -0.55987358 -0.10213041 4293269760
3.3469346 -0.56231755 -0.082760327 4293400320
3.358042 -0.56407523 -0.063044101 4293400320
3.3265541 -0.55867851 -0.042582337 4293269760
3.341644 -0.56110489 -0.02276884 4293269760
3.3651149 -0.56493723 -0.0027570771 4293400320
3.3706295 -0.56575418 0.017445911 4293400320
3.3157716 -0.55643922 0.037021887 4293269760
3.3699086 -0.5654155 0.057769734 4293400320
3.3874071 -0.56824201 0.078254834 4293530880
3.367954 -0.56486994 0.09779045 4293400320
3.2600143 -0.54666114 0.11389841 4293008640
3.3815317 -0.56692874 0.13797532 4293530880
3.3878555 -0.56787956 0.15795189 4293530880
3.3467033 -0.56087339 0.17534289 4293400320
3.118767 -0.52257288 0.18121758 4292616960
3.3937633 -0.56854099 0.21636958 4293530880
3.3933675 -0.56836504 0.23527937 4293530880
3.3569007 -0.56214869 0.25122815 4293400320
3.1240396 -0.52305275 0.25074047 4292616960
3.4120708 -0.57116711 0.29205906 4293661440
3.4055541 -0.56996626 0.30934668 4293530880
3.3869543 -0.56674397 0.32506588 4293530880
3.2794545 -0.54864997 0.33125684 4293139200
3.0403352 -0.50854731 0.32206777 4292355840
3.4196093 -0.57187688 0.37867355 4293661440
3.3968549 -0.56796181 0.39205405 4293530880
3.3614812 -0.56193876 0.4032726 4293530880
3.3225262 -0.55531931 0.41327664 4293400320
3.2043085 -0.53545719 0.41227943 4293008640
3.4039664 -0.56871122 0.45203644 4293661440
3.4089701 -0.56943709 0.46627837 4293661440
3.408999 -0.56933182 0.47933173 4293661440
3.3795941 -0.5643118 0.48759428 4293530880
3.332058 -0.55626684 0.4924112 4293400320
3.2969553 -0.55030018 0.49821958 4293269760
3.3814452 -0.56429332 0.52167994 4293661440
3.3944347 -0.56635141 0.53381675 4293661440
3.4001412 -0.56719375 0.54424894 4293661440
3.3891287 -0.56524724 0.5513646 4293661440
3.3815329 -0.56387126 0.55835181 4293661440
3.381345 -0.56373072 0.56589687 4293661440
3.3904681 -0.56514221 0.57436204 4293661440
3.3761334 -0.56264383 0.57817823 4293661440
3.3627534 -0.56030542 0.5814364 4293530880
3.3668318 -0.56087625 0.58701944 4293530880
3.3749032 -0.56211191 0.59262973 4293661440
3.3408389 -0.55633044 0.59012336 4293530880
3.3491352 -0.55760378 0.59438103 4293530880
3.3488002 -0.55743992 0.59641814 4293530880
3.3437245 -0.55648708 0.59691036 4293530880
3.3397381 -0.5557158 0.59689504 4293530880
3.3644989 -0.55972725 0.60131752 4293530880
3.3549201 -0.55802536 0.59890044 4293530880
3.3725123 -0.56084257 0.60062695 4293661440
3.3592811 -0.55853385 0.59616178 4293530880
3.3721259 -0.56056058 0.59562433 4293661440
3.3907013 -0.56353897 0.59537268 4293661440
3.3835418 -0.56223983 0.58989644 4293661440
3.3916752 -0.56348187 0.58639532 4293661440
3.391088 -0.56327486 0.58069235 4293661440
3.3930128 -0.56348503 0.57474124 4293661440
3.3974986 -0.56412029 0.56854361 4293661440
3.3919034 -0.5630818 0.5600031 4293661440
3.3805377 -0.56108588 0.54990184 4293661440
3.3697777 -0.55919123 0.53931987 4293530880
3.376426 -0.56018543 0.53091192 4293530880
3.3868682 -0.56180859 0.52244025 4293661440
3.4066243 -0.56497574 0.51471221 4293661440
3.4021082 -0.56411695 0.50268042 4293661440
3.3449976 -0.55395025 0.40931445 4293400320
3.375694 -0.55892479 0.39794964 4293530880
3.3978195 -0.56247854 0.38489005 4293530880
3.3920507 -0.56141406 0.36816689 4293530880
3.3465416 -0.55377388 0.34696952 4293400320
3.3549376 -0.55505496 0.33115566 4293400320
3.374491 -0.55818099 0.31593582 4293530880
3.3700979 -0.55734557 0.298049 4293530880
3.3380592 -0.55193931 0.27758136 4293400320
3.3463259 -0.55319816 0.26028562 4293400320
3.3632052 -0.55588001 0.24323827 4293400320
3.3681264 -0.55658472 0.22494097 4293400320
3.3348136 -0.5509721 0.20400469 4293269760
3.3672612 -0.55622435 0.18687202 4293400320
3.3898475 -0.55984592 0.16867536 4293530880
3.3753827 -0.55734807 0.14840645 4293400320
3.329222 -0.54961854 0.12693667 4293269760
3.3527684 -0.55339754 0.10811862 4293400320
3.3484192 -0.55257165 0.088171609 4293400320
3.3551245 -0.55356991 0.068406552 4293400320
3.3283072 -0.54903781 0.048004523 4293269760
3.3494849 -0.55242324 0.028276488 4293400320
3.3514481 -0.55263889 0.0082175387 4293400320
3.3169544 -0.54684401 -0.011744499 4293269760
3.3348558 -0.54968762 -0.031779688 4293269760
3.3354664 -0.54968065 -0.051726494 4293269760
3.3557079 -0.55290818 -0.072046064 4293400320
3.319654 -0.54686058 -0.090985596 4293269760
3.347914 -0.55140793 -0.11154225 4293400320
3.3620279 -0.55362403 -0.13175669 4293400320
3.3649633 -0.55399883 -0.15149024 4293400320
3.3148046 -0.54563385 -0.16839623 4293269760
3.3383367 -0.54939961 -0.18870762 4293269760
3.3435194 -0.55014467 -0.2079405 4293400320
3.3471797 -0.55063897 -0.22690189 4293400320
3.3153055 -0.54528838 -0.24305107 4293269760
3.352236 -0.55125445 -0.26400346 4293400320
3.3620009 -0.55275172 -0.2827802 4293400320
3.3721111 -0.55430514 -0.30138069 4293530880
3.3658488 -0.55316716 -0.31820673 4293400320
3.3509109 -0.55060405 -0.3337532 4293400320
3.3633265 -0.55253559 -0.35164037 4293400320
3.3711915 -0.55371892 -0.36876088 4293530880
3.3572855 -0.55132657 -0.38306192 4293400320
3.3498471 -0.54999691 -0.39757362 4293400320
3.3588622 -0.55136871 -0.41359913 4293530880
3.3734393 -0.55365276 -0.4299483 4293530880
3.3789039 -0.55444062 -0.44473779 4293530880
3.3776267 -0.55412209 -0.45815554 4293530880
3.3621097 -0.55146796 -0.46905801 4293530880
3.3286436 -0.54587132 -0.47673973 4293400320
3.3332529 -0.54651964 -0.4892244 4293400320
3.344564 -0.54826635 -0.50218904 4293400320
3.3430302 -0.54790705 -0.51268381 4293400320
3.3433058 -0.54784435 -0.52286398 4293400320
3.3533096 -0.54937547 -0.5339939 4293530880
3.3586948 -0.55014938 -0.54381597 4293530880
3.3501611 -0.54864347 -0.5507496 4293530880
3.3480761 -0.54819399 -0.55808014 4293530880
3.3387589 -0.54656076 -0.5635339 4293530880
3.3495173 -0.5482139 -0.57172257 4293530880
3.3286586 -0.54469258 -0.57383442 4293400320
3.3278701 -0.54445624 -0.57870102 4293400320
3.3227897 -0.54351789 -0.58213836 4293400320
3.3049755 -0.54049736 -0.58263892 4293400320
3.3093617 -0.54110789 -0.58635652 4293400320
3.299279 -0.53935289 -0.58682156 4293400320
3.3087516 -0.54079473 -0.59007555 4293400320
3.3086202 -0.54066652 -0.59093022 4293400320
3.3122177 -0.54114753 -0.59175885 4293400320
3.3351672 -0.54478943 -0.59534848 4293530880
3.3344007 -0.54455668 -0.59400409 4293530880
3.3410599 -0.54553652 -0.59328371 4293530880
3.3414395 -0.54549068 -0.5907498 4293530880
3.3494818 -0.54669559 -0.5888716 4293530880
3.3401024 -0.54505694 -0.58324575 4293530880
3.3529999 -0.54705352 -0.58082241 4293530880
3.3423011 -0.54520017 -0.57363367 4293530880
3.3367555 -0.54418796 -0.56668866 4293400320
3.3458242 -0.54555899 -0.5615589 4293530880
3.3421288 -0.54484868 -0.55362535 4293530880
3.3181484 -0.54083228 -0.54175562 4293400320
3.3090661 -0.53924519 -0.53177261 4293400320
3.3192401 -0.5407961 -0.52426618 4293400320
3.3290803 -0.542292 -0.51604682 4293400320
3.3543251 -0.54629606 -0.50951552 4293530880
3.3695934 -0.54867405 -0.5007565 4293530880
3.3426223 -0.54417455 -0.4851914 4293400320
3.3222234 -0.54074651 -0.47019467 4293400320
3.326941 -0.54140705 -0.45827451 4293400320
3.3454292 -0.54430783 -0.44764125 4293400320
3.3497677 -0.54490572 -0.43451837 4293400320
3.3679824 -0.54776007 -0.42261091 4293530880
3.3182373 -0.53956264 -0.40184176 4293269760
3.3391407 -0.54285401 -0.38930148 4293400320
3.3567519 -0.54560882 -0.37576628 4293400320
3.3493354 -0.54429537 -0.35896438 4293400320
3.3534255 -0.5448519 -0.3430123 4293400320
3.3089218 -0.53751445 -0.32191226 4293269760
3.3260026 -0.54018182 -0.30658314 4293269760
3.3386831 -0.54213363 -0.2903572 4293400320
3.3320971 -0.5409568 -0.2721054 4293269760
3.3183641 -0.53862029 -0.25308058 4293269760
3.3454714 -0.5429123 -0.23681921 4293400320
3.3415 -0.54216009 -0.21797284 4293400320
3.3557682 -0.5443669 -0.20002063 4293400320
3.3439221 -0.54233748 -0.18028153 4293400320
3.3334968 -0.54053915 -0.16055076 4293269760
3.3549426 -0.54390848 -0.14211655 4293400320
3.3577926 -0.54426223 -0.12259977 4293400320
3.3349528 -0.54045266 -0.10213041 4293269760
3.3600221 -0.54440701 -0.08300411 4293400320
3.3612714 -0.54450101 -0.063044101 4293400320
3.3435712 -0.54152596 -0.042759057 4293269760
3.3399208 -0.54082704 -0.022735244 4293269760
3.3651874 -0.54480988 -0.002754489 4293400320
3.368933 -0.5453077 0.017420389 4293400320
3.3140216 -0.5363127 0.036966834 4293269760
3.3952582 -0.5493499 0.058148444 4293530880
3.4044771 -0.55073172 0.078573719 4293530880
3.3761365 -0.54603833 0.097934 4293400320
3.1933947 -0.51637965 0.11146384 4292878080
3.3920279 -0.54838979 0.13827087 4293530880
3.3910296 -0.54811913 0.1579483 4293530880
3.3548436 -0.54216194 0.17560092 4293400320
3.1217587 -0.5043934 0.18121758 4292616960
3.3970182 -0.54875857 0.21636958 4293530880
3.4064703 -0.55017567 0.2359616 4293530880
3.3739023 -0.5448069 0.25225872 4293400320
3.0265729 -0.48862371 0.24268502 4292225280
3.4251778 -0.55286586 0.29290029 4293661440
3.4186499 -0.55170196 0.31023899 4293661440
3.4000273 -0.54858702 0.32600826 4293530880
3.2825954 -0.52953386 0.33125684 4293139200
3.0579751 -0.49320051 0.32362649 4292355840
3.4228833 -0.55194384 0.37867355 4293661440
3.4050107 -0.5489521 0.39261958 4293661440
3.3833261 -0.54534709 0.40550524 4293530880
3.340404 -0.53832096 0.4151032 4293400320
3.212271 -0.51756817 0.41290891 4293008640
3.4121168 -0.54965782 0.45268577 4293661440
3.4149101 -0.54999775 0.46664461 4293661440
3.3967104 -0.54695702 0.47714767 4293661440
3.3791916 -0.54402715 0.48707062 4293530880
3.3489199 -0.53904569 0.49443051 4293400320
3.3049881 -0.53186786 0.49895671 4293269760
3.4129813 -0.54913712 0.52604276 4293661440
3.402555 -0.54734987 0.53458315 4293661440
3.4082644 -0.54815847 0.54502869 4293661440
3.3878746 -0.54476994 0.55063486 4293661440
3.3993781 -0.54651016 0.56076306 4293661440
3.3894427 -0.54480362 0.56671125 4293661440
3.388834 -0.54459655 0.57353795 4293661440
3.3705924 -0.54155648 0.57667911 4293530880
3.3610945 -0.53992212 0.58059579 4293530880
3.3787999 -0.54265738 0.58854491 4293661440
3.3533418 -0.53846055 0.5882827 4293530880
3.352778 -0.53826201 0.59166825 4293530880
3.3523271 -0.53808159 0.59438103 4293530880
3.3568535 -0.53869998 0.5972833 4293530880
3.3566341 -0.53855658 0.59864461 4293530880
3.3516705 -0.53765219 0.59845763 4293530880
3.3677027 -0.54011548 0.60131752 4293530880
3.3765905 -0.54143202 0.6021955 4293661440
3.380585 -0.54196364 0.60149211 4293661440
3.3624783 -0.53895247 0.59616178 4293530880
3.385062 -0.54246324 0.59734088 4293661440
3.4026833 -0.54517746 0.59690875 4293661440
3.3818944 -0.54173768 0.58904898 4293661440
3.3949008 -0.54371172 0.58639532 4293661440
3.3943121 -0.54350811 0.58069235 4293661440
3.4059772 -0.54526621 0.57638943 4293661440
3.4007275 -0.54431617 0.56854361 4293661440
3.3999996 -0.54409009 0.56080687 4293661440
3.38972 -0.54233593 0.55087221 4293661440
3.3776414 -0.54029459 0.54006547 4293530880
3.3845112 -0.54128444 0.53167832 4293661440
3.4037511 -0.5442518 0.52454644 4293661440
3.4147415 -0.54589909 0.51544935 4293661440
3.4102228 -0.54506689 0.50340164 4293661440
3.3530703 -0.53523469 0.40991369 4293400320
3.3797886 -0.53939074 0.39805514 4293530880
3.4098716 -0.54408193 0.38588962 4293661440
3.3903546 -0.54085851 0.36763453 4293530880
3.3634648 -0.53646046 0.34839416 4293400320
3.363029 -0.5362826 0.3316403 4293400320
3.3792558 -0.53876138 0.31608269 4293530880
3.3782067 -0.53848529 0.29848361 4293530880
3.3519678 -0.53419483 0.27847442 4293400320
3.3583541 -0.53510439 0.26097426 4293400320
3.364814 -0.53602529 0.24312462 4293400320
3.3762391 -0.53773659 0.22526972 4293400320
3.342896 -0.53231829 0.20430592 4293400320
3.375375 -0.53738153 0.18714538 4293400320
3.383188 -0.5385164 0.16818503 4293530880
3.3835058 -0.53845799 0.14862314 4293530880
3.3274333 -0.52942735 0.12674873 4293269760
3.3608711 -0.53463936 0.10827763 4293400320
3.3663905 -0.53540897 0.088561192 4293400320
3.3671794 -0.53542596 0.068587564 4293400320
3.3314495 -0.5296371 0.048004523 4293269760
3.3526466 -0.53289908 0.028276488 4293400320
3.34828 -0.53209716 0.0082020294 4293400320
3.3200841 -0.52750945 -0.011744499 4293269760
3.3429396 -0.53103316 -0.031826701 4293269760
3.3524375 -0.53243393 -0.051940691 4293400320
3.3498998 -0.531923 -0.071853608 4293400320
3.3278427 -0.5283134 -0.091124117 4293269760
3.3471215 -0.53126621 -0.11141083 4293400320
3.3602619 -0.53324366 -0.13156348 4293400320
3.368134 -0.53438443 -0.15149024 4293400320
3.3277915 -0.52787656 -0.16889687 4293269760
3.3316197 -0.52837652 -0.1881507 4293269760
3.34899 -0.5310235 -0.20808478 4293400320
3.3601856 -0.53269053 -0.2275693 4293400320
3.3272922 -0.52736872 -0.24370043 4293269760
3.3626292 -0.53286129 -0.26457295 4293400320
3.3799288 -0.53549379 -0.28402087 4293530880
3.3851221 -0.53620762 -0.30225921 4293530880
3.3690145 -0.53354764 -0.31820673 4293400320
3.3491473 -0.53029341 -0.33326414 4293400320
3.3714011 -0.53370845 -0.35215348 4293530880
3.3743606 -0.53406829 -0.36876088 4293530880
3.3751633 -0.53408664 -0.38474017 4293530880
3.3569186 -0.53109151 -0.39803889 4293400320
3.3878593 -0.53587747 -0.41677821 4293530880
3.3677878 -0.5325942 -0.42882523 4293530880
3.3820767 -0.53474504 -0.44473779 4293530880
3.3896089 -0.53582674 -0.4593496 4293530880
3.3799431 -0.53419 -0.47110382 4293530880
3.33372 -0.52677721 -0.47701916 4293400320
3.3363805 -0.52709013 -0.4892244 4293400320
3.3428161 -0.52799922 -0.50145614 4293400320
3.3510489 -0.52919173 -0.51343197 4293530880
3.3601079 -0.53051412 -0.52499938 4293530880
3.3662114 -0.53136939 -0.53554636 4293530880
3.3530645 -0.52918613 -0.54239589 4293530880
3.3581758 -0.52988464 -0.55155027 4293530880
3.3414662 -0.5271405 -0.55645698 4293400320
3.3516302 -0.52863604 -0.56517696 4293530880
3.3432982 -0.52721417 -0.57012701 4293530880
3.3405399 -0.52667165 -0.57534385 4293530880
3.3446159 -0.5272066 -0.58106899 4293530880
3.3356338 -0.52568334 -0.5838421 4293400320
3.3129344 -0.52199942 -0.58349597 4293400320
3.312458 -0.52181768 -0.58635652 4293400320
3.325716 -0.52379918 -0.59097093 4293400320
3.3167107 -0.52227402 -0.59094226 4293400320
3.3214424 -0.5229122 -0.59266609 4293400320
3.328934 -0.52398443 -0.59418988 4293400320
3.3334203 -0.52458334 -0.59448099 4293400320
3.3423812 -0.52588588 -0.59486991 4293530880
3.3251052 -0.52306068 -0.58989936 4293400320
3.352334 -0.52723598 -0.59212273 4293530880
3.3477435 -0.52640629 -0.58801681 4293530880
3.3529565 -0.52711803 -0.58494413 4293530880
3.3522353 -0.52689672 -0.58014834 4293530880
3.350291 -0.5264833 -0.57446873 4293530880
3.3486381 -0.52611572 -0.56817645 4293530880
3.3440728 -0.52529085 -0.56074178 4293530880
3.3452463 -0.5253675 -0.55362535 4293530880
3.3300209 -0.52286911 -0.54318744 4293400320
3.3209329 -0.5213353 -0.5331825 4293400320
3.3086689 -0.5193035 -0.52210975 4293269760
3.3427269 -0.52454138 -0.51767969 4293400320
3.3623359 -0.52751023 -0.51025683 4293530880
3.3678455 -0.52826619 -0.50003088 4293530880
3.345736 -0.52469051 -0.4851914 4293400320
3.3214037 -0.52076775 -0.46964127 4293400320
3.3388493 -0.52339554 -0.45948696 4293400320
3.3472207 -0.52460009 -0.44746444 4293400320
3.362685 -0.52691555 -0.43578833 4293530880
3.3659189 -0.52731395 -0.42195931 4293530880
3.3213246 -0.52022076 -0.40184176 4293269760
3.3461728 -0.52400506 -0.38975877 4293400320
3.3598738 -0.52604246 -0.37576628 4293400320
3.3662045 -0.52692527 -0.36043718 4293400320
3.3663728 -0.52684331 -0.34401685 4293400320
3.3128953 -0.51836735 -0.32199955 4293269760
3.3402612 -0.52254176 -0.30761161 4293400320
3.341785 -0.52267259 -0.2903572 4293400320
3.3351922 -0.52153409 -0.2721054 4293269760
3.3228357 -0.51949495 -0.25318646 4293269760
3.3446352 -0.5227955 -0.23654039 4293400320
3.3544617 -0.52422345 -0.21861543 4293400320
3.3632624 -0.52549058 -0.20028143 4293400320
3.342092 -0.52207524 -0.18001582 4293269760
3.3464587 -0.52264971 -0.16102563 4293400320
3.3531189 -0.52358192 -0.14190766 4293400320
3.3559694 -0.52391911 -0.12241969 4293400320
3.3500967 -0.52289438 -0.10249914 4293400320
3.363137 -0.52482158 -0.08300411 4293400320
3.3693261 -0.52567893 -0.06313666 4293400320
3.3565493 -0.52357751 -0.042885285 4293400320
3.3591702 -0.52387822 -0.02284511 4293400320
3.3771968 -0.52658093 -0.002761761 4293400320
3.3769929 -0.52644044 0.017445911 4293400320
3.3220301 -0.5177654 0.037021887 4293269760
3.3950391 -0.52903515 0.058090914 4293530880
3.4125671 -0.53165668 0.078687608 4293530880
3.3980117 -0.52927971 0.098477423 4293530880
3.200299 -0.49838066 0.11160159 4292878080
3.3991146 -0.52923274 0.13843171 4293530880
3.3991008 -0.52912122 0.15817797 4293530880
3.3717604 -0.52475679 0.17632335 4293400320
3.1345093 -0.48773184 0.18178971 4292616960
3.4100194 -0.53049165 0.21699713 4293530880
3.4046888 -0.52955288 0.23562048 4293530880
3.3632231 -0.52299523 0.25122815 4293400320
3.0342937 -0.4717477 0.24307959 4292355840
3.4332638 -0.5336659 0.29332089 4293661440
3.4267273 -0.53253961 0.31068516 4293661440
3.4031656 -0.52876848 0.32600826 4293530880
3.2944744 -0.51177454 0.33214903 4293139200
3.0657105 -0.47613895 0.32414606 4292486400
3.4171147 -0.53060597 0.37768695 4293661440
3.4032421 -0.52834237 0.39205405 4293530880
3.3815393 -0.52486432 0.40491769 4293530880
3.3385797 -0.51808888 0.41449437 4293400320
3.2289562 -0.5009734 0.41467142 4293008640
3.4289787 -0.53189659 0.45450398 4293661440
3.4180565 -0.53009242 0.46664461 4293661440
3.4145217 -0.52943438 0.47920826 4293661440
3.3823037 -0.52433008 0.48707062 4293530880
3.3568931 -0.52028286 0.49515173 4293530880
3.2982566 -0.51108873 0.49748245 4293269760
3.4161229 -0.52924305 0.52604276 4293661440
3.410569 -0.52827287 0.53534961 4293661440
3.4114001 -0.52829188 0.54502869 4293661440
3.4091454 -0.52783304 0.55358279 4293661440
3.4073813 -0.52745032 0.56156683 4293661440
3.4062099 -0.52715939 0.56899148 4293661440
3.3968229 -0.52559739 0.57436204 4293661440
3.3775883 -0.5225125 0.57734537 4293530880
3.373925 -0.52183723 0.58227706 4293530880
3.3867738 -0.52371562 0.58939242 4293661440
3.3564219 -0.51891416 0.5882827 4293530880
3.365593 -0.5202238 0.5933848 4293530880
3.3651397 -0.52004546 0.59610546 4293530880
3.3648019 -0.51988506 0.59814847 4293530880
3.3597147 -0.51899099 0.59864461 4293530880
3.3596125 -0.51886714 0.59932578 4293530880
3.3844182 -0.52258933 0.60374826 4293661440
3.3757944 -0.5211491 0.60150182 4293661440
3.3788183 -0.52150726 0.60062695 4293661440
3.3704288 -0.52010393 0.59702402 4293530880
3.3832967 -0.52198088 0.59648263 4293661440
3.4019065 -0.5247426 0.59622604 4293661440
3.4083695 -0.52562988 0.59311688 4293661440
3.4077535 -0.52542526 0.58807659 4293661440
3.4013193 -0.52432382 0.58135861 4293661440
3.4042222 -0.52466184 0.57556534 4293661440
3.4126174 -0.52584594 0.57000953 4293661440
3.4050593 -0.52457184 0.56112784 4293661440
3.402581 -0.52408057 0.55245662 4293661440
3.3904946 -0.52210993 0.54162496 4293661440
3.3876073 -0.52155638 0.53167832 4293661440
3.4166353 -0.52591568 0.52605087 4293661440
3.4227519 -0.52674711 0.51618648 4293661440
3.4084504 -0.52443653 0.50268042 4293661440
3.3654525 -0.51712209 0.41105211 4293530880
3.3908136 -0.52090997 0.39898935 4293530880
3.4080722 -0.52345169 0.38533431 4293661440
3.4032762 -0.5226056 0.36869925 4293530880
3.3665333 -0.51685512 0.34839416 4293400320
3.3700314 -0.5172838 0.332028 4293400320
3.3961167 -0.5211786 0.31737038 4293530880
3.3812869 -0.518794 0.29848361 4293530880
3.3550234 -0.51465648 0.27847442 4293400320
3.3672423 -0.51642257 0.26142672 4293400320
3.3832572 -0.51876998 0.24423471 4293530880
3.3743832 -0.51730078 0.22494097 4293400320
3.3558071 -0.51434511 0.20490839 4293400320
3.3685789 -0.51619434 0.18659864 4293400320
3.3961408 -0.52030867 0.16867536 4293530880
3.3865855 -0.51873589 0.14862314 4293530880
3.3447857 -0.51222569 0.12729387 4293269760
3.366256 -0.51540548 0.10835253 4293400320
3.3757329 -0.51674789 0.08872626 4293400320
3.3662887 -0.51519394 0.068507113 4293400320
3.3424718 -0.51144147 0.048119597 4293269760
3.3583133 -0.51375747 0.028298555 4293400320
3.3701046 -0.51545292 0.0082479957 4293400320
3.3280437 -0.5089128 -0.011761967 4293269760
3.3499308 -0.51215196 -0.031864308 4293269760
3.3465869 -0.51153314 -0.051802993 4293269760
3.3619227 -0.51376915 -0.072046064 4293400320
3.3307416 -0.50889701 -0.091120765 4293269760
3.3541119 -0.51235986 -0.11154225 4293400320
3.3682506 -0.51441133 -0.13175669 4293400320
3.3711903 -0.51475191 -0.15149024 4293400320
3.3278451 -0.50802648 -0.16874652 4293269760
3.3369617 -0.50931096 -0.18828161 4293269760
3.3520269 -0.51150256 -0.20808478 4293400320
3.3583004 -0.51235193 -0.22723559 4293400320
3.3273468 -0.50752258 -0.24348374 4293269760
3.3696189 -0.51386207 -0.26488286 4293400320
3.3731394 -0.51429045 -0.28319377 4293400320
3.3931124 -0.51722664 -0.30269843 4293530880
3.3809247 -0.5152601 -0.31904271 4293530880
3.3570993 -0.51152116 -0.3337532 4293400320
3.3793702 -0.51480597 -0.35266662 4293530880
3.3725004 -0.51365101 -0.36822429 4293530880
3.3859551 -0.51559138 -0.38562137 4293530880
3.3560283 -0.51092643 -0.39757362 4293400320
3.3673704 -0.51254493 -0.41388324 4293530880
3.3845661 -0.51505351 -0.43057224 4293530880
3.380233 -0.51428545 -0.44409376 4293530880
3.3877738 -0.51532382 -0.45868623 4293530880
3.3918126 -0.51582921 -0.47233129 4293530880
3.3416271 -0.50808954 -0.47771889 4293400320
3.340668 -0.50783634 -0.48941094 4293400320
3.3507254 -0.5092575 -0.50218904 4293400320
3.3589628 -0.51040149 -0.51418018 4293530880
3.3582563 -0.5101862 -0.52423674 4293530880
3.3643668 -0.51100641 -0.53477013 4293530880
3.361093 -0.51040113 -0.54320437 4293530880
3.370965 -0.51179188 -0.55315167 4293530880
3.3630164 -0.51047701 -0.55954099 4293530880
3.3546534 -0.50909978 -0.56517696 4293530880
3.3599622 -0.50979745 -0.57245249 4293530880
3.3484251 -0.50793934 -0.57618248 4293530880
3.3295968 -0.50497615 -0.57793868 4293400320
3.3386397 -0.50624037 -0.5838421 4293400320
3.3295565 -0.50475603 -0.58589566 4293400320
3.329077 -0.50457639 -0.58876795 4293400320
3.3287113 -0.50441396 -0.59097093 4293400320
3.3284609 -0.50426906 -0.5925023 4293400320
3.3195641 -0.50281447 -0.59179813 4293400320
3.3416674 -0.50605506 -0.59592628 4293530880
3.3549211 -0.50795436 -0.59777749 4293530880
3.3453884 -0.50640357 -0.59486991 4293530880
3.3563392 -0.50795335 -0.59490538 4293530880
3.360219 -0.50843257 -0.59298217 4293530880
3.3680351 -0.509507 -0.59104949 4293530880
3.3559706 -0.50757408 -0.58494413 4293530880
3.3591466 -0.50794649 -0.58082241 4293530880
3.3630502 -0.50842869 -0.57613885 4293530880
3.3565223 -0.50733393 -0.56900305 4293530880
3.3558559 -0.50712538 -0.56221259 4293530880
3.3482504 -0.50586843 -0.55362535 4293530880
3.3427725 -0.50493342 -0.54477841 4293400320
3.3239141 -0.50197798 -0.5331825 4293400320
3.3204312 -0.50134534 -0.52349603 4293400320
3.3457263 -0.50505704 -0.51767969 4293400320
3.3692639 -0.50850195 -0.51084989 4293530880
3.3757579 -0.50937361 -0.5007565 4293530880
3.3536303 -0.50592697 -0.48590049 4293400320
3.3282988 -0.50199854 -0.47019467 4293400320
3.3330238 -0.50260407 -0.45827451 4293400320
3.3590431 -0.50641978 -0.44864282 4293400320
3.3706021 -0.50805408 -0.4364233 4293530880
3.3640273 -0.50695503 -0.42134476 4293400320
3.3242991 -0.50086123 -0.40184176 4293269760
3.3540807 -0.50524056 -0.39033037 4293400320
3.3677959 -0.50719833 -0.37631541 4293400320
3.3692174 -0.50730413 -0.36043718 4293400320
3.364466 -0.50648063 -0.34351459 4293400320
3.3247182 -0.50039029 -0.32285982 4293269760
3.3393099 -0.50247914 -0.30724916 4293400320
3.3520203 -0.50428402 -0.2909863 4293400320
3.3470454 -0.50342804 -0.27282849 4293400320
3.3208754 -0.49938515 -0.25281113 4293269760
3.3515704 -0.50389332 -0.23681921 4293400320
3.3525248 -0.50392908 -0.21829413 4293400320
3.361331 -0.50514477 -0.19998775 4293400320
3.3500144 -0.50333655 -0.18028153 4293400320
3.3533981 -0.50373715 -0.16121559 4293400320
3.3650048 -0.50537258 -0.14228366 4293400320
3.3688478 -0.50584155 -0.12277986 4293400320
3.3491323 -0.50277364 -0.10237828 4293269760
3.3760238 -0.50670213 -0.083247893 4293400320
3.3852627 -0.50798005 -0.063378751 4293400320
3.3595428 -0.5040127 -0.042885285 4293400320
3.3621652 -0.50429809 -0.02284511 4293400320
3.3864391 -0.5078302 -0.0027668525 4293400320
3.3780124 -0.50645804 0.017435636 4293400320
3.3299348 -0.49914292 0.037076939 4293269760
3.3980637 -0.50924599 0.058090914 4293530880
3.4106631 -0.51102459 0.078573719 4293530880
3.3960948 -0.50873274 0.098334305 4293530880
3.297734 -0.49389243 0.11489707 4293139200
3.4008057 -0.50921994 0.1383774 4293530880
3.4070656 -0.51004785 0.15840763 4293530880
3.3747606 -0.50510329 0.17632335 4293400320
3.141247 -0.47005224 0.18201856 4292616960
3.4179873 -0.51135355 0.21731091 4293530880
3.4126499 -0.51044536 0.2359616 4293530880
3.3701584 -0.50398147 0.2515226 4293400320
3.0369906 -0.45406127 0.24307959 4292355840
3.4363148 -0.51365393 0.29332089 4293661440
3.4386373 -0.51389068 0.31148824 4293661440
3.4199734 -0.51099157 0.32732761 4293661440
3.302321 -0.49330661 0.3326447 4293269760
3.0684326 -0.45826942 0.32414606 4292486400
3.4348958 -0.51289028 0.37931556 4293661440
3.4259164 -0.51143944 0.39431617 4293661440
3.3845401 -0.50515383 0.40491769 4293530880
3.3513582 -0.5000937 0.41571206 4293400320
3.2318201 -0.48215231 0.41467142 4293008640
3.4369228 -0.51264101 0.45515335 4293661440
3.4308887 -0.51163083 0.46798161 4293661440
3.4175484 -0.50953168 0.47920826 4293661440
3.3804052 -0.50388533 0.48636618 4293530880
3.3686759 -0.50202882 0.49644986 4293530880
3.3207438 -0.4947789 0.50043094 4293400320
3.4191482 -0.50933099 0.52604276 4293661440
3.4087019 -0.5076654 0.53458315 4293661440
3.4193051 -0.50913477 0.54580843 4293661440
3.4219286 -0.50941551 0.5551672 4293661440
3.4055154 -0.50686276 0.56076306 4293661440
3.4043441 -0.5065791 0.5681771 4293661440
3.3998277 -0.50579786 0.57436204 4293661440
3.3854516 -0.50355041 0.57817823 4293661440
3.3769078 -0.50217122 0.58227706 4293530880
3.3897676 -0.50397468 0.58939242 4293661440
3.3593884 -0.49935016 0.5882827 4293530880
3.3734391 -0.50133038 0.59424305 4293530880
3.3729842 -0.50115448 0.59696764 4293530880
3.3677738 -0.50027221 0.59814847 4293530880
3.3675523 -0.50013119 0.59951174 4293530880
3.3723199 -0.50073093 0.601062 4293530880
3.3971469 -0.50430822 0.60548449 4293661440
3.3787735 -0.50147218 0.60150182 4293661440
3.391542 -0.50325835 0.60235727 4293661440
3.3772991 -0.50103652 0.59771377 4293530880
3.3862805 -0.50226021 0.59648263 4293661440
3.4088049 -0.50549161 0.59690875 4293661440
3.4064999 -0.50504047 0.59226936 4293661440
3.4107568 -0.50556207 0.58807659 4293661440
3.4091933 -0.50522083 0.58219141 4293661440
3.4208808 -0.50684303 0.57787275 4293792000
3.4107432 -0.5052315 0.56919515 4293661440
3.4148955 -0.50573701 0.56225365 4293661440
3.4094834 -0.50482601 0.55309039 4293661440
3.4022729 -0.50364918 0.54302859 4293661440
3.3905885 -0.50181061 0.53167832 4293661440
3.4196415 -0.5060007 0.52605087 4293661440
3.4296765 -0.50737548 0.51677614 4293661440
3.421237 -0.50601715 0.50412285 4293661440
3.382158 -0.49953631 0.41273004 4293530880
3.389775 -0.50055248 0.39851722 4293530880
3.4110641 -0.50358665 0.38533431 4293661440
3.4062631 -0.50276858 0.36869925 4293530880
3.3842497 -0.49941069 0.34992051 4293530880
3.374954 -0.49793059 0.33222151 4293400320
3.3990955 -0.5013833 0.31737038 4293530880
3.3891797 -0.49981186 0.29891822 4293530880
3.3628948 -0.49582759 0.27888328 4293400320
3.3742251 -0.49738985 0.26173943 4293400320
3.3797126 -0.49809024 0.24376519 4293400320
3.3947582 -0.50019866 0.22610109 4293530880
3.358747 -0.49478477 0.20490839 4293400320
3.3814075 -0.49801445 0.18714538 4293400320
3.3991146 -0.50051326 0.16867536 4293530880
3.3984461 -0.50030571 0.14901319 4293530880
3.3575997 -0.4941847 0.12766978 4293400320
3.374146 -0.49651176 0.10851154 4293400320
3.3813019 -0.49745622 0.088794939 4293400320
3.3825853 -0.49753645 0.068778604 4293400320
3.3552873 -0.4934136 0.048261888 4293400320
3.3661964 -0.49490976 0.028340202 4293400320
3.3591995 -0.49377325 0.0082141263 4293400320
3.3260055 -0.48878729 -0.011744499 4293269760
3.3528578 -0.49262586 -0.031864308 4293269760
3.3584139 -0.49333444 -0.051940691 4293400320
3.364773 -0.49416056 -0.072044224 4293400320
3.3376062 -0.49006367 -0.091228902 4293269760
3.3570399 -0.49280941 -0.11154225 4293400320
3.3800886 -0.49608442 -0.13210446 4293400320
3.383028 -0.49640727 -0.15188964 4293400320
3.3307486 -0.48862916 -0.16874652 4293269760
3.3497512 -0.4913094 -0.18883851 4293400320
3.3648257 -0.49341244 -0.20869729 4293400320
3.3621387 -0.49291047 -0.22729711 4293400320
3.3450501 -0.49029785 -0.24456599 4293269760
3.3686099 -0.49364302 -0.26457295 4293400320
3.3908691 -0.49679613 -0.28443444 4293530880
3.3911402 -0.49672702 -0.30225921 4293530880
3.3887951 -0.49627477 -0.31950712 4293530880
3.3639612 -0.49252999 -0.33414444 4293400320
3.3773911 -0.49438792 -0.35215348 4293530880
3.3892081 -0.49600896 -0.36972672 4293530880
3.3849685 -0.49527991 -0.38517383 4293530880
3.3727067 -0.49337754 -0.39920211 4293530880
3.3791397 -0.49421015 -0.41496885 4293530880
3.3924181 -0.49604332 -0.43119615 4293530880
3.4018154 -0.49730825 -0.44654101 4293530880
3.3970058 -0.49649614 -0.45953676 4293530880
3.3996615 -0.49677521 -0.47301322 4293661440
3.3582473 -0.49061579 -0.47967809 4293400320
3.3621764 -0.49108192 -0.49213442 4293530880
3.3634238 -0.49115622 -0.50365478 4293530880
3.3706849 -0.49210837 -0.51552689 4293530880
3.3810251 -0.49350953 -0.52733326 4293530880
3.3632917 -0.4908132 -0.53413564 4293530880
3.3737812 -0.49223569 -0.54478222 4293530880
3.3726988 -0.49196956 -0.55295646 4293530880
3.3659337 -0.49087474 -0.55954099 4293530880
3.3673234 -0.49096939 -0.56681997 4293530880
3.3628755 -0.49021298 -0.57245249 4293530880
3.364985 -0.4904125 -0.57853055 4293530880
3.3422353 -0.48698974 -0.57963014 4293400320
3.3512836 -0.4882006 -0.58554578 4293530880
3.3470645 -0.48747864 -0.5884667 4293530880
3.3368342 -0.4858816 -0.58962917 4293400320
3.3315938 -0.48501164 -0.59097093 4293400320
3.3313425 -0.4848682 -0.5925023 4293400320
3.3312082 -0.48474178 -0.59336042 4293400320
3.3494318 -0.48728612 -0.59679449 4293530880
3.3349144 -0.4850671 -0.59369904 4293400320
3.3482969 -0.4869062 -0.59487253 4293530880
3.3592417 -0.48839003 -0.59490538 4293530880
3.3631241 -0.4888466 -0.59298217 4293530880
3.3524208 -0.48718327 -0.58780128 4293530880
3.3686233 -0.48942977 -0.5866425 4293530880
3.3729 -0.48994297 -0.58269703 4293530880
3.3619678 -0.4882471 -0.57545626 4293530880
3.3704512 -0.48937103 -0.57087123 4293530880
3.3548481 -0.48699793 -0.5615589 4293530880
3.352896 -0.48660696 -0.55391526 4293530880
3.3505428 -0.48615798 -0.54557383 4293530880
3.3316693 -0.48331261 -0.53396577 4293400320
3.3379633 -0.48411858 -0.52580649 4293400320
3.3583946 -0.48697409 -0.51919204 4293530880
3.3744698 -0.48919678 -0.5111984 4293530880
3.3835642 -0.49040669 -0.50148213 4293530880
3.3467245 -0.48495984 -0.48448232 4293400320
3.3458693 -0.4847286 -0.47226989 4293400320
3.3456168 -0.48458472 -0.45960999 4293400320
