# .PCD v0.7 - Point Cloud Data file format
VERSION 0.7
FIELDS x y z rgba
SIZE 4 4 4 4
TYPE F F F U
COUNT 1 1 1 1
WIDTH 1127
HEIGHT 1
VIEWPOINT 0 0 0 1 0 0 0
POINTS 1127
DATA ascii
1.411571 1.281939 0.032024097 4288308480
1.4713755 1.336229 0.044989944 4288700160
1.5948106 1.4482219 0.061217539 4289222400
1.5903461 1.4442469 0.073568441 4289222400
1.5985484 1.4517583 0.086438634 4289222400
1.6056885 1.4583073 0.099278368 4289222400
1.6016321 1.4547026 0.11135642 4289222400
1.5793749 1.4345899 0.12187085 4289091840
1.5965794 1.4502683 0.13520589 4289222400
1.6035291 1.4566466 0.14771956 4289222400
1.6029997 1.4562413 0.15944041 4289222400
1.5710788 1.4273586 0.16767159 4289091840
1.6206424 1.4723976 0.18442549 4289352960
1.6252424 1.4766475 0.19630399 4289352960
1.6065034 1.4597224 0.2050821 4289352960
1.5946867 1.4490771 0.2143002 4289222400
1.5570053 1.414961 0.21951449 4289091840
1.6190373 1.4713272 0.23855039 4289352960
1.6145425 1.4673263 0.24797951 4289352960
1.6009524 1.455071 0.25563684 4289222400
1.5945853 1.4493705 0.26403093 4289222400
1.5730677 1.4299183 0.2694813 4289222400
1.6110373 1.464461 0.28481832 4289352960
1.6065465 1.4604645 0.29257315 4289352960
1.6046282 1.4588034 0.30042762 4289352960
1.6028945 1.4573103 0.30795678 4289352960
1.5961332 1.4512528 0.31413648 4289222400
1.592629 1.4481524 0.32054639 4289222400
1.5920371 1.4476966 0.327153 4289222400
1.5951439 1.4505999 0.33414847 4289352960
1.585536 1.441958 0.33809143 4289222400
1.5865842 1.4429928 0.34386835 4289222400
1.5870446 1.4434946 0.34912643 4289222400
1.5883632 1.4447764 0.35417309 4289222400
1.5864329 1.4431081 0.35808802 4289222400
1.5796589 1.4370401 0.3604787 4289222400
1.5826831 1.439873 0.36466047 4289222400
1.5790257 1.4366368 0.36688748 4289222400
1.5786588 1.4363904 0.36943787 4289222400
1.580341 1.4380063 0.37203449 4289222400
1.5800778 1.4378552 0.37374294 4289222400
1.5798681 1.4377536 0.3750259 4289222400
1.5833578 1.4410143 0.37674364 4289222400
1.5832573 1.4410132 0.37717304 4289222400
1.5812153 1.4392482 0.3767007 4289222400
1.584462 1.4422908 0.37703753 4289222400
1.5810421 1.4392743 0.37535727 4289222400
1.5807958 1.4391433 0.37398776 4289222400
1.5853124 1.4433427 0.37329474 4289222400
1.5845733 1.442765 0.37093136 4289222400
1.5881666 1.4461271 0.36913669 4289222400
1.5850619 1.4433997 0.36536422 4289222400
1.5886669 1.4467741 0.36269972 4289222400
1.5872512 1.4455835 0.35846946 4289222400
1.5904784 1.4486161 0.35485825 4289352960
1.5811119 1.4401953 0.34806317 4289222400
1.5704032 1.4305531 0.34063357 4289222400
1.5702115 1.430477 0.33511013 4289222400
1.591819 1.4502326 0.33373863 4289222400
1.6043622 1.4617449 0.32996505 4289352960
1.5943781 1.4527628 0.32120442 4289352960
1.5956622 1.4540333 0.31436491 4289352960
1.5809512 1.4415834 0.25797039 4289222400
1.5989183 1.4580485 0.25131866 4289222400
1.6099658 1.4682149 0.24313167 4289352960
1.5741847 1.4357365 0.22782384 4289222400
1.5733144 1.4350494 0.21749584 4289091840
1.5892413 1.4496617 0.20912372 4289222400
1.5899295 1.4503958 0.19842461 4289222400
1.5613619 1.4244792 0.18408716 4289091840
1.5662283 1.4290185 0.17360443 4289091840
1.5750389 1.4371524 0.16326405 4289091840
1.5792884 1.4411319 0.15218276 4289222400
1.5725539 1.4351031 0.13990879 4289091840
1.5634534 1.4269174 0.12739131 4289091840
1.4381444 1.312821 0.10643717 4288569600
1.4039733 1.2817749 0.093191035 4288308480
1.3877277 1.2670634 0.081393488 4288308480
1.3899773 1.2692097 0.070672408 4288308480
1.3937035 1.2727027 0.059899922 4288308480
1.3967277 1.2755563 0.048979286 4288308480
1.3702582 1.2515184 0.037198182 4288177920
1.376555 1.257355 0.026378453 4288177920
1.3743044 1.2553979 0.015345231 4288177920
1.3672056 1.2490191 0.0043217437 4288177920
1.3564987 1.2393485 -0.0065714289 4288177920
1.3623707 1.2447987 -0.017523151 4288177920
1.3648708 1.2471735 -0.028476009 4288177920
1.3608032 1.2435573 -0.039240927 4288177920
1.3689588 1.2510923 -0.050365712 4288177920
1.3681157 1.2504176 -0.061152291 4288177920
1.3733429 1.2552819 -0.072187454 4288177920
1.3688271 1.2512559 -0.082626745 4288177920
1.3704675 1.2528473 -0.093334511 4288177920
1.3755476 1.2575781 -0.10423217 4288177920
1.3783101 1.2601942 -0.11489885 4288308480
1.3577305 1.2415032 -0.12333389 4288177920
1.3822215 1.2639537 -0.1358119 4288308480
1.3790175 1.2611231 -0.14554553 4288308480
1.3868735 1.2683898 -0.15633406 4288308480
1.3714746 1.2544235 -0.16425113 4288177920
1.2965719 1.1861179 -0.16416642 4287916800
1.3827448 1.2649014 -0.18455932 4288308480
1.3806163 1.2630507 -0.19343178 4288308480
1.3706869 1.2540741 -0.20091039 4288177920
1.3455575 1.2312118 -0.20569853 4288177920
1.1984658 1.0969334 -0.19041383 4287394560
1.3863189 1.2686292 -0.22877255 4288308480
1.3863994 1.2687944 -0.23680575 4288308480
1.3775704 1.2608187 -0.24299312 4288308480
1.3649187 1.2493484 -0.24811117 4288177920
1.3374523 1.2243379 -0.25002992 4288177920
1.3613176 1.2462354 -0.26129362 4288177920
1.3679032 1.2523423 -0.26907554 4288308480
1.3703071 1.2546276 -0.2757664 4288308480
1.3716913 1.2559806 -0.28195298 4288308480
1.3678975 1.2525998 -0.28673768 4288308480
1.3642485 1.2493507 -0.2911945 4288308480
1.3665274 1.2515202 -0.2965818 4288308480
1.3620079 1.2474732 -0.30013791 4288308480
1.3502926 1.2368456 -0.30170324 4288177920
1.3385233 1.2261666 -0.30283791 4288177920
1.3311522 1.2195081 -0.3045688 4288177920
1.3121476 1.202208 -0.30320981 4288047360
1.2998058 1.1909994 -0.30297586 4287916800
1.257774 1.152631 -0.29533917 4287786240
1.2611392 1.1557848 -0.29799691 4287786240
1.2536458 1.1490048 -0.29772511 4287786240
1.21227 1.111225 -0.28897542 4287525120
1.2048719 1.1045274 -0.28798097 4287525120
1.2568647 1.1521711 -0.30092376 4287786240
1.256816 1.1521995 -0.30101827 4287786240
1.2948596 1.1870861 -0.30991611 4287916800
1.3170362 1.2074554 -0.31461903 4288047360
1.3291579 1.2186245 -0.31652191 4288177920
1.3427299 1.2311217 -0.318378 4288177920
1.3541807 1.241678 -0.31932762 4288177920
1.359946 1.2470309 -0.31853378 4288308480
1.3603381 1.2474647 -0.3160944 4288308480
1.3633002 1.2502509 -0.31387922 4288308480
1.3688956 1.255448 -0.31188774 4288308480
1.3705465 1.2570335 -0.30861333 4288308480
1.3732394 1.2595727 -0.30520415 4288308480
1.3633381 1.2505789 -0.29865342 4288308480
1.3602043 1.2477812 -0.29328895 4288308480
1.3534558 1.241672 -0.28683856 4288177920
1.3420058 1.2312559 -0.2791265 4288177920
1.3350368 1.2249421 -0.27210432 4288177920
1.3451886 1.2343098 -0.26826233 4288177920
1.3806553 1.2668672 -0.26898018 4288308480
1.3674387 1.2548298 -0.25975662 4288308480
1.3573325 1.2456402 -0.25094706 4288177920
1.3425322 1.2321485 -0.24110913 4288177920
1.3500918 1.2391418 -0.23507521 4288177920
1.3692476 1.2567608 -0.23065799 4288308480
1.3626117 1.2507477 -0.2215389 4288177920
1.3484505 1.2378377 -0.21106395 4288177920
1.3458717 1.23554 -0.20228039 4288177920
1.3618498 1.250249 -0.19599548 4288177920
1.3799386 1.2668937 -0.18957849 4288308480
1.363319 1.251727 -0.1781365 4288177920
1.348954 1.2386249 -0.16700405 4288177920
1.3579153 1.2469039 -0.15863845 4288177920
1.35848 1.2474862 -0.14904077 4288177920
1.3530173 1.2425425 -0.1386463 4288177920
1.3535231 1.24307 -0.12875447 4288177920
1.3774641 1.2650843 -0.12079811 4288308480
1.3781008 1.2657326 -0.11045487 4288308480
1.354735 1.2443718 -0.098211132 4288177920
1.3582001 1.2476124 -0.087991036 4288177920
1.3615394 1.2507379 -0.077614397 4288177920
1.363175 1.2523013 -0.067015447 4288177920
1.3425735 1.2334701 -0.055371307 4288047360
1.3565573 1.246358 -0.045191266 4288177920
1.3624078 1.2517871 -0.034522958 4288177920
1.3692836 1.258157 -0.023743028 4288177920
1.3671808 1.2562914 -0.012731407 4288177920
1.3800704 1.2681791 -0.0017794439 4288308480
1.3885189 1.2759937 0.0093575716 4288308480
1.3899463 1.2773674 0.020526195 4288308480
1.3929065 1.2801478 0.031728469 4288308480
1.453127 1.3354678 0.044624992 4288569600
1.5844795 1.4560641 0.061085302 4289222400
1.5854521 1.4570302 0.073667236 4289222400
1.582566 1.4544553 0.085979991 4289222400
1.5904056 1.4617236 0.098807 4289222400
1.592995 1.4641744 0.11128842 4289222400
1.5642376 1.4378543 0.12129947 4289091840
1.5806164 1.4529614 0.13452266 4289222400
1.5919415 1.4634312 0.14738426 4289222400
1.5803949 1.4529068 0.15799719 4289222400
1.561807 1.4359176 0.16752262 4289091840
1.6082317 1.4786129 0.183945 4289352960
1.6164771 1.4862599 0.19623911 4289352960
1.5965489 1.4680399 0.20485528 4289222400
1.5899116 1.4620222 0.21475016 4289222400
1.5486069 1.4241705 0.21945567 4289091840
1.6029816 1.4741786 0.23741628 4289352960
1.6021739 1.473515 0.24736157 4289352960
1.5923162 1.4645402 0.25558081 4289222400
1.5823275 1.4554446 0.26337364 4289222400
1.55362 1.4291551 0.26755831 4289091840
1.5950421 1.4672811 0.28348005 4289352960
1.5949587 1.4672844 0.29199418 4289352960
1.5923221 1.4649429 0.2996999 4289352960
1.5905993 1.463441 0.30721381 4289352960
1.5809604 1.4546665 0.31280681 4289222400
1.5803914 1.4542251 0.31977576 4289222400
1.5798038 1.4537671 0.32636985 4289222400
1.5865337 1.4600335 0.33411446 4289352960
1.5763006 1.450713 0.33791643 4289222400
1.5780188 1.4523754 0.34384009 4289222400
1.5784758 1.4528795 0.3491011 4289222400
1.5768802 1.4514976 0.3535037 4289222400
1.5713291 1.4464803 0.35659543 4289222400
1.5707633 1.4460458 0.36037973 4289222400
1.5668759 1.4425581 0.3629775 4289222400
1.570496 1.4459726 0.366878 4289222400
1.5701301 1.4457237 0.36943176 4289222400
1.5652742 1.4413466 0.3704969 4289222400
1.5751656 1.4505303 0.3746005 4289222400
1.5713301 1.4470927 0.37503034 4289222400
1.5682744 1.4443725 0.37520078 4289222400
1.5645487 1.4410366 0.37476942 4289222400
1.569042 1.4452599 0.37585354 4289222400
1.57227 1.448321 0.37619516 4289222400
1.5724925 1.4486182 0.37538037 4289222400
1.5686778 1.4452022 0.3731713 4289222400
1.5745597 1.4507071 0.37281337 4289222400
1.5723753 1.448792 0.37011823 4289222400
1.569419 1.4461672 0.36681777 4289222400
1.5728579 1.449427 0.36457172 4289222400
1.5764415 1.4528214 0.36191908 4289222400
1.5822904 1.4583012 0.35933888 4289352960
1.5754936 1.4521441 0.35349226 4289222400
1.5725528 1.449536 0.34812164 4289222400
1.5619011 1.4398303 0.34069559 4289222400
1.5551678 1.433731 0.33378211 4289222400
1.5722922 1.4495945 0.33152616 4289222400
1.5920366 1.467873 0.32929349 4289352960
1.5857427 1.4621805 0.32128313 4289352960
1.5768261 1.4540728 0.31244314 4289222400
1.565493 1.44376 0.25679591 4289222400
1.5943251 1.4704173 0.25190288 4289352960
1.5980058 1.4739144 0.24259298 4289352960
1.5631381 1.4419068 0.22741209 4289091840
1.5578799 1.4371691 0.21649785 4289091840
1.5773814 1.4552398 0.208652 4289222400
1.578064 1.4559761 0.19797634 4289222400
1.5562875 1.4360207 0.18444112 4289091840
1.5515487 1.431761 0.17288183 4289091840
1.5669105 1.4460232 0.163266 4289091840
1.5711375 1.4500268 0.15218329 4289222400
1.5590397 1.4389857 0.13943246 4289091840
1.555383 1.4357234 0.12738897 4289091840
1.4270481 1.3175385 0.10616587 4288439040
1.3893796 1.2829142 0.092707083 4288308480
1.3768885 1.2714955 0.081176363 4288308480
1.3864723 1.2804275 0.070847467 4288308480
1.3828309 1.2771667 0.059737835 4288308480
1.3792241 1.2739376 0.048621316 4288308480
1.3558296 1.2524604 0.036997151 4288177920
1.3620929 1.2583315 0.026234945 4288177920
1.359853 1.2563611 0.01525951 4288177920
1.3601409 1.256722 0.0043070051 4288177920
1.3458134 1.243601 -0.006564165 4288177920
1.3553296 1.2524742 -0.017540155 4288177920
1.3541417 1.2514732 -0.028412063 4288177920
1.3574427 1.2546138 -0.039371565 4288177920
1.3618817 1.2588048 -0.050386004 4288177920
1.3610421 1.2581253 -0.061173551 4288177920
1.3662417 1.263019 -0.072209723 4288177920
1.365419 1.2623551 -0.082877293 4288177920
1.3598998 1.2573559 -0.093115695 4288177920
1.3684329 1.2653275 -0.10425691 4288177920
1.3711804 1.2679589 -0.11492432 4288308480
1.3507065 1.2491521 -0.12335958 4288177920
1.3640789 1.2615921 -0.13473956 4288177920
1.3718821 1.2688915 -0.14557263 4288308480
1.3796967 1.2762023 -0.15636168 4288308480
1.3570594 1.2553918 -0.1633891 4288177920
1.283278 1.1873432 -0.16334672 4287916800
1.3690083 1.266614 -0.18369716 4288308480
1.3691369 1.266826 -0.19284482 4288308480
1.3613973 1.2597693 -0.20061265 4288177920
1.331292 1.2320493 -0.20459582 4288047360
1.1783994 1.0908817 -0.18820666 4287394560
1.3718497 1.2697023 -0.22758268 4288308480
1.3765638 1.2741501 -0.23637395 4288308480
1.3740764 1.2719432 -0.24366899 4288308480
1.3652861 1.2639108 -0.24950373 4288308480
1.3341496 1.2352235 -0.25073949 4288177920
1.3579001 1.2572638 -0.26202261 4288308480
1.357183 1.2566897 -0.2683762 4288308480
1.3632071 1.2623469 -0.27578828 4288308480
1.3609542 1.2603524 -0.28121999 4288308480
1.3571813 1.2569518 -0.2859889 4288308480
1.3571786 1.2570362 -0.29121244 4288308480
1.3565458 1.2565374 -0.29596275 4288308480
1.3477029 1.248446 -0.29854035 4288177920
1.3396723 1.241104 -0.30089921 4288177920
1.3453307 1.2464212 -0.30598927 4288177920
1.3213568 1.2243305 -0.30390921 4288047360
1.3017275 1.2062552 -0.30237293 4288047360
1.2930672 1.1983238 -0.30298099 4287916800
1.2440209 1.1530291 -0.29362744 4287786240
1.2546003 1.1628922 -0.29799774 4287786240
1.1989301 1.1114596 -0.28616241 4287525120
1.1951419 1.108026 -0.28636214 4287525120
1.1950103 1.1079752 -0.28710306 4287525120
1.2539608 1.1625994 -0.30178872 4287786240
1.2917627 1.1976576 -0.31103331 4287916800
1.2852552 1.1917098 -0.30920377 4287916800
1.3000902 1.2055151 -0.31216258 4288047360
1.3258799 1.2294619 -0.31737044 4288177920
1.3321543 1.2353455 -0.31748989 4288177920
1.3370392 1.239943 -0.31689247 4288177920
1.352895 1.2546977 -0.31850404 4288308480
1.353285 1.255134 -0.31606144 4288308480
1.3562317 1.2579373 -0.31384292 4288308480
1.3589041 1.2604864 -0.31118241 4288308480
1.3562032 1.2580593 -0.30692506 4288308480
1.3624996 1.2639637 -0.30434528 4288308480
1.3562692 1.2582667 -0.29860365 4288308480
1.3531517 1.2554516 -0.29323584 4288308480
1.3435389 1.2466195 -0.28616178 4288177920
1.3386725 1.2421825 -0.27982879 4288177920
1.3317409 1.2358313 -0.27278864 4288177920
1.3447446 1.2479471 -0.26951182 4288177920
1.3633316 1.2652367 -0.2669079 4288308480
1.3567158 1.259177 -0.25898498 4288308480
1.3466599 1.2499288 -0.25019059 4288177920
1.3355697 1.2397207 -0.24102905 4288177920
1.3430901 1.2467567 -0.23499124 4288177920
1.3548681 1.2577388 -0.22932945 4288177920
1.3555443 1.258433 -0.22144727 4288177920
1.345099 1.2488192 -0.21154694 4288177920
1.3352458 1.239753 -0.20162874 4288177920
1.3547853 1.2579298 -0.19589391 4288177920
1.369132 1.2712947 -0.18896465 4288308480
1.346027 1.2499427 -0.17667511 4288177920
1.3353825 1.2401397 -0.16606882 4288047360
1.3508692 1.2545617 -0.15852466 4288177920
1.3580084 1.2612456 -0.1496568 4288177920
1.3430707 1.2474604 -0.13822258 4288177920
1.3464979 1.2507021 -0.12863252 4288177920
1.3703141 1.2728508 -0.12067128 4288308480
1.3599678 1.263321 -0.10942824 4288177920
1.3542907 1.2581203 -0.098569319 4288177920
1.3548095 1.2586651 -0.088101394 4288177920
1.357399 1.2611306 -0.077650778 4288177920
1.352432 1.2565871 -0.06669268 4288177920
1.3355998 1.2410372 -0.055234108 4288047360
1.3495102 1.2540033 -0.045050781 4288177920
1.3516645 1.2560649 -0.03428223 4288177920
1.3555714 1.2597523 -0.023474662 4288177920
1.3674066 1.2707958 -0.012662977 4288177920
1.365567 1.2691528 -0.0016116446 4288177920
1.3739709 1.277014 0.009468304 4288308480
1.3797884 1.2824761 0.020638647 4288308480
1.379068 1.281872 0.031739321 4288308480
1.4455712 1.3436509 0.044785652 4288569600
1.5696461 1.4588652 0.061013013 4289222400
1.5715376 1.460694 0.073585145 4289222400
1.5714053 1.4606448 0.085999399 4289222400
1.5748106 1.4638795 0.09853512 4289222400
1.5744598 1.4636279 0.11075769 4289222400
1.5575712 1.4480249 0.12158556 4289091840
1.572391 1.4618562 0.13469684 4289222400
1.5836562 1.4723891 0.14755876 4289222400
1.5814108 1.4703797 0.15908656 4289222400
1.5500234 1.4413131 0.1673021 4289091840
1.5859835 1.4747769 0.18253903 4289222400
1.5978413 1.4858639 0.1951759 4289352960
1.5853167 1.4743106 0.20464952 4289222400
1.574339 1.4641932 0.21393344 4289222400
1.5332521 1.4261123 0.21858445 4289091840
1.587347 1.4764284 0.23650123 4289352960
1.5836344 1.4730582 0.24594997 4289222400
1.5803821 1.4701158 0.25515139 4289222400
1.5631735 1.4542093 0.26171154 4289222400
1.5491593 1.441269 0.26832464 4289091840
1.5830981 1.4728763 0.28297818 4289352960
1.5793859 1.4695077 0.29080594 4289222400
1.5750606 1.4655695 0.29815003 4289222400
1.5750561 1.4656461 0.30594453 4289222400
1.5690958 1.4601892 0.3122144 4289222400
1.5612849 1.4530123 0.31769899 4289222400
1.5743089 1.4651972 0.32704806 4289222400
1.5710251 1.4622284 0.33270094 4289222400
1.568085 1.4595791 0.33801886 4289222400
1.5596673 1.451839 0.34173381 4289222400
1.5630184 1.4550377 0.34759542 4289222400
1.5650479 1.457009 0.35277972 4289222400
1.5595272 1.451962 0.35585532 4289222400
1.5560765 1.4488397 0.35896257 4289222400
1.5623205 1.4547311 0.36387837 4289222400
1.5587021 1.4514539 0.3660951 4289222400
1.5583394 1.4512042 0.36863622 4289222400
1.549902 1.4434462 0.36883655 4289222400
1.5568576 1.4500031 0.37224013 4289222400
1.5566505 1.4498999 0.37351421 4289222400
1.556497 1.4498471 0.37436315 4289222400
1.5537007 1.4473368 0.37414098 4289222400
1.5500495 1.4440317 0.37327483 4289222400
1.5568674 1.4504657 0.37447357 4289222400
1.5505975 1.4447254 0.37210765 4289222400
1.5569004 1.4506824 0.37230104 4289222400
1.5620328 1.4555517 0.37176922 4289222400
1.5569711 1.4509368 0.36839336 4289222400
1.5576375 1.4516522 0.36593884 4289222400
1.561058 1.4549314 0.36369169 4289222400
1.5646226 1.4583457 0.36103883 4289222400
1.5668298 1.4604976 0.35764065 4289222400
1.5607888 1.4549731 0.35196754 4289222400
1.5643647 1.4584004 0.34804502 4289222400
1.543649 1.4392149 0.33840901 4289091840
1.5499626 1.4451917 0.33431008 4289222400
1.5612123 1.4557656 0.33081722 4289222400
1.576817 1.4703966 0.32775399 4289352960
1.5745906 1.4684259 0.32058117 4289222400
1.5613732 1.4562203 0.31088817 4289222400
1.556918 1.4530145 0.25680956 4289222400
1.5783241 1.473069 0.25077304 4289222400
1.5892515 1.4833608 0.242608 4289352960
1.554574 1.4511474 0.22742736 4289091840
1.539155 1.4368813 0.21510443 4289091840
1.5621852 1.458456 0.2078062 4289222400
1.5628604 1.4591933 0.19717571 4289222400
1.5441147 1.4418241 0.1840297 4289091840
1.5393996 1.4375349 0.17249681 4289091840
1.5546753 1.4518864 0.16290812 4289091840
1.562525 1.4593151 0.15220325 4289222400
1.5504928 1.4482028 0.13945298 4289091840
1.5366353 1.4353868 0.12658215 4289091840
1.4089996 1.3164411 0.10543601 4288439040
1.3854116 1.2945367 0.092966996 4288308480
1.3729892 1.2830453 0.08140827 4288308480
1.3752137 1.2852178 0.070686556 4288308480
1.3723218 1.2826167 0.059637178 4288308480
1.3716576 1.2820939 0.04864404 4288308480
1.3520455 1.2638894 0.037115168 4288177920
1.3582742 1.2697982 0.026324281 4288177920
1.352391 1.2644035 0.015283798 4288177920
1.3526767 1.2647662 0.0043319035 4288177920
1.3384273 1.2515608 -0.0065389439 4288177920
1.3369268 1.2502549 -0.017356589 4288177920
1.3430547 1.2560709 -0.028303541 4288177920
1.3463377 1.2592313 -0.039233051 4288177920
1.3507525 1.2634491 -0.050217614 4288177920
1.3469961 1.2600368 -0.060839735 4288177920
1.3623922 1.2745104 -0.072379686 4288177920
1.3477012 1.2608858 -0.08221139 4288177920
1.3456758 1.2590892 -0.09261255 4288177920
1.3536226 1.2666072 -0.10365896 4288177920
1.3600038 1.2726636 -0.11458214 4288177920
1.3432883 1.2571427 -0.12332932 4288177920
1.3565869 1.2696619 -0.13470873 4288177920
1.3643469 1.2770075 -0.14554138 4288308480
1.3721182 1.2843646 -0.15633008 4288308480
1.3532432 1.2668209 -0.16380259 4288177920
1.2791368 1.1976556 -0.16369301 4287916800
1.3578521 1.2713162 -0.18317093 4288308480
1.3652475 1.2783225 -0.19333172 4288308480
1.3524668 1.266469 -0.20036468 4288177920
1.3312343 1.2467121 -0.20569488 4288177920
1.1755489 1.1012472 -0.18876664 4287394560
1.3751855 1.2879878 -0.22937708 4288308480
1.365375 1.2789074 -0.23571329 4288308480
1.3629028 1.2766875 -0.24298857 4288308480
1.3541622 1.2686048 -0.24880451 4288308480
1.3297087 1.2458247 -0.25126007 4288177920
1.3504348 1.265299 -0.26199317 4288308480
1.3533342 1.2681004 -0.26906943 4288308480
1.3528224 1.2677108 -0.27516907 4288308480
1.3534704 1.2684057 -0.28119206 4288308480
1.3497177 1.2649828 -0.28596172 4288308480
1.3461083 1.2616931 -0.29040429 4288177920
1.3490846 1.2645648 -0.295937 4288308480
1.3366866 1.2530493 -0.29770941 4288177920
1.328701 1.2456609 -0.30005836 4288177920
1.3271285 1.2442733 -0.30348533 4288177920
1.2977346 1.2168447 -0.30008942 4288047360
1.2981625 1.2173263 -0.30319655 4288047360
1.2859511 1.2059758 -0.30296174 4287916800
1.2443658 1.1671243 -0.29532447 4287786240
1.2505705 1.1730096 -0.29867107 4287786240
1.1887348 1.1151896 -0.28528088 4287525120
1.1820921 1.1090416 -0.28478265 4287525120
1.1920239 1.1184127 -0.28796259 4287525120
1.2434626 1.1666546 -0.30090335 4287786240
1.2434138 1.1666825 -0.3009966 4287786240
1.2810518 1.2020069 -0.30989248 4287916800
1.3001168 1.2199388 -0.31389663 4288047360
1.3121088 1.2312471 -0.31579998 4288047360
1.3284105 1.2465935 -0.31834912 4288177920
1.329674 1.2478529 -0.31688833 4288177920
1.3409404 1.2584834 -0.3174313 4288177920
1.3422332 1.2597703 -0.3152124 4288177920
1.3451623 1.2625898 -0.31300303 4288308480
1.3423145 1.2599959 -0.30907983 4288177920
1.3422518 1.2600111 -0.30544838 4288177920
1.3549906 1.2720227 -0.30435094 4288308480
1.3487939 1.2662886 -0.29861102 4288308480
1.3420904 1.2600785 -0.29245621 4288177920
1.3361323 1.2545658 -0.28617251 4288177920
1.3276868 1.2467204 -0.27907959 4288177920
1.3246546 1.2439481 -0.27285582 4288177920
1.3308343 1.2498109 -0.26821181 4288177920
1.355814 1.2732993 -0.26692581 4288308480
1.3555775 1.2731478 -0.26022902 4288308480
1.3397695 1.2583956 -0.25031257 4288177920
1.3282034 1.2476189 -0.24105181 4288177920
1.3304284 1.2497729 -0.23408569 4288177920
1.3408804 1.2596419 -0.22823995 4288177920
1.3480667 1.2664489 -0.22147554 4288177920
1.3340558 1.2533758 -0.21099958 4288177920
1.3278792 1.247649 -0.20165989 4288177920
1.3473107 1.2659409 -0.19592716 4288177920
1.3579501 1.2759874 -0.18849215 4288308480
1.3385999 1.257902 -0.17671132 4288177920
1.3243825 1.2446296 -0.16564775 4288047360
1.339782 1.2591414 -0.15813093 4288177920
1.350327 1.2690998 -0.14967689 4288177920
1.3349828 1.254768 -0.13819382 4288177920
1.3325201 1.2525215 -0.12803882 4288177920
1.3591133 1.2775395 -0.12039017 4288308480
1.3488227 1.2679474 -0.1091757 4288177920
1.3462359 1.2655841 -0.098573752 4288177920
1.3371354 1.2571074 -0.087470017 4288177920
1.3360658 1.2561667 -0.07688617 4288177920
1.3449671 1.2645849 -0.066743635 4288177920
1.3245836 1.2455155 -0.05512882 4288047360
1.3311281 1.2517213 -0.044721358 4288047360
1.3478483 1.26748 -0.034433994 4288177920
1.3505697 1.2700983 -0.023576012 4288177920
1.3450189 1.2649506 -0.012559632 4288177920
1.3616742 1.2806513 -0.0016776033 4288308480
1.3598255 1.2789795 0.0093749417 4288177920
1.3685272 1.2872143 0.020531032 4288308480
1.3816599 1.2996107 0.031902123 4288308480
1.4303042 1.3453563 0.044507287 4288569600
1.5609832 1.4681473 0.060945868 4289222400
1.5657783 1.4727243 0.073651098 4289222400
1.555449 1.463097 0.085540861 4289091840
1.5624782 1.4697729 0.098243393 4289222400
1.567695 1.4747475 0.11082385 4289222400
1.5489743 1.4572366 0.12151913 4289091840
1.5611101 1.4687111 0.13440958 4289222400
1.5712794 1.4783396 0.14715642 4289222400
1.5654131 1.4729036 0.15829538 4289222400
1.5356641 1.4450284 0.1666165 4289091840
1.5808605 1.4875692 0.18288943 4289222400
1.5817622 1.4884934 0.19423026 4289352960
1.5693098 1.4768692 0.20365535 4289222400
1.5591214 1.4673715 0.2129899 4289222400
1.517539 1.4283695 0.21749789 4288961280
1.5756861 1.4830937 0.23601227 4289222400
1.5748914 1.4824252 0.24589254 4289222400
1.5602245 1.4687179 0.25325671 4289222400
1.5545425 1.4634554 0.2616581 4289222400
1.541978 1.4517227 0.26851049 4289091840
1.5792292 1.4868209 0.28379631 4289352960
1.5742749 1.4822439 0.29142076 4289352960
1.5663621 1.4748855 0.29810408 4289222400
1.5663571 1.4749619 0.30590081 4289222400
1.5532191 1.4626899 0.31074169 4289222400
1.5497781 1.4595357 0.31707504 4289222400
1.562731 1.4717985 0.32641429 4289222400
1.5621603 1.4713449 0.33262804 4289222400
1.5522248 1.4620842 0.33643934 4289222400
1.5510495 1.4610626 0.34170595 4289222400
1.5543813 1.4642807 0.34757039 4289222400
1.5485545 1.4588848 0.35099199 4289222400
1.5500998 1.4604239 0.35565236 4289222400
1.5510666 1.4614196 0.35977423 4289222400
1.5465028 1.4572126 0.36219534 4289222400
1.5496829 1.4602917 0.36599159 4289222400
1.5461342 1.4570405 0.36778238 4289222400
1.5449189 1.4559854 0.36968696 4289222400
1.54466 1.4558308 0.37138438 4289222400
1.5372798 1.4489748 0.37093958 4289222400
1.5443002 1.4556721 0.37350965 4289222400
1.5451049 1.4565204 0.37415284 4289222400
1.5450591 1.4565691 0.37415308 4289222400
1.5446658 1.4562912 0.37363124 4289222400
1.5456022 1.4572657 0.37299049 4289222400
1.5446962 1.4565065 0.37147126 4289222400
1.5426248 1.4546505 0.36924163 4289222400
1.548351 1.4601371 0.36842811 4289222400
1.5554714 1.4669379 0.36749324 4289222400
1.5488244 1.4607753 0.36289918 4289222400
1.5543334 1.4660606 0.36071134 4289222400
1.551688 1.4636672 0.35621789 4289222400
1.5512671 1.4633693 0.35182494 4289222400
1.5456377 1.4581656 0.34586835 4289222400
1.5350957 1.4483341 0.33847079 4289091840
1.5313064 1.4448634 0.33220786 4289091840
1.55256 1.4649878 0.33088759 4289222400
1.5641749 1.4760334 0.32701904 4289222400
1.567118 1.4789097 0.32091516 4289222400
1.5527174 1.4654428 0.3109701 4289222400
1.5383112 1.4525363 0.25516045 4289091840
1.5697145 1.4822512 0.25078678 4289222400
1.5704579 1.4830601 0.24108221 4289222400
1.5388578 1.4533694 0.22638707 4289091840
1.530757 1.4458363 0.21511781 4289091840
1.553661 1.4675449 0.20781977 4289222400
1.5572298 1.4710195 0.19755283 4289222400
1.5356878 1.4508082 0.18404312 4289091840
1.5273727 1.4430718 0.17210683 4289091840
1.5389366 1.4540892 0.16216744 4289091840
1.5467403 1.4615607 0.15151605 4289091840
1.5420285 1.4572244 0.13946646 4289091840
1.5209857 1.4374768 0.12600401 4288961280
1.4081486 1.3310988 0.10595311 4288439040
1.3707688 1.2959204 0.092512026 4288308480
1.3545916 1.2807492 0.080786586 4288177920
1.3640686 1.2897916 0.07051605 4288308480
1.371367 1.2967789 0.059925456 4288308480
1.3677989 1.2935085 0.048780352 4288308480
1.3410237 1.2683269 0.037031863 4288177920
1.3544879 1.2811362 0.026401764 4288177920
1.3413658 1.2688423 0.015259416 4288177920
1.3438332 1.2712687 0.0043410426 4288177920
1.3313709 1.2595955 -0.006528921 4288177920
1.3332543 1.26147 -0.017397447 4288177920
1.3357135 1.2638886 -0.028291844 4288177920
1.3317105 1.2602029 -0.038998555 4288177920
1.3324689 1.2610149 -0.049783885 4288177920
1.3534346 1.2809186 -0.061473113 4288177920
1.3447752 1.2728335 -0.071811505 4288177920
1.3403318 1.268731 -0.082199648 4288177920
1.3419464 1.2703525 -0.092856623 4288177920
1.3462198 1.2744869 -0.10364717 4288177920
1.3453122 1.273725 -0.11394681 4288177920
1.3330407 1.2622212 -0.12304626 4288177920
1.3491664 1.2775592 -0.1346969 4288177920
1.3530744 1.2813492 -0.14511637 4288308480
1.3544743 1.2827682 -0.15514484 4288308480
1.3422204 1.2712775 -0.16334608 4288177920
1.272137 1.2051032 -0.16368186 4287916800
1.3504219 1.2792213 -0.18315908 4288308480
1.3505499 1.2794366 -0.19228266 4288308480
1.346507 1.2757068 -0.20056933 4288177920
1.3167293 1.247635 -0.20455354 4288047360
1.1655053 1.1046809 -0.18816933 4287394560
1.3503525 1.2796235 -0.22644399 4288308480
1.3579004 1.2868567 -0.23570138 4288308480
1.3554411 1.2846226 -0.24297668 4288308480
1.34659 1.2763397 -0.24876337 4288308480
1.3195605 1.250854 -0.25070065 4288177920
1.3394444 1.2697593 -0.26127625 4288177920
1.3387358 1.2691784 -0.26761335 4288177920
1.3418217 1.2721882 -0.27441898 4288308480
1.3424674 1.2728883 -0.28042665 4288308480
1.3423245 1.2728416 -0.28594995 4288308480
1.3423208 1.272926 -0.29117417 4288308480
1.3345242 1.2656323 -0.29433659 4288177920
1.3293632 1.2608324 -0.29769772 4288177920
1.3285846 1.2601807 -0.30168074 4288177920
1.3033965 1.2364149 -0.29967239 4288047360
1.3097488 1.2425133 -0.30454481 4288177920
1.2774504 1.2120084 -0.29997802 4287916800
1.2724638 1.2073658 -0.30141851 4287916800
1.2303917 1.1675961 -0.2935991 4287786240
1.2372788 1.174196 -0.29710779 4287786240
1.1822171 1.1221129 -0.28527051 4287525120
1.1856188 1.1254078 -0.2872079 4287525120
1.1819133 1.1219691 -0.28708008 4287525120
1.236644 1.1738961 -0.3008925 4287786240
1.2294478 1.1671515 -0.29923853 4287786240
1.2740266 1.2094668 -0.30988127 4287916800
1.2894131 1.2241229 -0.31301409 4288047360
1.2915341 1.2262084 -0.3125374 4288047360
1.3175505 1.250941 -0.31747267 4288177920
1.3259557 1.2589837 -0.31773689 4288177920
1.3280509 1.2610456 -0.31609684 4288177920
1.3312944 1.2641958 -0.31435266 4288177920
1.3387923 1.271379 -0.3132284 4288308480
1.3332684 1.2662171 -0.30867699 4288177920
1.3377509 1.2705412 -0.30609468 4288308480
1.3303716 1.2636184 -0.30044076 4288177920
1.3413931 1.2741421 -0.29859921 4288308480
1.3311431 1.2644956 -0.29165581 4288177920
1.3316674 1.2650647 -0.28678128 4288177920
1.3204005 1.254451 -0.27906796 4288177920
1.3137972 1.2482589 -0.27209747 4288177920
1.3235298 1.2575598 -0.26820019 4288177920
1.3447818 1.2777876 -0.26619944 4288308480
1.3373603 1.270818 -0.25812566 4288177920
1.3288209 1.2627869 -0.24962184 4288177920
1.3130519 1.2478957 -0.23959726 4288047360
1.3283488 1.2624758 -0.23500416 4288177920
1.3335184 1.2674487 -0.22822821 4288177920
1.3377842 1.2715639 -0.22098465 4288177920
1.3267305 1.2611427 -0.21098791 4288177920
1.3169829 1.2519594 -0.2010937 4288047360
1.3334206 1.2676246 -0.19495878 4288177920
1.3432767 1.2770448 -0.18746485 4288177920
1.3346716 1.2689443 -0.17715807 4288177920
1.3272198 1.2619374 -0.16691998 4288177920
1.332423 1.2669413 -0.1581192 4288177920
1.3400183 1.2742162 -0.14933932 4288177920
1.3312651 1.2659721 -0.13856295 4288177920
1.3251998 1.2602788 -0.12802717 4288177920
1.3415154 1.2758327 -0.11946338 4288177920
1.3450317 1.2792358 -0.10946303 4288177920
1.3417357 1.2761711 -0.098778911 4288177920
1.3334099 1.2683299 -0.087701224 4288177920
1.335969 1.2708237 -0.077303186 4288177920
1.3339531 1.2689732 -0.066546299 4288177920
1.3100567 1.2463431 -0.054804124 4288047360
1.3274368 1.2629119 -0.044837065 4288177920
1.3368158 1.2718829 -0.034324162 4288177920
1.3322717 1.2676303 -0.023358425 4288177920
1.3347259 1.2700248 -0.012516598 4288177920
1.3469392 1.2816898 -0.0016466539 4288177920
1.3579608 1.2922238 0.0094178785 4288308480
1.3675917 1.3014377 0.020633126 4288308480
1.3704399 1.3042086 0.031835176 4288308480
1.4086702 1.3405964 0.044107832 4288439040
1.545156 1.4703448 0.060684241 4289091840
1.5506502 1.4756391 0.073364727 4289222400
1.5396544 1.4652644 0.085163333 4289091840
1.5509915 1.4761117 0.098077714 4289222400
1.5518365 1.4769892 0.11033247 4289222400
1.5404575 1.4662493 0.12153269 4289091840
1.5489091 1.4743563 0.13411494 4289222400
1.5517914 1.4771709 0.14616321 4289222400
1.551491 1.4769607 0.15777603 4289222400
1.5272187 1.4539634 0.16662996 4289091840
1.5613323 1.4864675 0.18165781 4289222400
1.5730628 1.4976959 0.19424412 4289352960
1.5606784 1.4859993 0.20366909 4289222400
1.5505453 1.4764423 0.21300356 4289222400
1.5127953 1.4406258 0.21802531 4288961280
1.5670183 1.4922606 0.23602608 4289222400
1.5590265 1.4847398 0.24478616 4289222400
1.5581181 1.4839548 0.25431818 4289222400
1.5463063 1.4728005 0.26172489 4289222400
1.526304 1.4538558 0.2672759 4289091840
1.5556338 1.4818305 0.28113857 4289222400
1.5618359 1.4878104 0.2907373 4289222400
1.5577422 1.4839976 0.29811782 4289222400
1.5476929 1.4745194 0.30395731 4289222400
1.5482558 1.4751363 0.3114711 4289222400
1.541248 1.4685513 0.31708863 4289222400
1.5469656 1.4740736 0.32493439 4289222400
1.5471169 1.4743007 0.33127192 4289222400
1.5436796 1.4711138 0.33645296 4289222400
1.5389334 1.4666814 0.34093273 4289222400
1.5358119 1.4637953 0.34534863 4289222400
1.5400281 1.467893 0.35100558 4289222400
1.5379915 1.4660405 0.35484728 4289222400
1.5282384 1.4568435 0.3564781 4289091840
1.538857 1.4670374 0.3624126 4289222400
1.5411482 1.4693062 0.36600518 4289222400
1.5311946 1.4599189 0.36626962 4289222400
1.533741 1.4624318 0.36906269 4289222400
1.5361515 1.4648162 0.37139794 4289222400
1.5323784 1.4613137 0.37181282 4289222400
1.5286591 1.4578626 0.37179971 4289222400
1.5301725 1.4593948 0.37261346 4289222400
1.5365462 1.4655566 0.37416664 4289222400
1.5334579 1.4627081 0.37299317 4289222400
1.5335187 1.4628594 0.37214425 4289222400
1.52905 1.4586968 0.36977115 4289222400
1.5341233 1.463624 0.36925519 4289222400
1.5398173 1.4691439 0.3684417 4289222400
1.5333381 1.4630674 0.36430696 4289222400
1.5338627 1.4636638 0.36140934 4289222400
1.5457652 1.4751022 0.36072499 4289222400
1.5495613 1.4788183 0.35770515 4289222400
1.5427146 1.4723932 0.35183856 4289222400
1.5335425 1.4637517 0.34508353 4289222400
1.526631 1.4572641 0.33848429 4289091840
1.5247567 1.4555774 0.33263165 4289091840
1.536844 1.4671999 0.32937914 4289222400
1.5565666 1.4861033 0.3272453 4289222400
1.5548947 1.4846131 0.32019719 4289222400
1.5405712 1.4710606 0.31026796 4289222400
1.5317894 1.4633625 0.25549918 4289091840
1.5574576 1.4879546 0.25022838 4289222400
1.5617902 1.4921966 0.24109602 4289222400
1.5339613 1.4657545 0.22692753 4289091840
1.5180386 1.4506696 0.21453433 4289091840
1.5306813 1.4628404 0.20591669 4289091840
1.5457507 1.4773293 0.19720297 4289222400
1.5171182 1.4501129 0.18285492 4289091840
1.5147865 1.4479954 0.17165564 4289091840
1.5302806 1.4628925 0.16216448 4289091840
1.5345906 1.4671161 0.15117924 4289091840
1.5251069 1.4581726 0.1387271 4289091840
1.5164514 1.4500184 0.12633421 4288961280
1.3866469 1.3261913 0.10494743 4288439040
1.3595829 1.3004488 0.092284366 4288308480
1.3443058 1.2859584 0.080634758 4288177920
1.3534534 1.2947916 0.070372641 4288308480
1.3572828 1.2985469 0.059661135 4288308480
1.3469352 1.2887617 0.048334502 4288177920
1.3338963 1.2764045 0.037051175 4288177920
1.3368782 1.2793498 0.026229758 4288177920
1.331058 1.2738866 0.015242276 4288177920
1.3306167 1.2735616 0.0043422496 4288177920
1.3203944 1.2638907 -0.0064942711 4288047360
1.3222672 1.2657763 -0.017333236 4288177920
1.3254355 1.2689002 -0.028214514 4288177920
1.3243454 1.2679546 -0.038986824 4288177920
1.3287121 1.2722244 -0.049912769 4288177920
1.3387239 1.2818909 -0.061121721 4288177920
1.3438368 1.2868755 -0.072157227 4288177920
1.3256962 1.26963 -0.08173316 4288177920
1.3381312 1.2816149 -0.09310057 4288177920
1.3387713 1.2823235 -0.1036353 4288177920
1.3424135 1.2859027 -0.11432778 4288177920
1.3264478 1.2707312 -0.12310828 4288177920
1.3352131 1.2792093 -0.13402586 4288177920
1.3457716 1.2894036 -0.1451247 4288308480
1.3450731 1.2888316 -0.15491128 4288308480
1.3383895 1.2825339 -0.16377893 4288177920
1.2622164 1.2097569 -0.16329476 4287916800
1.3393506 1.2836434 -0.1826527 4288177920
1.3401979 1.2845486 -0.19185592 4288177920
1.3354601 1.2801094 -0.20001546 4288177920
1.3130271 1.2587359 -0.20510677 4288177920
1.1662239 1.1183345 -0.1893331 4287394560
1.352913 1.2970933 -0.22813597 4288308480
1.350125 1.2945184 -0.23564467 4288308480
1.3479334 1.2925138 -0.24296473 4288308480
1.3255291 1.2711589 -0.24621019 4288177920
1.3022335 1.2489473 -0.24876447 4288047360
1.3284481 1.2741345 -0.26055929 4288177920
1.3277448 1.2735512 -0.26687944 4288177920
1.3343867 1.2800007 -0.27440715 4288308480
1.3350284 1.2807046 -0.28041482 4288308480
1.3384539 1.2840743 -0.28670612 4288308480
1.3313149 1.2773256 -0.29038072 4288177920
1.3203551 1.2669157 -0.29281589 4288177920
1.3219945 1.2685727 -0.29768601 4288177920
1.3212197 1.2679166 -0.30166903 4288177920
1.2990191 1.2467334 -0.30032238 4288047360
1.2834671 1.2319168 -0.30006671 4288047360
1.2803308 1.2289938 -0.30232984 4288047360
1.2682536 1.2175025 -0.30208811 4287916800
1.223568 1.1747613 -0.29358822 4287786240
1.2304165 1.1814013 -0.29709685 4287786240
1.1692598 1.122865 -0.2837002 4287525120
1.1754869 1.1289058 -0.2863276 4287525120
1.1725127 1.1261271 -0.28637201 4287525120
1.2297835 1.1810976 -0.30088156 4287786240
1.2226267 1.1743113 -0.29922765 4287786240
1.2605613 1.210753 -0.30829886 4287916800
1.2787051 1.2282238 -0.31213152 4288047360
1.2976724 1.2464859 -0.31577697 4288047360
1.3066851 1.2552044 -0.31659621 4288177920
1.318598 1.2667044 -0.31772518 4288177920
1.3190733 1.2672367 -0.31569871 4288177920
1.3274624 1.2753582 -0.31518885 4288177920
1.3303585 1.2782116 -0.31297946 4288308480
1.3310992 1.2789975 -0.30988821 4288308480
1.3274782 1.275599 -0.30542484 4288177920
1.3336676 1.2816106 -0.30286536 4288308480
1.3232621 1.2717021 -0.29618484 4288177920
1.3237531 1.2722461 -0.29164404 4288177920
1.3178583 1.2666628 -0.28537354 4288177920
1.3059376 1.2552963 -0.27753317 4288177920
1.300081 1.2497472 -0.27074179 4288047360
1.3161803 1.2652658 -0.26818848 4288177920
1.3408846 1.2890437 -0.26690206 4288308480
1.3335055 1.2820327 -0.258811 4288177920
1.3214409 1.2705235 -0.2496101 4288177920
1.2993227 1.2493631 -0.23839754 4288047360
1.3157749 1.2652224 -0.23406234 4288177920
1.3189527 1.2683408 -0.22697648 4288177920
1.3267719 1.2759148 -0.22037399 4288177920
1.3157773 1.2654274 -0.21039915 4288177920
1.3132507 1.2630683 -0.20163658 4288177920
1.3260124 1.2753875 -0.19494697 4288177920
1.3394014 1.2883099 -0.18796064 4288177920
1.3238511 1.2734452 -0.17668782 4288177920
1.3061981 1.2565594 -0.16516602 4288047360
1.3178331 1.2677976 -0.15724128 4288177920
1.3255682 1.2752912 -0.14853415 4288177920
1.3130794 1.2633618 -0.13740884 4288047360
1.3178345 1.2679933 -0.12801544 4288177920
1.3369378 1.2864069 -0.11971288 4288177920
1.3339561 1.283608 -0.10915201 4288177920
1.3313971 1.2812145 -0.098550119 4288177920
1.322396 1.2726319 -0.087446541 4288177920
1.328542 1.2786005 -0.077291362 4288177920
1.3200513 1.270507 -0.066200532 4288177920
1.3099802 1.2608941 -0.055105563 4288047360
1.3164519 1.2671756 -0.044697981 4288047360
1.325778 1.2762003 -0.034214325 4288177920
1.3296194 1.2799554 -0.023437073 4288177920
1.3340489 1.2842759 -0.012577822 4288177920
1.3421749 1.2921495 -0.0016418949 4288177920
1.3568976 1.3063639 0.0094660521 4288308480
1.3570393 1.3065653 0.020604685 4288308480
1.3527256 1.302484 0.031625889 4288308480
1.4008354 1.3487943 0.044120312 4288439040
1.5329597 1.4758718 0.060560245 4289091840
1.5420263 1.4846617 0.073378459 4289222400
1.5346928 1.4776857 0.085372582 4289091840
1.5423647 1.485136 0.098091453 4289222400
1.5384209 1.4814188 0.11001056 4289091840
1.523243 1.4668994 0.1208721 4289091840
1.5438898 1.4868273 0.13443701 4289222400
1.5503502 1.4931152 0.14684834 4289222400
1.5409547 1.4841558 0.15759763 4289222400
1.5172751 1.4614581 0.16648684 4289091840
1.5562364 1.4990052 0.18208683 4289222400
1.5614382 1.5040855 0.19390546 4289222400
1.544818 1.4881767 0.20275137 4289222400
1.5383306 1.4820135 0.21252704 4289222400
1.4943399 1.4397727 0.21659906 4288961280
1.5559644 1.4991326 0.23568998 4289222400
1.5503492 1.4938095 0.24479997 4289222400
1.5394255 1.4833784 0.252702 4289222400
1.5341222 1.4783547 0.26113513 4289222400
1.5142325 1.4592954 0.26666534 4289091840
1.5517926 1.4955175 0.28202099 4289222400
1.5495698 1.4934595 0.29008803 4289222400
1.5490694 1.4930593 0.29813161 4289222400
1.5426426 1.4869559 0.3046701 4289222400
1.5296518 1.4745343 0.30948055 4289222400
1.5291018 1.4740869 0.31637058 4289222400
1.5347888 1.4796438 0.32420129 4289222400
1.5349406 1.4798733 0.33052456 4289222400
1.5350821 1.4800935 0.33646667 4289222400
1.5303617 1.4756335 0.34094638 4289222400
1.5237014 1.4693058 0.34456384 4289222400
1.5286059 1.4741133 0.35037202 4289222400
1.5230283 1.4688284 0.35338724 4289222400
1.5303799 1.4759946 0.35897404 4289222400
1.5267323 1.4725692 0.36159098 4289222400
1.5226215 1.468698 0.36366093 4289222400
1.5155642 1.461989 0.36458719 4289091840
1.5188072 1.4652013 0.36754104 4289222400
1.5204952 1.4669168 0.36969787 4289222400
1.5282799 1.4745064 0.37290305 4289222400
1.5245802 1.4710335 0.37289235 4289222400
1.5216434 1.4682957 0.37262705 4289222400
1.5212004 1.4679611 0.37253073 4289222400
1.5284561 1.4750456 0.37386855 4289222400
1.5281605 1.4748547 0.37293145 4289222400
1.5176874 1.4648566 0.36909926 4289222400
1.5255694 1.4725478 0.3692688 4289222400
1.5239218 1.4710556 0.36670828 4289222400
1.5231194 1.4703786 0.36392465 4289222400
1.5217595 1.4691648 0.36058766 4289222400
1.5307542 1.4779336 0.35924923 4289222400
1.5309759 1.4782462 0.35542649 4289222400
1.5305575 1.4779423 0.35104322 4289222400
1.5285412 1.4760983 0.34589556 4289222400
1.5145601 1.4627172 0.33771098 4289091840
1.5091386 1.4575894 0.33109635 4289091840
1.5302174 1.4780186 0.32980961 4289222400
1.5407645 1.4882936 0.32576543 4289222400
1.5426583 1.4902241 0.31947926 4289222400
1.5319741 1.4800224 0.31028163 4289222400
1.5195251 1.468971 0.25491917 4289091840
1.5421864 1.490953 0.24921294 4289222400
1.5529267 1.5014302 0.24111119 4289222400
1.5116616 1.4617006 0.22494052 4289091840
1.5130002 1.4631004 0.21505362 4289091840
1.5191276 1.4691249 0.20554996 4289091840
1.5298116 1.4795507 0.19631143 4289091840
1.5085043 1.4590832 0.1828727 4289091840
1.4954309 1.4465653 0.17046374 4288961280
1.5215907 1.4719406 0.16218378 4289091840
1.5194184 1.4699522 0.15056844 4289091840
1.5147547 1.4655571 0.13859542 4289091840
1.497787 1.4492748 0.12552713 4288961280
1.3751785 1.3309226 0.10469957 4288439040
1.3554496 1.31196 0.092544511 4288308480
1.3430442 1.3000715 0.081030637 4288308480
1.3459474 1.3029755 0.070403643 4288308480
1.3459756 1.3031014 0.05952983 4288308480
1.3316628 1.2893662 0.048093494 4288177920
1.3191257 1.2773455 0.036884028 4288177920
1.3292788 1.2872573 0.026253629 4288177920
1.3198966 1.2782847 0.015230402 4288177920
1.3194572 1.277957 0.004360518 4288177920
1.3128871 1.2717013 -0.0064689037 4288047360
1.3147486 1.2735982 -0.017307265 4288177920
1.3143047 1.2732656 -0.028106049 4288047360
1.3171744 1.2761376 -0.038970891 4288177920
1.3211555 1.2800848 -0.049885076 4288177920
1.3246448 1.2835569 -0.060787946 4288177920
1.3326025 1.2913519 -0.071929693 4288177920
1.325335 1.2844189 -0.082158677 4288177920
1.3197529 1.2791153 -0.092303827 4288177920
1.3246976 1.2839961 -0.10309436 4288177920
1.3276038 1.2869048 -0.11367404 4288177920
1.3145363 1.274356 -0.12266504 4288177920
1.3276157 1.2871095 -0.13399495 4288177920
1.334532 1.2938997 -0.14470059 4288177920
1.3357322 1.2951579 -0.15468238 4288177920
1.323616 1.2835258 -0.16285819 4288177920
1.2578931 1.2199965 -0.16364072 4287916800
1.3252928 1.2853394 -0.18173105 4288177920
1.3289965 1.2890201 -0.19130568 4288177920
1.3250012 1.285246 -0.19955029 4288177920
1.2984141 1.2595943 -0.20394622 4288047360
1.1524487 1.1183292 -0.18813175 4287394560
1.3387933 1.2988847 -0.22700909 4288308480
1.3391278 1.2993027 -0.23502876 4288308480
1.3366969 1.2970415 -0.24228433 4288308480
1.3250984 1.285899 -0.24751733 4288177920
1.2912595 1.2532085 -0.24804789 4288047360
1.3208817 1.2819967 -0.26052982 4288177920
1.3272885 1.2882949 -0.26829448 4288308480
1.3267854 1.2878981 -0.27437851 4288308480
1.3139342 1.2755346 -0.27752349 4288177920
1.3272805 1.2885574 -0.28591067 4288308480
1.3237295 1.2852048 -0.29035407 4288177920
1.3160206 1.2778213 -0.29350474 4288177920
1.3116264 1.2736492 -0.29701623 4288177920
1.3101481 1.2723027 -0.30082804 4288177920
1.2986962 1.2612864 -0.30195326 4288177920
1.2690723 1.2326503 -0.29837337 4288047360
1.2730318 1.2365716 -0.30230922 4288047360
1.258193 1.222265 -0.30138788 4287916800
1.2130547 1.1785743 -0.29271331 4287786240
1.2198644 1.1852552 -0.29621771 4287786240
1.1661257 1.1332145 -0.28455183 4287525120
1.1659542 1.1331213 -0.28561789 4287525120
1.1686512 1.1358095 -0.28705686 4287525120
1.2227681 1.1883759 -0.30086944 4287786240
1.2156514 1.1815472 -0.29921684 4287786240
1.2533695 1.2182127 -0.30828902 4287916800
1.2678756 1.2323623 -0.31125179 4288047360
1.2742119 1.2385861 -0.31182399 4288047360
1.2964013 1.2601926 -0.31589854 4288177920
1.3075383 1.2710762 -0.31686065 4288177920
1.3087168 1.2722964 -0.31501225 4288177920
1.3128135 1.2763485 -0.3134917 4288177920
1.3138591 1.2774391 -0.31086376 4288177920
1.3218373 1.2852581 -0.30949914 4288308480
1.3198994 1.2834523 -0.30542853 4288177920
1.3189729 1.2826275 -0.30124649 4288177920
1.3093319 1.2733421 -0.29475036 4288177920
1.3098173 1.2738862 -0.29023322 4288177920
1.3067882 1.2710177 -0.28460842 4288177920
1.2984787 1.2630215 -0.27754524 4288177920
1.2954925 1.2601926 -0.27135292 4288047360
1.3086619 1.273051 -0.26820412 4288177920
1.3360649 1.2997326 -0.26749137 4288308480
1.3223355 1.2864705 -0.25813317 4288177920
1.3138911 1.2783394 -0.24963103 4288177920
1.3018533 1.2667168 -0.24026817 4288177920
1.3098654 1.2745674 -0.23437634 4288177920
1.3078567 1.2726847 -0.22638251 4288177920
1.3156291 1.2803028 -0.21980298 4288177920
1.3046951 1.2697484 -0.2098514 4288177920
1.3057448 1.2708352 -0.20166752 4288177920
1.3219991 1.286694 -0.19551134 4288177920
1.3217565 1.2865255 -0.1865737 4288177920
1.3125305 1.2776276 -0.17621544 4288177920
1.2951603 1.2608145 -0.16474447 4288047360
1.3102994 1.2755913 -0.15728015 4288177920
1.3215638 1.2866037 -0.14898196 4288177920
1.3055723 1.2711275 -0.13745043 4288047360
1.3103 1.2757871 -0.12805855 4288177920
1.329294 1.2943135 -0.11975796 4288177920
1.3268604 1.2920134 -0.1092427 4288177920
1.3202045 1.2856085 -0.098326258 4288177920
1.3076729 1.2734908 -0.087008789 4288047360
1.3137819 1.2794937 -0.076912045 4288177920
1.3125031 1.2783145 -0.066250876 4288177920
1.2953229 1.2616746 -0.054843184 4288047360
1.3144701 1.2803546 -0.044947375 4288177920
1.3217807 1.287527 -0.034365803 4288177920
1.3208714 1.2867069 -0.023469411 4288177920
1.3161287 1.2821589 -0.012520486 4288177920
1.3317889 1.2974523 -0.0016907656 4288177920
1.339102 1.3046293 0.0093529075 4288308480
1.3414563 1.3069839 0.020438893 4288308480
1.3485737 1.3139716 0.031646747 4288308480
1.3892417 1.353595 0.043951556 4288439040
1.5177461 1.4786654 0.060246274 4289091840
1.5332096 1.493782 0.073311478 4289222400
1.5223366 1.483279 0.085110396 4289091840
1.5263855 1.4872925 0.097576275 4289091840
1.5279384 1.488878 0.10982493 4289091840
1.5123953 1.4738296 0.12063871 4289091840
1.5243317 1.4855187 0.13344608 4289091840
1.5379099 1.4988067 0.14644665 4289222400
1.527604 1.4888537 0.15707205 4289091840
1.5100366 1.4718332 0.16657992 4289091840
1.5373391 1.4984804 0.18086037 4289222400
1.5401915 1.5013336 0.19232124 4289222400
1.5388877 1.5001421 0.20306849 4289222400
1.5295329 1.4911139 0.21246649 4289222400
1.4918566 1.4545157 0.217416 4288961280
1.5386989 1.5001926 0.23436928 4289222400
1.5348903 1.4965637 0.24370618 4289222400
1.5235039 1.4855571 0.25148302 4289222400
1.5217906 1.4839679 0.26047871 4289222400
1.5055703 1.4682535 0.26661474 4289091840
1.539363 1.5012383 0.28132716 4289222400
1.5378646 1.4998603 0.28950977 4289222400
1.5291374 1.4914429 0.29596049 4289222400
1.5253063 1.4877936 0.30294979 4289222400
1.5205022 1.4831965 0.30935985 4289222400
1.5118568 1.4748582 0.31457826 4289091840
1.5224639 1.4852728 0.32341871 4289222400
1.5296954 1.4924008 0.33125234 4289222400
1.5199267 1.4829688 0.33504239 4289222400
1.5152353 1.478483 0.33950257 4289222400
1.5172433 1.4805243 0.34505069 4289222400
1.5127861 1.4762673 0.34873238 4289222400
1.5143075 1.4778359 0.35336864 4289222400
1.5110216 1.4747207 0.35647622 4289091840
1.5144582 1.4781572 0.36074343 4289222400
1.5174301 1.4811417 0.36449403 4289222400
1.5104115 1.47439 0.36542955 4289222400
1.5101061 1.4741818 0.36753884 4289222400
1.5098511 1.4740231 0.3692297 4289222400
1.5115795 1.4757986 0.37097141 4289222400
1.5094954 1.4738581 0.37134951 4289222400
1.5093958 1.4738531 0.37177628 4289222400
1.5124807 1.4769535 0.37254646 4289222400
1.5126413 1.4772035 0.37216446 4289222400
1.5059984 1.4708201 0.36968729 4289091840
