# .PCD v0.7 - Point Cloud Data file format
VERSION 0.7
FIELDS x y z rgba
SIZE 4 4 4 4
TYPE F F F U
COUNT 1 1 1 1
WIDTH 1102
HEIGHT 1
VIEWPOINT 0 0 0 1 0 0 0
POINTS 1102
DATA ascii
1.8715827 0.61996239 0.16175447 4288569600
1.8975389 0.62862659 0.15340178 4288700160
1.9034065 0.63063681 0.14307858 4288700160
1.904148 0.63094884 0.13217588 4288700160
1.8673662 0.61882609 0.11873429 4288569600
1.6324556 0.54103601 0.094165906 4287786240
1.6711799 0.55392849 0.086434342 4287916800
1.6421882 0.54437619 0.075050071 4287786240
2.0720451 0.68694359 0.082119972 4289352960
2.6419795 0.87598562 0.088560149 4291311360
2.7788436 0.92146182 0.076062717 4291833600
2.7785008 0.92144501 0.058887769 4291833600
2.767148 0.91777653 0.041488089 4291703040
2.7777033 0.9213742 0.024376556 4291833600
2.7773297 0.92134714 0.0070791733 4291833600
2.7479446 0.91169488 -0.010114761 4291703040
2.7710609 0.91946083 -0.027452257 4291833600
2.7887433 0.92542529 -0.044960506 4291833600
2.7902062 0.92600811 -0.062278099 4291833600
2.7622697 0.91683286 -0.078709222 4291703040
2.7941198 0.9275018 -0.096782461 4291833600
2.8096313 0.93274879 -0.11447588 4291964160
2.808172 0.93236226 -0.13144016 4291964160
2.7821255 0.92381138 -0.14694607 4291833600
2.7911742 0.92691344 -0.16404381 4291833600
2.8026631 0.93082649 -0.1812285 4291964160
2.7979164 0.92934763 -0.19720639 4291833600
2.7924404 0.92762613 -0.21285892 4291833600
2.823029 0.93788594 -0.23116979 4291964160
2.8274009 0.93943697 -0.24727832 4291964160
2.8430297 0.94472903 -0.26420999 4292094720
2.8071043 0.93288904 -0.27595252 4291964160
2.8139856 0.93527412 -0.29144207 4291964160
2.8258829 0.93932694 -0.30722633 4291964160
2.8367431 0.94303584 -0.32267311 4292094720
2.833461 0.9420436 -0.336191 4292094720
2.796505 0.92985439 -0.34514624 4291964160
2.838779 0.94400972 -0.36351365 4292094720
2.8590136 0.95083833 -0.3789379 4292225280
2.8555369 0.94978172 -0.39086899 4292225280
2.8552871 0.94979829 -0.40278485 4292225280
2.847173 0.94719845 -0.41310203 4292094720
2.8168488 0.93720853 -0.41957849 4292094720
2.835582 0.94354028 -0.43283704 4292094720
2.8323219 0.9425543 -0.44230255 4292094720
2.8422334 0.94595188 -0.45334095 4292094720
2.8372989 0.9444086 -0.46150926 4292094720
2.8411379 0.94578558 -0.47057024 4292094720
2.8344045 0.94364297 -0.47733083 4292094720
2.8347452 0.94385535 -0.484714 4292094720
2.8117723 0.93630445 -0.48749617 4292094720
2.812216 0.93655032 -0.49371946 4292094720
2.7938149 0.93051976 -0.49602559 4291964160
2.795027 0.93102103 -0.50120282 4291964160
2.7789083 0.92574888 -0.5026654 4291964160
2.7199671 0.90620852 -0.49569067 4291703040
2.7278552 0.90893179 -0.50024533 4291833600
2.7367661 0.91199648 -0.50442022 4291833600
2.7364237 0.91197789 -0.5063076 4291833600
2.7230959 0.9076311 -0.50519282 4291703040
2.7313535 0.91047877 -0.50748682 4291833600
2.7228904 0.90775263 -0.5060814 4291703040
2.7718673 0.92417735 -0.51475102 4291964160
2.7873955 0.92945188 -0.51659262 4291964160
2.7949643 0.9320733 -0.51634395 4291964160
2.8254123 0.94232583 -0.51968873 4292094720
2.830411 0.94409174 -0.51771498 4292094720
2.8295541 0.9439047 -0.51406121 4292094720
2.8240404 0.942164 -0.50897038 4292094720
2.8265424 0.94309741 -0.50473469 4292094720
2.8306794 0.94457668 -0.50019139 4292094720
2.8379905 0.94711536 -0.49560454 4292094720
2.821156 0.94159573 -0.48624912 4292094720
2.8146794 0.93953234 -0.47816995 4292094720
2.799412 0.93453389 -0.46810129 4291964160
2.7862866 0.93024951 -0.45792907 4291964160
2.8059628 0.93691671 -0.45259815 4291964160
2.8221786 0.94242978 -0.44607675 4292094720
2.8357594 0.94706392 -0.43852878 4292094720
2.8154273 0.94037187 -0.42526188 4292094720
2.792676 0.93287027 -0.41130361 4291964160
2.7940571 0.93342924 -0.40051225 4291964160
2.8064365 0.9376629 -0.39078709 4291964160
2.8117013 0.93952012 -0.37955621 4291964160
2.8149271 0.94069636 -0.36758548 4291964160
2.7823484 0.92990631 -0.35065997 4291833600
2.7923827 0.93335742 -0.33881301 4291964160
2.8126743 0.94023818 -0.32768655 4291964160
2.8102055 0.93951106 -0.31345716 4291964160
2.7972996 0.93529409 -0.29779279 4291964160
2.7707121 0.9265011 -0.28054553 4291833600
2.7915053 0.93355173 -0.26781312 4291833600
2.7880113 0.93248057 -0.25236341 4291833600
2.7737083 0.92779374 -0.23575535 4291833600
2.7660303 0.925322 -0.21957341 4291833600
2.7866406 0.93231416 -0.20532194 4291833600
2.7895222 0.93337572 -0.18940541 4291833600
2.7717693 0.92753243 -0.17196827 4291833600
2.7342026 0.91505677 -0.15344083 4291703040
2.7645879 0.92532235 -0.13860044 4291833600
2.7724156 0.92803925 -0.12224936 4291833600
2.7655418 0.92583489 -0.10511181 4291833600
2.7541552 0.92211914 -0.087800309 4291703040
2.7743585 0.92898035 -0.07134591 4291833600
2.7831016 0.93200517 -0.054340765 4291833600
2.7403502 0.91778433 -0.036482636 4291703040
2.775033 0.92949712 -0.019665318 4291833600
2.6250257 0.87934393 -0.0022368741 4291311360
1.869217 0.6262247 0.010062552 4288569600
1.5485868 0.51886141 0.01798383 4287394560
1.6806133 0.56315619 0.029966056 4287916800
1.6961747 0.56842995 0.040756866 4287916800
1.8831354 0.63115084 0.056872863 4288700160
1.8969095 0.63583368 0.068935812 4288700160
1.9129946 0.64129221 0.081191145 4288700160
1.9087644 0.6399408 0.092569113 4288700160
1.9101048 0.64045691 0.10409955 4288700160
1.8763593 0.62920767 0.11341252 4288569600
1.9123391 0.64133978 0.12682767 4288700160
1.9147618 0.64221919 0.13810487 4288830720
1.9030763 0.63836634 0.14816108 4288700160
1.8121097 0.60791588 0.15130295 4288439040
1.9349923 0.64920747 0.17230338 4288830720
1.9303821 0.6477282 0.18241884 4288830720
1.915612 0.64283913 0.19126928 4288830720
1.8823813 0.63175339 0.19781229 4288700160
1.6193506 0.54353321 0.17846622 4287786240
1.9119695 0.64181727 0.22027521 4288830720
1.8893991 0.63430679 0.22687972 4288700160
1.7948195 0.60261738 0.22402614 4288308480
1.5801498 0.53059644 0.20449723 4287655680
1.5222847 0.51121926 0.20378718 4287394560
1.8980983 0.63749272 0.26226321 4288700160
1.8985176 0.6376999 0.27019298 4288700160
1.9068545 0.64056689 0.27897871 4288830720
1.8946102 0.63651991 0.2844232 4288700160
1.8866142 0.63389951 0.29010579 4288700160
1.8839186 0.63305962 0.29623383 4288700160
1.90614 0.64059341 0.30600482 4288830720
1.9076374 0.64116335 0.31217569 4288830720
1.8949512 0.63696575 0.31563419 4288700160
1.896136 0.63743031 0.32100555 4288830720
1.8941129 0.63681644 0.32546124 4288830720
1.8915937 0.63603562 0.32944402 4288700160
1.887069 0.63458019 0.33267999 4288700160
1.875562 0.63077617 0.33426678 4288700160
1.8704363 0.62911779 0.33657101 4288700160
1.8685663 0.62855417 0.33905724 4288700160
1.8597707 0.62566048 0.33987701 4288700160
1.8725011 0.6300087 0.34423617 4288700160
1.8596103 0.62573659 0.34348536 4288700160
1.8547275 0.6241585 0.34379742 4288700160
1.8592443 0.62574351 0.34544814 4288700160
1.8670989 0.62845236 0.34731817 4288700160
1.8577316 0.6253643 0.34557948 4288700160
1.8815825 0.63345903 0.34961015 4288700160
1.8909596 0.63668209 0.35053283 4288830720
1.8889812 0.63608205 0.34893736 4288700160
1.8805043 0.63329333 0.34574181 4288700160
1.8784313 0.63266098 0.34332901 4288700160
1.8841032 0.63463718 0.34192556 4288700160
1.892188 0.63742656 0.34054145 4288830720
1.8886722 0.63630831 0.33666655 4288700160
1.8928009 0.63776553 0.33376062 4288830720
1.8969343 0.63922459 0.33045086 4288830720
1.9013251 0.64077073 0.32678363 4288830720
1.8903064 0.63712335 0.32010716 4288700160
1.8862689 0.63582855 0.31428194 4288700160
1.8720318 0.63109499 0.30644745 4288700160
1.8786682 0.63339794 0.30169824 4288700160
1.8644652 0.62867463 0.29328224 4288700160
1.8414483 0.620978 0.2832706 4288569600
1.8740325 0.63238943 0.23877057 4288700160
1.8957237 0.63977545 0.23269625 4288700160
1.9271969 0.65046453 0.22731003 4288830720
1.8938446 0.63927382 0.21403745 4288700160
1.8739908 0.63263768 0.20231703 4288700160
1.8905499 0.63829398 0.19431782 4288700160
1.8981827 0.64093751 0.18505988 4288700160
1.8879433 0.63754606 0.17386997 4288700160
1.8547194 0.62639153 0.16060972 4288569600
1.8796746 0.63488537 0.15225405 4288700160
1.89025 0.63852352 0.14236684 4288700160
1.8909862 0.63883841 0.13151839 4288700160
1.8657031 0.63036221 0.11886004 4288569600
1.6425191 0.55501288 0.094931327 4287786240
1.6811714 0.56813246 0.087120831 4287916800
1.6030231 0.54177922 0.073403187 4287655680
2.0859945 0.70508385 0.082834221 4289352960
2.6955359 0.91120839 0.090531811 4291572480
2.7506998 0.92995244 0.075439386 4291703040
2.7445886 0.92798239 0.058282629 4291703040
2.748493 0.92939872 0.041288879 4291703040
2.7534249 0.93116295 0.024210695 4291703040
2.7529688 0.93110502 0.0070307879 4291703040
2.7245882 0.92160153 -0.010048383 4291572480
2.7390606 0.92659283 -0.027188258 4291703040
2.7511013 0.93076235 -0.04444031 4291703040
2.7705584 0.93744212 -0.06196041 4291833600
2.7388904 0.9268229 -0.078195579 4291703040
2.7659476 0.93607575 -0.095993914 4291833600
2.7719679 0.93821025 -0.11316212 4291833600
2.784713 0.94262153 -0.13059697 4291833600
2.7490542 0.93064731 -0.14548324 4291703040
2.777215 0.94027793 -0.1635426 4291833600
2.7819486 0.94197804 -0.18024088 4291833600
2.7764006 0.94019663 -0.19607264 4291833600
2.7595925 0.93460143 -0.21076652 4291833600
2.7901323 0.94504213 -0.22892295 4291833600
2.8030016 0.94949931 -0.24562408 4291964160
2.810117 0.95200795 -0.26166233 4291964160
2.783704 0.94315732 -0.27418771 4291833600
2.79058 0.94558477 -0.28958365 4291964160
2.8062308 0.95098627 -0.30568698 4291964160
2.8086019 0.95188814 -0.32009751 4291964160
2.7968671 0.94800895 -0.33249882 4291964160
2.7637618 0.93688458 -0.34177291 4291833600
2.8144279 0.95415843 -0.36110118 4291964160
2.8261757 0.95824021 -0.37531912 4292094720
2.8339925 0.96098983 -0.38867977 4292094720
2.8318706 0.96036953 -0.40026408 4292094720
2.8237808 0.95772493 -0.41051069 4292094720
2.7888362 0.94597071 -0.4162198 4291964160
2.8075435 0.95241451 -0.42939684 4292094720
2.8043001 0.9514125 -0.43878481 4291964160
2.8170145 0.95582479 -0.4501991 4292094720
2.8177102 0.95615953 -0.45922133 4292094720
2.8084507 0.95311582 -0.46606815 4292094720
2.8017411 0.95093691 -0.47275513 4292094720
2.8067648 0.95274037 -0.48087063 4292094720
2.7931883 0.94822973 -0.48522377 4291964160
2.7796245 0.94372249 -0.4889546 4291964160
2.7752736 0.94234252 -0.49370009 4291964160
2.7708857 0.94094974 -0.49784842 4291964160
2.7604022 0.93748641 -0.50029743 4291964160
2.6969137 0.91601902 -0.49245363 4291703040
2.7094533 0.92037308 -0.49784565 4291703040
2.7090213 0.92032129 -0.50028628 4291703040
2.7180078 0.92346942 -0.50388712 4291703040
2.7084365 0.9203124 -0.50345945 4291703040
2.708286 0.92035615 -0.50418866 4291703040
2.6951771 0.91599578 -0.50191402 4291703040
2.7487195 0.93428934 -0.51145452 4291833600
2.7642157 0.93965334 -0.51330262 4291964160
2.7624419 0.93914717 -0.51133794 4291964160
2.7928264 0.94957489 -0.51470393 4291964160
2.7987435 0.95168477 -0.51292813 4292094720
2.7969496 0.95117289 -0.50913596 4292094720
2.7961063 0.95098406 -0.50492597 4292094720
2.7939301 0.95034188 -0.49989137 4291964160
2.7980511 0.95184165 -0.49539733 4292094720
2.8006687 0.95283031 -0.49004814 4292094720
2.8016078 0.95324796 -0.48382887 4292094720
2.7951381 0.9511447 -0.47578356 4291964160
2.7714798 0.94319123 -0.46434167 4291964160
2.7677243 0.94201016 -0.45577264 4291964160
2.777998 0.94560426 -0.44896853 4291964160
2.8026786 0.95410353 -0.44386566 4291964160
2.8123977 0.95751083 -0.43577138 4292094720
2.796782 0.95229226 -0.42327642 4291964160
2.7693806 0.94305933 -0.40867499 4291833600
2.7576182 0.93915051 -0.39606655 4291833600
2.778403 0.94632661 -0.38764471 4291964160
2.7789509 0.94661063 -0.37587333 4291964160
2.7830954 0.94812 -0.36414391 4291964160
2.7449276 0.93521351 -0.34662464 4291833600
2.7648003 0.94208127 -0.3361266 4291833600
2.7751606 0.94570869 -0.3239525 4291833600
2.7859402 0.94947982 -0.3113623 4291964160
2.7823856 0.94836599 -0.29678828 4291833600
2.7379436 0.93331409 -0.27777347 4291703040
2.7586832 0.94048053 -0.26518539 4291833600
2.7646134 0.94259924 -0.25073838 4291833600
2.7493873 0.93750423 -0.23414843 4291703040
2.7379408 0.93369716 -0.21777175 4291703040
2.7547247 0.9395175 -0.20337023 4291833600
2.7566464 0.94026953 -0.18754195 4291833600
2.7463946 0.93686908 -0.17072971 4291703040
2.7061424 0.92323291 -0.1521654 4291572480
2.741188 0.93528521 -0.13769817 4291703040
2.7395396 0.93481886 -0.1210378 4291703040
2.7374017 0.93418533 -0.10424737 4291703040
2.7307625 0.93201542 -0.087226205 4291703040
2.7329469 0.9328568 -0.070419542 4291703040
2.7496545 0.93865621 -0.053793572 4291703040
2.7122455 0.92598093 -0.036179684 4291572480
2.7356164 0.93405592 -0.019424228 4291703040
2.5819528 0.88167918 -0.0022045102 4291180800
1.8201132 0.62159181 0.0098175416 4288439040
1.5751681 0.53799522 0.018328611 4287525120
1.6678419 0.56970626 0.029797016 4287916800
1.6833736 0.57507068 0.040529091 4287916800
1.8673973 0.63800198 0.056508861 4288569600
1.8931727 0.64687467 0.068935812 4288700160
1.8959887 0.64790338 0.080628231 4288700160
1.9047599 0.65096748 0.092557274 4288700160
1.893111 0.64705282 0.1033771 4288700160
1.8637867 0.63709539 0.11287503 4288569600
1.9085701 0.65247059 0.12682767 4288700160
1.8975279 0.64876223 0.13713215 4288700160
1.8904126 0.64639586 0.14746587 4288700160
1.8463184 0.6313833 0.15446374 4288569600
1.9202539 0.65673435 0.17132878 4288830720
1.9123888 0.65411156 0.18107556 4288830720
1.9007404 0.65019405 0.1901594 4288700160
1.8762486 0.64188188 0.19755748 4288700160
1.6861335 0.57690096 0.18619354 4288047360
1.8380088 0.62892872 0.21217285 4288569600
1.6511537 0.56504869 0.19866309 4287916800
1.6492722 0.56446266 0.20626618 4287916800
1.6459203 0.56337327 0.2134302 4287916800
1.5264994 0.52255088 0.20475549 4287394560
1.739006 0.59535718 0.24075636 4288177920
1.8594109 0.63664359 0.26515079 4288569600
1.8891035 0.64687639 0.2769284 4288700160
1.8796419 0.64370251 0.28273433 4288700160
1.8852463 0.64568794 0.29046899 4288700160
1.8726181 0.64142853 0.29503953 4288700160
1.89789 0.65015155 0.30528331 4288830720
1.89684 0.64985842 0.31102306 4288830720
1.8886958 0.64713454 0.3152149 4288700160
1.8872501 0.64670545 0.32013366 4288700160
1.8832512 0.6454013 0.32423553 4288700160
1.8803495 0.64447284 0.32813409 4288700160
1.8694919 0.64081711 0.33023387 4288700160
1.8738413 0.64237374 0.33462146 4288700160
1.8717313 0.64171618 0.33747107 4288700160
1.864329 0.63924378 0.33895844 4288700160
1.8658704 0.6398378 0.34166723 4288700160
1.8565761 0.63671577 0.34198472 4288700160
1.860024 0.63796359 0.34424245 4288700160
1.8598082 0.63795489 0.3454223 4288700160
1.8596572 0.63796836 0.34620959 4288700160
1.8558455 0.6367259 0.345909 4288700160
1.8721435 0.6423834 0.34895071 4288700160
1.864749 0.63991159 0.34716922 4288700160
1.8757493 0.6437524 0.34840262 4288700160
1.8714156 0.64233071 0.34637803 4288700160
1.8744091 0.64342403 0.34530455 4288700160
1.8716191 0.64253205 0.34276232 4288700160
1.8762224 0.64417827 0.34117067 4288700160
1.8797852 0.64546752 0.33898038 4288700160
1.8878181 0.64829206 0.3371819 4288830720
1.8836465 0.64692569 0.33280537 4288700160
1.8858685 0.64775509 0.32917503 4288700160
1.8911813 0.64964634 0.3256852 4288830720
1.8816525 0.64643914 0.3192741 4288700160
1.8672537 0.64155805 0.31173122 4288700160
1.8534448 0.63687861 0.30400705 4288569600
1.8244081 0.62696511 0.29356617 4288569600
1.6737826 0.57526088 0.26381043 4287916800
1.7157346 0.58973962 0.26445609 4288177920
1.8647715 0.64139009 0.23806271 4288700160
1.8851488 0.6484651 0.23185803 4288700160
1.9090463 0.65675259 0.22561669 4288830720
1.8829559 0.64784312 0.21322981 4288700160
1.8590732 0.63969141 0.20110548 4288569600
1.8726821 0.64443988 0.19286396 4288700160
1.8897085 0.65036559 0.18459998 4288700160
1.8662992 0.64237452 0.17221841 4288569600
1.854808 0.63848442 0.16093679 4288569600
1.8712299 0.64420319 0.15187146 4288569600
1.8770664 0.64627844 0.1416551 4288700160
1.8834583 0.64854532 0.13125539 4288700160
1.8529333 0.63809955 0.11828135 4288569600
1.643978 0.56619889 0.095204689 4287786240
1.6646119 0.57336384 0.086434342 4287916800
1.6329169 0.56250411 0.074920841 4287786240
1.7680469 0.60911554 0.070348345 4288308480
2.6045303 0.89738679 0.087649427 4291180800
2.7202339 0.93734783 0.074752353 4291703040
2.7269299 0.93975097 0.058022924 4291703040
2.7160909 0.93611109 0.040883366 4291572480
2.7261271 0.93966597 0.024018399 4291703040
2.7246003 0.93923551 0.0069721956 4291703040
2.6917562 0.9280079 -0.0099470699 4291572480
2.7100558 0.93441218 -0.026953936 4291572480
2.7229455 0.93895215 -0.044073116 4291703040
2.7338595 0.94281173 -0.061261494 4291703040
2.7060387 0.93331248 -0.077411599 4291572480
2.7377708 0.9443531 -0.095205359 4291703040
2.7485068 0.9481529 -0.11242796 4291703040
2.7565084 0.95101017 -0.12953189 4291833600
2.7162058 0.93720102 -0.14403139 4291572480
2.7443185 0.94699752 -0.16192757 4291703040
2.7501118 0.94909334 -0.17853343 4291703040
2.7576711 0.95179909 -0.19513828 4291833600
2.7446725 0.94740915 -0.21004501 4291703040
2.7666728 0.9551006 -0.22745089 4291833600
2.7795238 0.95963466 -0.24405254 4291833600
2.7687426 0.95600969 -0.25832403 4291833600
2.7508688 0.94993484 -0.27149403 4291833600
2.7671504 0.95565462 -0.28772524 4291833600
2.7780774 0.95952594 -0.30322403 4291833600
2.7663584 0.95557559 -0.31591219 4291833600
2.7959926 0.96591038 -0.33305824 4291964160
2.7498074 0.95005184 -0.34072602 4291833600
2.7863026 0.96275884 -0.35820621 4291964160
2.807416 0.97015291 -0.37357211 4291964160
2.8021019 0.96841508 -0.3850733 4291964160
2.8086338 0.97077131 -0.39777243 4292094720
2.795682 0.96639299 -0.40723741 4291964160
2.7645612 0.95573258 -0.41342092 4291833600
2.7748218 0.95937735 -0.42523995 4291964160
2.7809465 0.96159273 -0.43599993 4291964160
2.7936435 0.96608132 -0.44735602 4291964160
2.7812688 0.96189988 -0.45418796 4291964160
2.7851114 0.96332681 -0.46311852 4291964160
2.7868211 0.96401614 -0.47117731 4291964160
2.7741139 0.95971805 -0.47622657 4291964160
2.7652361 0.95674407 -0.48132819 4291964160
2.7600963 0.95506275 -0.48649004 4291964160
2.747371 0.95075613 -0.48971352 4291833600
2.7569721 0.95417565 -0.49633893 4291964160
2.7325404 0.9458161 -0.49623802 4291833600
2.6775634 0.92688113 -0.48989809 4291572480
2.6770465 0.92679638 -0.49287489 4291572480
2.6812735 0.92835402 -0.4961524 4291703040
2.6809368 0.92833185 -0.49800885 4291703040
2.6853466 0.92995328 -0.500166 4291703040
2.6758909 0.92677289 -0.49915454 4291572480
2.6711831 0.92523634 -0.49844113 4291572480
2.7208955 0.94255131 -0.50729054 4291833600
2.7317059 0.9463923 -0.50828099 4291833600
2.7438934 0.95071119 -0.50892121 4291833600
2.7476807 0.95212001 -0.50739753 4291833600
2.7708082 0.96023166 -0.50882512 4291964160
2.773669 0.9613207 -0.50590909 4291964160
2.7812049 0.96403039 -0.50324076 4291964160
2.7790301 0.96337438 -0.49822125 4291964160
2.7794123 0.96360469 -0.49308297 4291964160
2.7820203 0.9646067 -0.48776019 4291964160
2.7605741 0.95726794 -0.47769758 4291964160
2.7634318 0.95835608 -0.471329 4291964160
2.7435427 0.95155513 -0.46058202 4291833600
2.74912 0.95358628 -0.45361617 4291833600
2.7546973 0.9556179 -0.44609505 4291833600
2.7708302 0.96131194 -0.43970132 4291964160
2.7796638 0.96447456 -0.43156272 4291964160
2.7734177 0.96240485 -0.42058188 4291964160
2.7507401 0.95463234 -0.4067381 4291833600
2.7343137 0.9490279 -0.39350688 4291833600
2.7522347 0.9553448 -0.38476372 4291833600
2.7640181 0.95953232 -0.37460336 4291833600
2.75139 0.95524532 -0.36071759 4291833600
2.7309902 0.94825894 -0.34555647 4291703040
2.732049 0.94872272 -0.33281127 4291703040
2.7526212 0.95596343 -0.32196611 4291833600
2.749279 0.95489955 -0.30788153 4291833600
2.7589557 0.95835769 -0.29487967 4291833600
2.7104187 0.94159311 -0.27553287 4291703040
2.7371614 0.95097983 -0.2636447 4291703040
2.7204847 0.94528168 -0.24723141 4291703040
2.7259893 0.9472903 -0.23262186 4291703040
2.6971886 0.93737692 -0.21496114 4291572480
2.7265897 0.9476909 -0.20169733 4291703040
2.7295582 0.9488188 -0.18607201 4291703040
2.7182596 0.94498706 -0.16932008 4291703040
2.6912856 0.93570447 -0.15163398 4291572480
2.6998408 0.93877393 -0.13589361 4291572480
2.7161164 0.94452888 -0.12024402 4291703040
2.7186978 0.94552237 -0.10374311 4291703040
2.6898112 0.93557072 -0.086090788 4291572480
2.7199087 0.94613498 -0.070224434 4291703040
2.7208133 0.94654554 -0.053336315 4291703040
2.6861737 0.93458927 -0.035903927 4291572480
2.6834199 0.93372577 -0.019091912 4291572480
2.0952475 0.72913837 -0.0017925504 4289483520
1.6127867 0.56130058 0.0087167304 4287655680
1.5540639 0.54091793 0.018119406 4287525120
1.646553 0.5731684 0.029475838 4287786240
1.6762179 0.58355379 0.040437981 4287916800
1.8180379 0.63299066 0.055125874 4288439040
1.8761582 0.65329266 0.068453699 4288700160
1.8780276 0.6540097 0.080025099 4288700160
1.8915012 0.65876842 0.092097938 4288700160
1.8761057 0.6534726 0.10265466 4288700160
1.8506153 0.64465916 0.11230291 4288569600
1.8851855 0.65676808 0.12552588 4288700160
1.893716 0.65980661 0.13713215 4288700160
1.8722045 0.65237761 0.14633952 4288700160
1.8331949 0.63884908 0.15367462 4288569600
1.9076945 0.66487867 0.17055094 4288830720
1.9085454 0.66524243 0.18107556 4288830720
1.8815492 0.65589899 0.18861854 4288700160
1.8587853 0.64802909 0.19611292 4288569600
1.7861201 0.62275869 0.197632 4288308480
1.8658881 0.65063679 0.21582507 4288700160
1.7974136 0.62682301 0.21669649 4288439040
1.7110701 0.59677219 0.21442614 4288047360
1.5513675 0.5411272 0.20157473 4287525120
1.5162245 0.52892256 0.20378718 4287394560
1.8502992 0.64552695 0.25668067 4288569600
1.8539938 0.64688122 0.26491126 4288569600
1.8749335 0.65425342 0.27540529 4288700160
1.871186 0.65301168 0.2820299 4288700160
1.870253 0.65275198 0.28873998 4288700160
1.8554074 0.647636 0.29291743 4288700160
1.8956978 0.66176635 0.30554572 4288830720
1.878823 0.65594178 0.30869025 4288700160
1.8675064 0.65205663 0.31230724 4288700160
1.8689114 0.6526131 0.31766248 4288700160
1.8638076 0.65089661 0.32153541 4288700160
1.8533571 0.64731228 0.32407635 4288700160
1.8647528 0.65135813 0.33006147 4288700160
1.8651497 0.65156257 0.33374164 4288700160
1.8555847 0.64828658 0.33523518 4288700160
1.8544706 0.64796269 0.3378467 4288700160
1.8620414 0.65067363 0.34165448 4288700160
1.8551767 0.64834017 0.34241697 4288700160
1.8548975 0.64830798 0.34398693 4288700160
1.8416654 0.64374816 0.34274343 4288569600
1.8545309 0.64831066 0.34595257 4288700160
1.8563162 0.64900017 0.34669566 4288700160
1.8483273 0.6462723 0.34520754 4288700160
1.8541924 0.64838845 0.34590128 4288700160
1.8539861 0.64838165 0.34505615 4288700160
1.8584162 0.64999646 0.34466708 4288700160
1.8511037 0.64750409 0.3417004 4288700160
1.8619833 0.65137541 0.34168687 4288700160
1.8655996 0.65270627 0.33992478 4288700160
1.8676186 0.6534785 0.33746722 4288700160
1.8660858 0.65300798 0.33397418 4288700160
1.8714668 0.65495694 0.33132201 4288700160
1.8820626 0.65873158 0.32917503 4288700160
1.8696644 0.65445805 0.32263091 4288700160
1.8683313 0.65405732 0.317655 4288700160
1.8541614 0.64916217 0.31017166 4288700160
1.8419627 0.64495623 0.30273494 4288569600
1.8435574 0.64557964 0.29724768 4288569600
1.8547342 0.64955896 0.29292232 4288700160
1.8411146 0.64485407 0.28435594 4288569600
1.8523291 0.64920372 0.23695314 4288569600
1.8772801 0.65801477 0.23135786 4288700160
1.8873682 0.6616174 0.2235065 4288700160
1.8707047 0.65584195 0.21227156 4288700160
1.8468657 0.64754951 0.20018965 4288569600
1.8608397 0.65251476 0.19203261 4288569600
1.8764908 0.65806907 0.18368021 4288700160
1.8484237 0.64829141 0.17091455 4288569600
1.8382242 0.64477903 0.15982111 4288569600
1.8411009 0.64585298 0.14972901 4288569600
1.8600922 0.65258074 0.14065866 4288569600
1.8608165 0.65290052 0.12994041 4288569600
1.8473955 0.64825672 0.11816695 4288569600
1.6133283 0.56617874 0.093619183 4287655680
1.6433369 0.57676786 0.085502684 4287786240
1.6211278 0.56903028 0.074530788 4287786240
1.6418931 0.57637703 0.065461352 4287786240
1.8208615 0.63926709 0.06140117 4288439040
2.5861642 0.90804046 0.071212277 4291180800
2.6846223 0.94270521 0.057238609 4291572480
2.687742 0.94389558 0.040538739 4291572480
2.6998467 0.94824189 0.023835128 4291572480
2.7016838 0.94898242 0.0069275834 4291572480
2.6679738 0.93723577 -0.0098791961 4291441920
2.6879835 0.94435984 -0.026788676 4291572480
2.7005656 0.94887555 -0.043799616 4291572480
2.7035501 0.95001966 -0.060705308 4291572480
2.6720166 0.93903315 -0.076593541 4291441920
2.7031057 0.95005429 -0.094190776 4291572480
2.7212968 0.95654398 -0.11154101 4291703040
2.731117 0.96009213 -0.12859939 4291703040
2.6886137 0.9452455 -0.14285788 4291572480
2.7002494 0.94943166 -0.15965097 4291572480
2.7228053 0.95745856 -0.17711985 4291703040
2.7201464 0.95661968 -0.19287407 4291703040
2.7069094 0.95206004 -0.20757605 4291572480
2.7365232 0.96257228 -0.22542949 4291703040
2.754257 0.96890736 -0.24232557 4291833600
2.7605989 0.97123575 -0.25808781 4291833600
2.7145588 0.9551338 -0.26845515 4291703040
2.7363019 0.96288085 -0.28509611 4291703040
2.7432673 0.96542877 -0.30003342 4291833600
2.7616086 0.97198105 -0.3160111 4291833600
2.7471876 0.96700245 -0.32791016 4291833600
2.7097065 0.95390481 -0.33644009 4291703040
2.7600429 0.97172236 -0.35555211 4291833600
2.7791739 0.97855592 -0.37056643 4291964160
2.7806237 0.97916454 -0.38289919 4291964160
2.7714624 0.97603637 -0.39330673 4291964160
2.762341 0.97292161 -0.40319961 4291964160
2.7363272 0.96385598 -0.41003156 4291833600
2.7478316 0.96800536 -0.42196089 4291833600
2.7594328 0.97218966 -0.43350768 4291964160
2.759171 0.97219485 -0.44273534 4291964160
2.762495 0.97346365 -0.45204064 4291964160
2.7657931 0.97472352 -0.46084273 4291964160
2.7584066 0.9722178 -0.46732298 4291964160
2.7521667 0.97011572 -0.47342122 4291964160
2.7466006 0.96825075 -0.47905824 4291833600
2.7284369 0.96194392 -0.48188952 4291833600
2.7205389 0.9592554 -0.4859187 4291833600
2.7053723 0.95400333 -0.48804182 4291703040
2.659709 0.93799478 -0.48399585 4291572480
2.6591082 0.93787688 -0.48751289 4291572480
2.6669559 0.94073904 -0.49201787 4291572480
2.5915663 0.91423774 -0.4805302 4291311360
2.5958846 0.91585284 -0.48319265 4291311360
2.5863609 0.91258413 -0.48271134 4291311360
2.6704459 0.94234741 -0.49915454 4291572480
2.6620326 0.93947256 -0.49774656 4291572480
2.6397829 0.93171358 -0.49317142 4291572480
2.6885598 0.94902444 -0.50127321 4291703040
2.7040851 0.95460021 -0.50256085 4291703040
2.7163398 0.95902234 -0.50263333 4291833600
2.728112 0.96327496 -0.50200659 4291833600
2.7517426 0.97171599 -0.50293392 4291964160
2.7481892 0.97055829 -0.49828154 4291964160
2.746726 0.97013861 -0.49343479 4291833600
2.7518263 0.97203726 -0.48918548 4291964160
2.7476285 0.97065151 -0.48271376 4291833600
2.7485485 0.97107369 -0.47658759 4291833600
2.7410884 0.96853489 -0.46847266 4291833600
2.7159197 0.95973772 -0.45687571 4291703040
2.7149162 0.95947909 -0.44888723 4291703040
2.7307062 0.9651559 -0.44311303 4291833600
2.7494438 0.97187579 -0.43719867 4291833600
2.7636518 0.97699577 -0.42995325 4291964160
2.7351382 0.96701235 -0.41562423 4291833600
2.7173986 0.96083653 -0.40262902 4291703040
2.7093992 0.95810378 -0.39071804 4291703040
2.7251675 0.96377617 -0.38175827 4291703040
2.7339828 0.96699041 -0.37128997 4291833600
2.7237194 0.96345651 -0.35781974 4291703040
2.6966918 0.95399141 -0.34191412 4291703040
2.706882 0.95769209 -0.3304196 4291703040
2.7320521 0.96669382 -0.32021356 4291703040
2.7333965 0.96726608 -0.30672881 4291703040
2.7217155 0.9632287 -0.29149425 4291703040
2.6779537 0.94783592 -0.27278933 4291572480
2.7020464 0.95645881 -0.26079473 4291703040
2.6985395 0.95531285 -0.2457387 4291572480
2.692843 0.95339143 -0.23026343 4291572480
2.6694021 0.94518667 -0.21318187 4291572480
2.6923826 0.95341885 -0.19957444 4291572480
2.6931334 0.95377988 -0.18396465 4291572480
2.6774986 0.9483375 -0.16712242 4291572480
2.5936854 0.91874361 -0.14643404 4291180800
2.6776867 0.94859344 -0.13505441 4291572480
2.6838574 0.95087445 -0.11905915 4291572480
2.6378298 0.93466032 -0.10086334 4291311360
2.6637013 0.94392157 -0.085429676 4291441920
2.67173 0.94686115 -0.069121785 4291441920
2.5882556 0.91736937 -0.050841693 4291180800
2.4281611 0.86071205 -0.032521758 4290658560
1.7648337 0.62564427 -0.012582104 4288308480
1.8227342 0.64623487 -0.0015626015 4288439040
1.6387233 0.58105332 0.008875059 4287786240
1.5188431 0.53860027 0.01774504 4287394560
1.6205693 0.57473093 0.029070141 4287786240
1.6087179 0.57058477 0.038889118 4287655680
1.6832989 0.59709698 0.051144987 4287916800
1.8723202 0.66421247 0.068453699 4288700160
1.8704185 0.66360402 0.079864271 4288700160
1.8697436 0.66343069 0.091225214 4288700160
1.8757477 0.66562742 0.10284553 4288700160
1.8336557 0.65075552 0.11150192 4288569600
1.8745027 0.66531819 0.12507053 4288700160
1.8719759 0.6644876 0.13583592 4288700160
1.8589736 0.65993798 0.14560342 4288569600
1.8218312 0.64681685 0.15303533 4288439040
1.8943982 0.67264777 0.16970973 4288700160
1.886804 0.67001802 0.17938015 4288700160
1.8761981 0.66631818 0.18846807 4288700160
1.8524096 0.65793544 0.19584137 4288569600
1.7838393 0.63364387 0.19778478 4288308480
1.8764176 0.66659534 0.21748856 4288700160
1.8590426 0.66048867 0.22458662 4288700160
1.8507627 0.65761244 0.23240821 4288569600
1.8087064 0.64273298 0.23549427 4288439040
1.7684578 0.62849301 0.23817654 4288308480
1.866814 0.6635139 0.25950354 4288700160
1.8640251 0.66258866 0.26689169 4288700160
1.8643831 0.66278183 0.27441815 4288700160
1.856481 0.66003835 0.28038839 4288700160
1.8491026 0.65748054 0.2860612 4288569600
1.8543168 0.65940017 0.29334682 4288700160
1.8694549 0.66484946 0.30193514 4288700160
1.8665901 0.66389674 0.3073107 4288700160
1.8615708 0.66217738 0.31195453 4288700160
1.8494874 0.65794468 0.31500718 4288700160
1.8587233 0.66129601 0.32131749 4288700160
1.8491725 0.65796351 0.32400948 4288700160
1.8497784 0.65824455 0.32808426 4288700160
1.852105 0.65913808 0.33208901 4288700160
1.8477993 0.65767115 0.33451524 4288700160
1.8466727 0.65733546 0.33711806 4288700160
1.8421496 0.65579069 0.3387 4288569600
1.8510909 0.65903926 0.34236574 4288700160
1.8403625 0.65528482 0.34199366 4288569600
1.8401483 0.65527368 0.34316579 4288569600
1.8411678 0.65570188 0.34416658 4288569600
1.8457209 0.65738869 0.34542629 4288700160
1.8368316 0.65428764 0.34376666 4288569600
1.8370793 0.65444088 0.34341431 4288569600
1.8460007 0.65768445 0.34427723 4288700160
1.835925 0.65415972 0.34119686 4288569600
1.8464524 0.65797609 0.34154364 4288700160
1.8481356 0.65864134 0.33984414 4288700160
1.8426446 0.65674973 0.33643374 4288569600
1.8464674 0.65817755 0.33433259 4288700160
1.8574026 0.6621412 0.33310491 4288700160
1.8645942 0.66477096 0.33078539 4288700160
1.865805 0.66526872 0.32700396 4288700160
1.8611714 0.66368246 0.32182714 4288700160
1.855189 0.66161484 0.31607056 4288700160
1.8366659 0.655074 0.3078782 4288569600
1.819464 0.64900315 0.29965356 4288569600
1.8466593 0.65876913 0.2983616 4288569600
1.8641025 0.66505772 0.29500884 4288700160
1.8558871 0.6621924 0.28722849 4288700160
1.8344905 0.65497744 0.23515536 4288569600
1.8649955 0.6659348 0.23031813 4288700160
1.8788018 0.67093122 0.22295117 4288700160
1.8621699 0.66505778 0.21173918 4288700160
1.8297042 0.6535278 0.1987388 4288569600
1.839198 0.65698391 0.19019105 4288569600
1.8594968 0.66430074 0.18239251 4288569600
1.8314815 0.65435719 0.16969761 4288569600
1.8212968 0.65078294 0.15867636 4288439040
1.8279176 0.65321344 0.14896385 4288569600
1.851562 0.6617285 0.14030279 4288569600
1.8459514 0.65978867 0.12916863 4288569600
1.8104936 0.64717931 0.11604577 4288439040
1.6646109 0.59509104 0.096794583 4287916800
1.6258411 0.58128864 0.084767155 4287786240
1.5952075 0.57039267 0.073490649 4287655680
1.580169 0.5650714 0.063130632 4287655680
1.8454894 0.66001588 0.062360261 4288569600
1.7625135 0.63040304 0.048632648 4288308480
1.7525655 0.62690705 0.037443545 4288177920
2.3558338 0.84278452 0.035606086 4290397440
2.4617839 0.88077474 0.021778366 4290789120
2.4436717 0.87438118 0.0062789521 4290658560
2.4552252 0.87860227 -0.0091102133 4290789120
2.5169797 0.90079027 -0.025136314 4290919680
2.5538237 0.91406667 -0.041505326 4291050240
2.4797597 0.88764548 -0.055795509 4290789120
2.5801401 0.92366874 -0.0741129 4291180800
2.6397405 0.94509876 -0.0921731 4291441920
2.6570389 0.95138621 -0.10913254 4291441920
2.5429981 0.91064262 -0.11998928 4291050240
2.6272774 0.940916 -0.13988774 4291311360
2.6745989 0.95795816 -0.1584617 4291572480
2.6643138 0.95436889 -0.17367373 4291441920
2.6431119 0.94686788 -0.18779986 4291441920
2.6716843 0.95719838 -0.20529902 4291572480
2.7010093 0.96780056 -0.22296463 4291572480
2.6971068 0.9664979 -0.23778877 4291572480
2.7052672 0.96951807 -0.25343868 4291703040
2.5426803 0.91134 -0.2519781 4291050240
2.7026105 0.96875751 -0.28216907 4291703040
2.7110283 0.97187108 -0.29712167 4291703040
2.7083812 0.97101808 -0.3105624 4291703040
2.6985638 0.96759397 -0.32277372 4291703040
2.5502658 0.91451085 -0.31729993 4291180800
2.7194123 0.97526228 -0.35104403 4291703040
2.7368941 0.98162884 -0.36568534 4291833600
2.7376039 0.98198044 -0.37775669 4291833600
2.727273 0.9783715 -0.38783807 4291833600
2.6996455 0.96855617 -0.39486536 4291703040
2.7007093 0.96903366 -0.40553343 4291703040
2.7109423 0.97280139 -0.41715938 4291703040
2.7107887 0.9728424 -0.42674887 4291703040
2.714154 0.97414643 -0.43641528 4291703040
2.7150602 0.97456795 -0.44520023 4291833600
2.716645 0.97523314 -0.45359257 4291833600
2.7114029 0.9734475 -0.46031278 4291833600
2.6931508 0.96699011 -0.46423069 4291703040
2.6933427 0.9671545 -0.47074389 4291703040
2.6744812 0.9604764 -0.4733403 4291703040
2.6194537 0.94080746 -0.46883485 4291441920
2.6409659 0.94862759 -0.47741202 4291572480
2.5793474 0.92658585 -0.47034663 4291311360
2.591747 0.93113214 -0.47614968 4291311360
2.6005173 0.93437523 -0.480757 4291441920
2.6038091 0.93565041 -0.48380286 4291441920
2.6127503 0.93895596 -0.487342 4291441920
2.5995364 0.93429947 -0.4861781 4291441920
2.5947566 0.93267357 -0.48601431 4291311360
2.5854349 0.92941463 -0.48442861 4291311360
2.5724974 0.92485511 -0.48159948 4291311360
2.6427815 0.95021719 -0.49376184 4291572480
2.6207595 0.94239211 -0.48808673 4291441920
2.6612828 0.95705819 -0.49346894 4291572480
2.6769595 0.96279091 -0.49361774 4291703040
2.6835425 0.96525371 -0.49148855 4291703040
2.7096264 0.97473216 -0.49231094 4291833600
2.7033477 0.97256935 -0.48665178 4291703040
2.6956806 0.96990669 -0.48020104 4291703040
2.7015488 0.97211391 -0.47560528 4291703040
2.688524 0.9675225 -0.46714908 4291703040
2.6844499 0.9661516 -0.45974693 4291703040
2.6632469 0.95861501 -0.44894692 4291572480
2.6591163 0.95722258 -0.44057584 4291572480
2.6654618 0.95960146 -0.43342566 4291572480
2.680532 0.96512204 -0.42712769 4291703040
2.6947966 0.9703536 -0.42011353 4291703040
2.6775146 0.96422565 -0.40771466 4291572480
2.6597064 0.95790696 -0.39490116 4291572480
2.6479824 0.95377851 -0.38265613 4291572480
2.6641233 0.95968682 -0.37398371 4291572480
2.6608028 0.9585852 -0.36210406 4291572480
2.6613274 0.95886862 -0.35035118 4291572480
2.6064191 0.93917787 -0.33115661 4291311360
2.6208179 0.94445926 -0.3205803 4291441920
2.6302772 0.94796145 -0.308927 4291441920
2.6234162 0.94558173 -0.29500055 4291441920
2.5566401 0.92160386 -0.27438521 4291180800
2.5044661 0.90288532 -0.25564855 4290919680
2.5321949 0.91297174 -0.24491034 4291050240
2.465471 0.88900226 -0.2249825 4290789120
2.480859 0.89463902 -0.21257892 4290919680
2.3833609 0.85956407 -0.19073495 4290528000
2.3699045 0.85479516 -0.17603673 4290397440
2.3256874 0.83892924 -0.15919605 4290266880
2.1356986 0.77047169 -0.13358261 4289614080
-5.6987305 -2.0560684 0.32240924 4278190335
1.9209024 0.69311845 -0.097086526 4288830720
1.8169774 0.65568382 -0.080771402 4288439040
1.6820503 0.60705304 -0.064451121 4287916800
1.772565 0.63978279 -0.056967922 4288308480
1.7229909 0.62195086 -0.044669427 4288177920
1.68967 0.60998297 -0.033259816 4288047360
1.5606203 0.56345052 -0.020945899 4287525120
1.8329526 0.66183919 -0.013095016 4288569600
1.6557045 0.59789759 -0.0014223718 4287916800
1.6155421 0.58345175 0.0087677743 4287786240
1.4931079 0.53928781 0.017480783 4287264000
1.6303587 0.58891857 0.029306797 4287786240
1.6279327 0.58810008 0.039435774 4287786240
1.5920204 0.57518309 0.048472598 4287655680
1.8392688 0.66457713 0.067385733 4288569600
1.8524247 0.66939652 0.079261139 4288569600
1.8526939 0.6695596 0.090582155 4288569600
1.8530537 0.6697554 0.10181347 4288569600
1.8157496 0.65633696 0.11064374 4288439040
1.8518229 0.66944212 0.12381543 4288569600
1.8586904 0.67199075 0.13515368 4288569600
1.8372778 0.66431451 0.1442048 4288569600
1.7900025 0.64728451 0.15067592 4288439040
1.8773282 0.67892915 0.16853201 4288700160
1.8798187 0.67989665 0.17908962 4288700160
1.8550551 0.67100596 0.18673377 4288569600
1.834509 0.66363925 0.19435436 4288569600
1.7660885 0.63895065 0.19622606 4288308480
1.8714314 0.67712897 0.21736418 4288700160
1.8688791 0.67627192 0.22624709 4288700160
1.8580045 0.67240286 0.23380557 4288700160
1.8281903 0.66167825 0.23852898 4288569600
1.7988507 0.65112323 0.24277668 4288439040
1.8711718 0.67736751 0.2606535 4288700160
1.863956 0.67482162 0.2674402 4288700160
1.8498554 0.6697824 0.27284956 4288700160
1.8419702 0.66699284 0.278779 4288569600
1.8468235 0.66881585 0.28630659 4288569600
1.8392959 0.66615516 0.2915796 4288569600
1.8525362 0.6710164 0.29982895 4288700160
1.8533994 0.67139494 0.30577785 4288700160
1.8446795 0.66830164 0.30977118 4288700160
1.8419095 0.66736358 0.3143734 4288569600
1.8455594 0.6687516 0.31970999 4288700160
1.8394625 0.6666078 0.32298315 4288569600
1.8282932 0.66262507 0.32495281 4288569600
1.8425562 0.66785991 0.33106893 4288700160
1.8346688 0.66506618 0.33283398 4288569600
1.8346759 0.66513401 0.33562976 4288569600
1.8294424 0.66330165 0.33706844 4288569600
1.8383663 0.66660255 0.34072483 4288569600
1.8334588 0.6648882 0.34142482 4288569600
1.8332449 0.66487586 0.34259498 4288569600
1.833095 0.66488665 0.3433758 4288569600
1.8330094 0.66492075 0.34376651 4288569600
1.8378203 0.66673124 0.34467286 4288569600
1.8373998 0.66664404 0.34419447 4288569600
1.8320255 0.66475928 0.34238741 4288569600
1.8348635 0.66585428 0.34171477 4288569600
1.837577 0.66690427 0.34061489 4288569600
1.832823 0.66524416 0.33773541 4288569600
1.838787 0.66747421 0.33643374 4288569600
1.8379683 0.66724241 0.33349195 4288569600
1.8488791 0.67126906 0.33227208 4288700160
1.84771 0.67091036 0.32847798 4288700160
1.8442769 0.66972929 0.32390928 4288700160
1.844907 0.67002374 0.31968436 4288700160
1.8340622 0.66615039 0.3131271 4288569600
1.8146452 0.65916246 0.30482548 4288569600
1.8200356 0.6611852 0.30037704 4288569600
1.8472352 0.67113203 0.29908136 4288700160
1.8624011 0.67670834 0.29535854 4288700160
1.8541931 0.67379189 0.28756905 4288700160
1.8295063 0.66524094 0.2350093 4288569600
1.8470814 0.67169732 0.22858526 4288569600
1.8617855 0.67711073 0.2213963 4288700160
1.8451816 0.67113769 0.21024857 4288569600
1.8118423 0.65907586 0.19721243 4288439040
1.8353391 0.66768831 0.19019105 4288569600
1.8424944 0.67035693 0.18110482 4288569600
1.8182763 0.66161031 0.16882838 4288439040
1.8127915 0.65967906 0.15826753 4288439040
1.8197923 0.66229141 0.14861363 4288439040
1.8298664 0.6660229 0.13895047 4288569600
1.8420761 0.67053241 0.12916863 4288569600
1.7745051 0.64599913 0.11397836 4288308480
1.6244484 0.59142953 0.094657965 4287786240
1.6045951 0.58425844 0.083835497 4287655680
1.5824696 0.57625854 0.073057257 4287655680
1.5903149 0.57917196 0.063669719 4287655680
1.5972077 0.58173907 0.054084271 4287655680
1.7008592 0.61955184 0.04703024 4288047360
1.6489867 0.60071552 0.035304762 4287916800
1.7190722 0.62630838 0.026036777 4288047360
1.6919203 0.61647636 0.014999227 4288047360
1.6634275 0.60615379 0.0042831362 4287916800
1.714479 0.62481803 -0.0063750437 4288047360
1.6739956 0.61012393 -0.016752904 4287916800
1.6738545 0.6101321 -0.027261175 4287916800
1.6319859 0.59492874 -0.036797654 4287786240
1.6495808 0.60140163 -0.047483016 4287916800
1.6849557 0.61435848 -0.058958404 4288047360
1.7568742 0.64064348 -0.072312161 4288308480
1.7219697 0.62797689 -0.081420988 4288177920
1.7915971 0.65343279 -0.095593549 4288439040
1.9105077 0.69686991 -0.11343029 4288830720
1.9811262 0.72269899 -0.12941231 4289091840
2.0691125 0.75486934 -0.14732572 4289352960
2.1099448 0.76984125 -0.16247545 4289483520
2.1732039 0.79299945 -0.17977336 4289744640
2.2359223 0.815965 -0.19754452 4290005760
2.3230131 0.84783006 -0.21808687 4290266880
2.4368346 0.88945824 -0.24199831 4290658560
2.2281008 0.81334859 -0.23311818 4290005760
2.2765133 0.83110219 -0.2500264 4290136320
2.389787 0.87254083 -0.27460837 4290528000
2.4743547 0.90350568 -0.29658082 4290919680
2.4577174 0.8975181 -0.30643064 4290789120
2.3238554 0.84871668 -0.30061552 4290397440
2.3553865 0.86031634 -0.31537527 4290397440
2.4328773 0.8887068 -0.33641684 4290789120
2.5029309 0.91438586 -0.35668653 4291050240
2.5428519 0.92906058 -0.37271729 4291180800
2.3754399 0.86797917 -0.35744488 4290528000
2.3928375 0.87442154 -0.36898717 4290658560
2.4492693 0.89513075 -0.3863934 4290789120
2.485395 0.90842205 -0.40047678 4290919680
2.4819627 0.90725595 -0.40783808 4290919680
2.4990771 0.91360092 -0.41814739 4291050240
2.5555315 0.93433028 -0.4347674 4291180800
2.506593 0.91652709 -0.43298599 4291050240
2.545511 0.93084794 -0.44584611 4291180800
2.5798352 0.94349164 -0.45755464 4291311360
2.4981093 0.913692 -0.44806162 4291050240
2.5233126 0.92300004 -0.45710799 4291180800
2.5448761 0.93097842 -0.465042 4291180800
2.558181 0.93593681 -0.47097683 4291311360
2.5882175 0.94701815 -0.47949508 4291311360
2.5878029 0.9469586 -0.48184577 4291311360
2.4939828 0.91271573 -0.46617293 4291050240
2.5872397 0.94693691 -0.48490193 4291311360
2.5741465 0.94223642 -0.483174 4291311360
2.5648441 0.93892282 -0.48158741 4291311360
2.5473094 0.93259448 -0.47789311 4291180800
2.5252388 0.92460418 -0.47279927 4291180800
2.5125024 0.92003036 -0.46891543 4291050240
2.5723383 0.94203275 -0.47798598 4291311360
2.532023 0.92735881 -0.46788052 4291180800
2.5065832 0.91813076 -0.46005052 4291050240
2.523509 0.92442042 -0.4594661 4291180800
2.4976399 0.91503292 -0.4505727 4291050240
2.4186969 0.88619763 -0.43177235 4290789120
2.3809702 0.87245965 -0.42005548 4290658560
2.3315854 0.85444665 -0.40598673 4290397440
2.3009076 0.84328628 -0.39489511 4290266880
2.2980812 0.84233224 -0.38821119 4290266880
2.2731807 0.83328635 -0.37743008 4290136320
2.2611547 0.82895851 -0.36846116 4290136320
2.2471583 0.82390738 -0.35883081 4290136320
2.2212515 0.81448793 -0.34702268 4290005760
2.1973524 0.805803 -0.33530787 4289875200
2.2057121 0.80894721 -0.32818836 4289875200
2.1901994 0.80333596 -0.31717354 4289875200
2.1596498 0.79220784 -0.30380967 4289744640
2.120698 0.77799499 -0.28921407 4289614080
2.1264317 0.7801742 -0.28052834 4289614080
2.0991061 0.77022344 -0.26726595 4289483520
2.0955009 0.76897532 -0.25686681 4289483520
1.9982183 0.73334724 -0.2351893 4289222400
1.882789 0.69105172 -0.21216692 4288700160
1.7974296 0.65978581 -0.19331406 4288439040
1.7711756 0.65021187 -0.18118005 4288308480
1.7364581 0.63752872 -0.16830419 4288177920
1.6923281 0.621387 -0.15475836 4288047360
1.7154974 0.62995547 -0.1473089 4288177920
1.7161855 0.63026929 -0.13763396 4288177920
1.675634 0.61543649 -0.12473048 4287916800
1.6584308 0.60917717 -0.11376257 4287916800
1.6092387 0.59116518 -0.10086758 4287786240
1.6428676 0.60357761 -0.093143634 4287916800
1.6468067 0.60508353 -0.083409913 4287916800
1.6105584 0.59182233 -0.07174737 4287786240
1.6440679 0.60419446 -0.063129559 4287916800
1.6609163 0.61044544 -0.053493075 4287916800
1.6696069 0.61369914 -0.043377385 4287916800
1.6138283 0.59325409 -0.031834431 4287786240
1.5848471 0.58265686 -0.02131626 4287655680
1.6794683 0.61750358 -0.012023989 4287916800
1.6841791 0.61929566 -0.0014499086 4288047360
1.5717583 0.57801306 0.0085482858 4287525120
1.5087101 0.55488098 0.017700998 4287394560
1.6137624 0.59357518 0.029070141 4287786240
1.6469972 0.60585833 0.039982434 4287916800
1.5257131 0.56129766 0.046552505 4287394560
1.8410752 0.67738253 0.067595363 4288569600
1.8353652 0.67534709 0.078698225 4288569600
1.8487616 0.68034238 0.090582155 4288569600
1.8406852 0.67743599 0.10134903 4288569600
1.8155606 0.66825402 0.11086758 4288439040
1.8441448 0.67884082 0.12356441 4288569600
1.8451765 0.67928636 0.13445653 4288569600
1.833376 0.67500758 0.1442048 4288569600
1.8001385 0.66283447 0.15185164 4288439040
1.8639901 0.68641198 0.1676908 4288700160
1.8711524 0.68911624 0.17864345 4288700160
1.8412148 0.67815638 0.18573515 4288569600
1.8268764 0.67294043 0.19395781 4288569600
1.7612586 0.64883256 0.19610611 4288308480
1.8596847 0.68515825 0.21645981 4288700160
1.8516145 0.68225104 0.22463444 4288700160
1.8431419 0.67919499 0.23242933 4288569600
1.8221519 0.67152524 0.23824756 4288569600
1.8051575 0.6653266 0.2441469 4288439040
1.8594443 0.68540138 0.2595717 4288700160
1.8549002 0.68379271 0.26670799 4288700160
1.8415481 0.67893618 0.27220309 4288569600
1.8360832 0.67698693 0.27848023 4288569600
1.8338146 0.67621595 0.28489581 4288569600
1.8274291 0.67392647 0.29031593 4288569600
1.8492172 0.68202764 0.2999298 4288700160
1.8368686 0.67753875 0.30369669 4288569600
1.8277804 0.67425179 0.30758783 4288569600
1.8278655 0.67434841 0.31264168 4288569600
1.8172317 0.67049021 0.31547412 4288569600
1.8262911 0.67389798 0.32135439 4288569600
1.81893 0.67124665 0.32397825 4288569600
1.8256834 0.67380399 0.32873702 4288569600
1.8262111 0.67406398 0.33200648 4288569600
1.821985 0.67256916 0.33401933 4288569600
1.8211278 0.67231768 0.33625251 4288569600
1.8252095 0.67388976 0.33900827 4288569600
1.8203135 0.67214704 0.3397004 4288569600
1.8201008 0.67213351 0.34086466 4288569600
1.8293926 0.67563015 0.34341383 4288569600
1.8200687 0.67225158 0.34206834 4288569600
1.8163524 0.6709438 0.34137401 4288569600
1.8205512 0.6725598 0.34176651 4288569600
1.8233875 0.67367274 0.34150079 4288569600
1.8124737 0.66970521 0.33826596 4288569600
1.8197991 0.67247689 0.33804008 4288569600
1.8252192 0.67454499 0.3370527 4288569600
1.8249214 0.67450011 0.33461016 4288569600
1.8319584 0.67716646 0.3331117 4288569600
1.8356881 0.67861062 0.33060643 4288569600
1.829893 0.67653364 0.32600573 4288569600
1.8403436 0.68046308 0.32390928 4288700160
1.8363434 0.67904961 0.31888059 4288569600
1.8125546 0.67031765 0.31011665 4288569600
1.8049729 0.66757822 0.30384895 4288569600
1.8184514 0.67262822 0.30075726 4288569600
1.8485514 0.683828 0.29993445 4288700160
1.8491507 0.68411571 0.29388428 4288700160
1.845367 0.68278176 0.28681228 4288700160
1.8125648 0.67106301 0.23333137 4288569600
1.8300956 0.6776188 0.22696792 4288569600
1.8484893 0.68449527 0.22028565 4288569600
1.8319157 0.67842358 0.20918384 4288569600
1.8114991 0.67092729 0.19759721 4288439040
1.817418 0.67318439 0.18873717 4288569600
1.8292199 0.6776213 0.18018503 4288569600
1.8122834 0.67141199 0.1686323 4288439040
1.7983925 0.66632998 0.15734668 4288439040
1.8070929 0.66961813 0.14789264 4288439040
1.8166019 0.67320663 0.13823873 4288439040
1.8287816 0.67778563 0.12851115 4288569600
1.7254311 0.63954335 0.11106373 4288177920
1.5722902 0.58283675 0.091814972 4287655680
1.5927352 0.59047246 0.083394185 4287655680
1.5744016 0.58373195 0.072840557 4287655680
1.6090816 0.59664756 0.064559139 4287786240
1.6969545 0.62929147 0.057585053 4288047360
1.701907 0.63118893 0.0471601 4288047360
1.6736557 0.62077111 0.03590975 4287916800
1.652583 0.6130141 0.025083411 4287916800
1.7330174 0.64291269 0.015396508 4288177920
1.6883337 0.6263963 0.0043565906 4288047360
1.6751833 0.62157714 -0.0062422883 4287916800
1.6394753 0.60838634 -0.016442629 4287786240
1.6477735 0.61152452 -0.026893979 4287916800
1.628492 0.60442698 -0.036797654 4287786240
1.6366774 0.60752356 -0.047212675 4287786240
1.6457425 0.61094731 -0.057709865 4287916800
1.6950318 0.62930548 -0.069916479 4288047360
