# .PCD v0.7 - Point Cloud Data file format
VERSION 0.7
FIELDS x y z rgba
SIZE 4 4 4 4
TYPE F F F U
COUNT 1 1 1 1
WIDTH 1104
HEIGHT 1
VIEWPOINT 0 0 0 1 0 0 0
POINTS 1104
DATA ascii
2.6061976 -2.6246781 -0.0028530236 4294444800
2.5890036 -2.6071985 0.018891115 4294314240
2.5068429 -2.5243015 0.039306439 4293922560
2.6218829 -2.639977 0.063043714 4294444800
2.6340919 -2.6521034 0.085303172 4294575360
2.5531871 -2.5704839 0.10388374 4294183680
2.4745774 -2.4911852 0.12112309 4293792000
2.6204662 -2.6378875 0.14976652 4294444800
2.6255624 -2.6428516 0.17143838 4294444800
2.5816836 -2.5985203 0.18941243 4294314240
2.4075067 -2.4230554 0.19587365 4293400320
2.6311126 -2.647939 0.23485909 4294575360
2.6225424 -2.639148 0.25456294 4294444800
2.5784385 -2.5946019 0.27013195 4294314240
2.4654315 -2.4807305 0.27698892 4293792000
2.6438522 -2.6600914 0.31675655 4294575360
2.6353617 -2.651382 0.33504984 4294575360
2.6151991 -2.6309316 0.35128164 4294444800
2.5162446 -2.5312228 0.35569924 4294053120
2.4194157 -2.4336646 0.35865945 4293530880
2.6338341 -2.6491795 0.40813398 4294575360
2.6122649 -2.6273193 0.42188352 4294444800
2.5546997 -2.5692608 0.4288401 4294183680
2.5102782 -2.5244277 0.43688127 4294053120
2.4605353 -2.4742491 0.44293302 4293792000
2.6201277 -2.6345651 0.48679271 4294575360
2.6040442 -2.6182287 0.49829504 4294444800
2.5956006 -2.609575 0.51055932 4294444800
2.5140438 -2.5274205 0.50739843 4294053120
2.4582105 -2.4711347 0.5081594 4293792000
2.4640973 -2.4768968 0.52085239 4293792000
2.6296637 -2.643157 0.56745934 4294575360
2.6156964 -2.628953 0.5753454 4294575360
2.6155679 -2.6286588 0.58555424 4294575360
2.5976667 -2.6105039 0.59104258 4294444800
2.6037295 -2.6164322 0.60125506 4294575360
2.5657425 -2.5780978 0.60050082 4294314240
2.5754235 -2.5876627 0.61011493 4294444800
2.5879536 -2.6000891 0.61975461 4294444800
2.5312212 -2.5429308 0.61198783 4294183680
2.5404334 -2.5520256 0.61933935 4294183680
2.5399909 -2.5514207 0.62363195 4294183680
2.5465825 -2.5578811 0.62893152 4294314240
2.5393584 -2.5504646 0.63008463 4294183680
2.5461214 -2.5570967 0.63396841 4294314240
2.5425487 -2.5533481 0.63454002 4294314240
2.5328109 -2.5434093 0.63282508 4294183680
2.5391462 -2.5496106 0.63438171 4294183680
2.5295868 -2.5398524 0.63122696 4294183680
2.5263703 -2.5364633 0.62892056 4294183680
2.5793374 -2.5894792 0.63981938 4294444800
2.5700455 -2.579989 0.63449001 4294444800
2.6042151 -2.6141267 0.63910955 4294575360
2.5978789 -2.6076024 0.63300312 4294575360
2.5996027 -2.6091685 0.62812984 4294575360
2.6119111 -2.6213577 0.62505031 4294575360
2.6124301 -2.6217136 0.61839265 4294575360
2.624428 -2.6335888 0.61369836 4294575360
2.6216798 -2.6306655 0.6048187 4294575360
2.6160593 -2.624861 0.59460455 4294575360
2.6130788 -2.6217058 0.58433419 4294575360
2.6177652 -2.6262426 0.5750978 4294575360
2.6287665 -2.6371138 0.56652355 4294575360
2.6276169 -2.6357949 0.55464035 4294575360
2.6246948 -2.6326983 0.54176766 4294575360
2.601285 -2.6080363 0.44468516 4294444800
2.6185067 -2.6251376 0.43123269 4294444800
2.6286619 -2.6351531 0.41596201 4294575360
2.6192389 -2.6255417 0.39712736 4294444800
2.5970623 -2.6031482 0.3761315 4294444800
2.6121335 -2.6180902 0.36015996 4294444800
2.6181521 -2.6239576 0.34239557 4294444800
2.6147211 -2.6203544 0.32300091 4294444800
2.5916393 -2.5970595 0.30101973 4294314240
2.6037436 -2.6090255 0.28287563 4294444800
2.6130948 -2.6182311 0.26396161 4294444800
2.6087852 -2.6137486 0.24334243 4294444800
2.5953269 -2.6001012 0.22174458 4294314240
2.6250539 -2.6297181 0.2034661 4294444800
2.626796 -2.6312976 0.182549 4294444800
2.6154165 -2.619734 0.16060139 4294444800
2.6062236 -2.6103621 0.13878241 4294314240
2.6119287 -2.6159117 0.11763605 4294444800
2.6159828 -2.6198075 0.096209228 4294444800
2.5940869 -2.5977163 0.073873736 4294314240
2.5944281 -2.5978947 0.052272044 4294314240
2.603596 -2.6069112 0.030713785 4294314240
2.6075048 -2.610661 0.0089524919 4294314240
2.5881319 -2.5911016 -0.012767619 4294314240
2.5993929 -2.602212 -0.034555797 4294314240
2.6001763 -2.6028328 -0.056266755 4294314240
2.6006019 -2.6030953 -0.077918015 4294314240
2.5907817 -2.5931027 -0.09909898 4294314240
2.6127443 -2.6149209 -0.12148704 4294444800
2.6177521 -2.6197681 -0.14317623 4294444800
2.6060226 -2.6078656 -0.16373929 4294314240
2.5908613 -2.5925307 -0.18369021 4294314240
2.6036806 -2.6051946 -0.20540439 4294314240
2.6052408 -2.6065919 -0.22612052 4294314240
2.5925236 -2.5937052 -0.24526292 4294314240
2.5912049 -2.5922229 -0.26510531 4294314240
2.6140034 -2.6148663 -0.287287 4294444800
2.6113901 -2.6120877 -0.30651334 4294444800
2.6131659 -2.6136999 -0.32591054 4294444800
2.5723276 -2.5726917 -0.33935168 4294183680
2.6080503 -2.6082554 -0.36247528 4294444800
2.6112657 -2.6113069 -0.38095301 4294444800
2.6123753 -2.6122525 -0.39872938 4294444800
2.6129403 -2.6126533 -0.41598907 4294444800
2.5726838 -2.5722396 -0.42603093 4294314240
2.6159313 -2.6153152 -0.44943431 4294444800
2.6218572 -2.6210752 -0.46622449 4294575360
2.6267116 -2.6257632 -0.48236248 4294575360
2.6209891 -2.6198781 -0.49600902 4294575360
2.5994208 -2.5981557 -0.50594634 4294444800
2.5939341 -2.5925086 -0.51829416 4294444800
2.594151 -2.5925627 -0.53116387 4294444800
2.5999885 -2.5982335 -0.54460627 4294444800
2.5988643 -2.5969467 -0.55598933 4294444800
2.5963774 -2.5942986 -0.56642711 4294444800
2.5963829 -2.5941412 -0.57674658 4294444800
2.5940804 -2.5916779 -0.58587986 4294444800
2.5774579 -2.5749087 -0.5910359 4294314240
2.5740161 -2.5713089 -0.59846181 4294314240
2.5677621 -2.5649004 -0.60451043 4294314240
2.5625424 -2.5595257 -0.61006814 4294314240
2.5211928 -2.5180664 -0.60620248 4294053120
2.5276241 -2.5243313 -0.61303443 4294183680
2.4771698 -2.4737871 -0.60527658 4293922560
2.4802814 -2.4767389 -0.60981375 4293922560
2.47999 -2.4762924 -0.61280566 4293922560
2.4797833 -2.4759302 -0.61510092 4293922560
2.4866321 -2.4826126 -0.61843061 4293922560
2.4796286 -2.4754648 -0.61759299 4293922560
2.533138 -2.5287254 -0.63110507 4294183680
2.5297971 -2.5252316 -0.62971896 4294183680
2.5265446 -2.5218265 -0.62761992 4294183680
2.5536215 -2.5486927 -0.63230026 4294314240
2.5620317 -2.556926 -0.63158804 4294314240
2.561727 -2.5564613 -0.62798041 4294314240
2.5840929 -2.5786192 -0.62915993 4294444800
2.5847557 -2.5791185 -0.6242829 4294444800
2.5928411 -2.5870237 -0.62045193 4294444800
2.6006045 -2.5946069 -0.61578459 4294444800
2.6053064 -2.5991344 -0.60964447 4294444800
2.6000009 -2.5936785 -0.60045898 4294444800
2.5937586 -2.5872891 -0.59039927 4294444800
2.5829682 -2.5763636 -0.57868183 4294314240
2.5876241 -2.5808456 -0.56977898 4294444800
2.6007433 -2.5937674 -0.56201303 4294444800
2.6168039 -2.6096208 -0.5541147 4294575360
2.6146147 -2.6072738 -0.54165834 4294444800
2.6058412 -2.5983617 -0.52727228 4294444800
2.594099 -2.5864906 -0.51178724 4294444800
2.5919821 -2.5842175 -0.49769095 4294314240
2.6065204 -2.5985491 -0.48616087 4294444800
2.6145797 -2.6064198 -0.47274801 4294444800
2.6155245 -2.607198 -0.45746541 4294444800
2.5892866 -2.5808814 -0.43706992 4294314240
2.6012044 -2.5925977 -0.42271155 4294444800
2.6203055 -2.6114714 -0.40885043 4294444800
2.6252279 -2.6162131 -0.39216617 4294444800
2.6181102 -2.6089556 -0.37326431 4294444800
2.5947125 -2.5854771 -0.35184047 4294314240
2.6024563 -2.5930307 -0.33435962 4294314240
2.6001832 -2.5906029 -0.31518567 4294314240
2.5964088 -2.5866799 -0.29552874 4294314240
2.596087 -2.5861969 -0.27597204 4294314240
2.6071773 -2.5970817 -0.25724536 4294314240
2.6114388 -2.6011631 -0.23744747 4294314240
2.5967774 -2.5863972 -0.21575341 4294314240
2.5439589 -2.5336306 -0.19118941 4294053120
2.6042321 -2.5934961 -0.17485432 4294314240
2.6051905 -2.5942874 -0.15385771 4294314240
2.5814462 -2.5704811 -0.13142262 4294183680
2.6043243 -2.5930991 -0.11122609 4294314240
2.6102688 -2.5988548 -0.08995083 4294314240
2.6006758 -2.5891409 -0.068074822 4294314240
2.5443738 -2.5329294 -0.045451555 4294053120
2.6072924 -2.595402 -0.024854135 4294314240
2.616858 -2.6047602 -0.0031187308 4294314240
2.5899274 -2.5777922 0.018517306 4294183680
2.4946363 -2.4827917 0.038624544 4293792000
2.634238 -2.6215658 0.062692545 4294444800
2.6381652 -2.625309 0.084656119 4294444800
2.5918365 -2.5790439 0.10456442 4294314240
2.448024 -2.4357884 0.11886235 4293530880
2.6328156 -2.6194916 0.14931235 4294444800
2.6272521 -2.6137922 0.17026637 4294444800
2.5869381 -2.573523 0.18841383 4294183680
2.3912148 -2.3786652 0.19315791 4293269760
2.6406977 -2.6266735 0.23405877 4294444800
2.6383777 -2.6242011 0.25432694 4294444800
2.601697 -2.5875549 0.27070519 4294314240
2.4629512 -2.4494092 0.27483931 4293661440
2.6506858 -2.635946 0.31544903 4294575360
2.6442084 -2.6293395 0.33394361 4294575360
2.6164429 -2.6015668 0.34913489 4294444800
2.5105624 -2.4961312 0.3525764 4293922560
2.409647 -2.3956456 0.35489216 4293400320
2.6379642 -2.6224713 0.40613639 4294575360
2.6173964 -2.6018608 0.4200004 4294444800
2.5798321 -2.5643582 0.43029562 4294314240
2.5081267 -2.4929264 0.43373558 4293922560
2.4580991 -2.4430485 0.4396987 4293661440
2.636147 -2.6198416 0.48668858 4294575360
2.6282754 -2.6118546 0.49978238 4294575360
2.597492 -2.5811012 0.50774527 4294444800
2.5658138 -2.5494628 0.51463068 4294183680
2.5276506 -2.511385 0.51928145 4294053120
2.5300379 -2.5135989 0.53149468 4294053120
2.6324039 -2.6151357 0.56456262 4294575360
2.6307027 -2.6132813 0.57510579 4294575360
2.6112952 -2.5938394 0.58103359 4294444800
2.61464 -2.5969987 0.59129012 4294444800
2.6120031 -2.5942163 0.59951359 4294444800
2.6181626 -2.6001706 0.60907197 4294575360
2.5835311 -2.5656159 0.60835499 4294314240
2.5898376 -2.571717 0.61648852 4294444800
2.5822268 -2.5639982 0.62059027 4294314240
2.5921826 -2.5737224 0.62819296 4294444800
2.5450914 -2.5268075 0.6211763 4294183680
2.5412335 -2.522819 0.62389892 4294183680
2.5444529 -2.5258563 0.62762767 4294183680
2.5407686 -2.5220406 0.62891966 4294183680
2.5406682 -2.5217824 0.63035917 4294183680
2.540657 -2.5216126 0.63108259 4294183680
2.587357 -2.5678015 0.64266938 4294444800
2.5973148 -2.577522 0.64437401 4294444800
2.5877903 -2.5679085 0.64049333 4294444800
2.5748572 -2.5549145 0.63503635 4294314240
2.6189194 -2.5984719 0.64285332 4294575360
2.6089616 -2.5884292 0.63662213 4294444800
2.6176047 -2.5968413 0.63418597 4294575360
2.6105022 -2.5896325 0.62719482 4294444800
2.6173866 -2.5962985 0.62283212 4294575360
2.6374998 -2.6160853 0.62082547 4294575360
2.6261861 -2.6046999 0.61068112 4294575360
2.6362436 -2.6145108 0.60479945 4294575360
2.6247637 -2.602962 0.59328479 4294575360
2.6150239 -2.5931401 0.58155304 4294444800
2.616221 -2.5941641 0.57161462 4294444800
2.634928 -2.6125491 0.56476289 4294575360
2.6316676 -2.6091528 0.5524922 4294575360
2.6280887 -2.6054406 0.53955394 4294575360
2.6097484 -2.5863342 0.4435592 4294444800
2.6280584 -2.6043162 0.43030819 4294444800
2.6377378 -2.6137443 0.41498774 4294575360
2.6174772 -2.5935049 0.39456642 4294444800
2.6083105 -2.5842597 0.37557495 4294314240
2.6166747 -2.5923839 0.35869631 4294444800
2.6265705 -2.6020243 0.34150425 4294444800
2.6167371 -2.5921199 0.3213723 4294444800
2.600292 -2.5756676 0.30026731 4294314240
2.6155999 -2.5906677 0.28250682 4294314240
2.6209147 -2.5957689 0.26320416 4294444800
2.6174734 -2.5921977 0.24272181 4294314240
2.5968833 -2.571645 0.22057267 4294314240
2.6241348 -2.5984683 0.20219372 4294444800
2.6281374 -2.6022682 0.18155812 4294444800
2.6239038 -2.5979128 0.16015998 4294444800
2.6007321 -2.5748088 0.13765563 4294314240
2.6199601 -2.5936823 0.1172787 4294314240
2.614089 -2.5877075 0.09554401 4294314240
2.6052127 -2.5787587 0.073719099 4294314240
2.6079743 -2.5813303 0.052195683 4294314240
2.6184359 -2.591522 0.03066167 4294314240
2.6105342 -2.583539 0.0088597545 4294314240
2.5860627 -2.55916 -0.012737301 4294183680
2.603785 -2.5765359 -0.034470856 4294314240
2.6116798 -2.5841856 -0.056248643 4294314240
2.6099031 -2.5822654 -0.077806927 4294314240
2.6050093 -2.5772617 -0.099131927 4294314240
2.6247869 -2.5966654 -0.12140922 4294314240
2.6270108 -2.598702 -0.14292228 4294444800
2.6203864 -2.5919862 -0.16376244 4294314240
2.6011996 -2.5728457 -0.18343118 4294314240
2.6185489 -2.5898433 -0.20545989 4294314240
2.6179762 -2.589114 -0.22599103 4294314240
2.618794 -2.5897601 -0.24639665 4294314240
2.6150208 -2.5858662 -0.26607755 4294314240
2.6320748 -2.6025665 -0.28768525 4294444800
2.6413224 -2.6115465 -0.30832064 4294444800
2.6406913 -2.6107583 -0.32752705 4294444800
2.6143365 -2.5845399 -0.34298763 4294314240
2.6278768 -2.5977626 -0.36320868 4294444800
2.633553 -2.6032102 -0.38207361 4294444800
2.6353514 -2.6048241 -0.40000179 4294444800
2.629112 -2.5984938 -0.41623506 4294444800
2.608268 -2.5777304 -0.42951727 4294314240
2.6384113 -2.607357 -0.45076773 4294575360
2.6470609 -2.6157405 -0.46807694 4294575360
2.639369 -2.607976 -0.48197603 4294575360
2.6485574 -2.6168904 -0.49841952 4294575360
2.6351566 -2.6034863 -0.51002645 4294575360
2.6078269 -2.576323 -0.51814538 4294444800
2.6204987 -2.5886791 -0.53354359 4294444800
2.6194808 -2.5875111 -0.54560244 4294444800
2.6183474 -2.5862288 -0.5570026 4294444800
2.6241357 -2.5917835 -0.56925505 4294444800
2.6218982 -2.5894108 -0.57912689 4294444800
2.62271 -2.5900497 -0.58899862 4294444800
2.6129911 -2.5802896 -0.5957942 4294444800
2.6080005 -2.5751996 -0.60292882 4294444800
2.6075573 -2.5746002 -0.61039811 4294444800
2.5908992 -2.5579922 -0.61331731 4294314240
2.5910723 -2.5580022 -0.61946344 4294314240
2.5691426 -2.5361931 -0.6195581 4294314240
2.5791898 -2.5459514 -0.62661356 4294314240
2.5413728 -2.5084641 -0.62126929 4294183680
2.5445793 -2.5114713 -0.62517387 4294183680
2.5443668 -2.5111036 -0.62751067 4294183680
2.5442426 -2.5108232 -0.62913424 4294183680
2.5336928 -2.5002551 -0.62743902 4294053120
2.5844843 -2.550216 -0.64019901 4294314240
2.5783217 -2.5439754 -0.63810593 4294314240
2.5830953 -2.5485251 -0.63797092 4294314240
2.5959363 -2.5610332 -0.6390689 4294444800
2.6052735 -2.5700834 -0.6385361 4294444800
2.6082313 -2.5728395 -0.63567895 4294444800
2.6164734 -2.5808077 -0.63334942 4294444800
2.6196239 -2.5837529 -0.62902862 4294444800
2.6185913 -2.5825722 -0.62296653 4294444800
2.6206279 -2.5844183 -0.61690688 4294444800
2.6216991 -2.5853124 -0.60989535 4294444800
2.6156604 -2.5791955 -0.6005379 4294444800
2.6102324 -2.5736811 -0.59066182 4294444800
2.6038187 -2.5671961 -0.57992136 4294444800
2.6049857 -2.5681853 -0.57021928 4294444800
2.6165543 -2.5794282 -0.56208676 4294444800
2.6381068 -2.6005118 -0.555314 4294575360
2.6359079 -2.5981808 -0.54282314 4294575360
2.6276953 -2.5899229 -0.5285238 4294444800
2.6044481 -2.5668485 -0.5107553 4294314240
2.6129022 -2.5750186 -0.49869648 4294444800
2.6185014 -2.5803747 -0.48545352 4294444800
2.626646 -2.588238 -0.47205776 4294444800
2.6350467 -2.5963528 -0.45808136 4294444800
2.6027544 -2.5643735 -0.43666357 4294314240
2.6094427 -2.5708017 -0.42145142 4294314240
2.6323948 -2.5932508 -0.40820628 4294444800
2.6270714 -2.5878441 -0.39001003 4294444800
2.6268375 -2.587451 -0.37217367 4294444800
2.5940895 -2.5550337 -0.34954792 4294314240
2.614078 -2.5745592 -0.33372843 4294314240
2.6252766 -2.5854261 -0.31619748 4294444800
2.6042829 -2.56459 -0.29451606 4294314240
2.6046653 -2.5648053 -0.27508157 4294314240
2.6188145 -2.5785758 -0.25669071 4294314240
2.6161437 -2.5757842 -0.23628512 4294314240
2.6110275 -2.5705855 -0.21546274 4294314240
2.5415461 -2.5020232 -0.1896836 4293922560
2.6053207 -2.5646446 -0.17368479 4294314240
2.6180789 -2.5770419 -0.15348716 4294314240
2.5883787 -2.547647 -0.13077348 4294183680
2.6032515 -2.5621247 -0.11029094 4294183680
2.6181829 -2.5766582 -0.089449227 4294314240
2.6120946 -2.5705051 -0.067721821 4294314240
2.5454876 -2.504801 -0.044954371 4293922560
2.6151805 -2.5732186 -0.02452006 4294314240
2.6219475 -2.5797148 -0.0028371657 4294314240
2.601275 -2.5592144 0.018761788 4294183680
2.5018692 -2.4612613 0.038776137 4293792000
2.6322939 -2.5894063 0.062564284 4294314240
2.6362429 -2.593128 0.084388576 4294444800
2.6184881 -2.5755017 0.10531249 4294314240
2.4585462 -2.4180336 0.11895121 4293530880
2.6415498 -2.5978584 0.1492313 4294444800
2.642364 -2.5984957 0.1705468 4294444800
2.591135 -2.5479572 0.18791485 4294183680
2.4868879 -2.4452934 0.20000026 4293661440
2.639199 -2.5948942 0.23286612 4294444800
2.6393168 -2.594847 0.25323907 4294444800
2.6059844 -2.5619149 0.26987198 4294314240
2.4699976 -2.4280753 0.27430463 4293661440
2.6508102 -2.6056552 0.3139312 4294444800
2.6522989 -2.6069548 0.3333185 4294575360
2.6250854 -2.5800445 0.3485477 4294444800
2.5150492 -2.471741 0.35143498 4293922560
2.4135573 -2.3718476 0.35366991 4293400320
2.6431892 -2.597348 0.40486631 4294444800
2.6388068 -2.5928786 0.42126206 4294444800
2.6017308 -2.5562873 0.4317055 4294314240
2.5055366 -2.4616184 0.43103474 4293792000
2.4523983 -2.40926 0.43638492 4293661440
2.6378431 -2.5912802 0.48444134 4294444800
2.6398296 -2.5930688 0.49932697 4294575360
2.6088703 -2.5624967 0.50726169 4294314240
2.5770113 -2.531045 0.51411957 4294183680
2.5322762 -2.4869514 0.51744455 4294053120
2.4758532 -2.4313858 0.5173136 4293792000
2.6411655 -2.5935657 0.56338161 4294575360
2.6394567 -2.5917249 0.57389003 4294575360
2.6227596 -2.5751679 0.58040708 4294444800
2.6296473 -2.5817685 0.591434 4294444800
2.6171348 -2.5693223 0.59739661 4294444800
2.6296699 -2.5814662 0.60838127 4294575360
2.5885057 -2.5408969 0.60615903 4294314240
2.5913327 -2.5435121 0.61342466 4294314240
2.5970488 -2.5489624 0.62068009 4294314240
2.6035454 -2.5551782 0.6274243 4294444800
2.5428228 -2.4954269 0.61714607 4294053120
2.5523057 -2.5045757 0.6230951 4294183680
2.5485137 -2.5006974 0.62508368 4294183680
2.5518398 -2.5038037 0.6280852 4294183680
2.5454125 -2.4973404 0.62794971 4294183680
2.551729 -2.5033803 0.63022071 4294183680
2.6022127 -2.552747 0.642663 4294444800
2.6059008 -2.5562043 0.64279389 4294444800
2.5991342 -2.5494065 0.63959593 4294444800
2.586127 -2.536489 0.63412905 4294314240
2.5830517 -2.5333133 0.6303705 4294314240
2.6070609 -2.5566995 0.63245374 4294444800
2.622787 -2.5719602 0.63172692 4294444800
2.6254957 -2.5744545 0.62709516 4294444800
2.6253793 -2.5741787 0.6210531 4294444800
2.6322248 -2.5807285 0.61591816 4294575360
2.6342256 -2.5825281 0.60891122 4294575360
2.6387618 -2.5868125 0.60176474 4294575360
2.6363158 -2.5842524 0.59232414 4294575360
2.6300459 -2.577944 0.58137155 4294444800
2.6213696 -2.5692782 0.56927389 4294444800
2.6324842 -2.5800099 0.56080776 4294444800
2.6368957 -2.5841711 0.55020553 4294444800
2.6431859 -2.5901725 0.53931791 4294575360
2.6113286 -2.5578537 0.44128203 4294314240
2.636832 -2.5826726 0.42926934 4294444800
2.6350176 -2.5807333 0.41218403 4294444800
2.6290226 -2.5746999 0.39403686 4294444800
2.6101298 -2.5560369 0.37368548 4294314240
2.625365 -2.5707948 0.35782889 4294314240
2.631443 -2.5765846 0.34018207 4294444800
2.6208436 -2.566045 0.32003835 4294314240
2.6046026 -2.549983 0.29904902 4294314240
2.6232502 -2.5680783 0.2817184 4294314240
2.6258893 -2.5705004 0.26220286 4294314240
2.6239967 -2.5684862 0.24194396 4294314240
2.6047196 -2.5494566 0.21998332 4294183680
2.634793 -2.5787299 0.20186596 4294314240
2.6332917 -2.5770986 0.18088748 4294314240
2.6318858 -2.5755608 0.1597437 4294314240
2.6085777 -2.5525913 0.13729793 4294183680
2.6150551 -2.5587685 0.11640792 4294314240
2.615576 -2.5591178 0.095071413 4294314240
2.6130772 -2.5565121 0.073540039 4294314240
2.5958402 -2.5394886 0.051678292 4294183680
2.6126351 -2.5557582 0.030442936 4294183680
2.6098373 -2.552861 0.0088322619 4294183680
2.5973859 -2.5405216 -0.012693156 4294183680
2.6087754 -2.5515015 -0.034311235 4294183680
2.6167154 -2.5591061 -0.056005269 4294314240
2.6106396 -2.5530038 -0.077353127 4294183680
2.6036367 -2.5459955 -0.098481342 4294183680
2.6254544 -2.567169 -0.12071251 4294314240
2.6253915 -2.566946 -0.14198321 4294314240
2.6254861 -2.5668771 -0.16310772 4294314240
2.6108639 -2.5524211 -0.18302402 4294314240
2.6266882 -2.5677297 -0.20488308 4294314240
2.6282666 -2.5691111 -0.2255443 4294314240
2.6161158 -2.5570731 -0.24469899 4294314240
2.6076491 -2.5486374 -0.26377168 4294314240
2.6402979 -2.5803852 -0.28689426 4294444800
2.6492434 -2.5889649 -0.30743682 4294444800
2.6431296 -2.5828278 -0.32591456 4294444800
2.6095538 -2.5498579 -0.34036249 4294314240
2.6291635 -2.5688574 -0.36126816 4294314240
2.6419516 -2.5811899 -0.38105971 4294444800
2.6473596 -2.5863111 -0.39948618 4294444800
2.6409678 -2.5799046 -0.41568092 4294444800
2.6070449 -2.5466061 -0.42682153 4294314240
2.6468472 -2.5853231 -0.44958359 4294444800
2.6522985 -2.5904846 -0.46628213 4294575360
2.6577477 -2.595644 -0.48251843 4294575360
2.660249 -2.5979233 -0.49771929 4294575360
2.6467719 -2.5845995 -0.50930858 4294575360
2.6228278 -2.5610569 -0.51811069 4294444800
2.6256578 -2.5636592 -0.53150284 4294444800
2.6317155 -2.5694125 -0.54498327 4294444800
2.6404808 -2.5778079 -0.55846727 4294444800
2.6321545 -2.5695181 -0.56769931 4294444800
2.6306129 -2.5678515 -0.57770067 4294444800
2.6271906 -2.5643499 -0.58660424 4294444800
2.6347997 -2.5716152 -0.59730649 4294444800
2.625808 -2.5626781 -0.60355145 4294444800
2.6257288 -2.5624397 -0.61111623 4294444800
2.6022635 -2.5393806 -0.61246639 4294314240
2.6150289 -2.5516772 -0.62159944 4294444800
2.6089301 -2.5455661 -0.62554133 4294444800
2.5834324 -2.5205293 -0.62404388 4294314240
2.5900929 -2.5268686 -0.62954986 4294314240
2.5961328 -2.5326021 -0.63418639 4294314240
2.5930946 -2.529479 -0.63586777 4294314240
2.5929668 -2.5291955 -0.63751549 4294314240
2.5858798 -2.5221241 -0.6367029 4294314240
2.5859339 -2.5220187 -0.63690037 4294314240
2.6040378 -2.5395153 -0.64079338 4294314240
2.6105134 -2.5456705 -0.64106727 4294444800
2.600265 -2.5355172 -0.63648874 4294314240
2.619885 -2.5544882 -0.6384635 4294444800
2.6232064 -2.5575659 -0.63569421 4294444800
2.6319218 -2.565902 -0.63347065 4294444800
2.6360824 -2.5697966 -0.62938941 4294575360
2.6272678 -2.5610428 -0.62148827 4294444800
2.6250751 -2.5587444 -0.6144554 4294444800
2.6296799 -2.563072 -0.60829258 4294444800
2.6306703 -2.5638759 -0.60057271 4294444800
2.6181393 -2.5515027 -0.589109 4294444800
2.6187582 -2.5519454 -0.57996279 4294444800
2.6199305 -2.5529275 -0.57026416 4294444800
2.6386442 -2.5710008 -0.56364769 4294444800
2.6468089 -2.5787942 -0.55402052 4294575360
2.6516798 -2.5833776 -0.54301286 4294575360
2.6355197 -2.5674722 -0.52713382 4294444800
2.6176522 -2.549906 -0.51047981 4294314240
2.6204832 -2.5525033 -0.49735752 4294314240
2.6337574 -2.5652719 -0.48556757 4294444800
2.6383536 -2.569587 -0.47153181 4294444800
2.6385927 -2.5696585 -0.45615956 4294444800
2.6120465 -2.5436459 -0.43580374 4294314240
2.6240962 -2.5552194 -0.4214853 4294314240
2.6370025 -2.5676255 -0.4066768 4294444800
2.6388087 -2.5692227 -0.38960981 4294444800
2.6350451 -2.565397 -0.37130195 4294444800
2.6054432 -2.5364182 -0.34917226 4294183680
2.6176975 -2.5481875 -0.33238479 4294314240
2.6153889 -2.5457804 -0.31331316 4294314240
2.6081312 -2.5385563 -0.29337481 4294183680
2.6067894 -2.5370905 -0.27384418 4294183680
2.616905 -2.5467758 -0.2551522 4294314240
2.6163273 -2.5460536 -0.23506811 4294314240
2.6124036 -2.5420756 -0.21446319 4294183680
2.559685 -2.4906194 -0.19006413 4293922560
2.613487 -2.54281 -0.17335652 4294183680
2.6123624 -2.5415561 -0.15240155 4294183680
2.5875576 -2.5172651 -0.13011016 4294053120
2.6109984 -2.5399098 -0.11011496 4294183680
2.6195641 -2.5480821 -0.089114785 4294183680
2.617022 -2.5454493 -0.0675928 4294183680
2.5500319 -2.4801354 -0.04490599 4293922560
2.6169395 -2.5450492 -0.024529416 4294183680
2.6226261 -2.5504191 -0.0029558828 4294314240
2.6125884 -2.5404983 0.01860135 4294183680
2.5161977 -2.4466133 0.038645465 4293792000
2.6445012 -2.5712073 0.062358394 4294314240
2.6492522 -2.5756645 0.084183119 4294444800
2.6044774 -2.5319743 0.10401545 4294183680
2.4690421 -2.4001582 0.1186486 4293530880
2.6463301 -2.5723383 0.14851043 4294314240
2.6405857 -2.5665932 0.16932231 4294314240
2.6023915 -2.5293102 0.18751958 4294183680
2.4115763 -2.3437064 0.19271277 4293269760
2.6471531 -2.5724916 0.23209983 4294444800
2.647989 -2.5731423 0.25248712 4294444800
2.6144676 -2.5404084 0.26907429 4294183680
2.4805641 -2.4101467 0.27378303 4293661440
2.6559806 -2.5804212 0.31261855 4294444800
2.6646254 -2.5886574 0.33282813 4294444800
2.6329722 -2.5577457 0.34747499 4294314240
2.5258775 -2.4535568 0.35081631 4293792000
2.4273729 -2.3577242 0.35355389 4293400320
2.6526759 -2.5764008 0.40388247 4294444800
2.6307406 -2.5549355 0.41746333 4294314240
2.6094971 -2.5341449 0.43041286 4294314240
2.5234361 -2.4504147 0.43153313 4293922560
2.4728379 -2.40113 0.43741277 4293661440
2.6529377 -2.5758452 0.48433146 4294444800
2.6414249 -2.5645058 0.49668023 4294444800
2.6138473 -2.5375717 0.50523692 4294314240
2.5917547 -2.5159657 0.51402301 4294183680
2.5432122 -2.4686875 0.51663232 4294053120
2.4829185 -2.4100091 0.51575428 4293661440
2.6449933 -2.5671632 0.56090343 4294444800
2.6378832 -2.5601015 0.57020503 4294444800
2.6342142 -2.55638 0.57955074 4294444800
2.6411414 -2.5629413 0.59056985 4294444800
2.6320989 -2.5540061 0.59732997 4294444800
2.5934522 -2.5163476 0.59653085 4294314240
2.6068428 -2.5291812 0.60692751 4294314240
2.6125143 -2.5345244 0.61487347 4294314240
2.6154296 -2.5371933 0.62147582 4294444800
2.5578022 -2.4811337 0.61285967 4294053120
2.567255 -2.4901466 0.61950266 4294183680
2.5633526 -2.4862053 0.62220961 4294183680
2.5701439 -2.4926355 0.62678683 4294183680
2.5628815 -2.4854357 0.62720472 4294183680
2.5698493 -2.4920363 0.63036847 4294183680
2.5627666 -2.4850121 0.62934947 4294183680
2.5600166 -2.4821892 0.62865531 4294183680
2.5566494 -2.4787686 0.62707424 4294053120
2.6069009 -2.5273304 0.63788176 4294314240
2.5973532 -2.5179157 0.6332894 4294314240
2.5942578 -2.5147572 0.62954134 4294314240
2.6290143 -2.5482883 0.63419652 4294444800
2.6197286 -2.5391281 0.62745285 4294444800
2.6349218 -2.5536933 0.62582594 4294444800
2.6438973 -2.5622311 0.62194252 4294575360
2.6444066 -2.5625634 0.61532247 4294575360
2.6424444 -2.5605011 0.60741723 4294444800
2.643887 -2.561738 0.59959167 4294444800
2.6513493 -2.5688069 0.59240836 4294575360
2.6514268 -2.5687206 0.58286589 4294575360
2.6363149 -2.5539193 0.5693711 4294444800
2.6474912 -2.5645852 0.56091207 4294444800
2.6448221 -2.5618386 0.54884243 4294444800
2.647589 -2.5643575 0.53727233 4294444800
2.6261868 -2.5425963 0.44128203 4294314240
2.6411295 -2.5569026 0.42753646 4294444800
2.6509092 -2.5662088 0.41232404 4294444800
2.6339767 -2.5496571 0.39254624 4294314240
2.6106813 -2.5269487 0.37165034 4294183680
2.6331468 -2.5485334 0.35685962 4294314240
2.6395698 -2.5545895 0.33930281 4294314240
2.6331925 -2.5482574 0.31972787 4294314240
2.6129692 -2.5285273 0.29831311 4294183680
2.6281364 -2.5430443 0.28064716 4294314240
2.6300685 -2.544754 0.26113522 4294314240
2.6288767 -2.5434411 0.24102348 4294314240
2.619529 -2.5342376 0.21998332 4294183680
2.628653 -2.5429049 0.20025703 4294314240
2.6343055 -2.5482128 0.17993422 4294314240
2.6296124 -2.5435131 0.15870355 4294314240
2.6091123 -2.5235255 0.13654989 4294183680
2.6191416 -2.5330667 0.11593091 4294183680
2.6259427 -2.5394845 0.094908811 4294183680
2.6142721 -2.5280392 0.073157899 4294183680
2.6069975 -2.5208461 0.051607147 4294183680
2.6174169 -2.530762 0.030326327 4294183680
2.6196432 -2.5327554 0.0088153584 4294183680
2.5948887 -2.5086644 -0.012609311 4294053120
2.6063423 -2.5195787 -0.034085579 4294183680
2.6172025 -2.5299187 -0.055699274 4294183680
2.6118114 -2.5245485 -0.076950721 4294183680
2.6083632 -2.5210569 -0.098102875 4294183680
2.6199274 -2.5320749 -0.11977807 4294183680
2.6358037 -2.5472589 -0.14174131 4294314240
2.6166897 -2.5286279 -0.16164325 4294183680
2.599179 -2.5115485 -0.18117604 4294183680
2.6202774 -2.5317764 -0.20322901 4294183680
2.6292441 -2.5402806 -0.22435428 4294314240
2.6173353 -2.5286157 -0.24343091 4294183680
2.6167777 -2.5279181 -0.26320076 4294183680
2.6384785 -2.5487218 -0.28507817 4294314240
2.6465766 -2.5563838 -0.30539373 4294314240
2.6448021 -2.5545089 -0.32428005 4294314240
2.6025431 -2.5135348 -0.33753228 4294183680
2.6321383 -2.5419579 -0.3596358 4294314240
2.6464555 -2.555624 -0.37955528 4294444800
2.6468709 -2.5558643 -0.39715859 4294444800
2.6410141 -2.5500486 -0.41334268 4294314240
2.6036386 -2.5138025 -0.42385882 4294183680
2.6576366 -2.5657761 -0.44886947 4294444800
2.6572394 -2.5652313 -0.46451539 4294444800
2.6630795 -2.5707073 -0.48075905 4294444800
2.6584373 -2.5660648 -0.49457476 4294444800
2.6575806 -2.5650766 -0.50850403 4294444800
2.636687 -2.5447502 -0.51791084 4294444800
2.6373875 -2.5452664 -0.53086638 4294444800
2.6457729 -2.5531983 -0.54480457 4294444800
2.6446261 -2.5519314 -0.55618995 4294444800
2.6403663 -2.5476606 -0.56625938 4294444800
2.64167 -2.5487583 -0.57685798 4294444800
2.6420865 -2.5489998 -0.58660424 4294444800
2.6493075 -2.5558059 -0.59720951 4294444800
2.6343133 -2.5411811 -0.60209304 4294444800
2.6303144 -2.5371637 -0.60873264 4294444800
2.6205633 -2.5275991 -0.61329693 4294314240
2.6143498 -2.5214477 -0.61793554 4294314240
2.5985532 -2.5060546 -0.61954188 4294314240
2.6016202 -2.5088549 -0.62489569 4294314240
2.6083169 -2.5151546 -0.63040692 4294314240
2.6009169 -2.5078611 -0.63177496 4294314240
2.6077878 -2.5143282 -0.63586777 4294314240
2.5970232 -2.503792 -0.63491541 4294314240
2.6040752 -2.510433 -0.63757086 4294314240
2.6076741 -2.5137444 -0.63863683 4294314240
2.6124077 -2.5181491 -0.63923186 4294314240
2.6126459 -2.5182204 -0.63797712 4294314240
2.6149933 -2.5203247 -0.63648874 4294314240
2.6215961 -2.5265296 -0.6352824 4294444800
2.6281409 -2.5326777 -0.63330334 4294444800
2.6364622 -2.5405369 -0.63099015 4294444800
2.6333175 -2.5373473 -0.62518901 4294444800
2.6446803 -2.5481358 -0.6220848 4294444800
2.6403358 -2.5437896 -0.61454791 4294444800
2.6377053 -2.5410955 -0.60671401 4294444800
2.6358547 -2.5391531 -0.5983687 4294444800
2.6324618 -2.5357254 -0.58899748 4294444800
2.6176186 -2.5212691 -0.57644743 4294314240
2.6223481 -2.5256655 -0.56757772 4294314240
2.6385345 -2.5410955 -0.56045216 4294444800
2.6517031 -2.5536172 -0.55192137 4294444800
2.6565955 -2.5581679 -0.54095811 4294444800
2.6399505 -2.5419798 -0.52504891 4294444800
2.6296725 -2.531924 -0.50993848 4294314240
2.6210871 -2.5234988 -0.49467319 4294314240
2.6270461 -2.5290771 -0.48160544 4294314240
2.6393876 -2.5407984 -0.46906295 4294314240
2.6381893 -2.5394852 -0.4535242 4294314240
2.609935 -2.51213 -0.43300211 4294183680
2.6238985 -2.5254116 -0.41908309 4294314240
2.638711 -2.5395083 -0.40465158 4294314240
2.6384985 -2.5391443 -0.38737318 4294314240
2.6277947 -2.5286846 -0.3681981 4294314240
2.6065483 -2.5080817 -0.34735608 4294183680
2.6188641 -2.5197737 -0.33066317 4294183680
2.6174402 -2.5182455 -0.31179595 4294183680
2.6134663 -2.5142641 -0.29232219 4294183680
2.6042793 -2.5052683 -0.27204254 4294183680
2.620512 -2.5207255 -0.25406763 4294183680
2.6255505 -2.525413 -0.23457082 4294183680
2.6134996 -2.5136638 -0.21334724 4294183680
2.5496812 -2.4521289 -0.18825728 4293922560
2.6177752 -2.5174594 -0.1726651 4294183680
2.6169894 -2.5165455 -0.15181355 4294183680
2.5977464 -2.497884 -0.12988849 4294053120
2.6093681 -2.5089011 -0.10942787 4294183680
2.623873 -2.5226889 -0.088759847 4294183680
2.6181133 -2.5169933 -0.067241088 4294183680
2.5507421 -2.4520698 -0.044666156 4293792000
2.6317232 -2.5297592 -0.024529416 4294183680
2.634557 -2.5323241 -0.0029526509 4294183680
2.6136472 -2.5120676 0.018504366 4294183680
2.5239208 -2.4256759 0.038546368 4293792000
2.648623 -2.5453639 0.062104832 4294314240
2.6598256 -2.555969 0.084044464 4294314240
2.6126981 -2.5105238 0.10375783 4294183680
2.4801013 -2.3829627 0.11851085 4293530880
2.6471789 -2.5433364 0.14772396 4294314240
2.65521 -2.5508921 0.16930419 4294314240
2.6034 -2.5009601 0.18653911 4294053120
2.4187105 -2.3233917 0.19219784 4293269760
2.6548984 -2.5501115 0.23147228 4294314240
2.6629357 -2.5576708 0.25248712 4294444800
2.6220312 -2.518225 0.26833817 4294183680
2.4118202 -2.3161902 0.26470172 4293269760
2.668282 -2.5623221 0.31230399 4294444800
2.6745703 -2.5681994 0.33219573 4294444800
2.6442387 -2.5389144 0.34700382 4294314240
2.5365405 -2.435353 0.35032064 4293792000
2.4410682 -2.3435419 0.35355389 4293400320
2.6661446 -2.5594649 0.40365583 4294444800
2.6419976 -2.5361247 0.4168978 4294314240
2.620635 -2.51546 0.42982534 4294314240
2.530509 -2.428798 0.43031543 4293792000
2.4767652 -2.3770649 0.43565023 4293530880
2.6578846 -2.5507331 0.48251325 4294444800
2.6527462 -2.5456419 0.49601173 4294444800
2.6250138 -2.5188708 0.50455004 4294314240
2.5927963 -2.4877994 0.51134616 4294183680
2.5511258 -2.4476626 0.51533419 4293922560
2.490494 -2.3893397 0.51442748 4293661440
2.6563382 -2.5482874 0.56015122 4294444800
2.6420572 -2.5344281 0.56790572 4294444800
2.6454992 -2.5375702 0.578771 4294444800
2.6207774 -2.5136988 0.58273166 4294314240
2.6469343 -2.5386276 0.59732997 4294444800
2.60166 -2.4950488 0.59506494 4294183680
2.6108558 -2.5037103 0.60445529 4294314240
2.6236782 -2.5158482 0.61404061 4294314240
2.5620759 -2.4566233 0.60538661 4294053120
2.5686574 -2.462779 0.61201221 4294053120
2.5753181 -2.4690099 0.61796659 4294183680
2.571394 -2.4650927 0.62066478 4294053120
2.5746679 -2.468076 0.62437266 4294183680
2.5773187 -2.4704616 0.62720472 4294183680
2.5807698 -2.4736142 0.62950134 4294183680
2.5743575 -2.4673128 0.62865502 4294183680
2.5673246 -2.460418 0.62691903 4294053120
2.571048 -2.4638309 0.62707424 4294053120
2.5606394 -2.4537022 0.62305337 4294053120
2.615535 -2.5061479 0.63415158 4294314240
2.602463 -2.4934657 0.62799644 4294314240
2.5923197 -2.4835911 0.62184352 4294183680
2.6238027 -2.5135953 0.62491041 4294314240
2.6326711 -2.5219326 0.62179089 4294444800
2.641691 -2.5304141 0.61794496 4294444800
2.648607 -2.5368793 0.61285025 4294444800
2.6541862 -2.542063 0.60670143 4294444800
2.6537151 -2.5414522 0.59845239 4294444800
2.6527214 -2.5403407 0.58939791 4294444800
2.6505802 -2.5381305 0.57941914 4294444800
2.6375885 -2.5255311 0.56645864 4294444800
2.6552472 -2.5422797 0.55940765 4294444800
2.6561308 -2.5429659 0.5481053 4294444800
2.6560514 -2.5427299 0.5359742 4294444800
2.6337833 -2.5203884 0.4400835 4294314240
2.6459343 -2.5318573 0.42591912 4294314240
2.6625414 -2.5475879 0.41181764 4294444800
2.6490943 -2.5345621 0.39259183 4294314240
2.6257949 -2.5121119 0.37171194 4294183680
2.6378818 -2.5235167 0.35550269 4294314240
2.6436152 -2.5288427 0.33792311 4294314240
2.6335964 -2.5191004 0.31798938 4294314240
2.6204541 -2.5063717 0.29749542 4294183680
2.6320996 -2.5173519 0.27949944 4294183680
2.6457291 -2.5302279 0.261222 4294314240
2.6378906 -2.5225732 0.24049832 4294314240
2.6270351 -2.5120342 0.21938087 4294183680
2.6372378 -2.5216317 0.19978839 4294183680
2.6524713 -2.5360377 0.1801627 4294314240
2.6501007 -2.533612 0.15904649 4294314240
2.6165473 -2.5013762 0.13617396 4294183680
2.6334512 -2.5173776 0.11591311 4294183680
2.6339741 -2.517719 0.094667301 4294183680
2.6217182 -2.5058465 0.072956465 4294183680
2.618026 -2.5021603 0.051536001 4294183680
2.61854 -2.5024941 0.030169899 4294183680
2.6271255 -2.510541 0.0087911654 4294183680
2.5957239 -2.480377 -0.012542933 4294053120
2.6081524 -2.4920964 -0.033918791 4294053120
2.6251454 -2.5081756 -0.055556368 4294183680
2.6217899 -2.504812 -0.076813437 4294183680
2.6149931 -2.4981613 -0.097803138 4294183680
2.6242714 -2.5068674 -0.1193069 4294183680
2.6373775 -2.5192287 -0.14103423 4294183680
2.6342564 -2.5160892 -0.16182008 4294183680
2.6129823 -2.4956126 -0.18112159 4294183680
2.6289914 -2.5107443 -0.20276685 4294183680
2.6278946 -2.5095391 -0.2229877 4294183680
2.6276827 -2.5091789 -0.24302946 4294183680
2.6234634 -2.5049925 -0.26240081 4294183680
2.6359768 -2.5167825 -0.28321874 4294183680
2.6522431 -2.5321541 -0.30434003 4294314240
2.6488326 -2.5287387 -0.32296231 4294314240
2.6189225 -2.5000274 -0.33776173 4294183680
2.6368251 -2.5169592 -0.35826644 4294314240
2.6541047 -2.5332937 -0.37852904 4294314240
2.6516478 -2.5307896 -0.39565617 4294314240
2.645762 -2.5250132 -0.4117763 4294314240
2.6045883 -2.4855621 -0.42164871 4294183680
2.6478145 -2.5266542 -0.4447166 4294314240
2.6676459 -2.5454178 -0.46373415 4294444800
2.6624503 -2.5403006 -0.47796544 4294444800
2.660497 -2.5382771 -0.49219826 4294444800
2.655288 -2.5331483 -0.50523281 4294444800
2.6399961 -2.5184011 -0.51566994 4294314240
2.6438012 -2.5218725 -0.52919084 4294314240
2.6429222 -2.5208755 -0.54118407 4294314240
2.6489308 -2.5264475 -0.55399013 4294444800
2.6503806 -2.5276716 -0.56523913 4294444800
2.6514611 -2.528543 -0.57576931 4294444800
2.6443737 -2.5216253 -0.58384019 4294444800
2.6427939 -2.5199604 -0.59242153 4294444800
2.6322868 -2.5097837 -0.59827751 4294314240
2.6152687 -2.4934008 -0.6018784 4294314240
2.6189392 -2.4967432 -0.60950208 4294314240
2.6254282 -2.5027719 -0.6170969 4294314240
2.6131098 -2.4908724 -0.61954188 4294314240
2.5752666 -2.4546452 -0.61512017 4294053120
2.564177 -2.4439211 -0.61628681 4294053120
2.5638723 -2.4434772 -0.61930811 4294053120
2.5743506 -2.4533088 -0.6242187 4294053120
2.5742218 -2.4530318 -0.62583619 4294053120
2.5706184 -2.4494441 -0.6258747 4294053120
2.6151457 -2.4917154 -0.63690037 4294314240
2.6053085 -2.4821868 -0.63394529 4294183680
2.605545 -2.4822559 -0.63270098 4294183680
2.6069212 -2.4834106 -0.63099146 4294183680
2.6165016 -2.4923801 -0.6305182 4294314240
2.6328642 -2.5078089 -0.63090992 4294314240
2.6470096 -2.5211239 -0.62998831 4294444800
2.645201 -2.5192428 -0.62451494 4294444800
2.6444786 -2.5183964 -0.61857545 4294444800
2.6467631 -2.5204134 -0.61261559 4294444800
2.6479924 -2.5214255 -0.60569084 4294444800
2.6389813 -2.5126872 -0.59574503 4294314240
2.6361594 -2.5098422 -0.58654296 4294314240
2.6301801 -2.5039921 -0.57599115 4294314240
2.6277776 -2.5015473 -0.56558877 4294314240
2.64183 -2.5147662 -0.55803049 4294314240
2.6584697 -2.5304465 -0.55025178 4294444800
2.6562176 -2.5281439 -0.53787267 4294444800
2.6400678 -2.5126147 -0.52215183 4294314240
2.6271613 -2.5001738 -0.50661814 4294314240
2.6285667 -2.5013542 -0.49332601 4294314240
2.6381452 -2.5103114 -0.48095077 4294314240
2.6440856 -2.5158055 -0.46728498 4294314240
2.6407263 -2.5124512 -0.45143625 4294314240
2.6137362 -2.4866154 -0.43122181 4294183680
2.6263404 -2.4984496 -0.41714105 4294183680
2.6393757 -2.5106921 -0.40250346 4294314240
2.6375833 -2.5088291 -0.38508621 4294314240
2.6366425 -2.5077767 -0.36738431 4294314240
2.6160047 -2.4879911 -0.34667861 4294183680
2.6239033 -2.4953461 -0.32945815 4294183680
2.6287756 -2.4998224 -0.31140599 4294183680
2.6179578 -2.4893789 -0.29119736 4294183680
2.6144323 -2.4858699 -0.27158555 4294183680
2.625191 -2.4959426 -0.25310704 4294183680
2.6361985 -2.5062506 -0.23421358 4294183680
2.6244719 -2.494945 -0.21305268 4294183680
2.5610294 -2.4344804 -0.18804471 4293792000
2.6289368 -2.4988749 -0.17243807 4294183680
2.6250892 -2.4950607 -0.15143755 4294183680
2.6013896 -2.4723797 -0.12934822 4294053120
2.6203184 -2.4902129 -0.10927679 4294053120
2.6349027 -2.5039155 -0.088637963 4294183680
2.6370089 -2.5057595 -0.067350283 4294183680
2.5613606 -2.4337232 -0.044603042 4293792000
2.6323967 -2.5010622 -0.024399461 4294183680
2.6429303 -2.5109122 -0.0029455894 4294183680
2.6246138 -2.4933536 0.018478844 4294183680
2.5169859 -2.3909581 0.038227059 4293661440
2.6606672 -2.5272858 0.062040921 4294314240
2.6652577 -2.5314872 0.083748646 4294314240
2.6200325 -2.4883754 0.10347159 4294053120
2.4794493 -2.3547082 0.11782213 4293400320
2.6592126 -2.5252688 0.14757194 4294314240
2.6671295 -2.5326276 0.16912046 4294314240
2.625169 -2.4926262 0.18705514 4294183680
2.4322059 -2.3092604 0.19219784 4293269760
2.6664107 -2.531467 0.23118615 4294314240
2.666152 -2.5310624 0.25138959 4294314240
2.6301489 -2.4967263 0.26767567 4294183680
2.4115365 -2.2890596 0.26320237 4293139200
2.6762562 -2.540175 0.31149983 4294444800
2.6793737 -2.542974 0.33094648 4294444800
2.6560977 -2.5207243 0.34662685 4294314240
2.5441902 -2.4143684 0.34942845 4293792000
2.4438589 -2.3190107 0.35199517 4293400320
2.6745212 -2.5377297 0.40267867 4294444800
2.6664643 -2.5299256 0.41842553 4294444800
2.621558 -2.4871624 0.42759269 4294183680
2.538136 -2.4078655 0.42921948 4293792000
2.4905722 -2.3625944 0.43565023 4293530880
2.6727006 -2.5352044 0.48251325 4294444800
2.6538711 -2.5171852 0.49347144 4294314240
2.6288645 -2.4933097 0.50248945 4294314240
2.5521512 -2.4203999 0.50054055 4293922560
2.5617528 -2.429353 0.51461297 4293922560
2.5072434 -2.3775113 0.51501721 4293661440
2.6753716 -2.5367804 0.56103867 4294444800
2.6539102 -2.5162723 0.56729257 4294444800
2.6374114 -2.5004718 0.57380456 4294314240
2.6353781 -2.4983871 0.58273166 4294314240
2.6545169 -2.5163727 0.5957225 4294444800
2.6161525 -2.4798486 0.59506494 4294183680
2.6253986 -2.4884562 0.60445529 4294314240
2.5705199 -2.4362869 0.59826738 4294053120
2.5835001 -2.4484353 0.60706788 4294053120
2.5829625 -2.4477715 0.61201221 4294053120
2.5860832 -2.4505749 0.61711323 4294053120
2.589288 -2.4534574 0.62152302 4294183680
2.5890038 -2.4530337 0.62437266 4294183680
2.5852334 -2.4493072 0.62564743 4294053120
2.591563 -2.4551494 0.62863421 4294183680
2.585114 -2.4488859 0.62778687 4294053120
2.5887659 -2.4521909 0.62865531 4294183680
2.5681987 -2.4325557 0.62291199 4294053120
2.5684559 -2.4326463 0.62149608 4294053120
2.6193643 -2.4807067 0.63156497 4294314240
2.6169465 -2.478261 0.62799644 4294314240
2.6067457 -2.4684455 0.62184352 4294183680
2.6384029 -2.4982657 0.62491041 4294314240
2.6473196 -2.5065513 0.62179089 4294444800
2.656389 -2.5149801 0.61794496 4294444800
2.6633425 -2.521405 0.61285025 4294444800
2.665369 -2.5231647 0.60588706 4294444800
2.6720612 -2.5293405 0.5992561 4294444800
2.6603062 -2.518055 0.58781344 4294444800
2.661736 -2.5192497 0.57863933 4294444800
2.655129 -2.5128381 0.5670718 4294444800
2.6599612 -2.5172532 0.5573014 4294444800
2.6709015 -2.5274475 0.5481053 4294444800
2.6574721 -2.514581 0.53329539 4294444800
2.6412439 -2.498143 0.438885 4294314240
2.664592 -2.5200672 0.42654711 4294314240
2.6665421 -2.5217528 0.41015348 4294314240
2.6602378 -2.5156329 0.39206225 4294314240
2.6404197 -2.4967349 0.37171569 4294183680
2.6528826 -2.5083616 0.35554904 4294314240
2.6584961 -2.5135112 0.33794925 4294314240
2.6498985 -2.5052247 0.31819296 4294314240
2.6314242 -2.4876025 0.29709476 4294183680
2.6405439 -2.4960666 0.27885291 4294183680
2.6568346 -2.5113082 0.26087677 4294314240
2.6528866 -2.5074186 0.24053833 4294314240
2.6278758 -2.4836228 0.21824917 4294183680
2.6564612 -2.5104811 0.20014507 4294314240
2.6570721 -2.5109003 0.17949188 4294314240
2.6510537 -2.5050554 0.15823993 4294183680
2.6324887 -2.4873564 0.1362634 4294183680
2.6343029 -2.4889138 0.11532821 4294183680
2.6384583 -2.4926829 0.094324283 4294183680
2.6326725 -2.4870603 0.072877698 4294183680
2.6311486 -2.4854643 0.051530723 4294183680
2.6294744 -2.4837265 0.030152442 4294183680
2.6351986 -2.4889767 0.0087948153 4294183680
2.6028943 -2.4583104 -0.012481748 4294053120
2.6262963 -2.4802563 -0.033938199 4294053120
2.6332054 -2.4866245 -0.055389915 4294183680
2.6269867 -2.4805958 -0.076510228 4294053120
2.6222694 -2.4759855 -0.097502127 4294053120
2.6388669 -2.4915004 -0.11927508 4294183680
2.6484122 -2.5003552 -0.14080819 4294183680
2.6531911 -2.5047095 -0.16204812 4294183680
2.6217117 -2.4748361 -0.18068758 4294053120
2.6365082 -2.488647 -0.20218709 4294183680
2.6396029 -2.4914112 -0.22270693 4294183680
2.6321337 -2.484205 -0.24205884 4294183680
2.6293538 -2.4814253 -0.26149917 4294183680
2.646759 -2.497694 -0.28276756 4294183680
2.6564343 -2.5066667 -0.30309787 4294314240
2.6531277 -2.5033889 -0.32165959 4294314240
2.6262376 -2.4778605 -0.33679488 4294183680
2.6452763 -2.4956663 -0.35738963 4294183680
2.6547036 -2.5044029 -0.3764832 4294314240
2.6565695 -2.5060053 -0.39416116 4294314240
2.6467307 -2.4965672 -0.4096123 4294314240
2.605334 -2.4573646 -0.41940123 4294053120
2.6563375 -2.5053134 -0.44364488 4294314240
2.6660547 -2.5143199 -0.46085915 4294314240
2.6674514 -2.5154788 -0.4761804 4294444800
2.6752779 -2.5227005 -0.49216184 4294444800
2.6599483 -2.5080876 -0.50328791 4294314240
2.6316705 -2.4812679 -0.51116967 4294183680
2.6376038 -2.4867058 -0.52500057 4294314240
2.6436179 -2.4922187 -0.53830397 4294314240
2.6561401 -2.5038662 -0.55239826 4294314240
2.6463923 -2.4945204 -0.56124145 4294314240
2.649714 -2.497494 -0.57218355 4294314240
2.6626503 -2.5095294 -0.58460176 4294444800
2.6438301 -2.4916344 -0.58935565 4294314240
2.6404381 -2.4882813 -0.59679276 4294314240
2.6333771 -2.4814708 -0.60267782 4294314240
2.6334772 -2.4814091 -0.60948181 4294314240
2.6181381 -2.4668005 -0.61196828 4294183680
2.6240265 -2.4721928 -0.61867994 4294314240
2.5823867 -2.4328091 -0.61340261 4294053120
2.574821 -2.4255292 -0.61541814 4294053120
2.5852695 -2.4352183 -0.62102115 4294053120
2.5814643 -2.4314811 -0.62248278 4294053120
2.5885034 -2.4379578 -0.62583166 4294053120
2.5777097 -2.427639 -0.62413681 4294053120
2.5713081 -2.4214578 -0.62277019 4294053120
2.6197591 -2.4669297 -0.63394862 4294183680
2.6092398 -2.4568696 -0.63010967 4294183680
2.6249638 -2.4715195 -0.63186359 4294314240
2.6274238 -2.4736803 -0.62967074 4294314240
2.6305988 -2.4765134 -0.62690622 4294314240
2.6372991 -2.4826648 -0.62423456 4294314240
2.6529706 -2.4972606 -0.62291765 4294444800
2.6498666 -2.4941816 -0.61644351 4294314240
2.6463423 -2.4907076 -0.60916972 4294314240
2.6386521 -2.4833133 -0.60025883 4294314240
2.646111 -2.4901764 -0.59409684 4294314240
2.635659 -2.4801841 -0.58323765 4294314240
2.6274903 -2.4723418 -0.57227236 4294183680
2.6250656 -2.4699047 -0.56193626 4294183680
2.6370356 -2.4810109 -0.55399686 4294314240
2.6568167 -2.4994645 -0.54693192 4294314240
2.6581461 -2.5005577 -0.53535336 4294314240
2.6449039 -2.4879441 -0.52028537 4294314240
2.6280036 -2.4718912 -0.50405091 4294183680
2.628624 -2.4723186 -0.49068466 4294183680
2.6399422 -2.4828079 -0.47869661 4294183680
2.648205 -2.490422 -0.4655081 4294314240
2.6445019 -2.486783 -0.44966796 4294314240
2.6214101 -2.4649131 -0.43018487 4294183680
2.6375701 -2.4799523 -0.41670024 4294183680
2.6469028 -2.4885707 -0.40151468 4294183680
2.6555583 -2.4965513 -0.38566533 4294314240
2.6444252 -2.4859283 -0.36653233 4294183680
2.6181619 -2.4610841 -0.34514871 4294053120
2.6349549 -2.4767137 -0.32912248 4294183680
2.629688 -2.4716074 -0.30989993 4294183680
2.632158 -2.4737732 -0.29126889 4294183680
2.6230946 -2.4651 -0.27109161 4294053120
2.6360815 -2.4771488 -0.25286743 4294183680
2.6369665 -2.4778244 -0.23310423 4294183680
2.6288178 -2.4700119 -0.21234499 4294053120
2.5679202 -2.4126415 -0.1876267 4293792000
2.6369286 -2.4773209 -0.17212944 4294183680
2.639611 -2.4796848 -0.15155862 4294183680
2.6100655 -2.4517751 -0.12918739 4294053120
2.6282563 -2.4687071 -0.10912939 4294053120
2.6394358 -2.4790521 -0.0884289 4294183680
2.6443071 -2.4834709 -0.067293972 4294183680
2.5718837 -2.4153006 -0.044666704 4293792000
2.643312 -2.4822237 -0.024497561 4294183680
2.6539032 -2.4920127 -0.0030750283 4294183680
2.6318398 -2.4711397 0.01829434 4294053120
2.5236168 -2.3693755 0.037988078 4293661440
2.6713717 -2.507942 0.061810721 4294314240
2.6770823 -2.5131447 0.083519414 4294314240
2.6279631 -2.4668782 0.10307794 4294053120
2.4902463 -2.3374557 0.1175552 4293400320
2.6739182 -2.5097005 0.14743313 4294314240
2.6709526 -2.5067592 0.16829288 4294314240
2.6324034 -2.4704242 0.18640277 4294053120
2.4420152 -2.2916067 0.19178569 4293269760
2.6847935 -2.5192733 0.23136191 4294314240
2.6816852 -2.5161982 0.25132674 4294314240
2.6254396 -2.4632685 0.26559398 4294053120
2.4452262 -2.2940423 0.26528898 4293269760
2.6983202 -2.5313284 0.31220672 4294444800
2.7007248 -2.5334249 0.3316167 4294444800
2.6707816 -2.5051789 0.34649721 4294314240
2.5611582 -2.4022012 0.34970251 4293792000
2.4573684 -2.304708 0.35187963 4293400320
2.6929307 -2.5254774 0.40309727 4294444800
2.6783037 -2.5116019 0.41785201 4294444800
2.643292 -2.4786131 0.42865095 4294183680
2.5521636 -2.3930116 0.42910945 4293792000
