# .PCD v0.7 - Point Cloud Data file format
VERSION 0.7
FIELDS x y z rgba
SIZE 4 4 4 4
TYPE F F F U
COUNT 1 1 1 1
WIDTH 1092
HEIGHT 1
VIEWPOINT 0 0 0 1 0 0 0
POINTS 1092
DATA ascii
2.3607321 -1.0321267 -0.26581326 4290658560
2.3726525 -1.0372497 -0.27950662 4290658560
2.3731043 -1.0373584 -0.29160187 4290658560
2.3205705 -1.0143073 -0.29660359 4290528000
2.4243565 -1.0595809 -0.32149136 4290919680
2.4546819 -1.0727429 -0.33691487 4291050240
2.4797974 -1.083626 -0.35149753 4291180800
2.5078909 -1.0958086 -0.36633983 4291180800
2.5444555 -1.11169 -0.38227862 4291441920
2.6537769 -1.1593541 -0.40930328 4291833600
2.7585895 -1.2050403 -0.43600351 4292225280
2.8636291 -1.2508179 -0.46302429 4292616960
2.9583859 -1.2920965 -0.48856202 4292878080
3.0021284 -1.3110889 -0.50558448 4293139200
3.029773 -1.3230486 -0.51954222 4293269760
3.0385768 -1.3267795 -0.52978057 4293269760
3.0503705 -1.3318149 -0.53998506 4293269760
3.0473886 -1.330399 -0.54697323 4293269760
3.050097 -1.3314674 -0.55434722 4293269760
3.0442307 -1.3287927 -0.55951297 4293269760
3.0434432 -1.3283352 -0.56494778 4293269760
3.030534 -1.3225875 -0.56745195 4293269760
3.0220523 -1.3187728 -0.57009035 4293269760
3.0144584 -1.3153462 -0.57220966 4293139200
3.0230799 -1.3189951 -0.57673734 4293269760
3.018261 -1.3167797 -0.57803082 4293139200
3.0180609 -1.3165797 -0.57952869 4293139200
3.017967 -1.3164258 -0.58036804 4293139200
3.0250614 -1.3194072 -0.58191037 4293269760
3.017056 -1.3158028 -0.5798682 4293139200
3.0409553 -1.326112 -0.58327091 4293269760
3.0412745 -1.3261375 -0.58145833 4293269760
3.0385556 -1.3248384 -0.57838672 4293269760
3.0390284 -1.3249309 -0.57524806 4293269760
3.0330646 -1.3222175 -0.57022619 4293269760
3.0167766 -1.3150042 -0.56263006 4293139200
3.0031009 -1.3089308 -0.5549134 4293139200
2.9751642 -1.296643 -0.54399335 4293008640
2.9097605 -1.2680298 -0.52578509 4292747520
2.81581 -1.2269824 -0.50217056 4292355840
2.7185333 -1.1844927 -0.47785231 4292094720
2.6182725 -1.1407102 -0.45298421 4291703040
2.5241437 -1.0996065 -0.42921135 4291311360
2.4772501 -1.0790854 -0.41340426 4291180800
2.4606771 -1.0717742 -0.40238649 4291050240
2.4491699 -1.0666705 -0.3918328 4291050240
2.410965 -1.0499414 -0.37674347 4290919680
2.3697875 -1.0319204 -0.36106348 4290789120
2.3528469 -1.0244558 -0.34889588 4290658560
2.3496678 -1.0229839 -0.33845633 4290658560
2.3506567 -1.0233265 -0.32824403 4290658560
2.3521647 -1.0238951 -0.3177233 4290658560
2.2922878 -0.9977451 -0.29882953 4290397440
2.2932291 -0.99806917 -0.28780729 4290397440
2.2982922 -1.0001869 -0.2769511 4290397440
2.2949209 -0.99863392 -0.26476222 4290397440
2.2782972 -0.99131501 -0.2508553 4290397440
2.221921 -0.96670198 -0.23268464 4290136320
2.2325761 -0.97125435 -0.22152174 4290136320
2.2225401 -0.96680528 -0.20805956 4290136320
2.2179427 -0.96472251 -0.19496056 4290136320
2.1658509 -0.9419837 -0.17780198 4289875200
2.181469 -0.94869488 -0.16621804 4290005760
2.1777227 -0.94698429 -0.15290768 4290005760
2.1493785 -0.93457854 -0.13789795 4289875200
2.0946927 -0.91072214 -0.12155526 4289614080
2.1296811 -0.92585468 -0.11040316 4289744640
2.1394169 -0.9300074 -0.097545199 4289744640
2.1493859 -0.93426061 -0.084469013 4289875200
2.1416099 -0.93080062 -0.07059098 4289744640
2.1719596 -0.9439103 -0.057749599 4289875200
2.1950145 -0.95384777 -0.044311281 4290005760
2.1917453 -0.95234525 -0.030167544 4290005760
2.2294602 -0.96864963 -0.016333971 4290136320
2.2527959 -0.97870433 -0.0019846254 4290266880
2.27876 -0.9898991 0.012681928 4290266880
2.2579455 -0.98077291 0.027107397 4290266880
2.3173544 -1.0064915 0.042714123 4290397440
2.3399165 -1.0162034 0.058121562 4290528000
2.3544343 -1.0224205 0.073503219 4290528000
2.2971718 -0.99746829 0.086293384 4290397440
2.3749216 -1.0311397 0.10418841 4290658560
2.4032702 -1.0433584 0.12047061 4290789120
2.3775916 -1.0321215 0.13393162 4290658560
2.1626179 -0.93871987 0.13510409 4289875200
2.4572451 -1.0665159 0.16843441 4290919680
2.4661577 -1.0702922 0.18383908 4291050240
2.4453294 -1.0611615 0.19675581 4290919680
2.2555511 -0.97872221 0.19463338 4290266880
2.5428252 -1.1032805 0.23400348 4291311360
2.5595036 -1.1104214 0.24995562 4291311360
2.5375633 -1.100808 0.26183325 4291311360
2.410758 -1.0457093 0.26179361 4290789120
2.4831874 -1.0770341 0.28279641 4291050240
2.8433936 -1.2331604 0.33850133 4292486400
3.0086174 -1.3047044 0.37330794 4293008640
3.0425501 -1.319306 0.39240402 4293139200
3.0122957 -1.3060747 0.40280429 4293139200
2.9196877 -1.2658128 0.40384448 4292747520
3.1182044 -1.3517619 0.44515321 4293530880
3.1229093 -1.3536851 0.45919231 4293530880
3.1057189 -1.3461177 0.46944094 4293400320
3.091141 -1.3396838 0.47942287 4293400320
3.0791774 -1.334384 0.48916152 4293400320
3.0107377 -1.3046128 0.48907927 4293139200
3.1020858 -1.34408 0.51445878 4293400320
3.1015203 -1.3437192 0.52431309 4293400320
3.1068785 -1.3459246 0.53457981 4293530880
3.0966816 -1.3413918 0.5415411 4293400320
3.0987194 -1.3421588 0.54999274 4293400320
3.1022084 -1.3435543 0.55807883 4293530880
3.0926335 -1.339292 0.56315464 4293400320
3.0802467 -1.333813 0.56701839 4293400320
3.0794609 -1.3333578 0.57233167 4293400320
3.0752921 -1.3314381 0.57634127 4293400320
3.0747004 -1.3310672 0.5803414 4293400320
3.0832505 -1.3346536 0.58539778 4293400320
3.0828621 -1.3343705 0.58808178 4293400320
3.0595574 -1.3241693 0.5856902 4293400320
3.0869238 -1.3358983 0.59230942 4293400320
3.0823376 -1.3337985 0.59211522 4293400320
3.0697258 -1.3282267 0.58968478 4293400320
3.0734913 -1.3297414 0.58970881 4293400320
3.0817456 -1.3331976 0.58989894 4293400320
3.0936086 -1.3382142 0.59007752 4293400320
3.1026783 -1.3420218 0.5890168 4293530880
3.0942004 -1.3382394 0.58393764 4293400320
3.1002159 -1.3407255 0.58091313 4293530880
3.0996549 -1.3403673 0.57597148 4293530880
3.0982139 -1.3396287 0.57019866 4293400320
3.1054454 -1.3426397 0.56534678 4293530880
3.1052122 -1.3424231 0.55846542 4293530880
3.1008027 -1.3404012 0.55019665 4293400320
3.1030359 -1.3412508 0.54247463 4293530880
3.087281 -1.3343259 0.53102005 4293400320
3.0764363 -1.329524 0.51987523 4293400320
3.1070933 -1.3426571 0.51508027 4293530880
3.1045282 -1.3414328 0.50409746 4293400320
3.0966868 -1.3379292 0.49171811 4293400320
2.5163457 -1.0865862 0.33088961 4291180800
2.5267308 -1.0909765 0.32008991 4291311360
2.5161669 -1.0863216 0.30628109 4291180800
2.4936554 -1.0765096 0.29084364 4291180800
2.4400237 -1.0532658 0.27184802 4290919680
2.4440844 -1.0549276 0.25923723 4290919680
2.4538441 -1.0590487 0.24686947 4290919680
2.4089987 -1.0396042 0.22893274 4290789120
2.3696373 -1.0225295 0.21173894 4290658560
2.3708463 -1.0229628 0.19815466 4290658560
2.3710275 -1.0229527 0.18425973 4290658560
2.3507473 -1.0141153 0.16869329 4290528000
2.3114874 -0.99709249 0.1519386 4290397440
2.3271635 -1.0037678 0.13877101 4290528000
2.3128772 -0.99751961 0.12365875 4290397440
2.2949631 -0.98970801 0.10841831 4290397440
2.2525148 -0.97131813 0.092279568 4290266880
2.2485032 -0.96950448 0.077907696 4290136320
2.2327154 -0.96261388 0.063169658 4290136320
2.2232289 -0.95844114 0.048703015 4290136320
2.1892285 -0.94370186 0.033925701 4290005760
2.1799428 -0.93961793 0.019772789 4289875200
2.1748998 -0.93736321 0.0057295463 4289875200
2.1237924 -0.91525722 -0.0080793258 4289744640
2.124541 -0.9155007 -0.021752149 4289744640
2.1173906 -0.9123407 -0.035279166 4289744640
2.1269815 -0.91639394 -0.0490622 4289744640
2.1344588 -0.91953599 -0.062852301 4289744640
2.1622727 -0.93143779 -0.07739725 4289875200
2.1857123 -0.94145346 -0.092026033 4290005760
2.1918139 -0.94399995 -0.10601094 4290005760
2.1906681 -0.94342482 -0.11956115 4290005760
2.2133884 -0.95312703 -0.13441642 4290005760
2.2366424 -0.96305734 -0.14943887 4290136320
2.23877 -0.96389014 -0.16304095 4290136320
2.2444179 -0.96623826 -0.17676744 4290136320
2.2817101 -0.98220789 -0.19304404 4290266880
2.3129301 -0.995561 -0.20899262 4290397440
2.314754 -0.99625987 -0.22224502 4290397440
2.2793007 -0.98091596 -0.23148689 4290397440
2.3317161 -1.0033866 -0.24948508 4290528000
2.3480439 -1.0103254 -0.26371735 4290658560
2.3690116 -1.0192593 -0.27837339 4290658560
2.3617642 -1.0160531 -0.2894761 4290658560
2.3045435 -0.99135047 -0.29381189 4290397440
2.4092422 -1.0362992 -0.31868097 4290789120
2.4301004 -1.0451807 -0.33269954 4290919680
2.4505398 -1.0538803 -0.34647423 4291050240
2.465584 -1.0602585 -0.35925141 4291050240
2.4585249 -1.0571313 -0.36843681 4291050240
2.5131803 -1.0805389 -0.38664091 4291180800
2.5887554 -1.1129359 -0.40812886 4291572480
2.6723061 -1.1487559 -0.43099949 4291833600
2.7664828 -1.1891371 -0.45571831 4292225280
2.8590887 -1.2288361 -0.4802815 4292486400
2.9168866 -1.253569 -0.49892372 4292747520
2.9697032 -1.2761571 -0.51646727 4293008640
2.9768693 -1.2791258 -0.52564549 4293008640
2.9935105 -1.2861649 -0.53594857 4293008640
2.9820724 -1.2811396 -0.54061812 4293008640
2.9708076 -1.2761894 -0.54464239 4293008640
2.9307327 -1.2588651 -0.54265487 4292878080
2.9472563 -1.265853 -0.55046833 4292878080
2.9647713 -1.2732655 -0.55787575 4293008640
2.87764 -1.2357385 -0.54486263 4292616960
2.8899226 -1.2409055 -0.54994524 4292747520
2.8896303 -1.2406725 -0.55200297 4292747520
2.8939633 -1.2424252 -0.55430001 4292747520
2.8938725 -1.2422785 -0.55510283 4292747520
2.8766892 -1.2347951 -0.55197579 4292616960
2.9416878 -1.2625858 -0.5639593 4292878080
2.9238052 -1.2548016 -0.55938911 4292878080
2.9679148 -1.2736217 -0.56600451 4293008640
2.9741988 -1.2762077 -0.56471151 4293008640
2.9646273 -1.2719903 -0.55975258 4293008640
2.9468825 -1.2642672 -0.55262947 4292878080
2.9253969 -1.2549406 -0.54421484 4292747520
2.8577907 -1.2258325 -0.52673429 4292616960
2.7788174 -1.1918541 -0.50681406 4292225280
2.6899903 -1.1536554 -0.4848505 4291964160
2.6211171 -1.1240203 -0.46627325 4291703040
2.5331926 -1.0862212 -0.44415393 4291311360
2.4743967 -1.0609177 -0.42701572 4291180800
2.448139 -1.0495685 -0.41524041 4291050240
2.4353428 -1.0439919 -0.40538877 4290919680
2.4279938 -1.0407512 -0.39604357 4290919680
2.4246228 -1.039216 -0.38693035 4290919680
2.3910563 -1.0247403 -0.37269318 4290789120
2.34936 -1.0067831 -0.35705137 4290658560
2.3305526 -0.99863678 -0.34472132 4290528000
2.3421187 -1.0035058 -0.33652103 4290658560
2.3384151 -1.001832 -0.32571402 4290528000
2.3409576 -1.0028342 -0.31541491 4290528000
2.2871208 -0.9796862 -0.29740679 4290397440
2.2857094 -0.97899663 -0.2861428 4290397440
2.2939167 -0.98242664 -0.27572942 4290397440
2.2823036 -0.97736824 -0.26264516 4290397440
2.2703149 -0.97214979 -0.24934851 4290266880
2.2018933 -0.94276983 -0.23000818 4290005760
2.2243507 -0.95230246 -0.22015132 4290136320
2.2107325 -0.94638997 -0.20643452 4290005760
2.2015333 -0.94237012 -0.19303225 4290005760
2.1671224 -0.92755991 -0.17745969 4289875200
2.1649487 -0.92654908 -0.16454515 4289875200
2.1657715 -0.92682064 -0.1516868 4289875200
2.1456094 -0.9181127 -0.13731061 4289875200
2.0943131 -0.89608508 -0.1212282 4289614080
2.1328804 -0.91250747 -0.11029153 4289744640
2.1377769 -0.91452283 -0.09722583 4289744640
2.1547928 -0.92172199 -0.084469013 4289875200
2.1561866 -0.92223811 -0.070893146 4289875200
2.177422 -0.93123996 -0.057749599 4289875200
2.2005346 -0.94104296 -0.044311281 4290005760
2.2064507 -0.94349092 -0.030293774 4290005760
2.2350659 -0.95564389 -0.016333971 4290136320
2.2676547 -0.96949357 -0.0019927055 4290266880
2.2706964 -0.97070962 0.012605362 4290266880
2.2636213 -0.967601 0.027107397 4290266880
2.3185821 -0.99100822 0.042629603 4290397440
2.3412008 -1.0005889 0.058007672 4290528000
2.351522 -1.0049126 0.073228277 4290528000
2.3029442 -0.98406756 0.086293384 4290397440
2.3808887 -1.0172855 0.10418841 4290658560
2.4129827 -1.0309087 0.12065434 4290789120
2.3973401 -1.0241365 0.13470568 4290789120
2.1717227 -0.9276728 0.13533294 4289875200
2.4646113 -1.0526916 0.16851607 4290919680
2.4819868 -1.0600207 0.18455553 4291050240
2.4478018 -1.0453299 0.19646136 4290919680
2.1731291 -0.92795068 0.18705142 4289875200
2.5492101 -1.0884467 0.23400348 4291311360
2.5565686 -1.0914937 0.24904373 4291311360
2.5521743 -1.0895228 0.26268142 4291311360
2.4131489 -1.0300833 0.26139709 4290789120
2.4537451 -1.0473212 0.27874374 4290919680
2.7938433 -1.1923801 0.33176979 4292225280
2.9942353 -1.2777938 0.3705934 4293008640
3.050185 -1.3015571 0.39240402 4293139200
3.0476713 -1.3003713 0.4065147 4293139200
2.9224505 -1.246834 0.40321502 4292747520
3.1260271 -1.3335718 0.44515321 4293530880
3.1216278 -1.3315791 0.45785531 4293530880
3.1226201 -1.3318864 0.47081468 4293530880
3.089787 -1.3177675 0.47801399 4293400320
3.0823483 -1.3144805 0.48844033 4293400320
3.0182874 -1.2870494 0.48907927 4293139200
3.1189582 -1.3298613 0.5159632 4293530880
3.1174777 -1.3291143 0.52569264 4293530880
3.1192105 -1.3297373 0.53535962 4293530880
3.1171603 -1.3287476 0.54375935 4293530880
3.1064863 -1.3240823 0.54999274 4293400320
3.1054451 -1.3235232 0.55726445 4293400320
3.0922177 -1.317771 0.56167132 4293400320
3.0788944 -1.3119788 0.56535274 4293400320
3.0998733 -1.3208033 0.57468545 4293400320
3.0793705 -1.3119531 0.57566327 4293400320
3.0869358 -1.3150616 0.58119476 4293400320
3.0864425 -1.314737 0.58453953 4293400320
3.067502 -1.306555 0.58368969 4293400320
3.0903003 -1.3161509 0.59009731 4293400320
3.0946546 -1.3178905 0.59230942 4293400320
3.085526 -1.3138884 0.59124714 4293400320
3.0810366 -1.3118625 0.59037924 4293400320
3.0892019 -1.3152245 0.59124291 4293400320
3.0894608 -1.3152201 0.58989894 4293400320
3.0931959 -1.3166953 0.58852553 4293400320
3.1059122 -1.3219931 0.58815855 4293530880
3.1019447 -1.3201892 0.58393764 4293400320
3.1079745 -1.3226403 0.58091313 4293530880
3.1028762 -1.3203554 0.57513082 4293400320
3.1059663 -1.3215551 0.57019866 4293400320
3.1132152 -1.3245239 0.56534678 4293530880
3.1074207 -1.3219434 0.557468 4293400320
3.1031132 -1.3199958 0.54923266 4293400320
3.1107976 -1.3231491 0.54247463 4293530880
3.0995476 -1.3182491 0.53179979 4293400320
3.0886769 -1.3135111 0.52064168 4293400320
3.1148632 -1.3245317 0.51508027 4293530880
3.116842 -1.3252575 0.50483459 4293530880
3.1044292 -1.3198646 0.49171811 4293400320
2.5226336 -1.071907 0.33088961 4291180800
2.5330441 -1.0762367 0.32008991 4291311360
2.5407472 -1.0794154 0.30850235 4291311360
2.4998851 -1.0619627 0.29084364 4291180800
2.4506969 -1.0409765 0.27235684 4290919680
2.4501891 -1.0406699 0.25923723 4290919680
2.4462247 -1.0388955 0.24548981 4290919680
2.4150147 -1.0255512 0.22893274 4290789120
2.3672981 -1.0052003 0.21100302 4290658560
2.373095 -1.0075737 0.19784859 4290658560
2.3769472 -1.0091212 0.18425973 4290658560
2.3612084 -1.0023518 0.16902202 4290658560
2.3172574 -0.98360831 0.1519386 4290397440
2.3208365 -0.98504156 0.13804917 4290397440
2.3186498 -0.98402739 0.12365875 4290397440
2.3052888 -0.97827166 0.108635 4290397440
2.2618153 -0.95973939 0.092429936 4290266880
2.2541134 -0.95638776 0.077907696 4290136320
2.242887 -0.95154142 0.063299522 4290136320
2.2204916 -0.94195783 0.048522003 4290005760
2.1992922 -0.9328832 0.03399685 4290005760
2.1807773 -0.92494893 0.019731142 4289875200
2.1628323 -0.91725755 0.0056835804 4289875200
2.1290886 -0.90286803 -0.0080793258 4289744640
2.1335213 -0.90466863 -0.021789758 4289744640
2.1355581 -0.90545315 -0.035493363 4289744640
2.141176 -0.90775573 -0.049266785 4289744640
2.1404407 -0.90736461 -0.062871702 4289744640
2.1718755 -0.92060983 -0.077547669 4289875200
2.1835055 -0.92545861 -0.091704533 4289875200
2.1949229 -0.93021637 -0.10589737 4290005760
2.1832533 -0.92518991 -0.11886025 4289875200
2.2097106 -0.93631977 -0.13385952 4290005760
2.2293489 -0.94455838 -0.14858134 4290136320
2.2341616 -0.94651473 -0.16230097 4290136320
2.2373533 -0.94778407 -0.17577313 4290136320
2.2727087 -0.962677 -0.19180468 4290266880
2.3002243 -0.97424692 -0.20732813 4290397440
2.303484 -0.97554219 -0.22061349 4290397440
2.2838004 -0.96712142 -0.23136769 4290266880
2.3155997 -0.98050165 -0.24714525 4290397440
2.3437009 -0.99231386 -0.26257575 4290528000
2.3577151 -0.99816006 -0.27635792 4290658560
2.3590467 -0.99863642 -0.288425 4290658560
2.3198569 -0.98196054 -0.29502982 4290528000
2.4026408 -1.0169127 -0.31701869 4290789120
2.4183297 -1.0234635 -0.33026603 4290789120
2.4394865 -1.0323268 -0.34405521 4290919680
2.4410751 -1.0329087 -0.35479739 4290919680
2.4336083 -1.0296592 -0.36379761 4290919680
2.4233024 -1.0252088 -0.37188837 4290919680
2.4326346 -1.0290669 -0.38256401 4290919680
2.4672921 -1.0436366 -0.39694664 4291050240
2.5317469 -1.0708064 -0.41601583 4291311360
2.5844936 -1.0930201 -0.43307677 4291441920
2.6257577 -1.110374 -0.44801292 4291703040
2.6811128 -1.1336831 -0.46512127 4291833600
2.7061396 -1.1441652 -0.47665578 4291964160
2.7660947 -1.169412 -0.49400455 4292225280
2.7573061 -1.1655943 -0.49863076 4292094720
2.8173549 -1.1908745 -0.51522893 4292355840
2.8338654 -1.1977484 -0.52341795 4292486400
2.7883914 -1.1784253 -0.51950544 4292225280
2.8096132 -1.1872901 -0.52736938 4292355840
2.8218439 -1.192354 -0.53297353 4292355840
2.8214614 -1.1920879 -0.53558642 4292355840
2.8175464 -1.1903294 -0.53689885 4292355840
2.8345959 -1.1974274 -0.54158354 4292486400
2.8208981 -1.1915365 -0.53976411 4292355840
2.7991354 -1.1822405 -0.53576404 4292355840
2.7820067 -1.174903 -0.53202498 4292225280
2.8279073 -1.1941831 -0.5397014 4292486400
2.7710488 -1.1700701 -0.52715153 4292225280
2.7324221 -1.1536589 -0.51752031 4292094720
2.7498782 -1.1609273 -0.51791984 4292094720
2.7326424 -1.1535497 -0.51118398 4292094720
2.6679213 -1.1261296 -0.49508741 4291833600
2.5950742 -1.0952848 -0.47712737 4291572480
2.5535834 -1.0776786 -0.46458176 4291441920
2.4798985 -1.04649 -0.44587648 4291180800
2.4315486 -1.0259968 -0.43148002 4290919680
2.4226818 -1.0221658 -0.42372626 4290919680
2.4009078 -1.0128901 -0.41330805 4290789120
2.4124143 -1.0176553 -0.40816844 4290919680
2.4113278 -1.0171076 -0.40039802 4290919680
2.4162462 -1.0190928 -0.39315215 4290919680
2.4128575 -1.0175743 -0.38410017 4290789120
2.3798559 -1.0035684 -0.37002972 4290789120
2.3442466 -0.98846555 -0.35539293 4290528000
2.3239396 -0.97981697 -0.34289294 4290528000
2.3338361 -0.98390317 -0.33450159 4290528000
2.3413601 -0.98698854 -0.32531771 4290528000
2.3243542 -0.97973371 -0.31240338 4290528000
2.2712221 -0.95725411 -0.29460913 4290266880
2.2787585 -0.96034622 -0.28456736 4290266880
2.2941091 -0.96673059 -0.27507085 4290397440
2.2778819 -0.95980823 -0.26148832 4290266880
2.2642598 -0.95398474 -0.24806881 4290266880
2.2171655 -0.93406069 -0.23103109 4290136320
2.2188511 -0.93468875 -0.2190643 4290136320
2.2199614 -0.93507439 -0.20678407 4290136320
2.2064724 -0.92931104 -0.19298729 4290005760
2.1768255 -0.91674399 -0.17781386 4289875200
2.183713 -0.91956383 -0.1655613 4289875200
2.1769977 -0.91665548 -0.15209644 4289875200
2.1616764 -0.9101243 -0.13799715 4289875200
2.1077814 -0.88735509 -0.12170649 4289614080
2.1381607 -0.90006536 -0.11029153 4289744640
2.1501083 -0.90501529 -0.097545199 4289744640
2.1642699 -0.910896 -0.084631041 4289875200
2.1661296 -0.91159862 -0.071044222 4289875200
2.1828108 -0.91853803 -0.057749599 4289875200
2.2142742 -0.93169612 -0.044477884 4290005760
2.2119102 -0.93061966 -0.030293774 4290005760
2.2442827 -0.94415683 -0.016360849 4290136320
2.26036 -0.95083684 -0.0019813934 4290136320
2.285531 -0.96134073 0.012656406 4290266880
2.2692204 -0.95439625 0.027107397 4290266880
2.3221502 -0.97657174 0.042589866 4290397440
2.3469906 -0.98693156 0.058007672 4290528000
2.3569734 -0.99104232 0.073216982 4290528000
2.3049533 -0.96908402 0.086155638 4290397440
2.3913808 -1.0053328 0.10438945 4290658560
2.41066 -1.0133487 0.12024095 4290789120
2.4032662 -1.0101517 0.13470568 4290789120
2.1688073 -0.91152275 0.13481803 4289875200
2.4695055 -1.0378112 0.16843441 4290919680
2.4881206 -1.0455421 0.18455553 4291050240
2.4575281 -1.032596 0.19675581 4290919680
2.1610365 -0.90793729 0.18555208 4289875200
2.5555084 -1.0735761 0.23400348 4291311360
2.5722687 -1.0805221 0.24995562 4291311360
2.5676575 -1.0784901 0.2636238 4291311360
2.4319537 -1.0214008 0.26278496 4290919680
2.5175767 -1.0572687 0.28529036 4291180800
2.8920224 -1.2144122 0.34258255 4292616960
3.0272801 -1.2710974 0.37376034 4293008640
3.0622945 -1.2856861 0.39299154 4293139200
3.0318859 -1.2728071 0.40341315 4293139200
2.9296653 -1.229786 0.40321502 4292747520
3.1255152 -1.3118825 0.44398436 4293400320
3.1384709 -1.3172045 0.45919231 4293530880
3.1257601 -1.3117543 0.47012782 4293400320
3.1019769 -1.3016587 0.47871843 4293400320
3.0899544 -1.2964997 0.48844033 4293400320
3.0211747 -1.2675291 0.48834214 4293139200
3.1266532 -1.3116671 0.5159632 4293530880
3.1124108 -1.3055772 0.5235467 4293400320
3.1223505 -1.3096312 0.53457981 4293530880
3.1202965 -1.3086544 0.54296714 4293530880
3.1095972 -1.3040522 0.54918897 4293400320
3.1131036 -1.3054078 0.55726445 4293400320
3.1080291 -1.3031652 0.56315464 4293400320
3.0955794 -1.2978307 0.56701839 4293400320
3.0856972 -1.2935736 0.5706504 4293400320
3.0905974 -1.2955137 0.57634127 4293400320
3.0900013 -1.2951497 0.5803414 4293400320
3.0985928 -1.2986363 0.58539778 4293400320
3.0750623 -1.288661 0.58368969 4293400320
3.0747793 -1.2884288 0.5856902 4293400320
3.0931971 -1.2960322 0.59057516 4293400320
3.0931284 -1.2958893 0.59124714 4293400320
3.0886276 -1.2938894 0.59037924 4293400320
3.0968122 -1.2972039 0.59124291 4293400320
3.0879867 -1.2933929 0.58816862 4293400320
3.1044488 -1.3001734 0.58921528 4293400320
3.0999312 -1.2981669 0.58558375 4293400320
3.1095839 -1.3020943 0.58393764 4293400320
3.1201732 -1.3064133 0.58176064 4293530880
3.1150627 -1.3041584 0.57597148 4293530880
3.1111217 -1.3023937 0.56974238 4293400320
3.1208792 -1.3063632 0.56534678 4293530880
3.1241713 -1.3076259 0.55909675 4293530880
3.1107512 -1.3018939 0.54923266 4293400320
3.1057022 -1.2996663 0.54025638 4293400320
3.1071754 -1.300168 0.53179979 4293400320
3.1044819 -1.2989264 0.52202123 4293400320
3.1225271 -1.3063614 0.51508027 4293530880
3.1290724 -1.3089842 0.50557172 4293530880
3.1120665 -1.3017552 0.49171811 4293400320
2.528836 -1.0571915 0.33088961 4291180800
2.5484362 -1.0652914 0.32124516 4291311360
2.546993 -1.0645941 0.30850235 4291311360
2.515204 -1.0512142 0.29190835 4291180800
2.4649811 -1.0301329 0.27327266 4290919680
2.4644756 -1.0298307 0.26010954 4290919680
2.45683 -1.026545 0.2459497 4290919680
2.4338179 -1.0168401 0.23014967 4290919680
2.3767931 -0.99292761 0.2113301 4290658560
2.3872054 -0.99718934 0.19853725 4290658560
2.3699005 -0.98987329 0.18326329 4290658560
2.3587213 -0.9851169 0.16843028 4290528000
2.3183434 -0.96816754 0.15163738 4290397440
2.3357503 -0.97535074 0.13859589 4290528000
2.3289518 -0.97242594 0.12390392 4290397440
2.3063397 -0.96289939 0.10841831 4290397440
2.26368 -0.94500542 0.092279568 4290266880
2.2642591 -0.94516367 0.078066699 4290266880
2.2483928 -0.93845773 0.063299522 4290136320
2.2259421 -0.92900485 0.048522003 4290005760
2.2000761 -0.91812843 0.033925701 4290005760
2.1907434 -0.91415298 0.019772789 4289875200
2.1764457 -0.90810651 0.0057053538 4289875200
2.1343129 -0.89044815 -0.0080793258 4289744640
2.1479845 -0.89607286 -0.02188378 4289744640
2.1429708 -0.89390224 -0.035529401 4289744640
2.158884 -0.90046048 -0.049552675 4289875200
2.1456909 -0.89487857 -0.062871702 4289744640
2.1818147 -0.90986383 -0.077711955 4289875200
2.2005723 -0.91760498 -0.092195213 4290005760
2.2106884 -0.92174178 -0.10639711 4290005760
2.1964409 -0.91572028 -0.11928573 4290005760
2.2268105 -0.92829961 -0.13456546 4290136320
2.2429914 -0.93496233 -0.14912501 4290136320
2.2460968 -0.93617392 -0.162769 4290136320
2.2469788 -0.93645871 -0.17609771 4290136320
2.2728372 -0.94715172 -0.19134654 4290266880
2.3040247 -0.96006346 -0.20716298 4290397440
2.3189685 -0.96620482 -0.22155359 4290397440
2.2939918 -0.95571369 -0.23183212 4290397440
2.3229995 -0.96771306 -0.24732907 4290397440
2.3476892 -0.97791171 -0.26237977 4290528000
2.3585131 -0.98233342 -0.27577591 4290658560
2.3565004 -0.98140824 -0.28740969 4290528000
2.3336492 -0.97180533 -0.29605874 4290528000
2.3906531 -0.9954555 -0.31466636 4290789120
2.4278734 -1.0108644 -0.33075944 4290919680
2.4367611 -1.014475 -0.34283137 4290919680
2.4399698 -1.0157208 -0.35377061 4290919680
2.4321568 -1.0123789 -0.36269271 4290919680
2.4036384 -1.0004195 -0.3679699 4290789120
2.4198642 -1.0070837 -0.37962648 4290919680
2.4075747 -1.0018803 -0.3863934 4290789120
2.4189813 -1.0065379 -0.39651588 4290919680
2.418499 -1.0062481 -0.40427223 4290919680
2.4050021 -1.000544 -0.40934551 4290789120
2.4696991 -1.0273685 -0.4273994 4291050240
2.5079718 -1.0431972 -0.44067273 4291180800
2.4703286 -1.0274483 -0.44010627 4291050240
2.522362 -1.0489969 -0.45503053 4291311360
2.5735226 -1.0701787 -0.4694894 4291441920
2.5245261 -1.0497109 -0.46514508 4291311360
2.5767207 -1.0713187 -0.47889802 4291441920
2.530123 -1.0518516 -0.47375017 4291311360
2.559716 -1.0640601 -0.48228526 4291441920
2.5548205 -1.061931 -0.4837884 4291441920
2.5763896 -1.0708013 -0.48974794 4291441920
2.5634849 -1.0653434 -0.48859027 4291441920
2.524298 -1.048965 -0.48183358 4291311360
2.5106652 -1.0432074 -0.47937837 4291180800
2.5613663 -1.0641799 -0.4886362 4291441920
2.5097125 -1.0426266 -0.47780702 4291180800
2.5582688 -1.0627044 -0.48548713 4291441920
2.5013204 -1.038956 -0.47259519 4291180800
2.4362493 -1.0118381 -0.45773199 4290919680
2.4907877 -1.0343976 -0.4648059 4291180800
2.4476955 -1.0164118 -0.45311338 4291050240
2.3791609 -0.98786491 -0.43636417 4290789120
2.3878047 -0.99136603 -0.4333629 4290789120
2.4167054 -1.003276 -0.43345624 4290919680
2.4107938 -1.000733 -0.42675516 4290789120
2.4021528 -0.99705756 -0.41911262 4290789120
2.3993785 -0.99581772 -0.41203901 4290789120
2.405458 -0.99825227 -0.40600047 4290789120
2.408685 -0.99950278 -0.39898542 4290789120
2.4248409 -1.0061176 -0.39359015 4290919680
2.4177895 -1.0031027 -0.38394839 4290789120
2.3806322 -0.98759913 -0.36924952 4290658560
2.3412097 -0.9711585 -0.3540687 4290528000
2.3353391 -0.96863741 -0.34373638 4290528000
2.3430784 -0.97176111 -0.3350091 4290528000
2.3425691 -0.97146374 -0.32469377 4290528000
2.3327308 -0.96729791 -0.31276646 4290528000
2.2825031 -0.94638622 -0.29535222 4290266880
2.2884433 -0.94876498 -0.28508162 4290397440
2.3034551 -0.95490384 -0.27551967 4290397440
2.3000507 -0.95340794 -0.26339108 4290397440
2.2738609 -0.94246811 -0.24851486 4290266880
2.226248 -0.92265165 -0.23141344 4290136320
2.2546995 -0.93436009 -0.22206235 4290136320
2.2382579 -0.92746419 -0.20798147 4290136320
2.2210579 -0.9202553 -0.19379075 4290005760
2.1908829 -0.90767217 -0.17852712 4290005760
2.2082002 -0.91476542 -0.16701092 4290005760
2.195209 -0.90930289 -0.15299603 4290005760
2.1715539 -0.89942449 -0.13829082 4289875200
2.1431 -0.88756049 -0.12344515 4289744640
2.1560173 -0.89283079 -0.11094241 4289744640
2.1529036 -0.89146209 -0.097434722 4289744640
2.1695402 -0.89827108 -0.084631041 4289875200
2.1575511 -0.89322776 -0.07059098 4289744640
2.1881254 -0.90580493 -0.057749599 4289875200
2.2021122 -0.91151404 -0.044126168 4290005760
2.2172947 -0.9177168 -0.030293774 4290005760
2.2460496 -0.92953557 -0.016333971 4290136320
2.2658613 -0.9376514 -0.0019813934 4290136320
2.286473 -0.94609672 0.012630884 4290266880
2.2664266 -0.93771845 0.027008299 4290136320
2.3324201 -0.96493703 0.042674389 4290397440
2.3560169 -0.97461247 0.058089431 4290528000
2.3590126 -0.97576499 0.073102489 4290528000
2.3142545 -0.95716637 0.086293384 4290397440
2.3950226 -0.99048364 0.10429475 4290658560
2.4119074 -0.99737775 0.12001128 4290789120
2.3952675 -0.99040872 0.13393162 4290658560
2.1786942 -0.90077859 0.13510409 4289875200
2.4755101 -1.0234057 0.16843441 4290919680
2.4937074 -1.0308369 0.18452132 4291050240
2.4635026 -1.0182605 0.19675581 4290919680
2.2502015 -0.93001205 0.19273947 4290136320
2.5617197 -1.0586689 0.23400348 4291311360
2.5691135 -1.06163 0.24904373 4291311360
2.5610161 -1.0581896 0.26230446 4291311360
2.5433471 -1.0507956 0.27415541 4291311360
2.6422751 -1.0915709 0.29869533 4291572480
3.031354 -1.2521948 0.35821715 4293008640
3.0787144 -1.2716452 0.37918943 4293269760
3.0835013 -1.273509 0.39475414 4293269760
3.0438371 -1.2570155 0.40402201 4293139200
2.9413652 -1.2145896 0.40384448 4292747520
3.1358581 -1.2947869 0.44437441 4293400320
3.1415117 -1.2970058 0.45852381 4293530880
3.1287718 -1.2916309 0.46944094 4293400320
3.1140835 -1.2854527 0.47942287 4293400320
3.0928822 -1.2765874 0.48771915 4293269760
3.023937 -1.248019 0.48760504 4293139200
3.1205344 -1.2877713 0.51370656 4293400320
3.128588 -1.2909799 0.52499372 4293530880
3.1253622 -1.2895339 0.53380007 4293400320
3.1233044 -1.2885699 0.54217488 4293400320
3.1125801 -1.284031 0.5483852 4293400320
3.116096 -1.2853669 0.55645007 4293400320
3.1119218 -1.2835307 0.56249541 4293400320
3.1030881 -1.2797731 0.56701839 4293400320
3.1022947 -1.2793318 0.57233167 4293400320
3.0853374 -1.2722255 0.57396835 4293400320
3.1066041 -1.2808806 0.58204812 4293400320
3.1061063 -1.2805612 0.58539778 4293400320
3.1102667 -1.2821621 0.58894402 4293400320
3.1008737 -1.278176 0.58923215 4293400320
3.0961428 -1.2761121 0.58970803 4293400320
3.0960736 -1.2759697 0.590379 4293400320
3.0924714 -1.2743716 0.58968478 4293400320
3.1125128 -1.282516 0.59280372 4293400320
3.100023 -1.2772557 0.58903378 4293400320
3.1083281 -1.2805634 0.58852553 4293400320
3.1165509 -1.2838364 0.5873003 4293400320
3.1171172 -1.2839551 0.58393764 4293400320
3.1231754 -1.2863357 0.58091313 4293530880
3.1089356 -1.2803566 0.57344955 4293400320
3.1140981 -1.2823683 0.56890953 4293400320
3.1193171 -1.2844027 0.56369859 4293400320
3.1271751 -1.2875235 0.55828238 4293530880
3.1182833 -1.283748 0.54923266 4293400320
3.1086564 -1.2796705 0.53946418 4293400320
3.106477 -1.2786592 0.53039622 4293400320
3.1119969 -1.280817 0.52202123 4293400320
3.1300855 -1.2881467 0.51508027 4293530880
3.1183527 -1.2832037 0.5026232 4293400320
3.1232584 -1.2851077 0.49229509 4293400320
2.5399714 -1.0444051 0.3315402 4291311360
2.5600746 -1.0525773 0.32192996 4291311360
2.5393996 -1.0439835 0.30683774 4291180800
2.5075257 -1.0307875 0.29031333 4291180800
2.4663742 -1.0137805 0.27276662 4290919680
2.4658644 -1.0134804 0.25962847 4290919680
2.4581974 -1.010239 0.24549413 4290919680
2.4222262 -0.99536705 0.22850318 4290789120
2.3825698 -0.97898358 0.2113359 4290658560
2.3883955 -0.98128957 0.19816132 4290658560
2.3839633 -0.97938102 0.18391135 4290658560
2.3681445 -0.97279543 0.1687016 4290528000
2.315666 -0.95115304 0.15110414 4290397440
2.3443832 -0.96286249 0.138781 4290528000
2.3278179 -0.95597351 0.12355427 4290397440
2.3073208 -0.94747114 0.10821317 4290397440
2.2599339 -0.92792934 0.091915816 4290136320
2.2697582 -0.93187988 0.078079775 4290266880
2.2538528 -0.92526698 0.06331335 4290136320
2.2350466 -0.91746449 0.04861699 4290136320
2.1970928 -0.90180415 0.033812732 4289875200
2.1877365 -0.89788353 0.01971364 4289875200
2.1771038 -0.89343971 0.0057097627 4289875200
2.1394939 -0.87792689 -0.0080623711 4289744640
2.1436753 -0.87956405 -0.021769289 4289744640
2.15816 -0.88542795 -0.03567607 4289744640
2.1692121 -0.88988274 -0.049649902 4289875200
2.1684701 -0.88949877 -0.063365415 4289875200
2.2063401 -0.90495187 -0.078374356 4290005760
2.2084191 -0.90572357 -0.092278481 4290005760
2.2278275 -0.91360158 -0.10694017 4290005760
2.2202513 -0.91041327 -0.12026428 4290005760
2.2497654 -0.9224329 -0.13560008 4290136320
2.2659798 -0.92899787 -0.15026467 4290266880
2.2690861 -0.93018818 -0.16401252 4290266880
2.2791924 -0.93424749 -0.17816506 4290266880
2.3001113 -0.94273782 -0.19314861 4290397440
2.3271334 -0.95372778 -0.20870839 4290397440
2.3384185 -0.95826697 -0.2228449 4290528000
2.3295043 -0.95452857 -0.23482503 4290397440
2.3461294 -0.96125478 -0.24916074 4290528000
2.3616657 -0.96753359 -0.26327643 4290528000
2.3771117 -0.97377431 -0.27725124 4290658560
2.3704894 -0.97097456 -0.28838971 4290658560
2.3439016 -0.95999801 -0.2966139 4290528000
2.4130554 -0.98823297 -0.31682003 4290789120
2.4245763 -0.99286222 -0.32948479 4290789120
2.4464092 -1.001713 -0.34333003 4290919680
2.4453695 -1.0011976 -0.35367021 4290919680
2.4551079 -1.0050948 -0.36520451 4290919680
2.4276967 -0.99378383 -0.3707298 4290919680
2.4303064 -0.99476302 -0.380319 4290919680
2.4433589 -1.000016 -0.39116523 4290919680
2.4527235 -1.0037587 -0.40105253 4290919680
2.4987922 -1.0225203 -0.41666234 4291180800
2.5019801 -1.023733 -0.42480153 4291180800
2.566797 -1.0501601 -0.4431091 4291441920
2.5359707 -1.037455 -0.44449675 4291311360
2.5917139 -1.0601642 -0.46059829 4291441920
2.6520524 -1.084749 -0.47725365 4291703040
2.6189988 -1.0711333 -0.47661611 4291572480
2.6493313 -1.0834417 -0.48694754 4291703040
2.6833787 -1.0972669 -0.49750403 4291833600
2.6389832 -1.0790163 -0.49292982 4291703040
2.6476552 -1.0824651 -0.49764091 4291703040
2.6646194 -1.089303 -0.50335509 4291833600
2.6771119 -1.0943117 -0.50766087 4291833600
2.6769321 -1.0941401 -0.50897837 4291833600
2.664083 -1.0887907 -0.50728738 4291833600
2.633096 -1.0760299 -0.50154293 4291703040
2.7034678 -1.1046888 -0.51450425 4291964160
2.6471398 -1.0815749 -0.50276065 4291703040
2.6969957 -1.1018463 -0.5105871 4291833600
2.6490476 -1.0821601 -0.49930963 4291703040
2.6020856 -1.0628804 -0.48772347 4291572480
2.6233387 -1.0714655 -0.48837587 4291572480
2.5801723 -1.0537403 -0.4765029 4291441920
2.5638795 -1.0469923 -0.46912956 4291441920
2.5034819 -1.0222363 -0.45328352 4291180800
2.4663804 -1.0069965 -0.4413234 4291050240
2.4421957 -0.99703264 -0.43129796 4290919680
2.4253163 -0.99005276 -0.42216259 4290919680
2.4179697 -0.98696512 -0.4142617 4290789120
2.4194946 -0.98749882 -0.40741882 4290789120
2.4227324 -0.9887315 -0.40038109 4290789120
2.4352677 -0.99375802 -0.39436871 4290919680
2.431865 -0.99228036 -0.3852942 4290919680
2.4083698 -0.98260528 -0.37269494 4290789120
2.3642774 -0.96452916 -0.35674074 4290658560
2.3538139 -0.96017414 -0.34566811 4290528000
2.3670855 -0.96550125 -0.33767608 4290658560
2.3656659 -0.96483552 -0.32715738 4290658560
2.3568454 -0.96115172 -0.31529284 4290528000
2.306392 -0.94049162 -0.29777998 4290397440
2.2980983 -0.93702555 -0.28565237 4290397440
2.3218904 -0.94664139 -0.27711618 4290397440
2.3184841 -0.94516766 -0.26492494 4290397440
2.2968438 -0.93626153 -0.25048614 4290397440
2.2459533 -0.91543478 -0.2329641 4290136320
2.2609723 -0.92147356 -0.22221091 4290136320
2.2565658 -0.919595 -0.20924656 4290136320
2.2310221 -0.90910375 -0.19426133 4290136320
2.2053936 -0.89857978 -0.17934771 4290005760
2.2230346 -0.90568608 -0.16780122 4290005760
2.2109394 -0.90067744 -0.15379581 4290005760
2.1943483 -0.89383835 -0.13948147 4289875200
2.1575084 -0.87875301 -0.12405156 4289744640
2.1674962 -0.88274163 -0.11134201 4289875200
2.1634512 -0.881015 -0.097754993 4289875200
2.170136 -0.88365775 -0.084530629 4289875200
2.1627457 -0.88056928 -0.07067164 4289744640
2.1933935 -0.89296728 -0.057832584 4289875200
2.215368 -0.90183246 -0.044370096 4290005760
2.209667 -0.89943069 -0.030202778 4290005760
2.2551618 -0.91786653 -0.016449278 4290136320
2.2750216 -0.92586619 -0.0020746817 4290266880
2.3007221 -0.93624133 0.012587245 4290266880
2.275588 -0.92593008 0.02696088 4290266880
2.3380356 -0.95125419 0.042579871 4290397440
2.3663194 -0.96267515 0.05810722 4290528000
2.3683958 -0.96343321 0.073120482 4290528000
2.3161232 -0.94208455 0.086061068 4290397440
2.3961611 -0.97455227 0.10399579 4290658560
2.4259279 -0.98657 0.1203199 4290789120
2.4056599 -0.97823948 0.13409157 4290658560
2.1839397 -0.887999 0.13501532 4289875200
2.4860928 -1.0107647 0.16864759 4291050240
2.49509 -1.0143313 0.18407983 4291050240
2.4657381 -1.0023086 0.19636288 4290919680
2.2556188 -0.91681367 0.19265017 4290136320
2.5641944 -1.0421427 0.23356651 4291311360
2.5799119 -1.0484363 0.24938998 4291311360
2.5800936 -1.0484157 0.26352519 4291311360
2.6687417 -1.08434 0.28688079 4291703040
2.7241938 -1.1067711 0.30711547 4291833600
3.0874631 -1.2542452 0.36385936 4293269760
3.1215103 -1.2679622 0.38342619 4293400320
3.1038034 -1.2606561 0.39629126 4293269760
3.0874593 -1.2539047 0.40872356 4293269760
2.9438474 -1.1954721 0.40311775 4292747520
3.1388099 -1.2745298 0.44362438 4293400320
3.148556 -1.278372 0.45835119 4293530880
3.1362984 -1.2732805 0.46934688 4293400320
3.1215742 -1.2671884 0.47933275 4293400320
3.1049054 -1.2603083 0.48835436 4293400320
3.0266266 -1.2284235 0.4867878 4293008640
3.1363537 -1.2728438 0.51499331 4293530880
3.1361096 -1.2726301 0.52491891 4293530880
3.1374514 -1.2730597 0.53450924 4293530880
3.127151 -1.2687659 0.54147524 4293400320
3.1254547 -1.2679633 0.54927218 4293400320
3.1235826 -1.2670895 0.5563935 4293400320
3.1193972 -1.2652775 0.56244379 4293400320
3.0977488 -1.2563833 0.5646401 4293400320
3.1097443 -1.2611346 0.57229024 4293400320
3.1018777 -1.257831 0.57562715 4293400320
3.1012774 -1.2574741 0.57962781 4293400320
3.1089957 -1.2604899 0.58451396 4293400320
3.1131649 -1.2620664 0.58806175 4293400320
3.1083124 -1.2599854 0.58921778 4293400320
3.1081321 -1.2597986 0.59056646 4293400320
3.1034975 -1.2578067 0.59037608 4293400320
3.0907581 -1.2525305 0.58795142 4293400320
3.111758 -1.2609268 0.59125173 4293400320
3.094672 -1.2538902 0.58662605 4293400320
3.1157749 -1.2623267 0.58854645 4293400320
3.1240158 -1.2655511 0.58732736 4293400320
3.1245818 -1.2656661 0.5839709 4293400320
3.1215181 -1.2643111 0.57925755 4293400320
3.1209457 -1.263965 0.57433575 4293400320
3.1215506 -1.2640959 0.56896138 4293400320
3.1308932 -1.2677647 0.56449825 4293530880
3.1300831 -1.2673223 0.55753243 4293400320
3.1303155 -1.2673019 0.55010712 4293400320
3.125242 -1.2651336 0.54112548 4293400320
3.1139038 -1.26043 0.53047895 4293400320
3.1194358 -1.262555 0.52211028 4293400320
3.1329839 -1.267924 0.51442361 4293400320
3.1395566 -1.2704692 0.50493652 4293530880
3.1444798 -1.2723464 0.49456683 4293530880
2.5820782 -1.0443745 0.33624569 4291441920
2.556886 -1.0340915 0.32077339 4291311360
2.5453703 -1.0293411 0.30683506 4291180800
2.5180299 -1.0181926 0.29084158 4291180800
2.4721723 -0.99955928 0.27276111 4290919680
2.4633565 -0.9959048 0.2587491 4290919680
2.4639757 -0.99606502 0.2454855 4290919680
2.44085 -0.98662734 0.22970995 4290789120
2.3922727 -0.96690416 0.21168737 4290658560
2.3986306 -0.96938622 0.19853057 4290658560
2.3895652 -0.96563524 0.18389635 4290658560
2.373709 -0.9591409 0.16868496 4290528000
2.3257341 -0.93967074 0.15138738 4290397440
2.3406327 -0.94560474 0.13821435 4290397440
2.3379166 -0.94442195 0.12377786 4290397440
2.3173721 -0.93603814 0.10840673 4290397440
2.2782135 -0.92013788 0.092417695 4290266880
2.2704544 -0.91692114 0.077894643 4290136320
2.2637799 -0.91414291 0.063415527 4290136320
2.2495649 -0.90832055 0.04878898 4290136320
2.2068865 -0.89100736 0.033853658 4290005760
2.1965806 -0.88676625 0.019715298 4289875200
2.1961226 -0.88650113 0.0057129343 4289875200
2.1427717 -0.86488688 -0.0080897035 4289744640
2.1562145 -0.87023395 -0.021880902 4289744640
2.1771314 -0.87859637 -0.035942733 4289875200
2.1919162 -0.8844828 -0.050091051 4289875200
2.1823642 -0.88054866 -0.063662224 4289875200
2.2219889 -0.89645541 -0.078787588 4290005760
2.2404714 -0.90383023 -0.093442351 4290136320
2.25158 -0.90822935 -0.10787247 4290136320
2.2384231 -0.9028405 -0.12101075 4290136320
2.2693081 -0.9152146 -0.13650547 4290136320
2.2796209 -0.91929054 -0.15086427 4290266880
2.2966118 -0.92605847 -0.16566366 4290266880
2.2845318 -0.92110407 -0.17821512 4290266880
2.3230679 -0.93655664 -0.194672 4290397440
2.3418264 -0.94403374 -0.20958786 4290528000
2.3619654 -0.95206583 -0.2246163 4290528000
2.3271024 -0.93792826 -0.23408777 4290397440
2.3617723 -0.95181555 -0.25028998 4290528000
2.3818755 -0.95983028 -0.26496357 4290658560
2.4056573 -0.9693259 -0.27998021 4290789120
2.3981578 -0.9662165 -0.29112902 4290658560
2.36689 -0.95353228 -0.29887709 4290528000
2.4408 -0.98321873 -0.31976917 4290919680
2.4523358 -0.98777616 -0.33253348 4290919680
2.469609 -0.99464339 -0.34583074 4290919680
2.4731543 -0.99598104 -0.35690689 4291050240
2.4700389 -0.99463618 -0.36661994 4291050240
2.4780176 -0.99775857 -0.37758204 4291050240
2.5157533 -1.0128608 -0.39282221 4291180800
2.5723925 -1.0355703 -0.41091156 4291441920
2.6355302 -1.0608914 -0.42998764 4291572480
2.6875751 -1.0817431 -0.44714379 4291833600
2.7329922 -1.0999237 -0.46298859 4291964160
2.7851877 -1.1208287 -0.47973388 4292225280
2.8359187 -1.1411406 -0.49595475 4292355840
2.8391645 -1.142343 -0.50343901 4292355840
2.8867545 -1.1613857 -0.51831663 4292616960
2.8514204 -1.147066 -0.51773775 4292486400
2.872618 -1.1554885 -0.526788 4292486400
2.9021218 -1.1672503 -0.53683317 4292616960
2.8253241 -1.1362587 -0.52652937 4292355840
2.8294156 -1.1378009 -0.53058392 4292355840
2.8463955 -1.1445253 -0.53645575 4292486400
2.8506749 -1.1461419 -0.53932536 4292486400
2.8413453 -1.1422873 -0.5389874 4292355840
2.837599 -1.1406776 -0.53907144 4292355840
2.9265733 -1.1763372 -0.55614269 4292747520
2.9047549 -1.1674613 -0.55151689 4292616960
2.8784668 -1.1567907 -0.54541034 4292486400
2.8440487 -1.142855 -0.53715593 4292355840
2.8871408 -1.1600659 -0.5428974 4292616960
2.8355391 -1.1392287 -0.53021622 4292355840
2.8447106 -1.1428096 -0.52832204 4292355840
2.810931 -1.1291368 -0.51787293 4292225280
2.7446513 -1.1024125 -0.50099534 4292094720
2.7221382 -1.0932705 -0.49167937 4291964160
2.649709 -1.0640848 -0.47297278 4291703040
2.5935173 -1.0414243 -0.45690051 4291441920
2.5285492 -1.0152441 -0.43904856 4291180800
2.4836731 -0.99713522 -0.4244653 4291050240
2.4609118 -0.98790735 -0.41336146 4290919680
2.4595864 -0.98728561 -0.4054535 4290919680
2.4583988 -0.98671925 -0.39711103 4290919680
2.4641788 -0.98894924 -0.38942304 4290919680
2.4231868 -0.97240955 -0.3740294 4290789120
2.3835917 -0.95643336 -0.35872886 4290658560
2.3767891 -0.95361704 -0.3481361 4290658560
2.3773334 -0.9537487 -0.33825025 4290658560
2.3766391 -0.95338345 -0.32780683 4290658560
2.3798547 -0.95458663 -0.31752202 4290658560
2.3375862 -0.93754703 -0.30099449 4290528000
2.3348188 -0.93635195 -0.28942633 4290528000
2.3365412 -0.93695748 -0.27809629 4290528000
2.3377464 -0.93735546 -0.26638043 4290528000
2.3206794 -0.93042755 -0.25236931 4290397440
2.2687545 -0.90952665 -0.23465304 4290266880
2.2727203 -0.91103369 -0.22271302 4290266880
2.2719278 -0.91063321 -0.21004425 4290266880
2.2538106 -0.9032892 -0.19564965 4290136320
2.2279258 -0.89283377 -0.1806172 4290005760
2.2341592 -0.89525038 -0.16810335 4290005760
2.2257428 -0.89179665 -0.15431726 4290005760
2.2075665 -0.88443339 -0.1398451 4290005760
2.1544607 -0.86307871 -0.12343862 4289744640
2.1855326 -0.87544638 -0.11185272 4289875200
2.1793582 -0.87289375 -0.098087706 4289875200
2.1796863 -0.87294573 -0.084545493 4289875200
2.1677859 -0.86810064 -0.070510313 4289744640
2.2124248 -0.88589585 -0.058031745 4290005760
2.2288821 -0.89240438 -0.044366512 4290005760
2.2408047 -0.89709634 -0.030383753 4290005760
2.2566984 -0.90337706 -0.016245676 4290136320
2.2803164 -0.9127484 -0.0018945591 4290266880
2.3060751 -0.92297488 0.012770907 4290266880
2.2808809 -0.91280818 0.027143814 4290266880
2.3388309 -0.93591446 0.042684205 4290397440
2.3671794 -0.94717222 0.058185346 4290528000
2.3785405 -0.95163143 0.073456801 4290528000
2.3252161 -0.93021214 0.086388104 4290397440
2.4110038 -0.96444398 0.10459408 4290658560
2.4269235 -0.97072369 0.12028822 4290789120
2.4205172 -0.96807307 0.13480414 4290789120
2.1797385 -0.87169546 0.13462035 4289875200
2.4918611 -0.99642509 0.16884878 4291050240
2.4962461 -0.99808753 0.18393928 4291050240
2.4714563 -0.98808563 0.19655983 4290919680
2.2654767 -0.90565264 0.19322352 4290136320
2.5701382 -1.0273513 0.23376748 4291311360
2.5860934 -1.0336348 0.24960938 4291311360
2.6312623 -1.0515925 0.26833084 4291572480
2.7858064 -1.113255 0.29898202 4292094720
2.7923832 -1.1157814 0.3142817 4292094720
3.1250761 -1.2486051 0.36766773 4293400320
3.1379642 -1.2536402 0.38477975 4293400320
3.1155996 -1.244592 0.39709494 4293269760
3.0863101 -1.2327791 0.40783691 4293269760
3.0250053 -1.2081817 0.41347405 4293008640
3.1460738 -1.2564216 0.44382572 4293400320
3.142957 -1.2550623 0.45667458 4293400320
3.1435554 -1.2551869 0.46953499 4293400320
3.1241994 -1.2473444 0.47880837 4293400320
3.1074941 -1.2405616 0.48780498 4293269760
3.042815 -1.2146298 0.48842248 4293139200
3.139019 -1.2529182 0.51439899 4293400320
3.1387765 -1.2527071 0.52430201 4293400320
3.1401236 -1.2531303 0.53387052 4293400320
3.1343868 -1.2507268 0.54160702 4293400320
3.141854 -1.2535921 0.55100244 4293530880
3.1225634 -1.2457815 0.55504054 4293400320
3.1174555 -1.2436301 0.56089872 4293400320
3.1293874 -1.2482761 0.56918323 4293400320
3.1169429 -1.2431985 0.57237309 4293400320
3.1090591 -1.2399409 0.57569939 4293400320
3.1121192 -1.241048 0.58037221 4293400320
3.1116199 -1.2407357 0.58370668 4293400320
3.1203754 -1.2441132 0.5881018 4293400320
3.1200871 -1.2438847 0.59011173 4293400320
3.1153331 -1.241876 0.5905838 4293400320
3.1106892 -1.2399114 0.59038186 4293400320
3.1024954 -1.2365326 0.58881372 4293400320
3.1189713 -1.2429856 0.59123403 4293400320
3.1100814 -1.2393296 0.58815378 4293400320
3.1184249 -1.2425408 0.58764243 4293400320
3.1266854 -1.2457184 0.58641493 4293400320
3.1354914 -1.2491127 0.58458704 4293530880
3.1287606 -1.2463174 0.57917875 4293400320
3.137346 -1.2496231 0.57592571 4293530880
3.1416202 -1.2512112 0.5711894 4293530880
3.1427424 -1.2515438 0.56520575 4293530880
3.1419332 -1.2511071 0.5582177 4293530880
3.1329989 -1.2474355 0.54916197 4293400320
3.1279128 -1.2452965 0.54017961 4293400320
3.1165471 -1.2406582 0.52953374 4293400320
3.118418 -1.2412895 0.52055281 4293400320
3.1448541 -1.2516979 0.51498449 4293530880
3.1410592 -1.2500732 0.50380385 4293400320
3.1425905 -1.2505683 0.49290839 4293400320
2.6367691 -1.0484551 0.34255704 4291572480
2.5759306 -1.0241703 0.32240108 4291311360
2.5652452 -1.0198286 0.30850372 4291311360
2.515671 -1.0000285 0.28988743 4291050240
2.47802 -0.98497134 0.27276662 4290919680
2.4645581 -0.97953081 0.25827149 4290919680
2.4744294 -0.98336411 0.24595402 4290919680
2.4382896 -0.96891308 0.2289378 4290789120
2.3942239 -0.95131546 0.21137191 4290658560
2.3959618 -0.95191878 0.19785525 4290658560
2.3952141 -0.95153457 0.18391135 4290658560
2.3793197 -0.94513375 0.1687016 4290528000
2.3312309 -0.92594671 0.15140539 4290397440
2.3461642 -0.9317928 0.13823423 4290397440
2.3387997 -0.92878288 0.12355427 4290397440
2.314606 -0.91909087 0.10804517 4290397440
2.279881 -0.90521932 0.092291787 4290266880
2.280463 -0.90536743 0.078079775 4290266880
2.2691276 -0.90078461 0.063443236 4290136320
2.239768 -0.88904822 0.048491035 4290005760
2.2074523 -0.87614053 0.033812732 4289875200
2.2017686 -0.87380469 0.019746983 4289875200
2.1933255 -0.87037414 0.0057253167 4289875200
2.1617019 -0.85774636 -0.0081078401 4289744640
2.1873314 -0.86783642 -0.022108417 4289875200
2.2011406 -0.87323529 -0.036215894 4289875200
2.2098987 -0.87662941 -0.050343905 4290005760
2.2014551 -0.87319994 -0.06402757 4289875200
2.2309513 -0.88481843 -0.078876965 4290005760
2.2642577 -0.89794576 -0.094168045 4290136320
2.2778573 -0.90325618 -0.10882904 4290136320
2.2613478 -0.89662731 -0.12191608 4290136320
2.2923002 -0.90881664 -0.1375161 4290266880
2.3083141 -0.91508168 -0.15235449 4290266880
2.3048036 -0.91360629 -0.1658134 4290266880
2.3168137 -0.91828269 -0.18025717 4290397440
2.3474689 -0.93034774 -0.19620164 4290528000
2.3621743 -0.93608993 -0.21085836 4290528000
2.3747072 -0.94097018 -0.22524282 4290528000
2.3548107 -0.93300068 -0.23626395 4290528000
2.3812246 -0.94337964 -0.25170323 4290658560
2.4106131 -0.95493495 -0.26747429 4290658560
2.4242749 -0.96025884 -0.28142777 4290789120
2.42875 -0.96194315 -0.29409385 4290789120
2.3781576 -0.94181883 -0.29953963 4290658560
2.4612539 -0.97463787 -0.32163513 4290919680
2.4848738 -0.9839009 -0.3360979 4291050240
2.5021737 -0.99065995 -0.34951207 4291050240
2.5149293 -0.99561876 -0.36202788 4291180800
2.5375793 -1.0044934 -0.37570557 4291180800
2.6180692 -1.0362599 -0.39793015 4291572480
2.7069597 -1.0713453 -0.42163008 4291833600
2.8022768 -1.1089675 -0.44652629 4292225280
