# .PCD v0.7 - Point Cloud Data file format
VERSION 0.7
FIELDS x y z rgba
SIZE 4 4 4 4
TYPE F F F U
COUNT 1 1 1 1
WIDTH 1129
HEIGHT 1
VIEWPOINT 0 0 0 1 0 0 0
POINTS 1129
DATA ascii
3.2707291 1.2262828 -0.58959955 4292616960
3.2735605 1.2274541 -0.58323228 4292616960
3.2675402 1.2253084 -0.57462347 4292486400
3.2716887 1.226972 -0.56714469 4292486400
3.2646341 1.224437 -0.55708128 4292486400
3.2516413 1.2196754 -0.54542291 4292355840
3.2372229 1.2143781 -0.53298408 4292225280
3.2544971 1.2209588 -0.52514261 4292355840
3.2811439 1.2310536 -0.51806694 4292616960
3.2929559 1.2355878 -0.50792587 4292616960
3.2843208 1.2324561 -0.49404633 4292616960
3.252358 1.220576 -0.47626093 4292225280
3.2419357 1.2167711 -0.46126467 4292094720
3.2716603 1.2280213 -0.45137805 4292355840
3.2743175 1.229121 -0.43711236 4292355840
3.2620053 1.2246054 -0.42040598 4292225280
3.2448602 1.2182757 -0.40274796 4292094720
3.2636027 1.2254078 -0.38908809 4292225280
3.2756026 1.230011 -0.37404254 4292355840
3.2825685 1.2327257 -0.35791418 4292355840
3.2316942 1.2137361 -0.33531821 4291964160
3.248739 1.2202314 -0.31958008 4292094720
3.2677646 1.227471 -0.30349204 4292225280
3.2661421 1.2269614 -0.28506067 4292225280
3.2326813 1.2145001 -0.26374039 4291833600
3.2492235 1.2208078 -0.24631086 4291964160
3.2645481 1.2266591 -0.22833847 4292094720
3.2678511 1.2279973 -0.20917049 4292225280
3.2853851 1.2346792 -0.19056539 4292355840
3.2542186 1.223074 -0.16901447 4291964160
3.2737944 1.2305228 -0.14999071 4292225280
3.273958 1.2306819 -0.12979749 4292225280
3.2421279 1.2188238 -0.10839467 4291833600
3.2677855 1.2285583 -0.088840768 4292094720
3.2869053 1.2358382 -0.068736717 4292355840
3.293045 1.2382425 -0.048131827 4292355840
3.2700586 1.2297037 -0.02715807 4292094720
3.2974002 1.2400746 -0.0065522376 4292355840
3.3086383 1.2443956 0.014333291 4292486400
3.3034196 1.2425326 0.03516715 4292486400
3.3093982 1.2448778 0.056082249 4292486400
3.3206089 1.24919 0.077129155 4292616960
3.3385546 1.2560347 0.098427303 4292747520
3.3115308 1.245975 0.11823674 4292486400
3.3108904 1.2458329 0.13868219 4292486400
3.3287623 1.2526517 0.15985301 4292747520
3.3345306 1.2549202 0.18041089 4292747520
3.2825792 1.2354836 0.19737326 4292355840
3.3387527 1.2567084 0.22063012 4292878080
3.3397341 1.2571781 0.24034049 4292878080
3.3434055 1.2586598 0.26000473 4292878080
3.2916553 1.2392939 0.2748014 4292486400
3.3464916 1.2600237 0.29819274 4293008640
3.3611596 1.2656443 0.31806627 4293139200
3.364079 1.2668456 0.33657146 4293139200
3.3370497 1.2567778 0.3515799 4292878080
3.2293582 1.2163531 0.35700345 4291964160
3.3428414 1.2591635 0.38646764 4293008640
3.3601134 1.2657683 0.40504497 4293139200
3.3427384 1.2593327 0.41899517 4293008640
3.2995307 1.2431718 0.42895254 4292616960
3.2256575 1.2154634 0.433907 4291964160
3.3558838 1.2645978 0.466032 4293269760
3.3620663 1.2670324 0.48100904 4293269760
3.3544543 1.2642733 0.49346057 4293269760
3.3421688 1.2597541 0.50458241 4293139200
3.3116112 1.2483525 0.51220888 4292878080
3.2921345 1.2411236 0.52077752 4292747520
3.3362186 1.2578378 0.53887039 4293139200
3.3391404 1.2590481 0.54985386 4293139200
3.3449798 1.2613584 0.56070721 4293269760
3.334439 1.2574974 0.56815451 4293139200
3.3325918 1.2569127 0.57638752 4293139200
3.3259537 1.2545229 0.58310074 4293139200
3.3216019 1.252995 0.58950883 4293008640
3.3251956 1.2544624 0.59663439 4293139200
3.320842 1.2529349 0.60163599 4293008640
3.308172 1.2482724 0.6043998 4293008640
3.3111465 1.2495084 0.60929465 4293008640
3.3068516 1.2480041 0.61213607 4293008640
3.3146522 1.2510618 0.61649686 4293008640
3.3188767 1.2527719 0.61947703 4293008640
3.3186066 1.2527877 0.62089211 4293008640
3.3184521 1.2528478 0.62159705 4293008640
3.3055112 1.2480848 0.61917633 4293008640
3.3009803 1.2464948 0.61760104 4292878080
3.308404 1.2494159 0.61753064 4293008640
3.3213546 1.254424 0.6177519 4293139200
3.3171663 1.2529655 0.61405581 4293008640
3.3301516 1.2579892 0.61280328 4293139200
3.3408306 1.2621441 0.61037815 4293269760
3.3319919 1.2589324 0.60367268 4293139200
3.3466117 1.2645775 0.60049397 4293269760
3.336607 1.2609264 0.59219104 4293139200
3.3378503 1.2615227 0.58520705 4293139200
3.334362 1.2603329 0.57671642 4293139200
3.3312678 1.2592922 0.5676378 4293139200
3.3171296 1.2540803 0.5560655 4293008640
3.3281219 1.2583617 0.54806334 4293008640
3.3442667 1.2645913 0.54019064 4293139200
3.3332162 1.2605469 0.52729028 4293139200
3.3365927 1.2619541 0.516087 4293139200
3.2955639 1.2475756 0.42166683 4292616960
3.3351452 1.2626822 0.41097358 4293008640
3.3432066 1.2658677 0.39570946 4293008640
3.3237238 1.2586325 0.37680018 4292878080
3.2927105 1.2470331 0.35641724 4292486400
3.3192239 1.2572023 0.34187442 4292747520
3.3318093 1.2621024 0.32530904 4292878080
3.3121145 1.2547851 0.30527171 4292616960
3.2761819 1.2413192 0.28370637 4292355840
3.3071725 1.2531884 0.26763764 4292616960
3.3148565 1.2562356 0.24916713 4292616960
3.3145354 1.2562521 0.22977601 4292616960
3.2851579 1.2452642 0.20829341 4292355840
3.3055987 1.253144 0.18978468 4292486400
3.3089712 1.2545601 0.16994348 4292616960
3.325177 1.2608386 0.1504515 4292747520
3.2716827 1.2407091 0.12787403 4292225280
3.2893555 1.2475436 0.10814898 4292355840
3.2888582 1.2474935 0.087599546 4292355840
3.2855904 1.2463934 0.066900551 4292355840
3.2599118 1.2367978 0.045851789 4292094720
3.277544 1.2436198 0.025405183 4292225280
3.2914295 1.2490227 0.0046983995 4292355840
3.2332983 1.2271183 -0.015836891 4291833600
3.2694521 1.2409656 -0.036688421 4292225280
3.2713435 1.2418208 -0.057359334 4292225280
3.2755032 1.2435365 -0.078051329 4292225280
3.2521269 1.2348062 -0.097886138 4291964160
3.2884946 1.2487413 -0.11950158 4292355840
3.2961044 1.2517672 -0.14022045 4292486400
3.2955503 1.2516953 -0.16048862 4292486400
3.2516775 1.2351823 -0.1782054 4292094720
3.2811606 1.2465097 -0.19966702 4292355840
3.284971 1.2480935 -0.21955441 4292355840
3.2914932 1.2507069 -0.23945025 4292486400
3.2600629 1.2389101 -0.25618294 4292225280
3.2921848 1.2512438 -0.27763736 4292486400
3.295114 1.252493 -0.29653102 4292486400
3.2948246 1.2525196 -0.31482911 4292486400
3.2594926 1.2392342 -0.32924202 4292225280
3.2705333 1.2435631 -0.34784734 4292355840
3.2887275 1.2506105 -0.36698762 4292486400
3.2934053 1.2525228 -0.38433599 4292616960
3.2759852 1.2460372 -0.39861977 4292486400
3.2310927 1.2291082 -0.40881634 4291964160
3.3065181 1.2579097 -0.43392116 4292747520
3.2985768 1.2550246 -0.44792202 4292747520
3.3055706 1.2578166 -0.46344626 4292747520
3.2999825 1.2558244 -0.47669536 4292747520
3.287246 1.2511132 -0.48830137 4292616960
3.2735226 1.2460248 -0.49910548 4292486400
3.2782421 1.2479498 -0.51212204 4292616960
3.2812397 1.2492195 -0.52431834 4292616960
3.2816014 1.2494862 -0.53551036 4292616960
3.2868438 1.2516092 -0.54690742 4292747520
3.2835763 1.2504939 -0.55627143 4292747520
3.2771859 1.2481893 -0.56444234 4292616960
3.2727005 1.2466086 -0.57226431 4292616960
3.2774482 1.2485414 -0.58104277 4292616960
3.2579775 1.2412547 -0.58482742 4292486400
3.2456691 1.2366925 -0.58915484 4292355840
3.2282848 1.2301962 -0.59182405 4292225280
3.2449403 1.2366594 -0.60004282 4292355840
3.2115409 1.2240617 -0.59829187 4292094720
3.229322 1.2309529 -0.60535449 4292225280
3.1667862 1.207253 -0.59662175 4291703040
3.1700628 1.2086174 -0.59953588 4291703040
3.1660886 1.207219 -0.60038167 4291703040
3.1741881 1.2104198 -0.60281807 4291703040
3.2278321 1.2309744 -0.61320639 4292225280
3.2232766 1.2293543 -0.61182982 4292225280
3.2376707 1.2349547 -0.61333257 4292355840
3.2460847 1.2382764 -0.61297822 4292486400
3.2498932 1.2398423 -0.61103296 4292486400
3.2582228 1.2431313 -0.60921544 4292486400
3.2642491 1.245542 -0.60624349 4292616960
3.2700586 1.2478698 -0.60251176 4292616960
3.2765248 1.2504479 -0.59818333 4292747520
3.2772579 1.2508394 -0.5921039 4292747520
3.2745564 1.2499202 -0.58472425 4292616960
3.2740829 1.24985 -0.57707477 4292616960
3.2690034 1.2480223 -0.56796318 4292616960
3.2673137 1.2474867 -0.55880541 4292616960
3.2535372 1.242339 -0.54698485 4292355840
3.240272 1.2373848 -0.53470594 4292225280
3.2489989 1.2408211 -0.52545834 4292355840
3.2713768 1.2494668 -0.51771414 4292486400
3.2824588 1.2538022 -0.50747687 4292616960
3.2745426 1.2508866 -0.49371821 4292486400
3.2515728 1.2422237 -0.47725502 4292355840
3.2403681 1.2380502 -0.46212018 4292225280
3.2572715 1.2446064 -0.45044902 4292355840
3.2731199 1.2507604 -0.43798438 4292486400
3.2606142 1.246088 -0.42122427 4292355840
3.2470067 1.240994 -0.40397647 4292225280
3.2491643 1.2419192 -0.38829696 4292225280
3.2782781 1.2531395 -0.37525302 4292486400
3.2767181 1.2526451 -0.35814604 4292355840
3.2439954 1.2402462 -0.33742061 4292094720
3.2389898 1.2384335 -0.31940937 4292094720
3.2542784 1.2443737 -0.30299431 4292225280
3.2578628 1.2458423 -0.28505576 4292225280
3.2367456 1.2378722 -0.26474679 4291964160
3.2422421 1.2400708 -0.24641794 4291964160
3.2672799 1.2497376 -0.2291307 4292225280
3.2695971 1.2507218 -0.2098428 4292225280
3.277837 1.2539698 -0.1906475 4292355840
3.2592154 1.2469498 -0.16974938 4292094720
3.2679665 1.250393 -0.15015726 4292225280
3.281024 1.255483 -0.13047016 4292355840
3.238615 1.2393658 -0.10862102 4291964160
3.2673445 1.2504482 -0.089131817 4292225280
3.2879627 1.2584304 -0.069019303 4292355840
3.2958844 1.2615579 -0.048389561 4292486400
3.2723703 1.2526627 -0.027347051 4292225280
3.2916725 1.2601432 -0.0066657979 4292355840
3.3122609 1.2681171 0.014268473 4292616960
3.2960358 1.2620085 0.035054825 4292486400
3.302001 1.264389 0.055968951 4292486400
3.3309278 1.2755556 0.077425987 4292747520
3.3310926 1.275718 0.098311953 4292747520
3.3171973 1.2705001 0.1185882 4292616960
3.3258877 1.2739253 0.13950507 4292747520
3.3343844 1.2772769 0.16036479 4292878080
3.3317416 1.2763654 0.18054792 4292878080
3.2892292 1.2601918 0.19810128 4292486400
3.3312907 1.2763934 0.2205157 4292878080
3.345315 1.2818635 0.241166 4293008640
3.3405902 1.2801558 0.26025426 4293008640
3.2842984 1.2587017 0.2746914 4292486400
3.3390121 1.2797546 0.29808226 4293008640
3.3620191 1.288668 0.3187497 4293139200
3.3557026 1.2863519 0.3363778 4293139200
3.3379548 1.2796569 0.35235685 4293008640
3.226784 1.237173 0.35741767 4291964160
3.3530085 1.2856309 0.38840809 4293139200
3.3488901 1.2841574 0.40449813 4293139200
3.3464062 1.2833104 0.42029732 4293139200
3.3178461 1.2724713 0.43220451 4292878080
3.2184448 1.234482 0.43382016 4291964160
3.3483796 1.2843838 0.46594486 4293269760
3.358711 1.2884505 0.48152149 4293269760
3.3469517 1.2840505 0.4933804 4293269760
3.3393297 1.2812363 0.50520712 4293139200
3.3171403 1.2728372 0.51414078 4293008640
3.2930818 1.2637204 0.52202702 4292747520
3.3462946 1.2842333 0.5416435 4293269760
3.3497174 1.2856561 0.5527705 4293269760
3.3421047 1.2828474 0.56142622 4293269760
3.3398826 1.2821064 0.57030672 4293269760
3.3372049 1.2811911 0.57843345 4293269760
3.3323257 1.2794318 0.58548671 4293269760
3.3187671 1.2743429 0.5902921 4293139200
3.3097198 1.2709848 0.59516227 4293008640
3.3180034 1.2742771 0.6024465 4293139200
3.3090401 1.2709519 0.60589617 4293008640
3.3175251 1.2743233 0.61182445 4293139200
3.3215148 1.2759708 0.61622113 4293139200
3.3164165 1.2741305 0.61820817 4293139200
3.2962849 1.2665193 0.61664975 4292878080
3.3006127 1.2682984 0.61892581 4293008640
3.3156025 1.2741724 0.62247574 4293139200
3.3155625 1.2742766 0.62247616 4293139200
3.3018451 1.2691287 0.61918026 4293008640
3.3101704 1.2724469 0.61928463 4293008640
3.3104758 1.2726856 0.61715651 4293008640
3.3271899 1.2792288 0.61734366 4293269760
3.3272674 1.2793822 0.61370552 4293269760
3.3315737 1.2811611 0.61011964 4293269760
3.333704 1.2821048 0.60541034 4293269760
3.3308008 1.2811152 0.59907955 4293269760
3.342509 1.2857417 0.59465522 4293269760
3.3432367 1.2861491 0.58755916 4293269760
3.3360732 1.2835238 0.57840681 4293269760
3.3366747 1.2838839 0.56994087 4293269760
3.3188834 1.2771726 0.55772048 4293008640
3.3252409 1.2797468 0.54893774 4293139200
3.3455014 1.2876688 0.54172957 4293269760
3.3478675 1.2887106 0.53092819 4293269760
3.3364687 1.2844585 0.51736563 4293139200
3.2882409 1.2667606 0.42168576 4292616960
3.3370049 1.2856666 0.41213664 4293008640
3.3418953 1.287686 0.39645383 4293139200
3.3263557 1.2818397 0.3779566 4292878080
3.2946756 1.2697773 0.35744238 4292616960
3.3130534 1.2769911 0.34201813 4292747520
3.3244014 1.281499 0.32532817 4292878080
3.3047497 1.2740672 0.30529073 4292616960
3.2781973 1.2639756 0.2845315 4292355840
3.3074498 1.275383 0.26827499 4292616960
3.3151543 1.2784901 0.24976337 4292747520
3.3152621 1.2786704 0.2303571 4292747520
3.2778492 1.2643902 0.20831227 4292355840
3.3029025 1.2741849 0.19007134 4292616960
3.3116353 1.2776905 0.17047781 4292616960
3.3103161 1.2773216 0.15013282 4292616960
3.2709248 1.2622728 0.12814789 4292225280
3.2866967 1.2684931 0.1083212 4292355840
3.290864 1.2702394 0.087866791 4292486400
3.2918572 1.2707617 0.067195699 4292486400
3.2573178 1.2575777 0.045935974 4292094720
3.2763999 1.2650774 0.025471454 4292355840
3.2802866 1.2667159 0.0047120727 4292355840
3.2456853 1.2535031 -0.015915552 4291964160
3.2618949 1.2598964 -0.036666539 4292225280
3.2817791 1.267709 -0.057652842 4292355840
3.2728689 1.2644087 -0.078144088 4292225280
3.2508585 1.2560503 -0.098048039 4292094720
3.2779932 1.2666644 -0.11936698 4292355840
3.2833078 1.2688551 -0.1399689 4292355840
3.2931814 1.2728066 -0.16071273 4292486400
3.2463837 1.2548716 -0.17829414 4292094720
3.271934 1.2648773 -0.19953151 4292355840
3.2712214 1.2647398 -0.21910493 4292355840
3.2783272 1.2676225 -0.23900637 4292355840
3.2674885 1.263572 -0.25732186 4292355840
3.2879627 1.2716205 -0.27788219 4292486400
3.309284 1.2799977 -0.29845327 4292747520
3.2919166 1.273423 -0.31523556 4292616960
3.2534125 1.2586759 -0.32934391 4292225280
3.2805982 1.2693206 -0.34967938 4292486400
3.2882125 1.2724001 -0.36773184 4292616960
3.2924623 1.274179 -0.38506639 4292616960
3.2844162 1.2712027 -0.40052074 4292616960
3.2414787 1.2547308 -0.41102928 4292225280
3.3127508 1.282431 -0.43569264 4292878080
3.3063452 1.2800878 -0.44996241 4292878080
3.2994144 1.2775403 -0.46359923 4292747520
3.3053505 1.2799704 -0.47852021 4292878080
3.2873883 1.2731527 -0.48939645 4292747520
3.2804396 1.2705952 -0.50126064 4292616960
3.2854972 1.2726835 -0.51438528 4292747520
3.2804568 1.2708629 -0.52534783 4292747520
3.2847896 1.2726698 -0.53721172 4292747520
3.2860615 1.2732915 -0.54798257 4292747520
3.2811043 1.2715007 -0.55707848 4292747520
3.2731509 1.2685487 -0.56499106 4292616960
3.2847931 1.2731843 -0.57564604 4292747520
3.2692957 1.2673086 -0.58087701 4292616960
3.2511482 1.2604046 -0.58489025 4292486400
3.2384131 1.2555952 -0.58913618 4292355840
3.2385294 1.2557632 -0.59501338 4292355840
3.2188756 1.2482702 -0.59653884 4292225280
3.2227316 1.2498852 -0.60170317 4292225280
3.1638899 1.2272019 -0.59440154 4291703040
3.1817422 1.2342385 -0.60076427 4291833600
3.1721535 1.2306391 -0.60125774 4291833600
3.1764495 1.2324207 -0.60367811 4291833600
3.158824 1.2257034 -0.6012274 4291703040
3.2206097 1.2497735 -0.61318779 4292225280
3.220654 1.2499065 -0.61268437 4292225280
3.2487867 1.2609315 -0.61679947 4292486400
3.2352886 1.2558122 -0.61229134 4292355840
3.2392058 1.2574458 -0.61037117 4292486400
3.2637868 1.2670946 -0.61160576 4292616960
3.2743943 1.2713236 -0.60947281 4292747520
3.2783446 1.2729698 -0.60537463 4292747520
3.2825687 1.2747219 -0.60061234 4292878080
3.2790399 1.273465 -0.59373635 4292747520
3.2744963 1.2718135 -0.58600688 4292747520
3.2821224 1.2748842 -0.5797711 4292747520
3.2728136 1.2713815 -0.56988263 4292747520
3.2786827 1.2737694 -0.56198961 4292747520
3.2526913 1.2637883 -0.54805166 4292486400
3.2467597 1.2615931 -0.53696072 4292355840
3.2648764 1.2687341 -0.52919286 4292616960
3.2832241 1.2759655 -0.52073681 4292747520
3.2923605 1.2796203 -0.51013184 4292747520
3.2863998 1.2774118 -0.49659991 4292747520
3.2536337 1.2647913 -0.47861156 4292355840
3.2468915 1.2622765 -0.46407205 4292355840
3.2738168 1.2728395 -0.45373541 4292616960
3.2762797 1.2739002 -0.43937343 4292616960
3.2607965 1.267988 -0.42217571 4292355840
3.2493758 1.2636527 -0.40516111 4292225280
3.260704 1.2681564 -0.39053321 4292355840
3.2782907 1.2750926 -0.37607914 4292486400
3.2820771 1.2766659 -0.35951945 4292486400
3.2553871 1.2663934 -0.33934826 4292225280
3.2465699 1.2630663 -0.32085824 4292225280
3.2668016 1.2710309 -0.30482578 4292355840
3.2657456 1.2707202 -0.28636956 4292355840
3.2303388 1.2570534 -0.26479834 4291964160
3.2547898 1.2666591 -0.24790972 4292225280
3.2673378 1.2716373 -0.22963153 4292355840
3.2723026 1.273667 -0.21047032 4292355840
3.2835073 1.2781236 -0.19138846 4292486400
3.2612071 1.2695485 -0.17021678 4292225280
3.2711978 1.273533 -0.15062548 4292355840
3.2783134 1.2763991 -0.13063699 4292355840
3.2323895 1.2586308 -0.10863757 4291964160
3.2705858 1.273589 -0.089402668 4292225280
3.2874269 1.2802398 -0.069144733 4292486400
3.2884812 1.2807484 -0.048370536 4292486400
3.2663341 1.2722276 -0.027339241 4292225280
3.2950845 1.2835149 -0.0066693276 4292486400
3.3048191 1.2874023 0.014287595 4292616960
3.3026075 1.28664 0.035221994 4292616960
3.3051569 1.2877313 0.05616701 4292616960
3.3327589 1.298576 0.077661648 4292878080
3.3282633 1.2969255 0.098468632 4292878080
3.3227658 1.2948847 0.11907309 4292747520
3.3132002 1.2912594 0.13930559 4292747520
3.331543 1.2985023 0.16060805 4292878080
3.3289042 1.2975749 0.18081951 4292878080
3.2864852 1.2811532 0.19840068 4292486400
3.3237998 1.2957877 0.22053494 4292878080
3.3470888 1.3049608 0.24185623 4293008640
3.3330772 1.2996038 0.26027355 4293008640
3.2769113 1.277822 0.27471039 4292486400
3.3407867 1.3028113 0.29893148 4293008640
3.3637371 1.3118571 0.31965014 4293269760
3.3582852 1.3098359 0.33741412 4293269760
3.3397169 1.3027028 0.35335618 4293139200
3.2371321 1.2628214 0.35938928 4292094720
3.3500946 1.3069556 0.38896468 4293269760
3.3450565 1.3050963 0.4049654 4293139200
3.3481281 1.3063987 0.42148048 4293269760
3.3103778 1.2917856 0.43222371 4292878080
3.2781057 1.2793067 0.44286937 4292616960
3.3500803 1.3074784 0.46725169 4293269760
3.3557658 1.3098029 0.48220378 4293400320
3.3477218 1.3067734 0.49462596 4293269760
3.3400981 1.303908 0.50648218 4293269760
3.3271883 1.2989805 0.5168792 4293139200
3.2994883 1.2882829 0.52424061 4292878080
3.3433628 1.3055092 0.54240942 4293269760
3.3416562 1.3049538 0.55270469 4293269760
3.3524559 1.3092792 0.56445366 4293400320
3.3369572 1.3033429 0.57111263 4293269760
3.344306 1.3063233 0.58099067 4293400320
3.3330896 1.3020585 0.58696175 4293269760
3.3241529 1.2986835 0.59260303 4293269760
3.3114467 1.293837 0.59683591 4293139200
3.3362403 1.3036311 0.60714191 4293400320
3.3107624 1.2937987 0.60759908 4293139200
3.3183076 1.2968606 0.61336964 4293139200
3.317697 1.2967386 0.6169225 4293139200
3.2938232 1.2875316 0.61540562 4293008640
3.2934389 1.2874986 0.61752838 4293008640
3.2977562 1.2893029 0.61980647 4293008640
3.3163812 1.296698 0.62404752 4293139200
3.3126705 1.2953683 0.62335789 4293139200
3.3081584 1.2937258 0.62178403 4293139200
3.3293104 1.3021131 0.62428933 4293269760
3.3075938 1.2937486 0.61803228 4293139200
3.3242702 1.3003894 0.61821562 4293269760
3.3280191 1.3019789 0.61525077 4293269760
3.3478308 1.3098489 0.61449975 4293530880
3.3261788 1.30151 0.60542965 4293269760
3.3457186 1.3092766 0.60314041 4293400320
3.3390422 1.3067935 0.59540147 4293400320
3.3356876 1.3056098 0.58757854 4293269760
3.3460076 1.3097749 0.58145916 4293400320
3.3245409 1.3015078 0.56917357 4293139200
3.3113873 1.2964919 0.55773973 4293008640
3.3306155 1.3041445 0.55108732 4293269760
3.346231 1.3103857 0.54309285 4293400320
3.3449099 1.3100013 0.53167909 4293400320
3.3418329 1.30893 0.51938862 4293269760
3.2889247 1.2890818 0.42274731 4292747520
3.3260379 1.3037524 0.41173285 4293008640
3.3426673 1.310403 0.39746261 4293139200
3.314203 1.2993902 0.37744913 4292878080
3.2955608 1.2922237 0.35836715 4292747520
3.3185341 1.301362 0.34337848 4292878080
3.3261528 1.3044857 0.32625592 4293008640
3.3102593 1.2983958 0.30651101 4292747520
3.2791317 1.2863338 0.28527626 4292486400
3.300705 1.294928 0.26835421 4292616960
3.3176434 1.3017073 0.25053617 4292878080
3.3089671 1.2984452 0.23046041 4292747520
3.275542 1.2854782 0.20865649 4292355840
3.312815 1.3002337 0.19109204 4292747520
3.3186405 1.3026588 0.17124414 4292747520
3.3168874 1.302112 0.15079036 4292747520
3.2775874 1.2868359 0.12871829 4292355840
3.2875781 1.2908947 0.10861466 4292486400
3.2909966 1.292376 0.088088378 4292486400
3.2916033 1.2927542 0.067361683 4292486400
3.2658532 1.2827885 0.046178803 4292225280
3.2795417 1.2883006 0.025572145 4292355840
3.2858853 1.2909304 0.004749116 4292486400
3.2477534 1.2761005 -0.015943557 4292094720
3.2608285 1.2813725 -0.036719218 4292225280
3.2765324 1.2876781 -0.057672512 4292355840
3.283988 1.2907456 -0.078569584 4292486400
3.2461956 1.2760422 -0.09811113 4292094720
3.2773986 1.2884369 -0.11959779 4292355840
3.2900929 1.2935631 -0.14055839 4292486400
3.2929089 1.2948092 -0.16104583 4292616960
3.253345 1.2794032 -0.17906423 4292225280
3.2784505 1.2894067 -0.20036483 4292486400
3.2781153 1.2894137 -0.2200473 4292486400
3.2751346 1.2883805 -0.23929763 4292486400
3.2755861 1.2886962 -0.25852755 4292486400
3.3003104 1.2985539 -0.27954137 4292747520
3.2983437 1.2979193 -0.29812399 4292747520
3.3025756 1.2997215 -0.31695682 4292747520
3.2543659 1.2809005 -0.33017111 4292355840
3.2824113 1.2920663 -0.35064971 4292616960
3.3046241 1.3009402 -0.37038916 4292747520
3.2943523 1.2970363 -0.38614514 4292747520
3.2918324 1.2961811 -0.40231967 4292747520
3.2152004 1.2661641 -0.40860635 4291964160
3.310581 1.3038294 -0.43637913 4292878080
3.3088019 1.3032646 -0.45130262 4292878080
3.3112912 1.3043792 -0.46630803 4293008640
3.3029678 1.3012372 -0.47924486 4292878080
3.288214 1.2955625 -0.49061492 4292747520
3.2784324 1.2918437 -0.50207567 4292747520
3.2838323 1.2941014 -0.51527649 4292747520
3.2868047 1.295403 -0.52754414 4292878080
3.2818422 1.2935791 -0.53793335 4292747520
3.2877853 1.2960497 -0.54949993 4292878080
3.2865105 1.2956768 -0.55924845 4292878080
3.2877548 1.2962958 -0.56878561 4292878080
3.2865059 1.2959318 -0.57723957 4292878080
3.2793005 1.29322 -0.58396316 4292878080
3.2575173 1.2847624 -0.58735263 4292616960
3.2484748 1.2813237 -0.59229457 4292616960
3.2449172 1.2800453 -0.59752709 4292486400
3.2198033 1.2702689 -0.59805244 4292355840
3.2236478 1.271906 -0.60322779 4292355840
3.1750176 1.252854 -0.59783351 4291833600
3.1745017 1.2527689 -0.60074574 4291833600
3.1777594 1.2541711 -0.60367537 4291964160
3.1774635 1.2541715 -0.60522974 4291964160
3.1690366 1.2509642 -0.60452843 4291833600
3.2215214 1.2717817 -0.61474186 4292355840
3.2169852 1.2701088 -0.6133641 4292355840
3.2413893 1.2798522 -0.61678058 4292486400
3.2325017 1.2764614 -0.61314124 4292486400
3.2364099 1.2781183 -0.61121738 4292486400
3.2700982 1.2915264 -0.61416787 4292747520
3.269778 1.2915149 -0.60998392 4292747520
3.2745435 1.2935097 -0.6060341 4292878080
3.279675 1.2956486 -0.60143387 4292878080
3.2766149 1.2945535 -0.59463286 4292878080
3.2798796 1.2959545 -0.58829135 4292878080
3.2783144 1.2954479 -0.5804019 4292878080
3.2873893 1.2991421 -0.57370853 4292878080
3.2758024 1.294677 -0.56275934 4292747520
3.2498715 1.2845455 -0.54880846 4292486400
3.2526886 1.2857661 -0.53915119 4292486400
3.2666297 1.2913802 -0.53066772 4292616960
3.2861364 1.2991931 -0.52237046 4292878080
3.2993946 1.3045382 -0.51237065 4292878080
3.2929974 1.3021179 -0.49871483 4292878080
3.2599628 1.2891716 -0.48061958 4292486400
3.2445579 1.2831889 -0.46477965 4292355840
3.2721612 1.2942013 -0.45452365 4292616960
3.2802079 1.2974856 -0.44088686 4292616960
3.2709002 1.2939106 -0.42443308 4292616960
3.2511997 1.2862265 -0.40629664 4292355840
3.2689726 1.2933544 -0.39239997 4292486400
3.2905569 1.3019899 -0.37833065 4292747520
3.2884641 1.3012649 -0.36102399 4292616960
3.2395546 1.2820277 -0.33845133 4292225280
3.2494605 1.286045 -0.32185981 4292225280
3.2661588 1.2927486 -0.30544415 4292355840
3.2645898 1.2922283 -0.28690431 4292355840
3.2359443 1.280998 -0.26584628 4292094720
3.2492101 1.2863442 -0.24803218 4292225280
3.2843318 1.3003368 -0.23133573 4292486400
3.2790325 1.29834 -0.21136723 4292486400
3.2811704 1.2992852 -0.19167104 4292486400
3.258682 1.290486 -0.17045552 4292225280
3.2752037 1.2971221 -0.15113655 4292355840
3.2753894 1.2972943 -0.1308004 4292355840
3.2388725 1.2829403 -0.10908647 4292094720
3.2770557 1.2981507 -0.089766227 4292355840
3.2929299 1.3045325 -0.069400556 4292616960
3.2944484 1.3052324 -0.048550807 4292616960
3.2643669 1.293422 -0.02736662 4292225280
3.293458 1.3050376 -0.0066624312 4292616960
3.3114915 1.3122767 0.014367674 4292747520
3.3100145 1.3117912 0.035400204 4292747520
3.3051796 1.3099757 0.056314871 4292616960
3.3288081 1.3194327 0.077766523 4292878080
3.3365648 1.3226049 0.09895876 4293008640
3.2896223 1.3041111 0.11817677 4292486400
3.3130064 1.3134733 0.13963547 4292747520
3.3214626 1.3169233 0.16050877 4292878080
3.343574 1.325784 0.18205033 4293139200
3.2743263 1.2984476 0.19813941 4292486400
3.3254752 1.3188149 0.22117059 4292878080
3.3323402 1.3216366 0.24136283 4293008640
3.3300869 1.320845 0.2606554 4293008640
3.2823884 1.3020418 0.2758185 4292616960
3.343657 1.3264279 0.29989302 4293139200
3.3606689 1.3332744 0.32011029 4293269760
3.3635569 1.3345231 0.33873731 4293400320
3.3413234 1.3258125 0.35435578 4293139200
3.2389681 1.2853326 0.36043605 4292225280
3.3487065 1.3289484 0.38971457 4293269760
3.3337028 1.3231034 0.40453696 4293139200
3.3450778 1.3277197 0.42208192 4293269760
3.3157158 1.3161799 0.43393213 4293008640
3.2259798 1.2806909 0.4368521 4292225280
3.3516254 1.3306363 0.46855876 4293400320
3.3572924 1.3329921 0.48354915 4293400320
3.3492615 1.3299142 0.49600804 4293400320
3.3324461 1.3233508 0.50650167 4293269760
3.3195651 1.3183481 0.51689857 4293139200
3.2919278 1.3074892 0.52425987 4292878080
3.3402963 1.3267945 0.54317558 4293400320
3.3468587 1.32951 0.55485457 4293400320
3.3622186 1.3357189 0.56741518 4293661440
3.3338978 1.3245888 0.57191879 4293400320
3.3458147 1.3294326 0.58260655 4293530880
3.3254483 1.3214598 0.58698124 4293269760
3.3257 1.3216735 0.59425944 4293269760
3.3212688 1.3200281 0.59999883 4293269760
3.3249242 1.321595 0.60649329 4293269760
3.3114145 1.3163447 0.6091339 4293139200
3.3152761 1.3179947 0.61423683 4293269760
3.3192441 1.3196881 0.61864728 4293269760
3.3233216 1.3214257 0.62235856 4293269760
3.3183558 1.3195714 0.62364566 4293269760
3.2993438 1.3121359 0.62154883 4293139200
3.317925 1.3196394 0.62579197 4293269760
3.3133066 1.3179246 0.62492985 4293269760
3.3051426 1.314801 0.62266493 4293139200
3.3216686 1.3214921 0.62430876 4293269760
3.3207989 1.3212694 0.62194371 4293269760
3.3166387 1.3197391 0.61823505 4293269760
3.3203783 1.3213505 0.6152702 4293269760
3.3355639 1.3275145 0.61367738 4293400320
3.3359475 1.3277937 0.60862237 4293400320
3.3380349 1.3287512 0.60315996 4293400320
3.3442061 1.3313341 0.59771281 4293530880
3.3454473 1.3319569 0.59067154 4293530880
3.3245623 1.3237774 0.5790841 4293269760
3.3260784 1.3245105 0.57076627 4293269760
3.3120401 1.3190545 0.5591526 4293139200
3.3358183 1.3286481 0.5532372 4293400320
3.3559961 1.3368112 0.54594964 4293530880
3.3418176 1.331301 0.53243023 4293400320
3.3433468 1.3320433 0.52083939 4293400320
3.2942741 1.3133717 0.42442879 4292878080
3.3313076 1.3282615 0.41335395 4293139200
3.3488278 1.3353798 0.3991313 4293269760
3.3216372 1.3246839 0.37918589 4293008640
3.2925992 1.3132501 0.35888961 4292747520
3.315521 1.3225232 0.3438769 4292878080
3.3190498 1.3240687 0.32632959 4293008640
3.3043032 1.3183293 0.30668455 4292747520
3.2715836 1.3054235 0.28529543 4292486400
3.298943 1.3164705 0.2688486 4292747520
3.3090298 1.3206323 0.25048184 4292878080
3.3118441 1.321895 0.23121154 4292878080
3.2715049 1.3059459 0.20889919 4292486400
3.3068521 1.3201849 0.19120765 4292747520
3.3178163 1.3246999 0.17161572 4292878080
3.3193822 1.3254662 0.15127082 4292878080
3.2793186 1.3096215 0.12910213 4292486400
3.2930005 1.3152217 0.10906334 4292616960
3.2926984 1.3152419 0.088356093 4292616960
3.2979469 1.3174779 0.067665733 4292616960
3.2664046 1.3050276 0.046311896 4292355840
3.2849846 1.3125856 0.025692178 4292486400
3.2895675 1.3145562 0.0047840178 4292616960
3.2411225 1.2953519 -0.015928803 4292094720
3.261668 1.3036962 -0.036794886 4292355840
3.2790027 1.3107597 -0.05783068 4292486400
3.2898786 1.3152446 -0.078873813 4292616960
3.2517047 1.300135 -0.098486364 4292225280
3.289659 1.3154385 -0.12030431 4292616960
3.2954941 1.3179107 -0.14109585 4292616960
3.2992268 1.3195432 -0.1617091 4292747520
3.2643862 1.3057593 -0.18006895 4292355840
3.275521 1.3103491 -0.2006297 4292486400
3.2751844 1.3103538 -0.22033997 4292486400
3.2851777 1.3144882 -0.24056786 4292616960
3.2759798 1.3109499 -0.25913775 4292486400
3.3056512 1.3229535 -0.28062245 4292878080
3.3046079 1.3226758 -0.29936215 4292878080
3.3032739 1.3222815 -0.31773821 4292878080
3.2607172 1.3053972 -0.33156213 4292486400
3.2923856 1.3182027 -0.35251018 4292747520
3.3082612 1.324692 -0.37163579 4292878080
3.2995503 1.3213444 -0.38763049 4292878080
3.2879186 1.3168267 -0.40275237 4292747520
3.2345102 1.295588 -0.41199324 4292225280
3.3104913 1.3261335 -0.43735838 4293008640
3.3149714 1.3280629 -0.45317176 4293008640
3.3064041 1.3247688 -0.46667883 4293008640
3.3128147 1.3274704 -0.48176745 4293008640
3.2898092 1.3183932 -0.49197066 4292878080
3.2874768 1.3175924 -0.5046078 4292878080
3.2879057 1.3178966 -0.51709163 4292878080
3.2954555 1.3210524 -0.53013873 4293008640
3.2963581 1.3215456 -0.54154515 4293008640
3.2884381 1.3185037 -0.55086339 4292878080
3.2880783 1.3184897 -0.56079274 4293008640
3.2847331 1.3172786 -0.56956077 4292878080
3.287149 1.3183753 -0.57867151 4293008640
3.2808719 1.3159877 -0.5855782 4292878080
3.2545581 1.3055679 -0.58816063 4292616960
3.2455344 1.3020761 -0.59311157 4292616960
3.2410681 1.30041 -0.59818333 4292616960
3.2447941 1.3020275 -0.60407233 4292616960
3.2207592 1.2925131 -0.60406625 4292355840
3.2246976 1.2942137 -0.60857606 4292486400
3.2323995 1.2974232 -0.61310089 4292486400
3.1749725 1.2745109 -0.6045267 4291964160
3.2316833 1.2973759 -0.616965 4292486400
3.2278407 1.2959534 -0.61715412 4292486400
3.2277687 1.2960424 -0.6173442 4292486400
3.2186732 1.2925105 -0.61509126 4292355840
3.2293127 1.2968959 -0.6158902 4292486400
3.250464 1.3054998 -0.61795986 4292747520
3.2579038 1.3086015 -0.61668527 4292747520
3.2670934 1.3124053 -0.61500901 4292878080
3.2721679 1.3145574 -0.61182779 4292878080
3.2806745 1.3180869 -0.60855925 4293008640
3.2812228 1.3184211 -0.60309583 4293008640
3.281373 1.3185949 -0.59686005 4293008640
3.2841802 1.3198347 -0.5904116 4293008640
3.2831585 1.3195366 -0.58259034 4292878080
3.2749128 1.3163365 -0.57283998 4292878080
3.2761788 1.3169554 -0.56411242 4292878080
3.2707574 1.3148876 -0.5535993 4292747520
3.2584431 1.3100499 -0.54134089 4292616960
3.2708683 1.3151497 -0.53257191 4292747520
3.2947614 1.3248574 -0.52493942 4293008640
3.3017042 1.327755 -0.51390171 4293008640
3.2887576 1.3226601 -0.49921131 4292878080
3.2653422 1.3133566 -0.48251271 4292616960
3.2540443 1.3089213 -0.46720326 4292486400
3.2762549 1.3179531 -0.45613128 4292747520
3.287921 1.3227471 -0.44293198 4292878080
3.276206 1.3181423 -0.4260911 4292747520
3.2560952 1.3101606 -0.40783581 4292486400
3.2716119 1.316502 -0.39361113 4292616960
3.2853589 1.3221322 -0.37859246 4292747520
3.2915783 1.3247359 -0.36218739 4292747520
3.248728 1.3076056 -0.34018058 4292355840
3.2491925 1.3078932 -0.32256317 4292355840
3.2656407 1.3146094 -0.30608734 4292486400
3.2729163 1.3176365 -0.2882866 4292486400
3.2460053 1.3069111 -0.26727486 4292225280
3.2536974 1.3101051 -0.24893406 4292355840
3.2708199 1.3170936 -0.2309009 4292486400
3.2806761 1.3211591 -0.21194652 4292616960
3.2853489 1.3231391 -0.19234306 4292616960
3.2511113 1.3094602 -0.17043635 4292225280
3.2759354 1.3195494 -0.1515034 4292486400
3.2900276 1.3253205 -0.13167253 4292616960
3.2490354 1.3089192 -0.10966533 4292225280
3.277786 1.320591 -0.089976475 4292486400
3.2920983 1.3264515 -0.069525614 4292616960
3.2914286 1.326281 -0.048600167 4292616960
3.278194 1.3210509 -0.027528502 4292486400
3.2975352 1.3289378 -0.0066674994 4292616960
3.3084304 1.3334244 0.014407054 4292747520
3.3060284 1.3325566 0.035459224 4292747520
3.3051021 1.3322829 0.056463763 4292747520
3.3294132 1.3421748 0.077980988 4293008640
3.333441 1.3438976 0.099115893 4293008640
3.2995846 1.3303589 0.11882907 4292747520
3.3167515 1.3373748 0.1401379 4292878080
3.328891 1.3423663 0.1612612 4293008640
3.3267932 1.341622 0.18157944 4293008640
3.2724073 1.3198065 0.19850388 4292486400
3.3328736 1.3442746 0.22219789 4293008640
3.3375413 1.3462577 0.24232186 4293139200
3.3304596 1.3435053 0.26131153 4293008640
3.2804394 1.3234441 0.27631658 4292616960
3.3497384 1.3514818 0.30115774 4293269760
3.3633366 1.3570675 0.32113066 4293400320
3.3603435 1.3559649 0.3392227 4293400320
3.3206365 1.3400584 0.35300469 4293008640
3.2360389 1.3060477 0.3609691 4292225280
3.3538175 1.3536478 0.39123866 4293400320
3.3517432 1.3529168 0.40769228 4293400320
3.334512 1.3460726 0.42175096 4293269760
3.2962854 1.3307585 0.43241727 4292878080
3.2184651 1.2994698 0.43687108 4292225280
3.3612907 1.3571956 0.47102487 4293530880
3.357743 1.3558725 0.48476219 4293530880
3.3460512 1.3512635 0.49670905 4293400320
3.3421273 1.349789 0.50917703 4293400320
3.3081579 1.3361893 0.51634562 4293139200
3.2970984 1.3318346 0.52632761 4293008640
3.3370953 1.3480883 0.54394186 4293400320
3.3441527 1.3510482 0.55572033 4293530880
3.3494079 1.353282 0.56659442 4293530880
3.3389452 1.3491706 0.57414109 4293530880
3.340852 1.3500538 0.58312136 4293530880
3.3268445 1.3445113 0.58861846 4293400320
3.3216035 1.342509 0.59493387 4293400320
3.3135228 1.3393601 0.60001838 4293269760
3.3171692 1.3409481 0.6065129 4293269760
3.3128297 1.3393114 0.61083728 4293269760
3.3212488 1.3428291 0.61679983 4293400320
3.3115001 1.3390081 0.61866683 4293269760
3.3283558 1.3459368 0.62477684 4293400320
3.2919159 1.3313311 0.62014586 4293139200
3.3103392 1.3388953 0.62509573 4293269760
3.3147473 1.3407973 0.62667412 4293269760
3.3147051 1.3409014 0.62667453 4293269760
3.314779 1.3410531 0.6259585 4293269760
3.3139141 1.3408262 0.62432832 4293269760
3.3096509 1.3392259 0.62132645 4293269760
3.317116 1.3423684 0.61978954 4293400320
3.3217609 1.3443718 0.61698544 4293400320
3.3359983 1.3502557 0.61521256 4293530880
3.3281562 1.347211 0.60864204 4293400320
3.3344176 1.3498715 0.60393608 4293530880
3.3414783 1.3528564 0.59864271 4293530880
3.3339725 1.3499492 0.5900442 4293400320
3.338757 1.3520153 0.58293515 4293530880
3.3274608 1.3475751 0.57235926 4293400320
3.313458 1.3420393 0.56072062 4293269760
3.328022 1.3480651 0.55325687 4293400320
3.3481519 1.3563458 0.54596943 4293530880
3.3376737 1.3522378 0.53303522 4293400320
3.3410318 1.3537315 0.52171743 4293400320
3.3003721 1.3381404 0.4262293 4293008640
3.3281178 1.3495185 0.41394567 4293139200
3.3514485 1.3591106 0.40039903 4293400320
3.3267674 1.3492486 0.38068047 4293139200
3.2929902 1.3356985 0.35979277 4292878080
3.3123739 1.3436935 0.34437552 4293008640
3.325125 1.3490018 0.32771209 4293139200
3.3060796 1.341421 0.30758795 4292878080
3.2812722 1.3315026 0.28682941 4292616960
3.294637 1.3370612 0.26914695 4292747520
3.3129747 1.344638 0.25138754 4292878080
3.3124917 1.3445832 0.23181839 4292878080
3.2862468 1.334079 0.21035051 4292616960
3.3113236 1.3443925 0.19193424 4292878080
3.3208268 1.3483897 0.1721935 4293008640
3.3190846 1.3478253 0.15163147 4292878080
3.2789283 1.3316725 0.12940875 4292486400
3.2877381 1.3353889 0.10916408 4292616960
3.2962859 1.3389997 0.088678807 4292747520
3.2902176 1.3366784 0.067685224 4292616960
3.2680132 1.327806 0.046462275 4292486400
3.2797389 1.3327076 0.025730684 4292486400
3.2882295 1.3362967 0.004812385 4292616960
3.2455254 1.3190964 -0.015969431 4292225280
3.2594376 1.3248867 -0.036837149 4292355840
3.2767303 1.3320513 -0.057907324 4292486400
3.2909608 1.3379732 -0.079066187 4292616960
3.2599049 1.325498 -0.098948315 4292355840
3.286844 1.336584 -0.12046473 4292616960
3.3004436 1.3422517 -0.14162102 4292747520
3.300982 1.3426121 -0.16215643 4292747520
3.2671702 1.3290112 -0.18062742 4292486400
3.2786088 1.3338009 -0.20127213 4292616960
3.2837603 1.3360354 -0.22141765 4292616960
3.2871048 1.3375355 -0.24125609 4292747520
3.2792854 1.3344961 -0.25999042 4292616960
3.3034804 1.3444747 -0.28107861 4292878080
3.3115275 1.3478876 -0.30067566 4293008640
3.2996144 1.3431824 -0.31811371 4292878080
3.2576709 1.32626 -0.33201286 4292486400
3.2916994 1.340241 -0.35324696 4292878080
3.302927 1.3449473 -0.37189057 4292878080
3.2899611 1.3398098 -0.38739446 4292878080
3.2874765 1.3389361 -0.40362704 4292878080
3.2411406 1.3202146 -0.41379082 4292355840
3.3167729 1.3511339 -0.43920061 4293139200
3.3208241 1.3529202 -0.45502141 4293139200
3.3240497 1.3543701 -0.47025481 4293269760
3.3138945 1.3503717 -0.48304012 4293139200
3.2966611 1.3434899 -0.49413726 4293008640
3.2864308 1.3394579 -0.50561637 4292878080
3.2901165 1.3410921 -0.51863909 4293008640
3.2952209 1.3433038 -0.5313307 4293008640
3.2907016 1.3415952 -0.54187053 4293008640
3.2869999 1.3402185 -0.55190086 4293008640
3.2892339 1.3412595 -0.56229264 4293008640
3.2911129 1.3421552 -0.5719927 4293008640
3.2784224 1.3371133 -0.57847673 4293008640
3.2685852 1.3332324 -0.58474165 4292878080
3.2674556 1.3328992 -0.59186417 4292878080
3.2424624 1.3228377 -0.5939284 4292616960
3.2380044 1.3211453 -0.59900826 4292616960
3.2371576 1.320924 -0.60405314 4292616960
3.2131784 1.3112698 -0.60404718 4292355840
3.229876 1.3182005 -0.61097205 4292486400
3.2247899 1.3162478 -0.61308169 4292486400
3.2289345 1.318059 -0.61623126 4292486400
3.2286327 1.3180559 -0.61781806 4292486400
3.2202399 1.3147514 -0.61713499 4292486400
3.2156088 1.3129804 -0.61645138 4292486400
3.2479882 1.3263088 -0.62213838 4292747520
3.2344704 1.3209108 -0.61831075 4292616960
3.2382481 1.322569 -0.61707199 4292616960
3.2547882 1.3294352 -0.61753088 4292747520
3.2757988 1.3381268 -0.61808419 4293008640
3.2869034 1.3427753 -0.61601448 4293139200
3.2793422 1.3398043 -0.60972935 4293008640
3.2592897 1.3317323 -0.60046059 4292878080
3.2864912 1.3429515 -0.59918344 4293008640
3.2883897 1.3438402 -0.59254533 4293139200
3.2817237 1.3412309 -0.58369213 4293008640
3.2853296 1.3428153 -0.57600009 4293008640
3.2713828 1.3372303 -0.56459832 4292878080
3.2667828 1.3354615 -0.55421394 4292878080
3.2627249 1.3339132 -0.54331392 4292747520
3.2750571 1.3390599 -0.53449488 4292878080
3.2877669 1.3443611 -0.52504385 4293008640
3.296344 1.3479738 -0.51426083 4293008640
3.28636 1.344002 -0.50000733 4292878080
3.2593625 1.3330761 -0.48274863 4292616960
3.2592847 1.3331499 -0.4690429 4292616960
3.2852356 1.3438618 -0.45844379 4292878080
3.2871885 1.3447653 -0.44386119 4292878080
3.2665465 1.3364319 -0.42582032 4292616960
3.2521601 1.3306541 -0.40828723 4292486400
3.2671919 1.3369029 -0.39398992 4292616960
3.2877765 1.3454224 -0.37974805 4292878080
3.2908518 1.346783 -0.36294478 4292878080
3.2446289 1.3279831 -0.34053612 4292355840
3.2535059 1.3317145 -0.32373664 4292486400
3.2686715 1.3380183 -0.30707732 4292616960
3.2722394 1.3395786 -0.28888988 4292616960
3.2513316 1.3311267 -0.26832813 4292355840
3.2673268 1.3377702 -0.25054976 4292486400
3.2738531 1.3405403 -0.23164307 4292616960
3.2793028 1.3428702 -0.21234013 4292616960
3.2828562 1.3444242 -0.1926329 4292616960
3.2607152 1.3354634 -0.17132594 4292486400
3.2752635 1.3415164 -0.15181188 4292616960
3.2814088 1.3441308 -0.1316191 4292616960
3.2459822 1.3297294 -0.10980271 4292225280
3.2687855 1.3391619 -0.089922458 4292486400
3.2821379 1.3447268 -0.069459841 4292616960
3.2966034 1.3507481 -0.048773009 4292747520
3.2796984 1.3439261 -0.027587421 4292616960
3.2943664 1.3500309 -0.0066575562 4292747520
3.2959812 1.3507915 0.014406766 4292747520
3.3074648 1.3555938 0.035577774 4292878080
3.3111656 1.3572093 0.056720171 4292878080
3.3286164 1.3644568 0.078166433 4293008640
3.3420928 1.3700776 0.099627376 4293139200
3.3135204 1.3584741 0.11963188 4292878080
3.3174994 1.3602046 0.1405209 4293008640
3.3327048 1.3665351 0.16184764 4293139200
3.3274424 1.3644801 0.18206465 4293008640
3.2811515 1.345613 0.19952439 4292616960
3.3203695 1.3617846 0.22190949 4293008640
3.3388755 1.3694706 0.24301276 4293269760
3.3447263 1.371971 0.26307121 4293269760
3.2937498 1.3511792 0.27811342 4292747520
3.3418095 1.3709816 0.30117762 4293269760
3.3599832 1.3785355 0.32159123 4293400320
3.3528502 1.3757155 0.33928937 4293400320
3.3210616 1.3627864 0.35390663 4293139200
3.2329781 1.3267722 0.36150235 4292355840
3.3633533 1.3803377 0.39330038 4293530880
3.3575966 1.3780831 0.40939215 4293530880
3.3468423 1.3737789 0.42433298 4293400320
3.2967436 1.3533366 0.43352282 4293008640
3.2282822 1.325359 0.43926114 4292355840
3.3487406 1.3748794 0.47040105 4293530880
3.3548329 1.3774872 0.4855116 4293530880
3.3509545 1.3760049 0.49863666 4293530880
3.3433685 1.3730018 0.51059467 4293530880
3.322293 1.364463 0.51980048 4293269760
3.2938602 1.3529041 0.52707881 4293008640
3.3337595 1.3693897 0.54470837 4293400320
3.3494289 1.3759329 0.55793774 4293661440
3.3414679 1.3727776 0.56661433 4293530880
3.3401649 1.3723558 0.57573432 4293530880
3.3428838 1.3735859 0.58488119 4293661440
3.3363001 1.3709972 0.59171194 4293530880
3.3319778 1.3693373 0.59822786 4293530880
3.3102257 1.36052 0.60086542 4293269760
3.3220696 1.3655 0.60887098 4293400320
3.3222957 1.3657095 0.61405647 4293400320
3.3133698 1.3621604 0.61681956 4293400320
3.3127582 1.362027 0.62039202 4293400320
3.3250151 1.3671815 0.62565333 4293530880
3.2923052 1.3538613 0.6217128 4293139200
3.3243501 1.3671486 0.62925124 4293530880
3.3241909 1.3672045 0.6299718 4293530880
3.3195925 1.3654368 0.62910956 4293400320
3.3069108 1.3603468 0.62597823 4293269760
3.3096917 1.361613 0.62503576 4293400320
3.3063493 1.3603628 0.62220281 4293269760
3.3229098 1.367296 0.62236756 4293530880
3.3229878 1.3674539 0.61870092 4293530880
3.3272564 1.369336 0.61508101 4293530880
3.3339295 1.3722078 0.61116719 4293530880
3.3347063 1.3726557 0.60544515 4293530880
3.3381023 1.374182 0.59948117 4293530880
3.3388286 1.3746109 0.59232885 4293530880
3.3399537 1.3752047 0.58455157 4293530880
3.3195543 1.3669429 0.57237911 4293400320
3.3229427 1.3684688 0.56368256 4293400320
3.3201127 1.3674364 0.55327666 4293400320
3.362139 1.3848661 0.54957348 4293792000
3.3434615 1.3773135 0.53524989 4293530880
3.3376653 1.3750625 0.52245295 4293530880
3.2925215 1.3573518 0.42624894 4293008640
3.3284674 1.3722972 0.41499525 4293269760
3.3388798 1.3767264 0.39986923 4293400320
3.3234489 1.3705083 0.38122711 4293139200
3.2897534 1.3567628 0.36031562 4292878080
3.3127737 1.3663889 0.34525758 4293008640
3.3230579 1.3707681 0.32830897 4293139200
3.3028157 1.362565 0.30803671 4292878080
3.282676 1.3544029 0.28765553 4292747520
3.3135273 1.367263 0.27135327 4293008640
3.3050866 1.3639241 0.2514073 4292878080
3.3092165 1.3657689 0.2321613 4293008640
3.2830348 1.3551129 0.21066576 4292747520
3.3141863 1.3681033 0.19257765 4293008640
3.3129168 1.3677223 0.1722133 4293008640
3.3204138 1.3709581 0.1520735 4293008640
3.2803545 1.3545731 0.12979306 4292616960
3.2974596 1.3617733 0.10976671 4292747520
3.297672 1.3620037 0.088947028 4292747520
3.2953153 1.3611737 0.067970797 4292747520
3.2731643 1.3521733 0.046665352 4292616960
3.2857862 1.3575257 0.025858445 4292616960
3.28879 1.3589084 0.0048438404 4292747520
3.2470307 1.3418086 -0.015996166 4292355840
3.2667823 1.3501058 -0.036989734 4292486400
3.2803352 1.3558445 -0.058090597 4292616960
3.2914288 1.3605688 -0.079247214 4292747520
3.2650645 1.3498209 -0.099322952 4292486400
3.2882411 1.359537 -0.12078483 4292747520
3.3047636 1.3665056 -0.14212622 4292878080
3.3023393 1.3656467 -0.16259167 4292878080
3.2639897 1.3499414 -0.18086381 4292486400
3.2707856 1.3528907 -0.20125256 4292616960
3.2839472 1.3584716 -0.22194056 4292747520
3.2792597 1.356675 -0.24123648 4292747520
3.2714581 1.3535904 -0.25997084 4292616960
3.3002009 1.3656143 -0.28145185 4292878080
3.3036218 1.3671697 -0.30065587 4293008640
3.3057446 1.3681885 -0.31944793 4293008640
3.2707913 1.3538727 -0.33412868 4292616960
3.2862749 1.3604158 -0.3534894 4292878080
3.3020692 1.3670883 -0.37266433 4293008640
3.3033106 1.367741 -0.38987803 4293008640
3.286062 1.360743 -0.40439978 4292878080
3.2333975 1.3390881 -0.41377148 4292355840
3.3216882 1.3757614 -0.44088504 4293269760
3.319901 1.3751597 -0.45596457 4293269760
3.3103335 1.3713369 -0.46941635 4293139200
3.314672 1.3732696 -0.48429102 4293269760
3.2975726 1.3663265 -0.49543822 4293139200
3.290652 1.363596 -0.50745898 4293008640
3.2868226 1.3621442 -0.51934165 4293008640
3.2806213 1.3597094 -0.5302248 4293008640
3.2910535 1.3641624 -0.54320753 4293139200
3.2837045 1.3612506 -0.55264932 4293008640
3.2813678 1.3604139 -0.56227303 4293008640
3.2843914 1.3617971 -0.57217336 4293008640
3.287904 1.3633825 -0.58152068 4293139200
3.2752569 1.3582712 -0.58732027 4293008640
3.2596388 1.3519273 -0.59184468 4292878080
3.2635922 1.3536927 -0.59921229 4292878080
3.2419531 1.3448499 -0.60115749 4292747520
3.2430654 1.3454359 -0.60658735 4292747520
3.2182298 1.3352641 -0.6064285 4292486400
3.2221453 1.3370099 -0.61095273 4292486400
3.2261684 1.3387998 -0.61479586 4292616960
3.2303014 1.3406349 -0.61795181 4292616960
3.2254508 1.338744 -0.61867094 4292616960
3.2252626 1.3387859 -0.61956137 4292616960
3.2206416 1.3369882 -0.61887854 4292486400
3.2402103 1.3452238 -0.62211895 4292747520
3.2312715 1.3416337 -0.61916268 4292616960
3.2432265 1.3467107 -0.61948472 4292747520
3.2378945 1.344615 -0.61578155 4292747520
3.264312 1.3556932 -0.61737633 4293008640
3.2790287 1.3619167 -0.61599481 4293139200
3.2842281 1.3641905 -0.61208439 4293139200
3.282635 1.3636444 -0.60619366 4293139200
3.2866988 1.3654459 -0.60064083 4293139200
3.3010874 1.371533 -0.59624213 4293269760
3.2829711 1.3641253 -0.58529699 4293139200
3.2798698 1.3629498 -0.57640487 4293008640
3.2696002 1.3587971 -0.56562692 4292878080
3.2622256 1.3558452 -0.55475122 4292878080
3.2584398 1.3543825 -0.54388481 4292747520
3.270936 1.3596817 -0.53508574 4292878080
3.2798829 1.3635067 -0.52502412 4293008640
3.3043454 1.373777 -0.5167284 4293139200
3.2946174 1.3698443 -0.50244886 4293139200
3.2644327 1.3574109 -0.48464242 4292747520
3.2595911 1.3555052 -0.47019532 4292747520
3.2660387 1.35829 -0.45684138 4292747520
3.2732573 1.3613949 -0.44302341 4292878080
3.2693839 1.35989 -0.4271957 4292747520
3.2489421 1.3514978 -0.40884492 4292616960
3.268528 1.3597422 -0.3950797 4292747520
3.2798858 1.3645669 -0.37972835 4292878080
3.282953 1.3659452 -0.36292508 4292878080
3.248791 1.3518448 -0.34177405 4292486400
3.2502928 1.3525707 -0.32417575 4292486400
3.2654233 1.3589635 -0.30749092 4292616960
3.2735853 1.3624589 -0.28968486 4292747520
3.2389212 1.3481437 -0.26792777 4292355840
3.2502706 1.3529639 -0.24982205 4292486400
3.2737327 1.3628229 -0.23217276 4292616960
3.2797215 1.3654145 -0.21285911 4292747520
3.2924876 1.3708256 -0.19364408 4292878080
3.2528825 1.3544487 -0.1713064 4292486400
3.2720072 1.3625051 -0.15200672 4292616960
3.2789805 1.3655062 -0.13181899 4292616960
3.2464881 1.3520845 -0.11006522 4292355840
3.2760258 1.3644755 -0.09031979 4292616960
3.2788656 1.3657566 -0.069538295 4292616960
3.2932963 1.3718624 -0.048821937 4292747520
3.2671998 1.3610991 -0.027528608 4292486400
3.2947564 1.3726695 -0.0066551063 4292747520
3.3055985 1.3772829 0.014502352 4292878080
3.290282 1.371006 0.035498615 4292747520
3.3115122 1.3799453 0.056882136 4293008640
3.3273971 1.3866601 0.078345634 4293139200
3.3304794 1.3880446 0.09954077 4293139200
3.3023164 1.3764168 0.11953488 4292878080
3.3209131 1.3842627 0.14102364 4293008640
3.3305497 1.3883777 0.16215248 4293139200
3.3367531 1.3910633 0.18303287 4293269760
3.2789304 1.3670771 0.19988932 4292747520
3.3298867 1.3884069 0.22310065 4293139200
