# .PCD v0.7 - Point Cloud Data file format
VERSION 0.7
FIELDS x y z rgba
SIZE 4 4 4 4
TYPE F F F U
COUNT 1 1 1 1
WIDTH 1105
HEIGHT 1
VIEWPOINT 0 0 0 1 0 0 0
POINTS 1105
DATA ascii
3.3023124 0.37256458 0.33580351 4293269760
3.3110802 0.37366742 0.32034588 4293269760
3.3291013 0.37581384 0.30528894 4293400320
3.2942812 0.37200508 0.28513822 4293269760
3.2746131 0.36990264 0.26626092 4293139200
3.3101532 0.37402636 0.25148335 4293269760
3.3108609 0.37422255 0.2335889 4293269760
3.3133297 0.3746177 0.21554078 4293269760
3.2874422 0.37181166 0.19554107 4293139200
3.3088894 0.37434983 0.17815806 4293269760
3.3201003 0.3757332 0.1598414 4293269760
3.3216662 0.37602749 0.14080988 4293269760
3.2883399 0.37237766 0.12032862 4293139200
3.2934997 0.37307754 0.10128048 4293139200
3.2995536 0.37387899 0.082079604 4293269760
3.3054504 0.37466317 0.062710822 4293269760
3.2731891 0.37112883 0.042704385 4293139200
3.275665 0.37152523 0.023274129 4293139200
3.2936072 0.3736735 0.0038012476 4293139200
3.2516234 0.36903387 -0.015603055 4293008640
3.2665052 0.37083575 -0.035110466 4293139200
3.285105 0.37306014 -0.054824099 4293139200
3.2912405 0.37387237 -0.074421659 4293139200
3.2660408 0.37113053 -0.093121462 4293139200
3.3078549 0.37599087 -0.1137364 4293269760
3.3134186 0.3767395 -0.13326317 4293269760
3.3064802 0.37606892 -0.15213963 4293269760
3.2689903 0.37192789 -0.16919382 4293139200
3.2891181 0.37433007 -0.18895283 4293139200
3.2962229 0.37525356 -0.2079173 4293269760
3.2981653 0.37559056 -0.2263853 4293269760
3.2963617 0.37550154 -0.24435489 4293269760
3.3209195 0.37841091 -0.26414004 4293269760
3.3262494 0.37913394 -0.28227201 4293400320
3.3272023 0.37935898 -0.29976079 4293400320
3.2917764 0.37544188 -0.3134695 4293269760
3.3121066 0.37787229 -0.33206803 4293269760
3.310107 0.3777599 -0.34815732 4293269760
3.3090518 0.37775481 -0.36394969 4293269760
3.3084292 0.37779871 -0.37938166 4293269760
3.2750757 0.37410995 -0.39048678 4293269760
3.3357859 0.38114807 -0.41249233 4293400320
3.3300815 0.38061216 -0.42607129 4293400320
3.331562 0.38089567 -0.44007677 4293400320
3.3289583 0.38071266 -0.45304686 4293400320
3.3199747 0.37980056 -0.46459603 4293400320
3.2923663 0.37675989 -0.4728803 4293269760
3.306757 0.37851629 -0.4866125 4293400320
3.3060606 0.3785488 -0.49762276 4293400320
3.3062274 0.37867966 -0.50819689 4293400320
3.3010938 0.37820393 -0.51736361 4293400320
3.3030984 0.37854412 -0.52704936 4293400320
3.3007042 0.37838069 -0.53543037 4293400320
3.3002367 0.37843731 -0.54350311 4293400320
3.2993183 0.37844187 -0.55087435 4293400320
3.2947481 0.37802771 -0.55699062 4293400320
3.2791405 0.37634826 -0.56056011 4293269760
3.2698827 0.37539515 -0.56452256 4293269760
3.2507353 0.37330726 -0.56608063 4293269760
3.2374465 0.37188956 -0.56795746 4293139200
3.251518 0.37360889 -0.57397336 4293269760
3.2251198 0.3706854 -0.57217193 4293139200
3.2296267 0.37130672 -0.57516783 4293139200
3.2293546 0.37137929 -0.57664716 4293139200
3.2501979 0.37387615 -0.58123124 4293269760
3.2501545 0.37397483 -0.58141011 4293269760
3.2627923 0.37553003 -0.58317894 4293269760
3.2483075 0.37396857 -0.57942557 4293269760
3.2801342 0.37772965 -0.58324569 4293269760
3.2844522 0.37832913 -0.58147585 4293400320
3.2815633 0.37809947 -0.5777545 4293269760
3.296813 0.37995613 -0.57654071 4293400320
3.2947536 0.37982133 -0.57161701 4293400320
3.2992032 0.38043529 -0.56715667 4293400320
3.2959259 0.38015941 -0.5607115 4293400320
3.3040254 0.38119325 -0.55554438 4293400320
3.3028584 0.38115963 -0.54816598 4293400320
3.2982702 0.38073134 -0.53960305 4293400320
3.2867527 0.37950367 -0.52932787 4293269760
3.2829297 0.37916204 -0.5197258 4293269760
3.2661581 0.37732652 -0.50753993 4293269760
3.2793376 0.37894469 -0.49943811 4293269760
3.3005481 0.38148999 -0.49188194 4293400320
3.3172493 0.38351572 -0.48296985 4293400320
3.3087137 0.38262865 -0.46981144 4293400320
3.2808576 0.37950972 -0.45351604 4293269760
3.2659013 0.37787881 -0.43865779 4293139200
3.2861564 0.38031486 -0.42801404 4293269760
3.3070164 0.38282168 -0.41680124 4293269760
3.2945123 0.3814728 -0.40088618 4293269760
3.2776303 0.37961674 -0.38412395 4293269760
3.2775323 0.37970054 -0.3689805 4293269760
3.3039546 0.3828519 -0.35629162 4293269760
3.3055964 0.38313726 -0.34040573 4293269760
3.2641251 0.37843269 -0.31990513 4293139200
3.25894 0.3779262 -0.30284485 4293139200
3.2812133 0.38059875 -0.28791848 4293139200
3.2826467 0.38085866 -0.27072814 4293139200
3.2613225 0.37848198 -0.25147483 4293139200
3.2770226 0.38039428 -0.23483555 4293139200
3.291837 0.38220462 -0.21771365 4293269760
3.2836273 0.38134637 -0.19879977 4293139200
3.3030019 0.38368633 -0.18128154 4293269760
3.2635572 0.3792046 -0.16045657 4293139200
3.2905173 0.38242495 -0.14279969 4293139200
3.2879312 0.38221788 -0.12356896 4293139200
3.2503088 0.37794361 -0.10312613 4293008640
3.2695506 0.3802695 -0.084490366 4293139200
3.2928891 0.38307217 -0.06562297 4293139200
3.2956896 0.38349032 -0.046124578 4293269760
3.268569 0.3804321 -0.02630537 4293139200
3.2938516 0.38346255 -0.0068980423 4293139200
3.3011091 0.38439906 0.012744503 4293269760
3.3045518 0.38489243 0.032417756 4293269760
3.3039298 0.3849133 0.052028492 4293269760
3.3367538 0.388825 0.072293244 4293400320
3.3388844 0.38916707 0.092019096 4293400320
3.3240824 0.38753858 0.11110114 4293269760
3.3097987 0.3859697 0.12990564 4293269760
3.3189185 0.38712531 0.14945097 4293269760
3.3343811 0.38902029 0.16925587 4293400320
3.3052871 0.38572538 0.18653779 4293269760
3.3208745 0.38763562 0.2060522 4293269760
3.3434784 0.39036477 0.22598471 4293400320
3.3347774 0.38944554 0.24363032 4293400320
3.310339 0.38669083 0.25967723 4293269760
3.3397963 0.39022151 0.27968162 4293400320
3.3518176 0.39171973 0.29813391 4293400320
3.3513536 0.39176184 0.31520385 4293400320
3.3374131 0.39023095 0.33058259 4293400320
3.2829566 0.38396892 0.34124562 4293269760
3.3463063 0.39146236 0.36379337 4293400320
3.3427002 0.39113808 0.3789449 4293400320
3.3434205 0.39131942 0.39414501 4293400320
3.3304791 0.38990432 0.4072364 4293400320
3.2921898 0.38552552 0.41654989 4293269760
3.3410387 0.39133412 0.43644211 4293400320
3.3548884 0.39305234 0.45152423 4293530880
3.3397768 0.39138338 0.46219322 4293400320
3.3461342 0.39222622 0.47526675 4293530880
3.3332701 0.39081985 0.48504496 4293400320
3.3010263 0.38714406 0.49129558 4293400320
3.3393161 0.391727 0.50748092 4293530880
3.3377557 0.39164448 0.51714396 4293530880
3.3394074 0.3919386 0.52670461 4293530880
3.3382671 0.39190596 0.53521502 4293530880
3.3363161 0.39177862 0.54296476 4293530880
3.3415649 0.39249581 0.55125892 4293530880
3.3327181 0.39156038 0.55657917 4293530880
3.3321066 0.39159101 0.56260312 4293530880
3.3293467 0.39136991 0.56759953 4293530880
3.319752 0.39034674 0.57074714 4293400320
3.3288496 0.39151815 0.57643253 4293530880
3.3150468 0.39000097 0.57747447 4293400320
3.3096831 0.38947475 0.57928663 4293400320
3.3142173 0.39011174 0.58214569 4293400320
3.3139734 0.3901878 0.58348256 4293400320
3.3138452 0.39027786 0.58415151 4293400320
3.3172636 0.39078546 0.58475608 4293400320
3.3271506 0.39205468 0.58580828 4293530880
3.3263776 0.39207056 0.58429241 4293530880
3.3285706 0.39243594 0.58260727 4293530880
3.3384192 0.39370319 0.58156496 4293530880
3.3320434 0.39306083 0.57701224 4293530880
3.3360808 0.39364514 0.57358408 4293530880
3.3287294 0.39288816 0.56753087 4293530880
3.3284252 0.39296171 0.56202304 4293530880
3.3312387 0.39340326 0.55637771 4293530880
3.3323901 0.39364937 0.54979622 4293530880
3.3237405 0.39273977 0.54097342 4293400320
3.3142188 0.39172709 0.53141987 4293400320
3.3071101 0.39099896 0.52167571 4293400320
3.32181 0.39284557 0.51474005 4293400320
3.3500171 0.39628872 0.50917417 4293530880
3.3199425 0.39284918 0.49417925 4293400320
3.3188925 0.3928377 0.48302829 4293400320
3.2836659 0.38940173 0.39510098 4293269760
3.3300006 0.39500245 0.3858535 4293400320
3.3402278 0.39632952 0.37173688 4293400320
3.3145599 0.39340425 0.35328376 4293400320
3.2813148 0.38957936 0.3339071 4293269760
3.312803 0.39342722 0.32074013 4293269760
3.3229012 0.39474079 0.30493826 4293400320
3.301954 0.39237225 0.286006 4293269760
3.2724044 0.3889817 0.26627266 4293139200
3.30792 0.39331254 0.25149521 4293269760
3.3086267 0.39351296 0.23360077 4293269760
3.3110931 0.39392263 0.21555266 4293269760
3.2753096 0.38978827 0.19496368 4293139200
3.3066545 0.39362922 0.17816992 4293269760
3.3228164 0.39566758 0.16009183 4293269760
3.3194213 0.39538163 0.14082178 4293269760
3.2761936 0.39035743 0.11997779 4293139200
3.301198 0.39344886 0.10159699 4293269760
3.3062561 0.39416811 0.08231321 4293269760
3.3081782 0.39451444 0.06281659 4293269760
3.2660093 0.38961014 0.042651631 4293139200
3.2833772 0.39179525 0.023355858 4293139200
3.2953489 0.39333859 0.0038174135 4293269760
3.2543857 0.38857308 -0.015615514 4293008640
3.2692566 0.39046195 -0.035152413 4293139200
3.2878428 0.39279494 -0.054895464 4293139200
3.2989364 0.39423534 -0.074634947 4293269760
3.2638261 0.39016253 -0.093109742 4293139200
3.2956874 0.39408192 -0.11338267 4293269760
3.3094256 0.39583939 -0.13318098 4293269760
3.3141551 0.39652172 -0.15258485 4293269760
3.2717292 0.39157009 -0.16943905 4293139200
3.2967975 0.39468205 -0.18951122 4293269760
3.2973566 0.39486548 -0.20811845 4293269760
3.3008776 0.39540309 -0.22671379 4293269760
3.284219 0.39352682 -0.24360828 4293139200
3.3137126 0.39717171 -0.26373407 4293269760
3.3338814 0.39970237 -0.28310046 4293400320
3.3298838 0.39934087 -0.30019474 4293400320
3.2895367 0.39462554 -0.31345767 4293269760
3.3049123 0.39658269 -0.33156046 4293269760
3.3127911 0.39764231 -0.34866518 4293269760
3.3166685 0.39822263 -0.36502421 4293400320
3.306392 0.39710581 -0.37939459 4293269760
3.277288 0.39372993 -0.39100519 4293269760
3.3295705 0.40011594 -0.41199258 4293400320
3.3278112 0.40001985 -0.42605934 4293400320
3.3292902 0.40031207 -0.44006482 4293400320
3.3316071 0.40070471 -0.45370483 4293400320
3.3226266 0.39974025 -0.46527261 4293400320
3.2989652 0.39701107 -0.47413984 4293400320
3.3005009 0.39730805 -0.4860118 4293400320
3.303803 0.39781713 -0.49761087 4293400320
3.3088765 0.39853916 -0.5089398 4293400320
3.3027625 0.39791548 -0.5179671 4293400320
3.3008409 0.39779544 -0.5270375 4293400320
3.3033488 0.39820793 -0.53621399 4293400320
3.3028791 0.39826182 -0.54429847 4293400320
3.2872672 0.39649194 -0.54922622 4293400320
3.2885776 0.39675891 -0.55631632 4293400320
3.2768965 0.39546031 -0.56054831 4293269760
3.2627518 0.39386368 -0.56366563 4293269760
3.2485094 0.39225391 -0.56606895 4293269760
3.2450097 0.39193815 -0.56966263 4293269760
3.2580912 0.39362162 -0.5755161 4293269760
3.2527013 0.39307708 -0.57744861 4293269760
3.2186141 0.38906872 -0.57358843 4293139200
3.2618136 0.39438683 -0.58283031 4293269760
3.2518787 0.39329186 -0.58191913 4293269760
3.2479248 0.3929182 -0.58139843 4293269760
3.2605531 0.39454705 -0.5831672 4293269760
3.2558532 0.3940824 -0.58115858 4293269760
3.2866809 0.39791113 -0.58479923 4293400320
3.2773077 0.39688119 -0.580598 4293269760
3.293978 0.39899963 -0.58032668 4293400320
3.2896569 0.39857963 -0.5756731 4293400320
3.2924888 0.39902437 -0.57160515 4293400320
3.287149 0.39847988 -0.56546158 4293400320
3.2985537 0.39996165 -0.56153274 4293400320
3.3017528 0.40045017 -0.55553246 4293400320
3.2956882 0.39981651 -0.54734075 4293400320
3.2960002 0.39995459 -0.53959119 4293400320
3.2795887 0.39806581 -0.52852625 4293269760
3.2767463 0.39782032 -0.51909262 4293269760
3.2639084 0.39636248 -0.50752819 4293269760
3.2770782 0.39805734 -0.49942631 4293269760
3.3040967 0.40143242 -0.4927384 4293400320
3.319875 0.40344507 -0.48367357 4293400320
3.2975852 0.40083855 -0.46854252 4293269760
3.2785947 0.39863086 -0.4535042 4293269760
3.2547922 0.39583749 -0.43745574 4293139200
3.2838888 0.39946663 -0.42800218 4293269760
3.2948835 0.40089834 -0.41554701 4293269760
3.2922378 0.40067303 -0.40087432 4293269760
3.2615621 0.39704081 -0.38249314 4293139200
3.2792144 0.39928129 -0.36941326 4293269760
3.3016717 0.40210676 -0.3562797 4293269760
3.3131869 0.40360254 -0.34141159 4293269760
3.2668085 0.39805621 -0.32037792 4293139200
3.266571 0.39812115 -0.30375245 4293139200
3.2789435 0.39972061 -0.28790665 4293139200
3.2812951 0.40010068 -0.27079222 4293139200
3.2541165 0.39688507 -0.25108108 4293139200
3.2698033 0.39888832 -0.23446858 4293139200
3.2895575 0.40138775 -0.21770178 4293269760
3.2863073 0.4010852 -0.19908823 4293139200
3.2968719 0.40246597 -0.1810585 4293269760
3.2712102 0.39943117 -0.16093296 4293139200
3.2752743 0.40001929 -0.1422244 4293139200
3.2945793 0.4024663 -0.12389322 4293269760
3.2530153 0.39748907 -0.10327213 4293139200
3.2861364 0.40162221 -0.084966995 4293139200
3.2906044 0.40226018 -0.065611087 4293139200
3.3072977 0.40439075 -0.046308007 4293269760
3.2752333 0.4005689 -0.026366005 4293139200
3.3064537 0.40447411 -0.0069182059 4293269760
3.3077497 0.40472558 0.012790401 4293269760
3.3022559 0.40414757 0.032429691 4293269760
3.3056037 0.40464982 0.052102722 4293269760
3.3344345 0.40826735 0.072305292 4293400320
3.3365629 0.40862167 0.092031159 4293400320
3.3217704 0.40690681 0.11111315 4293269760
3.3124554 0.40586123 0.13011201 4293269760
3.3265252 0.40767643 0.149909 4293269760
3.3356185 0.40888351 0.16944838 4293400320
3.3079412 0.40559009 0.18682915 4293269760
3.3274782 0.40807611 0.20661706 4293400320
3.3262942 0.40802571 0.22499332 4293400320
3.3423536 0.41008767 0.24436523 4293400320
3.3129799 0.40658405 0.26007715 4293269760
3.3420625 0.41024292 0.28007823 4293400320
3.3494804 0.41124797 0.29814604 4293400320
3.3638403 0.4131048 0.31660968 4293530880
3.3459632 0.41100916 0.3316718 4293400320
3.284615 0.40358019 0.34166786 4293269760
3.3489048 0.41156334 0.36434174 4293400320
3.3403664 0.41061252 0.378957 4293400320
3.3509438 0.41200811 0.39531896 4293530880
3.3281524 0.40930739 0.40724844 4293400320
3.2898896 0.40470549 0.41656178 4293269760
3.3387034 0.41079843 0.43645421 4293400320
3.3525431 0.41259718 0.45153639 4293530880
3.352191 0.41265285 0.46424615 4293530880
3.3388798 0.4111158 0.474581 4293530880
3.3358495 0.41084245 0.48577166 4293530880
3.2987161 0.40637487 0.4913075 4293400320
3.3320715 0.41057703 0.50674736 4293530880
3.3354187 0.411089 0.517156 4293530880
3.3428755 0.41210738 0.52763247 4293530880
3.3359284 0.41135332 0.53522706 4293530880
3.3388774 0.41181782 0.54377401 4293530880
3.3392227 0.41196224 0.55127096 4293530880
3.3303816 0.41097525 0.55659121 4293530880
3.3239956 0.41029069 0.56164038 4293530880
3.3319039 0.41136813 0.56844568 4293530880
3.3272061 0.41089222 0.57244104 4293530880
3.331404 0.41151348 0.57729137 4293530880
3.3166313 0.40979528 0.57816786 4293400320
3.3210485 0.41044438 0.58169448 4293530880
3.3070006 0.40881526 0.58129907 4293400320
3.3253322 0.41118297 0.58590418 4293530880
3.3115163 0.40958256 0.58416349 4293400320
3.3198197 0.41071382 0.5856297 4293530880
3.3101466 0.40962505 0.58323854 4293400320
3.324038 0.41144824 0.58430445 4293530880
3.3106828 0.40990472 0.57989848 4293400320
3.3168969 0.4107804 0.57823735 4293400320
3.3296978 0.41247156 0.57702434 4293530880
3.3337319 0.41307938 0.57359618 4293530880
3.335192 0.41336942 0.56904429 4293530880
3.3269827 0.41246316 0.56218743 4293530880
3.3288915 0.41280946 0.55638981 4293530880
3.3339589 0.41354749 0.55045456 4293530880
3.3222919 0.41221324 0.54113102 4293400320
3.3118815 0.41103435 0.53143191 4293400320
3.3096795 0.41087252 0.52246088 4293400320
3.3203704 0.41230929 0.51489216 4293400320
3.344023 0.41535455 0.50863475 4293530880
3.3339441 0.41421762 0.49662399 4293530880
3.326371 0.41339126 0.48446959 4293400320
3.2862699 0.40914452 0.39570555 4293269760
3.3357692 0.41541299 0.38680676 4293400320
3.3418093 0.41628024 0.37218797 4293400320
3.3088551 0.41229713 0.35293794 4293269760
3.292814 0.41041663 0.33532512 4293269760
3.3065052 0.41223612 0.32036975 4293269760
3.3245001 0.41459262 0.30531296 4293400320
3.2962492 0.41119099 0.28572667 4293269760
3.2700846 0.40804756 0.26628453 4293139200
3.3006268 0.41196883 0.25113124 4293269760
3.3112292 0.413407 0.23396203 4293269760
3.308744 0.41321424 0.21556467 4293269760
3.2690227 0.40837744 0.19473988 4293139200
3.3142161 0.41413146 0.17871541 4293269760
3.3155012 0.41440946 0.15986536 4293269760
3.3184624 0.41489691 0.14089312 4293269760
3.2788243 0.41006562 0.12017102 4293139200
3.2988522 0.41268376 0.10160898 4293269760
3.2917628 0.41191554 0.082023531 4293269760
3.3063235 0.41385248 0.062838025 4293269760
3.2686477 0.40926069 0.042728011 4293139200
3.2850106 0.41142324 0.023395799 4293139200
3.2947872 0.41276321 0.0038313523 4293269760
3.2520695 0.40753627 -0.015603686 4293008640
3.2768512 0.41075361 -0.035247825 4293139200
3.2855012 0.4119533 -0.054883514 4293139200
3.3015463 0.41407955 -0.074735485 4293269760
3.2704272 0.41029942 -0.093353122 4293139200
3.3032551 0.41452888 -0.1137125 4293269760
3.3137672 0.41596389 -0.13343906 4293269760
3.3117144 0.41582441 -0.15256922 4293269760
3.2733593 0.41113254 -0.16963272 4293139200
3.2894924 0.41327235 -0.18921416 4293269760
3.2965846 0.41427886 -0.20820637 4293269760
3.2990177 0.41470101 -0.22673592 4293269760
3.2868216 0.41328669 -0.2439637 4293269760
3.3113458 0.41648242 -0.26372203 4293269760
3.3216126 0.41788882 -0.28224799 4293400320
3.3195949 0.4177523 -0.29946893 4293400320
3.3020022 0.415658 -0.31485879 4293269760
3.3025494 0.41584268 -0.33154842 4293269760
3.3104217 0.41694832 -0.34865311 4293269760
3.314296 0.41755134 -0.36501214 4293400320
3.293952 0.41510731 -0.37822571 4293269760
3.2705016 0.41227064 -0.39046308 4293269760
3.3311257 0.42001605 -0.41246822 4293400320
3.3205068 0.41879427 -0.42541671 4293400320
3.3269053 0.4197149 -0.44005269 4293400320
3.334136 0.42074054 -0.45436263 4293400320
3.320245 0.41910449 -0.46526051 4293400320
3.2966003 0.41623756 -0.4741278 4293400320
3.2972214 0.41642851 -0.48586529 4293400320
3.3112454 0.4183096 -0.49907768 4293400320
3.3065026 0.41782364 -0.50892776 4293400320
3.3003924 0.41716442 -0.51795506 4293400320
3.2984715 0.41703326 -0.52702546 4293400320
3.2960794 0.4168421 -0.53540647 4293400320
3.2858202 0.41565681 -0.54186469 4293400320
3.2995865 0.41750559 -0.55166858 4293400320
3.290128 0.41642007 -0.55696678 4293400320
3.2745409 0.41455895 -0.56053638 4293269760
3.2555168 0.41226181 -0.56280857 4293269760
3.2559488 0.41242352 -0.56776154 4293269760
3.2475622 0.41146931 -0.5705092 4293269760
3.2557468 0.41261086 -0.57550424 4293269760
3.2552454 0.41265321 -0.57830453 4293269760
3.2250893 0.40894103 -0.57514447 4293139200
3.2248163 0.40901047 -0.57662374 4293139200
3.2495363 0.41224498 -0.58190727 4293269760
3.240701 0.41122952 -0.58051187 4293269760
3.240772 0.41134173 -0.58003581 4293269760
3.2486219 0.41243953 -0.5802744 4293269760
3.2755187 0.41595221 -0.58322191 4293269760
3.2847147 0.41722143 -0.58231801 4293400320
3.2818294 0.41695833 -0.578592 4293400320
3.2833736 0.41725662 -0.57497656 4293400320
3.2950006 0.41883424 -0.57244229 4293400320
3.2945547 0.41887957 -0.56713277 4293400320
3.2961717 0.41918641 -0.5615207 4293400320
3.2993677 0.4196935 -0.55552042 4293400320
3.2982011 0.41964617 -0.54814202 4293400320
3.2945285 0.41927996 -0.53972828 4293400320
3.2860341 0.4183003 -0.5299359 4293269760
3.2782969 0.41741604 -0.51970202 4293269760
3.2664497 0.41600832 -0.50827903 4293269760
3.278631 0.4176555 -0.50001264 4293269760
3.3106065 0.42182118 -0.49405456 4293400320
3.322381 0.42341796 -0.48437712 4293400320
3.3040383 0.42118204 -0.46978742 4293400320
3.2713065 0.41711292 -0.45281208 4293269760
3.2600045 0.41577023 -0.43846199 4293139200
3.2855139 0.41911486 -0.42851245 4293269760
3.3072603 0.42198136 -0.41739839 4293400320
3.2800031 0.41860482 -0.39966226 4293269760
3.2591972 0.41604865 -0.38248122 4293139200
3.2768362 0.41839182 -0.36940128 4293269760
3.2943449 0.42071915 -0.35573503 4293269760
3.3009148 0.42165217 -0.34038174 4293269760
3.2545648 0.41583464 -0.31939691 4293139200
3.2641995 0.4171575 -0.3037405 4293139200
3.2765627 0.41882887 -0.28789464 4293139200
3.283855 0.41985351 -0.27118856 4293269760
3.239301 0.41425869 -0.25010747 4293008640
3.2674272 0.41794291 -0.23445663 4293139200
3.2921154 0.42118943 -0.21801765 4293269760
3.2938194 0.42150068 -0.1996768 4293269760
3.2994266 0.42231065 -0.18131877 4293269760
3.2539697 0.41659379 -0.16018881 4293139200
3.2769251 0.41962069 -0.14238787 4293139200
3.2971377 0.42229807 -0.12406788 4293269760
3.2456901 0.41581079 -0.10310252 4293008640
3.2748194 0.41962898 -0.084723644 4293139200
3.2940884 0.42218703 -0.065716676 4293269760
3.3048885 0.42366219 -0.046295907 4293269760
3.2754698 0.41998923 -0.026375297 4293139200
3.3040438 0.4237403 -0.0069061089 4293269760
3.3118813 0.42483717 0.012827432 4293269760
3.3097663 0.42465958 0.032538626 4293269760
3.3081515 0.42454597 0.052192714 4293269760
3.3320017 0.42769587 0.072317496 4293400320
3.3309522 0.42765531 0.091955923 4293400320
3.3292592 0.42753229 0.11145642 4293400320
3.3100371 0.42516127 0.13012412 4293269760
3.3379681 0.42883766 0.15054572 4293400320
3.3296263 0.4278619 0.16928011 4293400320
3.3154273 0.4261342 0.18740016 4293269760
3.3250465 0.427463 0.20662923 4293400320
3.3436553 0.42994663 0.22634353 4293400320
3.3398237 0.42954984 0.24437118 4293400320
3.3145123 0.4263941 0.26039964 4293269760
3.3399689 0.42975929 0.2801199 4293400320
3.3618495 0.4326666 0.29947698 4293530880
3.3613784 0.43270257 0.31662199 4293530880
3.3563333 0.43215072 0.33295444 4293530880
3.2970088 0.42461926 0.34321883 4293269760
3.3415215 0.43043959 0.36381772 4293400320
3.337919 0.43007305 0.37896925 4293400320
3.3342056 0.42969233 0.39364663 4293400320
3.3257129 0.42869654 0.40726066 4293400320
3.2963343 0.42501187 0.41769505 4293269760
3.3375835 0.43041986 0.43664005 4293400320
3.3412361 0.43098855 0.45035717 4293530880
3.3399055 0.4309158 0.46289784 4293530880
3.3462503 0.43183228 0.47598898 4293530880
3.3284926 0.42964324 0.48506925 4293400320
3.3011997 0.42622432 0.49205017 4293400320
3.3384507 0.43112624 0.50810176 4293530880
3.3427711 0.43178383 0.51868802 4293530880
3.3355198 0.4309493 0.5268715 4293530880
3.3383739 0.4314186 0.53602499 4293530880
3.3364227 0.43126833 0.54378629 4293530880
3.341661 0.43204641 0.55209106 4293530880
3.3283179 0.430426 0.55666798 4293530880
3.3254626 0.43015966 0.56231356 4293530880
3.329452 0.43077782 0.5684579 4293530880
3.3247571 0.43027449 0.57245326 4293530880
3.3196588 0.42971918 0.57569343 4293530880
3.3102798 0.42861059 0.57749861 4293400320
3.3186021 0.42979074 0.58170664 4293530880
3.3182421 0.42984888 0.58371538 4293530880
3.3179967 0.42992228 0.58505577 4293530880
3.3227515 0.43064311 0.58658808 4293530880
3.3090613 0.42897734 0.584176 4293400320
3.3311512 0.43194336 0.5873816 4293530880
3.3264706 0.43144453 0.58517528 4293530880
3.3180106 0.43045631 0.581622 4293530880
3.3193347 0.43073562 0.57910126 4293530880
3.3184431 0.43072832 0.57551223 4293530880
3.3347616 0.43295228 0.57420915 4293530880
3.3327281 0.43279824 0.56905657 4293530880
3.334305 0.43311268 0.56385225 4293530880
3.3362145 0.43347085 0.5580371 4293530880
3.3314941 0.43296924 0.55046678 4293530880
3.3286459 0.43271074 0.54257822 4293530880
3.3103347 0.4304449 0.53158891 4293400320
3.3121297 0.43078923 0.52324629 4293400320
3.3258309 0.43268067 0.51613206 4293400320
3.3415477 0.43483526 0.50864702 4293530880
3.3337817 0.43393943 0.49697971 4293530880
3.3278334 0.43327972 0.48505354 4293400320
3.2936785 0.42957196 0.39690301 4293269760
3.3283682 0.434205 0.38624799 4293400320
3.3442571 0.4363912 0.372749 4293400320
3.3113291 0.43221682 0.35347587 4293400320
3.2805028 0.42831436 0.33433282 4293269760
3.312933 0.43265817 0.32124236 4293400320
3.3319054 0.43524924 0.30623177 4293400320
3.2937994 0.43039525 0.2857388 4293269760
3.2824795 0.42903429 0.26750329 4293269760
3.2981727 0.43119884 0.2511434 4293269760
3.3087666 0.43269891 0.2339742 4293269760
3.3102405 0.43300876 0.21583456 4293269760
3.2804482 0.42923424 0.19557686 4293139200
3.3067987 0.43279424 0.17846084 4293269760
3.3278894 0.43566877 0.16059326 4293400320
3.3159912 0.43423167 0.14090532 4293269760
3.2813365 0.42981768 0.12036444 4293139200
3.296042 0.43185854 0.1016103 4293269760
3.2942657 0.43174383 0.082158893 4293269760
3.303859 0.43311718 0.0628502 4293269760
3.2751336 0.42947438 0.042856198 4293139200
3.2875178 0.43121338 0.023442924 4293139200
3.295505 0.43237725 0.0038469946 4293269760
3.2546 0.42713523 -0.015615796 4293139200
3.2744052 0.42984745 -0.035235755 4293139200
3.2880054 0.43174756 -0.054954529 4293139200
3.2941246 0.43266758 -0.074610814 4293269760
3.2729397 0.43000636 -0.093482859 4293139200
3.29548 0.43308082 -0.11351729 4293269760
3.3063371 0.43462339 -0.13322704 4293269760
3.3132777 0.43565252 -0.1527434 4293269760
3.2758625 0.43085727 -0.16987757 4293139200
3.2969306 0.4337413 -0.18977214 4293269760
3.2990658 0.4341391 -0.20850708 4293269760
3.2916028 0.43327549 -0.22638345 4293269760
3.2794173 0.43179035 -0.24358423 4293139200
3.3138084 0.43642884 -0.2641038 4293269760
3.3290045 0.43854481 -0.28307605 4293400320
3.3200741 0.43748742 -0.29972449 4293400320
3.2995279 0.43490058 -0.31484661 4293269760
3.305007 0.43573794 -0.33203188 4293269760
3.3217449 0.43805793 -0.35009605 4293400320
3.3206809 0.43803418 -0.36597759 4293400320
3.3052721 0.43612033 -0.37979835 4293269760
3.2729704 0.43197906 -0.39103919 4293269760
3.3335462 0.44007757 -0.41306561 4293400320
3.3367009 0.44060928 -0.42780033 4293400320
3.3293223 0.43975171 -0.44069099 4293400320
3.3316321 0.44017139 -0.45435032 4293400320
3.3173304 0.43839902 -0.46518931 4293400320
3.2941232 0.43544996 -0.47411564 4293400320
3.2956553 0.435765 -0.4859876 4293400320
3.2940488 0.43566534 -0.49684724 4293400320
3.3040161 0.43709397 -0.50891554 4293400320
3.3028078 0.43704638 -0.51871204 4293400320
3.3008857 0.43690395 -0.52779603 4293400320
3.2984927 0.43669882 -0.53618979 4293400320
3.2882388 0.43545374 -0.54265982 4293400320
3.2922122 0.43608925 -0.55083829 4293400320
3.2876501 0.43559542 -0.55695462 4293400320
3.2769611 0.4342902 -0.56136131 4293269760
3.2716284 0.43369275 -0.56600803 4293269760
3.2583792 0.4320465 -0.56860179 4293269760
3.2539036 0.43156078 -0.57204223 4293269760
3.2532921 0.43158612 -0.5754922 4293269760
3.2279239 0.42833111 -0.57387215 4293139200
3.2324181 0.42903134 -0.57687449 4293139200
3.2223828 0.42780557 -0.57661182 4293139200
3.2519639 0.43183112 -0.58276975 4293269760
3.2519188 0.43192929 -0.5829491 4293269760
3.255743 0.43254027 -0.58314329 4293269760
3.2461681 0.43137333 -0.58026236 4293269760
3.2549777 0.43264508 -0.57999104 4293269760
3.2822325 0.43636546 -0.58230585 4293400320
3.2930193 0.4379006 -0.58099157 4293400320
3.2847977 0.43691158 -0.57564896 4293400320
3.2925086 0.43803805 -0.57243007 4293400320
3.2959712 0.43860006 -0.56779385 4293400320
3.3073616 0.44021553 -0.5638411 4293400320
3.3040576 0.43987796 -0.55671906 4293400320
3.3005948 0.43951863 -0.5489431 4293400320
3.3018184 0.43978196 -0.54132009 4293400320
3.2884395 0.43810254 -0.5307135 4293400320
3.2718964 0.43600097 -0.51906854 4293269760
3.2639747 0.4350453 -0.50826693 4293269760
3.2859471 0.438068 -0.50149626 4293269760
3.2992027 0.43993109 -0.49271411 4293400320
3.3149564 0.44212729 -0.48364916 4293400320
3.3064401 0.44109133 -0.4704735 4293400320
3.278645 0.43748608 -0.45416027 4293269760
3.2686346 0.43624881 -0.43994445 4293269760
3.2937644 0.43969432 -0.42990267 4293269760
3.3047495 0.4412553 -0.41738614 4293400320
3.2824326 0.43837598 -0.40025011 4293269760
3.2655828 0.43622422 -0.38350987 4293139200
3.2792721 0.43814525 -0.36994484 4293269760
3.3016973 0.44123244 -0.35678798 4293269760
3.3082664 0.44220451 -0.34138721 4293269760
3.2570231 0.43545935 -0.31986937 4293139200
3.2617173 0.43617973 -0.3037284 4293139200
3.2740703 0.43792295 -0.28788251 4293139200
3.2714777 0.43767035 -0.27035975 4293139200
3.2453246 0.43426958 -0.25075158 4293139200
3.26494 0.43698335 -0.23444453 4293139200
3.2846637 0.43971255 -0.21767758 4293269760
3.2863641 0.4400332 -0.19936432 4293269760
3.2919648 0.44087532 -0.18103424 4293269760
3.2669311 0.43762037 -0.16093801 4293139200
3.28334 0.43990794 -0.14276361 4293139200
3.2946243 0.44151062 -0.12405566 4293269760
3.2531223 0.43604937 -0.10340587 4293139200
3.2723219 0.43871126 -0.084711507 4293139200
3.2856996 0.44059461 -0.065586865 4293139200
3.307322 0.44358283 -0.046353385 4293269760
3.2753046 0.4393875 -0.0263821 4293139200
3.3011694 0.44294491 -0.0068931053 4293269760
3.3077703 0.44392243 0.012833669 4293269760
3.3171496 0.44527274 0.032647789 4293269760
3.3155346 0.44514975 0.052360803 4293269760
3.3294559 0.44710988 0.072329849 4293400320
3.3355429 0.44802013 0.092164941 4293400320
3.3316672 0.4475944 0.11163434 4293400320
3.312458 0.44511127 0.13033085 4293269760
3.3255141 0.44695705 0.15011196 4293400320
3.3320286 0.4479256 0.16954388 4293400320
3.3079429 0.44478646 0.187133 4293269760
3.3225017 0.4468354 0.20664157 4293400320
3.3450513 0.44995853 0.22662355 4293400320
3.3372664 0.44900799 0.24438357 4293400320
3.3119738 0.4457047 0.26041192 4293269760
3.3321209 0.44850707 0.27968884 4293400320
3.3592737 0.45225257 0.29948947 4293530880
3.3588023 0.45228565 0.31663448 4293530880
3.3488288 0.45104107 0.33247778 4293530880
3.2944808 0.44382724 0.34323108 4293269760
3.3438854 0.45056948 0.36436641 4293400320
3.3392978 0.45004913 0.3794288 4293400320
3.3414907 0.45044145 0.39482096 4293530880
3.3231606 0.44807118 0.40727299 4293400320
3.288887 0.44355324 0.41708437 4293269760
3.3310895 0.44933388 0.43613821 4293400320
3.3435817 0.45111489 0.45103154 4293530880
3.3559945 0.45288628 0.46549544 4293530880
3.3476043 0.451855 0.4765597 4293530880
3.3308389 0.44969454 0.48579624 4293530880
3.3025835 0.44598424 0.4926469 4293400320
3.327064 0.44938478 0.50677198 4293530880
3.3401999 0.45125687 0.51870042 4293530880
3.3466611 0.4522295 0.52904898 4293530880
3.3363526 0.4509398 0.5361253 4293530880
3.3285441 0.44998732 0.54293317 4293530880
3.3390884 0.45151272 0.55210346 4293530880
3.3306432 0.45047471 0.55749786 4293530880
3.3277881 0.45019165 0.56315225 4293530880
3.3181078 0.44898674 0.56697136 4293530880
3.3309867 0.45083031 0.57397932 4293530880
3.3215017 0.44965214 0.57646912 4293530880
3.3165162 0.44908214 0.5790441 4293530880
3.3209248 0.44978267 0.58257467 4293530880
3.3156826 0.44917852 0.58372772 4293530880
3.3154368 0.44925049 0.58506811 4293530880
3.3153067 0.4493385 0.58573884 4293530880
3.3065071 0.44825348 0.58418828 4293400320
3.3246746 0.45081949 0.58670551 4293530880
3.3200116 0.45029527 0.58450335 4293530880
3.3242345 0.45097485 0.58317459 4293530880
3.3216524 0.45073316 0.57996541 4293530880
3.3344345 0.45257393 0.57874262 4293530880
3.3335788 0.45256731 0.57446176 4293530880
3.3487151 0.45472938 0.57223862 4293530880
3.3268397 0.4518733 0.56303835 4293530880
3.3434095 0.4542315 0.55968463 4293530880
3.3435848 0.45436665 0.55290282 4293530880
3.3260698 0.45210126 0.54259062 4293530880
3.3165793 0.45092455 0.53301555 4293400320
3.3083713 0.44992167 0.52307004 4293400320
3.324158 0.45217767 0.51628458 4293400320
3.3474822 0.45545915 0.50995678 4293530880
3.3360996 0.45402625 0.49772272 4293530880
3.3350611 0.45399901 0.48649526 4293530880
3.2911215 0.44876 0.39691526 4293269760
3.3225932 0.45316067 0.38589019 4293400320
3.3416598 0.45587403 0.37276146 4293400320
3.3087566 0.45150802 0.35348821 4293400320
3.2927411 0.44944152 0.3358517 4293269760
3.3152893 0.45263124 0.32173276 4293400320
3.3194473 0.45331514 0.30533755 4293400320
3.3011098 0.45093134 0.28660715 4293269760
3.2700503 0.44681078 0.266711 4293139200
3.3022842 0.45132551 0.25166395 4293269760
3.3111336 0.45265073 0.23433582 4293269760
3.3076637 0.45229474 0.2158469 4293269760
3.277894 0.44834685 0.1955891 4293139200
3.3091702 0.45273626 0.17873995 4293269760
3.3199968 0.45433375 0.16035011 4293269760
3.3134074 0.45355174 0.14091769 4293269760
3.278779 0.44893607 0.12037667 4293139200
3.2987761 0.45178801 0.10178583 4293269760
3.2988691 0.4519189 0.082349695 4293269760
3.3007853 0.45229924 0.062853098 4293269760
3.2775319 0.4492352 0.042932961 4293139200
3.2849524 0.45036855 0.023455186 4293139200
3.294713 0.45182285 0.0038612641 4293269760
3.2520592 0.44609898 -0.015603653 4293139200
3.2668948 0.44824812 -0.035169929 4293139200
3.280484 0.45022744 -0.054859161 4293139200
3.2965031 0.45254084 -0.074711017 4293269760
3.2703819 0.44907755 -0.09347064 4293139200
3.293256 0.45233172 -0.11351714 4293269760
3.2988021 0.45321041 -0.1330149 4293269760
3.3115988 0.45508432 -0.15277316 4293269760
3.2831938 0.45130408 -0.17037916 4293269760
3.2844598 0.45159513 -0.18918976 4293269760
3.3014276 0.45404229 -0.2088076 4293269760
3.3028636 0.45435715 -0.22732396 4293269760
3.2867296 0.45225793 -0.24430665 4293269760
3.3161509 0.45641807 -0.26448539 4293400320
3.3165247 0.45658705 -0.28222334 4293400320
3.3283231 0.45832676 -0.30069262 4293400320
3.2920103 0.45345017 -0.3143633 4293269760
3.3073447 0.45567587 -0.33251515 4293269760
3.3142135 0.45673752 -0.34956396 4293400320
3.3115325 0.45648497 -0.36524341 4293400320
3.2987416 0.45484009 -0.37933323 4293269760
3.2654831 0.45037547 -0.3904388 4293269760
3.3358457 0.4601815 -0.41366282 4293400320
3.3340812 0.46005449 -0.42778784 4293400320
3.3355477 0.46037233 -0.44184953 4293530880
3.3241065 0.45891067 -0.453668 4293400320
3.3098178 0.45705527 -0.46448842 4293400320
3.2964377 0.45532385 -0.47480959 4293400320
3.3019552 0.45619813 -0.48728728 4293400320
3.3061545 0.45689055 -0.49905309 4293400320
3.3053346 0.45689014 -0.50950694 4293400320
3.3051035 0.45697057 -0.51946884 4293400320
3.2982881 0.45614141 -0.52778369 4293400320
3.2870946 0.45470667 -0.53474569 4293400320
3.3042245 0.45718381 -0.54571491 4293400320
3.2945061 0.45595157 -0.55164409 4293400320
3.2850606 0.45475602 -0.55694234 4293400320
3.2792625 0.45406365 -0.56218612 4293400320
3.2788136 0.45411026 -0.56768596 4293400320
3.255811 0.45103672 -0.56858957 4293269760
3.246459 0.44984987 -0.5711717 4293269760
3.2458482 0.44987163 -0.57461649 4293269760
3.2205 0.44646883 -0.57299238 4293139200
3.2152367 0.44584471 -0.57424951 4293139200
3.2295933 0.44793686 -0.57834613 4293139200
3.2591498 0.452135 -0.58450645 4293269760
3.2493513 0.45088196 -0.58293694 4293269760
3.2357674 0.4491033 -0.58001167 4293269760
3.2436042 0.4502925 -0.5802502 4293269760
3.266062 0.45350888 -0.58241373 4293269760
3.2796385 0.45549464 -0.58229357 4293400320
3.2865136 0.45655128 -0.5802902 4293400320
3.28708 0.45673266 -0.57649237 4293400320
3.2899051 0.45722702 -0.57241774 4293400320
3.3031278 0.45916438 -0.56946462 4293400320
3.2910717 0.45759267 -0.56149614 4293400320
3.2991467 0.45881519 -0.55631948 4293400320
3.2979822 0.45875451 -0.5489307 4293400320
3.3031836 0.45957774 -0.54196054 4293400320
3.2858353 0.45726749 -0.53070122 4293400320
3.278111 0.45629337 -0.52045429 4293269760
3.2613885 0.45406759 -0.50825471 4293269760
3.2784464 0.45653731 -0.50073606 4293269760
3.2965877 0.45915839 -0.49270174 4293400320
3.315901 0.46194324 -0.48415837 4293400320
3.3087218 0.46104288 -0.47115937 4293400320
3.2760444 0.45659333 -0.45414796 4293269760
3.2709501 0.4559809 -0.44059339 4293269760
3.2911506 0.45888942 -0.4298903 4293269760
3.2922986 0.45914575 -0.41613156 4293269760
3.2798266 0.45750484 -0.4002378 4293269760
3.2643774 0.45544815 -0.38366073 4293269760
3.281589 0.4579412 -0.37048823 4293269760
3.2892263 0.45910066 -0.35571051 4293269760
3.310564 0.46217006 -0.34188363 4293400320
3.2593629 0.45512676 -0.32034168 4293139200
3.2541931 0.45449948 -0.30325657 4293139200
3.2813334 0.45837843 -0.28873867 4293269760
3.2778289 0.45798343 -0.27108818 4293269760
3.2516303 0.45442128 -0.25142688 4293139200
3.2672815 0.45669839 -0.23478737 4293139200
3.2869906 0.45954269 -0.21799311 4293269760
3.288691 0.45987347 -0.19965224 4293269760
3.2893436 0.46005788 -0.18102188 4293269760
3.269275 0.45734787 -0.16116977 4293139200
3.2807243 0.45903996 -0.14275129 4293139200
3.2870507 0.46001676 -0.12385662 4293269760
3.2455802 0.45431334 -0.10323599 4293139200
3.2786238 0.45902428 -0.084930487 4293139200
3.2880306 0.46043199 -0.065673672 4293269760
3.2957721 0.46160734 -0.046215501 4293269760
3.2677402 0.45777914 -0.026329614 4293139200
3.2939358 0.46153614 -0.006870836 4293269760
3.3156247 0.46466401 0.012886211 4293269760
3.30955 0.46390721 0.03261178 4293269760
3.3079364 0.46377456 0.052295323 4293269760
3.3304055 0.46701398 0.072420567 4293400320
3.344557 0.46908984 0.092499599 4293400320
3.3379133 0.46825361 0.11194494 4293400320
3.3156788 0.46523276 0.1305739 4293269760
3.3327494 0.46771869 0.15057062 4293400320
3.3343098 0.46803179 0.16980782 4293400320
3.3052976 0.46405908 0.18714543 4293269760
3.3247864 0.46688563 0.20696124 4293400320
3.342375 0.46944693 0.22663611 4293400320
3.3395345 0.46914369 0.24475759 4293400320
3.3093231 0.46500018 0.26042438 4293269760
3.3343878 0.46861222 0.2801154 4293400320
3.3605294 0.47237706 0.29985377 4293530880
3.3600562 0.4724071 0.31701881 4293530880
3.3362906 0.46916673 0.33151215 4293400320
3.2869155 0.46232843 0.34273043 4293269760
3.3500664 0.47129473 0.36534438 4293530880
3.3464615 0.47088543 0.38055933 4293530880
3.3481538 0.47122064 0.39593723 4293530880
3.3254106 0.4681215 0.40788779 4293400320
3.2862487 0.46271297 0.41709673 4293269760
3.3323448 0.46929163 0.436665 4293400320
3.3497319 0.47183537 0.45223564 4293530880
3.3483953 0.47174639 0.46482772 4293530880
3.342943 0.47107852 0.47629136 4293530880
3.3320842 0.46964979 0.48638052 4293530880
3.3048286 0.46591261 0.49338993 4293400320
3.3243906 0.46876612 0.5067845 4293530880
3.3424091 0.47140378 0.5194729 4293530880
3.3390794 0.47103578 0.5282883 4293530880
3.3336701 0.470375 0.53613788 4293530880
3.3346651 0.47061682 0.54438072 4293530880
3.3412883 0.47165239 0.55292392 4293530880
3.3230791 0.46918786 0.55669284 4293530880
3.32511 0.46957675 0.56316477 4293530880
3.3252001 0.46969247 0.56865215 4293530880
3.328305 0.47023392 0.57399189 4293530880
3.3095493 0.46769136 0.57487142 4293400320
3.3138447 0.46840143 0.57905656 4293530880
3.3084934 0.4677504 0.58087575 4293400320
3.3227651 0.4698703 0.58545756 4293530880
3.3176413 0.46925223 0.58594126 4293530880
3.3126335 0.4686507 0.58575135 4293530880
3.3077421 0.46806571 0.58489001 4293400320
3.3258944 0.47073764 0.58740652 4293530880
3.3124557 0.46894541 0.58365715 4293530880
3.2981389 0.46702862 0.57907969 4293400320
3.3238494 0.4707723 0.58082968 4293530880
3.3268631 0.47130737 0.57790834 4293530880
3.3347909 0.47253838 0.57514715 4293530880
3.3323426 0.47230193 0.56991565 4293530880
3.3329406 0.47249693 0.5645383 4293530880
3.33289 0.47260064 0.55838859 4293530880
3.3408823 0.47384378 0.55291539 4293530880
3.3194709 0.47092262 0.54196537 4293530880
3.3187864 0.47093728 0.53381371 4293400320
3.3056953 0.46919397 0.52308255 4293400320
3.3312545 0.47292921 0.51781696 4293530880
3.336257 0.47375175 0.50867206 4293530880
3.3382964 0.4741548 0.49846593 4293530880
3.319423 0.47159162 0.48462063 4293400320
3.2923851 0.46849155 0.39740187 4293269760
3.3346519 0.47461367 0.38761598 4293400320
3.343869 0.47604084 0.37332281 4293530880
3.3159173 0.47218385 0.35455233 4293400320
3.2949936 0.46932477 0.33636639 4293269760
3.3076704 0.47124445 0.32126722 4293400320
3.3315411 0.47475812 0.30671009 4293400320
3.2934966 0.46946126 0.28619155 4293269760
3.2772615 0.46726683 0.26752791 4293269760
3.2946646 0.46986163 0.25130039 4293269760
3.3169796 0.47315744 0.23495224 4293400320
3.3171811 0.47330445 0.21665552 4293400320
3.2821429 0.46842965 0.19601379 4293269760
3.3123405 0.47285154 0.17906883 4293269760
3.3212512 0.4742406 0.16055353 4293400320
3.3245585 0.47483128 0.14151853 4293400320
3.2850142 0.46930942 0.12071554 4293269760
3.2996967 0.47152236 0.10190939 4293269760
3.3028717 0.47209403 0.0825288 4293269760
3.293644 0.47089538 0.062781014 4293269760
3.2748613 0.46833172 0.042945344 4293139200
3.2971244 0.47162935 0.023572793 4293269760
3.2902486 0.47076562 0.0038717315 4293269760
3.244458 0.46434033 -0.015567315 4293008640
3.2691798 0.46799079 -0.035211172 4293139200
3.2894468 0.47100604 -0.055042144 4293269760
3.2938135 0.4717488 -0.074698552 4293269760
3.2627652 0.46742579 -0.093316533 4293139200
3.2951627 0.47217855 -0.11366341 4293269760
3.306 0.47384787 -0.13340199 4293269760
3.3237276 0.47650427 -0.15344602 4293400320
3.275569 0.46972749 -0.17010985 4293139200
3.2956123 0.47271556 -0.1899754 4293269760
3.3036692 0.4739877 -0.20910795 4293269760
3.2912755 0.47232971 -0.22669899 4293269760
3.287991 0.47197634 -0.24458808 4293269760
3.3156707 0.47606194 -0.26465106 4293400320
3.3286073 0.47803503 -0.28347114 4293400320
3.3255997 0.47772184 -0.30068001 4293400320
3.3031125 0.47461334 -0.31566957 4293269760
3.3095622 0.47565582 -0.33299825 4293400320
3.3065774 0.47534424 -0.34903175 4293400320
3.3153586 0.47672155 -0.36595261 4293400320
3.2999732 0.47462851 -0.3797735 4293269760
3.2677224 0.47011131 -0.39101458 4293269760
3.3232872 0.47820964 -0.41243088 4293400320
3.3313479 0.47948414 -0.42777523 4293400320
3.3328128 0.47981063 -0.44183692 4293530880
3.3233387 0.47856402 -0.4539229 4293400320
3.3120048 0.47704893 -0.46516433 4293400320
3.3035319 0.47594431 -0.47620958 4293400320
3.3041422 0.4761458 -0.48799801 4293400320
3.2985458 0.47545362 -0.49830121 4293400320
3.2938147 0.47488526 -0.50813597 4293400320
3.3023891 0.47623217 -0.51945633 4293400320
3.3043771 0.47663063 -0.52918011 4293400320
3.3029602 0.4765383 -0.53775573 4293400320
3.2966249 0.47573674 -0.54489517 4293400320
3.29668 0.47585538 -0.55244964 4293400320
3.2921207 0.47530839 -0.55858588 4293400320
3.2804687 0.47373796 -0.56284326 4293400320
3.2712388 0.47251561 -0.56682849 4293269760
3.2531321 0.47001162 -0.56857723 4293269760
3.2486625 0.46947384 -0.57201773 4293269760
3.2480507 0.46949211 -0.57546771 4293269760
3.2227221 0.4659417 -0.57384789 4293139200
3.2223349 0.46599066 -0.57597917 4293139200
3.226933 0.46675918 -0.57833391 4293139200
3.2355423 0.46810704 -0.58073932 4293269760
3.2515459 0.47052339 -0.5837993 4293269760
3.2418704 0.46922907 -0.58157259 4293269760
3.2555478 0.47130954 -0.58285475 4293269760
3.2682416 0.47324818 -0.58327091 4293269760
3.2720597 0.4739036 -0.58141524 4293400320
3.283802 0.47570506 -0.58027774 4293400320
3.2941186 0.47730052 -0.57819122 4293400320
3.2959673 0.47767079 -0.5739336 4293400320
3.2955229 0.47770882 -0.56861055 4293400320
3.302016 0.47875077 -0.56381619 4293400320
3.2964215 0.47804233 -0.55630696 4293400320
3.2920926 0.47751641 -0.54839104 4293400320
3.2955699 0.47812071 -0.54114604 4293400320
3.2880058 0.47712493 -0.53147846 4293400320
3.266602 0.47412252 -0.51904386 4293269760
3.2674947 0.47435048 -0.50961512 4293269760
3.2855201 0.47706223 -0.50221932 4293400320
3.2987554 0.47907999 -0.49342135 4293400320
3.3144848 0.48145995 -0.48433977 4293400320
3.3019948 0.47974643 -0.4705784 4293400320
3.2772543 0.47625419 -0.45467961 4293269760
3.2682419 0.47504291 -0.44058099 4293269760
3.2835178 0.47735661 -0.42923632 4293269760
3.299391 0.47975764 -0.41736123 4293400320
3.2771091 0.4766182 -0.40022534 4293269760
3.2616723 0.47447142 -0.38364834 4293269760
3.2837863 0.477779 -0.3710314 4293269760
3.296339 0.47969824 -0.35676309 4293269760
3.3114066 0.48198342 -0.34224191 4293400320
3.2704487 0.47612482 -0.32168582 4293269760
3.263118 0.47515297 -0.30432856 4293139200
3.2687521 0.47606596 -0.2878578 4293139200
3.2849715 0.47851869 -0.27189228 4293269760
3.2489309 0.47336921 -0.25141451 4293139200
3.2668936 0.47607565 -0.23494223 4293139200
3.2891982 0.47941485 -0.21830846 4293269760
3.2867086 0.47914591 -0.19968531 4293269760
3.2964916 0.48066354 -0.18155394 4293269760
3.2616162 0.47567815 -0.16091333 4293139200
3.2838597 0.47901031 -0.14299433 4293269760
3.2803626 0.47859365 -0.1236948 4293269760
3.2442763 0.4734281 -0.10326813 4293139200
3.2726905 0.47766075 -0.084834747 4293139200
3.295119 0.48102242 -0.065858036 4293269760
3.3068817 0.48283026 -0.046398088 4293269760
3.2749155 0.47826198 -0.026397526 4293139200
3.3046951 0.4826977 -0.0068872673 4293269760
3.3162315 0.48447374 0.01291172 4293269760
3.3018465 0.48246825 0.032575883 4293269760
3.306921 0.48330185 0.052335322 4293269760
3.3276308 0.48641801 0.072433233 4293400320
3.3368242 0.48785406 0.09237577 4293400320
3.3351309 0.48770106 0.11195763 4293400320
3.320894 0.48571596 0.13090041 4293400320
3.3250275 0.48641372 0.1503602 4293400320
3.3315287 0.48745775 0.16982052 4293400320
3.3114314 0.4846153 0.18766111 4293269760
3.3318882 0.48769936 0.20758833 4293400320
3.3405032 0.48905358 0.22671103 4293400320
3.341681 0.48932096 0.24513181 4293400320
3.3164246 0.48572263 0.261213 4293400320
3.345408 0.49005708 0.28128746 4293400320
3.3626504 0.49267569 0.30030617 4293530880
3.3572485 0.4919818 0.31703159 4293530880
3.3433495 0.49004415 0.33250311 4293530880
3.284168 0.48147696 0.34274295 4293269760
3.3521843 0.49153107 0.36589345 4293530880
3.3485792 0.49110043 0.38113105 4293530880
3.3409324 0.49007782 0.39542726 4293530880
3.3226285 0.48749369 0.40790045 4293400320
3.2933159 0.48329562 0.41835517 4293269760
3.3442738 0.49086118 0.43860623 4293530880
3.3420241 0.49063 0.45158643 4293530880
3.3367696 0.48995841 0.46361583 4293530880
3.3450418 0.49127066 0.47700202 4293530880
3.3390853 0.49049661 0.48782259 4293530880
3.2971654 0.4844462 0.49267188 4293400320
3.3304095 0.48942363 0.50813943 4293530880
3.3396075 0.49087405 0.51948565 4293530880
3.3460546 0.49192157 0.52984756 4293530880
3.3406453 0.49122897 0.53772199 4293530880
3.3367517 0.49075902 0.54519069 4293530880
3.3307593 0.48998097 0.55165815 4293530880
3.3251708 0.48926228 0.55752307 4293530880
3.3320765 0.49037987 0.56483012 4293530880
3.3126533 0.48762819 0.56699651 4293530880
3.321609 0.48904803 0.57333177 4293530880
3.3165202 0.48840365 0.57657778 4293530880
3.3256841 0.48985571 0.58162463 4293530880
3.3154607 0.48845664 0.58259988 4293530880
3.3150992 0.48850852 0.58461154 4293530880
3.3148522 0.48857769 0.58595389 4293530880
3.3098481 0.48794699 0.58576399 4293530880
3.30496 0.48733351 0.58490264 4293400320
3.3230965 0.49011111 0.58741921 4293530880
3.3194146 0.48967639 0.58538717 4293530880
3.3187563 0.48968732 0.5831998 4293530880
3.3210516 0.49013394 0.58084238 4293530880
3.3494976 0.49443594 0.58233964 4293661440
3.3266888 0.49118331 0.57424682 4293530880
3.3300815 0.4917936 0.57002175 4293530880
3.3301322 0.49191165 0.564551 4293530880
3.3378923 0.49316755 0.55971003 4293530880
3.3291945 0.49199566 0.55145991 4293530880
3.3440175 0.49429539 0.54644281 4293530880
3.3159876 0.49026981 0.53382641 4293400320
3.3077936 0.48917198 0.52386844 4293400320
3.323555 0.49161234 0.51706976 4293530880
3.3334415 0.49318624 0.50868481 4293530880
3.3305855 0.49287814 0.49774802 4293530880
3.3313067 0.493099 0.48677742 4293530880
3.2945125 0.48839843 0.39800718 4293269760
3.3318319 0.49403974 0.3876287 4293400320
3.3548059 0.4975594 0.37487221 4293530880
3.3219652 0.49281263 0.35551152 4293400320
3.2872841 0.48779112 0.3358767 4293269760
3.3147171 0.49197328 0.32223603 4293400320
3.3287203 0.49416673 0.30672282 4293400320
3.2995775 0.48996371 0.28697467 4293269760
3.2744856 0.48635966 0.26754043 4293269760
3.2968051 0.48978758 0.25168902 4293269760
3.3056388 0.49121609 0.23436098 4293269760
3.3120444 0.49228507 0.21651642 4293269760
3.282326 0.48799175 0.19620335 4293269760
3.3086133 0.49201301 0.17903189 4293269760
3.3286657 0.49511015 0.16106044 4293400320
3.320344 0.49399346 0.14147197 4293400320
3.287169 0.48918301 0.12090951 4293269760
3.2932928 0.49021158 0.10181089 4293269760
3.3082168 0.49254906 0.082744665 4293269760
3.3002408 0.49148217 0.062972188 4293269760
3.2720799 0.48741236 0.042957872 4293139200
3.2844324 0.48936823 0.023515243 4293269760
3.2991211 0.49167264 0.0038973805 4293269760
3.2466457 0.48398051 -0.015578927 4293139200
3.2753019 0.48836428 -0.035295092 4293139200
3.2866497 0.49017239 -0.055029552 4293269760
3.2999115 0.49226645 -0.074888371 4293269760
3.2672617 0.48752064 -0.093512535 4293139200
3.2963128 0.49196798 -0.11378746 4293269760
