# .PCD v0.7 - Point Cloud Data file format
VERSION 0.7
FIELDS x y z rgba
SIZE 4 4 4 4
TYPE F F F U
COUNT 1 1 1 1
WIDTH 1079
HEIGHT 1
VIEWPOINT 0 0 0 1 0 0 0
POINTS 1079
DATA ascii
3.3147087 -0.93488467 0.60343337 4293792000
3.3146222 -0.93474752 0.60412383 4293792000
3.3051698 -0.93197185 0.60240263 4293792000
3.3185751 -0.93563658 0.60411924 4293792000
3.3103015 -0.93319398 0.60119414 4293792000
3.3210125 -0.93609935 0.6009928 4293792000
3.3163843 -0.9346844 0.59731662 4293792000
3.3159513 -0.93445134 0.59369558 4293792000
3.318974 -0.93519163 0.58999032 4293792000
3.3166552 -0.9344281 0.58464688 4293792000
3.3125529 -0.93316311 0.57831591 4293792000
3.3163667 -0.93412662 0.57268459 4293792000
3.3203218 -0.93512994 0.56639314 4293792000
3.314857 -0.93348259 0.55784518 4293792000
3.2943053 -0.92759109 0.54618323 4293661440
3.3092275 -0.93168074 0.53975469 4293792000
3.3113248 -0.93216223 0.53057146 4293792000
3.3343489 -0.93852967 0.52403665 4293792000
3.3196115 -0.93427634 0.51096535 4293792000
3.3060493 -0.9303546 0.49757978 4293792000
3.2761767 -0.92140865 0.4078297 4293530880
3.3204713 -0.93375009 0.39806423 4293792000
3.324033 -0.9346444 0.38277343 4293792000
3.3104591 -0.93072468 0.36513913 4293661440
3.2828577 -0.92286557 0.34576029 4293530880
3.2945511 -0.92604518 0.33018526 4293661440
3.3092413 -0.93006575 0.31440371 4293661440
3.2889807 -0.92427123 0.29500461 4293530880
3.2616014 -0.91647935 0.27489915 4293530880
3.2839272 -0.92264354 0.25867105 4293530880
3.3014634 -0.92746198 0.24156077 4293661440
3.3011601 -0.92727226 0.22279242 4293661440
3.2666206 -0.91747439 0.20168848 4293530880
3.2990894 -0.92648232 0.18446656 4293661440
3.3058774 -0.92828268 0.16539164 4293661440
3.2997463 -0.92645818 0.14549169 4293530880
3.2785025 -0.92039478 0.12493686 4293530880
3.2866209 -0.9225685 0.10542267 4293530880
3.2859278 -0.92227048 0.085468918 4293530880
3.2931523 -0.92419285 0.065580785 4293530880
3.2617619 -0.91528744 0.045019992 4293400320
3.2711687 -0.91782194 0.025080416 4293530880
3.2729816 -0.91822714 0.0049877362 4293530880
3.2393088 -0.90868562 -0.014951674 4293400320
3.2520201 -0.91214615 -0.034990668 4293400320
3.2683432 -0.91661805 -0.055214353 4293530880
3.2848775 -0.92114806 -0.075586677 4293530880
3.2420599 -0.90904814 -0.094322443 4293400320
3.2839336 -0.92067653 -0.11546435 4293530880
3.2845557 -0.92074716 -0.13526908 4293530880
3.3010516 -0.9252637 -0.15569563 4293661440
3.2554014 -0.91237521 -0.17282037 4293400320
3.2783401 -0.91869551 -0.19330353 4293530880
3.2808306 -0.91928917 -0.21251245 4293530880
3.2784681 -0.91852391 -0.23117737 4293530880
3.2644329 -0.9144913 -0.24867128 4293530880
3.3014009 -0.92473471 -0.26993543 4293661440
3.3131597 -0.9279207 -0.28910381 4293661440
3.310225 -0.92699414 -0.30671725 4293661440
3.2825713 -0.91915143 -0.3215313 4293530880
3.2873356 -0.9203797 -0.339064 4293661440
3.2974243 -0.92309695 -0.35685259 4293661440
3.308717 -0.92615008 -0.37448668 4293661440
3.3020658 -0.92418402 -0.38969165 4293661440
3.2653639 -0.91381502 -0.40069953 4293530880
3.318455 -0.92855459 -0.42239496 4293792000
3.32882 -0.93134552 -0.43844905 4293792000
3.3253386 -0.93026507 -0.45221391 4293792000
3.3253005 -0.93014711 -0.46592683 4293792000
3.3036551 -0.92399025 -0.47599238 4293661440
3.2818832 -0.91779917 -0.48533431 4293661440
3.2950439 -0.92136985 -0.49927485 4293661440
3.2934778 -0.92082506 -0.51045334 4293661440
3.3005302 -0.92268771 -0.52240902 4293661440
3.3020155 -0.92299467 -0.53291315 4293792000
3.3037736 -0.92337751 -0.54286212 4293792000
3.3001103 -0.9222461 -0.55129105 4293792000
3.3065364 -0.92393178 -0.56078321 4293792000
3.2982924 -0.92152119 -0.56713241 4293792000
3.2938673 -0.92017692 -0.57345718 4293661440
3.2872908 -0.91823214 -0.57872158 4293661440
3.2735782 -0.91429603 -0.58202004 4293661440
3.2692645 -0.91298336 -0.58628869 4293661440
3.2516506 -0.90795976 -0.58745563 4293530880
3.2605679 -0.9103387 -0.59273171 4293661440
3.2648499 -0.91142374 -0.59648758 4293661440
3.2261157 -0.90051055 -0.59164768 4293530880
3.2391615 -0.90404004 -0.59561741 4293530880
3.2679405 -0.91195554 -0.6018073 4293661440
3.2679379 -0.91184407 -0.60199046 4293661440
3.2547741 -0.90806329 -0.59904373 4293661440
3.2586505 -0.90903312 -0.59854347 4293661440
3.2710576 -0.91237992 -0.59890789 4293661440
3.2928553 -0.91834247 -0.60027379 4293792000
3.2857435 -0.91624796 -0.59564823 4293661440
3.2945116 -0.91857791 -0.5932126 4293792000
3.2902746 -0.91728413 -0.58773613 4293661440
3.3046138 -0.92116451 -0.58488721 4293792000
3.3017731 -0.92025906 -0.57829452 4293792000
3.301609 -0.92009878 -0.57150894 4293792000
3.2998481 -0.91949373 -0.5637911 4293792000
3.2916079 -0.91708475 -0.55433816 4293661440
3.2899053 -0.91649586 -0.54537684 4293661440
3.2643154 -0.90925837 -0.53189617 4293530880
3.2668574 -0.90985143 -0.52246863 4293661440
3.278836 -0.91306978 -0.51391256 4293661440
3.3037672 -0.91989088 -0.50668561 4293661440
3.3031707 -0.91960841 -0.49487478 4293661440
3.3040497 -0.91973621 -0.48272458 4293661440
3.2758634 -0.91178018 -0.46587569 4293661440
3.2623863 -0.90791631 -0.45076534 4293530880
3.2815638 -0.91313267 -0.43965098 4293661440
3.2936876 -0.91638654 -0.42696354 4293661440
3.2729256 -0.9104979 -0.40956193 4293530880
3.2525289 -0.90471208 -0.39193872 4293530880
3.2668173 -0.90856665 -0.37810454 4293530880
3.2897792 -0.91483021 -0.36468089 4293661440
3.2911763 -0.91510051 -0.34833553 4293661440
3.2357247 -0.89957821 -0.3258402 4293400320
3.2574 -0.90548259 -0.31096557 4293530880
3.2588034 -0.90575522 -0.29368544 4293530880
3.2695916 -0.90863377 -0.27687079 4293530880
3.2368581 -0.89942741 -0.25617078 4293400320
3.2574441 -0.90502578 -0.2395076 4293400320
3.2690656 -0.90813416 -0.22174124 4293530880
3.2764931 -0.91007757 -0.20334154 4293530880
3.2778189 -0.91032714 -0.18429221 4293530880
3.242291 -0.90035057 -0.1631566 4293400320
3.2619946 -0.90569979 -0.14474985 4293400320
3.2731631 -0.90867996 -0.12562297 4293530880
3.2315149 -0.89700967 -0.10449252 4293400320
3.2701735 -0.90761381 -0.08591187 4293530880
3.2828267 -0.91100389 -0.066233277 4293530880
3.2878311 -0.91227251 -0.046221122 4293530880
3.254307 -0.90285987 -0.025774745 4293400320
3.2813008 -0.91022414 -0.0058587231 4293530880
3.3010762 -0.91558594 0.014363381 4293530880
3.2940474 -0.91351861 0.034542825 4293530880
3.2893987 -0.91211116 0.054632828 4293530880
3.3167231 -0.91956204 0.075310111 4293661440
3.3247721 -0.92167151 0.095690943 4293661440
3.3113902 -0.91784483 0.11532799 4293661440
3.2973547 -0.91383821 0.13464864 4293530880
3.3181677 -0.91948199 0.15526098 4293661440
3.3247378 -0.92118108 0.17520563 4293661440
3.2995138 -0.91407841 0.19319092 4293530880
3.315299 -0.91832846 0.21328154 4293661440
3.3237796 -0.92055601 0.23280975 4293661440
3.3203692 -0.91949254 0.25128317 4293661440
3.2986889 -0.91337454 0.26796669 4293661440
3.3295057 -0.92178118 0.28863144 4293661440
3.3415165 -0.9249838 0.30758876 4293792000
3.354238 -0.92838234 0.32639915 4293792000
3.3335974 -0.92255431 0.34158 4293792000
3.2769153 -0.90676248 0.35231674 4293530880
3.3304906 -0.92145699 0.37441802 4293792000
3.3348861 -0.92255312 0.3908855 4293792000
3.3317528 -0.92156827 0.40604123 4293792000
3.3134513 -0.91639197 0.41880217 4293661440
3.2762942 -0.90600705 0.42847276 4293530880
3.3368032 -0.92260855 0.45045701 4293792000
3.3285456 -0.92020923 0.46291283 4293792000
3.3368053 -0.92237306 0.47712517 4293792000
3.3338351 -0.921435 0.48921454 4293792000
3.3313408 -0.92062885 0.50079226 4293792000
3.3160825 -0.91629881 0.50982308 4293792000
3.3133895 -0.91543901 0.52012897 4293792000
3.3300714 -0.9199279 0.53290445 4293792000
3.3269176 -0.91894108 0.54194415 4293792000
3.3172512 -0.91615748 0.54926389 4293792000
3.3286948 -0.91919976 0.55942845 4293792000
3.3157246 -0.91550577 0.56485415 4293792000
3.3252265 -0.9180122 0.57342362 4293792000
3.3198948 -0.91642666 0.57878512 4293792000
3.3134334 -0.91453016 0.58325207 4293792000
3.3174331 -0.91551918 0.5888648 4293792000
3.3120492 -0.91392082 0.59212649 4293792000
3.3115103 -0.91365892 0.59554815 4293792000
3.3025331 -0.91107124 0.59674996 4293792000
3.315515 -0.91453677 0.60120285 4293792000
3.3200617 -0.91567719 0.6034348 4293792000
3.3104784 -0.91292393 0.60239792 4293792000
3.3057597 -0.91151184 0.60153145 4293792000
3.3191867 -0.91509932 0.60324287 4293792000
3.315649 -0.91401315 0.60117143 4293792000
3.3168783 -0.91424048 0.59925425 4293792000
3.3131919 -0.91311413 0.59574991 4293792000
3.3118067 -0.91262209 0.59196222 4293792000
3.3148327 -0.91334486 0.58826244 4293792000
3.3220146 -0.91521174 0.5845927 4293792000
3.3179059 -0.91397065 0.57825536 4293792000
3.3264823 -0.91622126 0.57343417 4293792000
3.3076091 -0.91091782 0.56325358 4293792000
3.3202145 -0.91427737 0.55776542 4293792000
3.3139133 -0.9124347 0.54845172 4293792000
3.2964766 -0.90752935 0.53672796 4293661440
3.3166771 -0.91297787 0.53047282 4293792000
3.3263903 -0.91554099 0.52184606 4293792000
3.3211617 -0.91399491 0.5102703 4293792000
3.3196948 -0.91348356 0.4987042 4293792000
3.2671969 -0.89809328 0.40604681 4293530880
3.3102574 -0.90981466 0.39619321 4293661440
3.329493 -0.9149909 0.38276917 4293792000
3.3063061 -0.90851808 0.36408696 4293661440
3.2786536 -0.90082091 0.3447572 4293530880
3.291321 -0.90419376 0.32932791 4293530880
3.3091433 -0.90898091 0.31388623 4293661440
3.2847712 -0.90218693 0.29415601 4293530880
3.2664723 -0.89706129 0.27486667 4293530880
3.2853229 -0.90213007 0.25836959 4293530880
3.3051882 -0.90747613 0.24145062 4293661440
3.2918503 -0.90371269 0.22182402 4293530880
3.2763097 -0.89934611 0.20196964 4293530880
3.2926066 -0.90371215 0.18382925 4293530880
3.3112991 -0.9087342 0.16541348 4293661440
3.3099751 -0.90826684 0.1457251 4293661440
3.2760518 -0.89886206 0.12467019 4293530880
3.2856505 -0.90139014 0.10525165 4293530880
3.2778168 -0.89913952 0.085157521 4293530880
3.2850511 -0.90101904 0.065353826 4293530880
3.2571743 -0.89327651 0.044924457 4293400320
3.2765303 -0.89847761 0.025118388 4293530880
3.2648435 -0.89517272 0.0050150491 4293400320
3.2359376 -0.88715154 -0.014864814 4293400320
3.2604384 -0.8937608 -0.034981389 4293400320
3.2688773 -0.89596945 -0.055083919 4293400320
3.2757964 -0.8977614 -0.075197883 4293530880
3.2511089 -0.89089847 -0.094383143 4293400320
3.2774091 -0.89799672 -0.11498777 4293530880
3.2947557 -0.90264219 -0.13541572 4293530880
3.2977884 -0.90336841 -0.15522687 4293530880
3.2463698 -0.88919169 -0.17199488 4293400320
3.274081 -0.89667273 -0.19267331 4293530880
3.2862053 -0.89988679 -0.21245278 4293530880
3.28865 -0.90045184 -0.2314578 4293530880
3.2733166 -0.89615309 -0.24888055 4293530880
3.3004656 -0.90347558 -0.26935148 4293661440
3.3115168 -0.90639347 -0.28842056 4293661440
3.3051538 -0.90454829 -0.30567709 4293661440
3.2783446 -0.89711267 -0.32052332 4293530880
3.2935331 -0.90116096 -0.33908358 4293661440
3.2967272 -0.90192926 -0.35612607 4293661440
3.3055053 -0.9042235 -0.3734425 4293661440
3.2988472 -0.90229815 -0.38860679 4293661440
3.2620893 -0.89214748 -0.39957589 4293530880
3.3191009 -0.90762109 -0.42172065 4293661440
3.317385 -0.90704572 -0.43615797 4293661440
3.3186364 -0.90728092 -0.45049742 4293792000
3.3307433 -0.91048098 -0.465866 4293792000
3.3186166 -0.90706146 -0.477312 4293792000
3.3006234 -0.90204048 -0.48725718 4293661440
3.3011961 -0.90208989 -0.49933472 4293661440
3.3074524 -0.90369081 -0.51173228 4293661440
3.294292 -0.89999056 -0.52051342 4293661440
3.3125737 -0.90487319 -0.53369731 4293792000
3.3054831 -0.90282983 -0.54220808 4293792000
3.3005352 -0.90137136 -0.55041599 4293661440
3.3024211 -0.90177763 -0.55912608 4293661440
3.2961526 -0.89995879 -0.5657987 4293661440
3.2841234 -0.89656872 -0.57078707 4293661440
3.2841012 -0.8964541 -0.57718253 4293661440
3.262079 -0.89033931 -0.57899541 4293661440
3.26985 -0.89235014 -0.5854125 4293661440
3.2569592 -0.88872653 -0.58743668 4293530880
3.2611384 -0.88975728 -0.59185249 4293661440
3.2450271 -0.88525641 -0.59187853 4293530880
3.2446787 -0.88505274 -0.59408301 4293530880
3.2358947 -0.88254976 -0.59404284 4293530880
3.2310255 -0.88111401 -0.59402549 4293530880
3.2552159 -0.88759583 -0.59867167 4293530880
3.2553279 -0.88751614 -0.5981825 4293530880
3.2544589 -0.887169 -0.59681606 4293530880
3.2668836 -0.89044225 -0.59719133 4293661440
3.281126 -0.89420944 -0.59718591 4293661440
3.2910912 -0.89681071 -0.59568411 4293661440
3.2903657 -0.89650053 -0.59154117 4293661440
3.2956264 -0.8978197 -0.58778375 4293661440
3.2909653 -0.89643764 -0.5815711 4293661440
3.3023837 -0.89943165 -0.57752049 4293792000
3.3069744 -0.90056682 -0.57157511 4293792000
3.2926393 -0.89655197 -0.56171352 4293661440
3.2883823 -0.89527965 -0.55297148 4293661440
3.2831478 -0.89374149 -0.54345345 4293661440
3.2696142 -0.88994628 -0.53198677 4293530880
3.267391 -0.88922751 -0.52180201 4293530880
3.2841556 -0.89367163 -0.51401651 4293661440
3.3043532 -0.89904767 -0.50606364 4293661440
3.299932 -0.89772981 -0.49370259 4293661440
3.300807 -0.89785153 -0.48159015 4293661440
3.2582293 -0.88616407 -0.46273589 4293530880
3.2627723 -0.88728356 -0.45022225 4293530880
3.2717631 -0.88961095 -0.43776366 4293530880
3.2881551 -0.89394808 -0.42570084 4293661440
3.2674 -0.88819396 -0.40835845 4293530880
3.2478054 -0.88275617 -0.3908914 4293400320
3.2708595 -0.88890111 -0.37812662 4293530880
3.2839782 -0.89234662 -0.36361748 4293530880
3.2942433 -0.89501631 -0.34827557 4293661440
3.2448802 -0.88149923 -0.3264192 4293400320
3.247381 -0.88206196 -0.30968922 4293400320
3.2688856 -0.88778162 -0.2943162 4293530880
3.2678089 -0.88737243 -0.27647007 4293530880
3.2238142 -0.87531936 -0.25492007 4293269760
3.2565453 -0.88408256 -0.23926201 4293400320
3.2743571 -0.88879669 -0.22195798 4293530880
3.2769797 -0.88939035 -0.20326217 4293530880
3.2730753 -0.88821375 -0.18394862 4293530880
3.2511053 -0.88213938 -0.16356637 4293400320
3.257633 -0.88379192 -0.14455061 4293400320
3.2784626 -0.88932055 -0.12586157 4293530880
3.2367475 -0.8778969 -0.10473169 4293400320
3.2571368 -0.88330537 -0.085664853 4293400320
3.2762249 -0.88835973 -0.06623517 4293530880
3.2884064 -0.89154166 -0.046404243 4293530880
3.2577357 -0.88311529 -0.026011836 4293400320
3.2850759 -0.89040244 -0.006112285 4293530880
3.2998645 -0.89428878 0.014078233 4293530880
3.3013284 -0.89456618 0.034299713 4293530880
3.2885964 -0.89100021 0.054271936 4293530880
3.3204026 -0.89949137 0.075006135 4293661440
3.3301625 -0.9020133 0.095422804 4293661440
3.3128033 -0.89719558 0.1149255 4293661440
3.305985 -0.89523143 0.13451356 4293530880
3.3196924 -0.89882094 0.1548152 4293661440
3.3166339 -0.89787418 0.17423648 4293661440
3.3000479 -0.89326888 0.19264711 4293530880
3.3120067 -0.89638448 0.21246505 4293661440
3.3195415 -0.89830309 0.23187818 4293661440
3.3209438 -0.89856321 0.25066021 4293661440
3.2809439 -0.88763094 0.26585099 4293530880
3.3349102 -0.90210038 0.2883729 4293661440
3.3517487 -0.90653199 0.30777073 4293792000
3.3452647 -0.90466011 0.32475442 4293792000
3.3351657 -0.9018122 0.34094065 4293792000
3.2822349 -0.88739389 0.35207599 4293530880
3.322459 -0.8981424 0.37267914 4293661440
3.3355026 -0.90154719 0.39009178 4293792000
3.3280528 -0.89941704 0.40470904 4293792000
3.3140371 -0.89551473 0.41797709 4293661440
3.2768219 -0.88535023 0.42763531 4293530880
3.3288136 -0.89926922 0.44844669 4293792000
3.3305111 -0.8996101 0.46223202 4293792000
3.3422184 -0.90265232 0.47692516 4293792000
3.3254483 -0.89800966 0.48701108 4293792000
3.3367429 -0.90094036 0.50060731 4293792000
3.3119071 -0.89412367 0.50818771 4293661440
3.3283072 -0.8984316 0.52145022 4293792000
3.3240123 -0.89715731 0.53092229 4293792000
3.3236468 -0.89694309 0.54039067 4293792000
3.3178554 -0.89526612 0.54833722 4293792000
3.3207383 -0.89592838 0.55706596 4293792000
3.3115613 -0.89333987 0.5631175 4293792000
3.3077435 -0.8921966 0.56939077 4293792000
3.325263 -0.89680403 0.57868212 4293792000
3.3140285 -0.89366263 0.58232659 4293792000
3.3132744 -0.89334589 0.58710295 4293792000
3.3088326 -0.89203608 0.59053308 4293792000
3.312098 -0.89280272 0.59463763 4293792000
3.3078613 -0.89154899 0.59670168 4293792000
3.3113487 -0.89237577 0.59945041 4293792000
3.3387301 -0.89963609 0.6058166 4293922560
3.3158116 -0.89335322 0.60238445 4293792000
3.3072777 -0.8909443 0.6008414 4293792000
3.3159673 -0.89317185 0.60170609 4293792000
3.3114691 -0.89185005 0.5994789 4293792000
3.3088911 -0.89104551 0.59689617 4293792000
3.3137579 -0.89224452 0.59494686 4293792000
3.3123672 -0.89175999 0.59117663 4293792000
3.3163462 -0.89272022 0.58766341 4293792000
3.3225839 -0.89428788 0.58384532 4293792000
3.3146551 -0.89204586 0.57686806 4293792000
3.3137126 -0.89168304 0.5704422 4293792000
3.3176739 -0.89263898 0.56418431 4293792000
3.3112314 -0.89079809 0.55551308 4293792000
3.3053906 -0.88911968 0.54632515 4293661440
3.3017516 -0.88803369 0.5368892 4293661440
3.3172097 -0.89207983 0.52988851 4293792000
3.3282814 -0.89494663 0.52149916 4293792000
3.3216934 -0.89306861 0.50974053 4293792000
3.3119051 -0.89033157 0.49696055 4293661440
3.2810102 -0.88162822 0.40711412 4293530880
3.3154316 -0.8907643 0.39618436 4293661440
3.3260567 -0.89351058 0.38177243 4293661440
3.2980266 -0.88588113 0.36260492 4293661440
3.2703238 -0.8783415 0.34333938 4293530880
3.301271 -0.88654184 0.3297888 4293661440
3.2912283 -0.88374251 0.31169644 4293530880
3.2837868 -0.88164175 0.29359278 4293530880
3.2619476 -0.87567949 0.27404165 4293400320
3.2904546 -0.88322222 0.25834486 4293530880
3.3190897 -0.89079762 0.24205536 4293661440
3.3048978 -0.88688725 0.22232163 4293530880
3.2669623 -0.87661177 0.201057 4293400320
3.2923491 -0.88331461 0.18349762 4293530880
3.3099473 -0.88792819 0.16505562 4293661440
3.2968054 -0.88430166 0.14489132 4293530880
3.2579978 -0.87379777 0.12376323 4293400320
3.2907777 -0.88247901 0.10520815 4293530880
3.2783866 -0.87905568 0.084996663 4293530880
3.2817357 -0.87984985 0.065143101 4293530880
3.2605193 -0.87406355 0.044851556 4293400320
3.2706761 -0.87668151 0.024988418 4293400320
3.2747638 -0.87767351 0.0049649468 4293400320
3.2400918 -0.86828649 -0.014916476 4293400320
3.2558613 -0.87240684 -0.034931011 4293400320
3.2726624 -0.87680238 -0.055122104 4293400320
3.2760718 -0.87761223 -0.07514748 4293530880
3.2426553 -0.86856538 -0.094047911 4293400320
3.2776866 -0.87783837 -0.11488267 4293530880
3.293752 -0.88203412 -0.13522933 4293530880
3.2980978 -0.88309318 -0.15506788 4293530880
3.256247 -0.87179339 -0.17232361 4293400320
3.2737789 -0.87638038 -0.19242597 4293530880
3.2826414 -0.87864751 -0.21196221 4293530880
3.2804844 -0.87796706 -0.2305927 4293530880
3.2687736 -0.87473202 -0.24822001 4293530880
3.2921152 -0.88086945 -0.26832321 4293530880
3.3144026 -0.88672334 -0.28830111 4293661440
3.3101721 -0.88548756 -0.30574495 4293661440
3.2834251 -0.87823391 -0.32060057 4293530880
3.286778 -0.87902558 -0.33793616 4293530880
3.2995903 -0.8823446 -0.35596073 4293661440
3.2984314 -0.88192993 -0.37213865 4293661440
3.2938344 -0.88059664 -0.38748848 4293661440
3.2575605 -0.87080234 -0.39847535 4293530880
3.313365 -0.88560224 -0.42041227 4293661440
3.320277 -0.88734186 -0.43593809 4293661440
3.3177509 -0.8865608 -0.4497529 4293661440
3.3215506 -0.88746858 -0.46392903 4293792000
3.3141963 -0.88539839 -0.4760071 4293661440
3.2884448 -0.87841785 -0.48477083 4293661440
3.2833731 -0.87695801 -0.49592873 4293661440
3.2992051 -0.8810764 -0.50972766 4293661440
3.3032217 -0.88204098 -0.52118391 4293661440
3.2947986 -0.8796863 -0.53006464 4293661440
3.3020205 -0.88150543 -0.54085869 4293661440
3.3056531 -0.88236642 -0.55047441 4293661440
3.2975979 -0.88010997 -0.55749601 4293661440
3.2917314 -0.8784374 -0.56421286 4293661440
3.298744 -0.8801989 -0.57249379 4293661440
3.2715635 -0.8728441 -0.57412612 4293661440
3.2528512 -0.8677482 -0.57649857 4293530880
3.252069 -0.867432 -0.58135492 4293530880
3.2534416 -0.86768979 -0.58592337 4293530880
3.2614357 -0.8697117 -0.59101731 4293530880
3.2367358 -0.86302233 -0.58947104 4293530880
3.2363887 -0.86282164 -0.59166205 4293530880
3.2409117 -0.86391801 -0.59405839 4293530880
3.2455494 -0.8650443 -0.59578699 4293530880
3.2602637 -0.86885333 -0.59867758 4293530880
3.2518129 -0.86649328 -0.59660846 4293530880
3.2642632 -0.86969787 -0.59768474 4293661440
3.2681437 -0.87062013 -0.59648496 4293661440
3.2719388 -0.87151927 -0.59456986 4293661440
3.2876287 -0.87558329 -0.59411091 4293661440
3.290709 -0.87629068 -0.59065747 4293661440
3.2947764 -0.87726033 -0.58668643 4293661440
3.2832122 -0.87407106 -0.57925773 4293661440
3.2913048 -0.87611079 -0.57463926 4293661440
3.2978075 -0.87772685 -0.56905007 4293661440
3.2843986 -0.87404746 -0.5593763 4293661440
3.2839456 -0.87381351 -0.55130196 4293661440
3.2739279 -0.87103659 -0.54101145 4293661440
3.2651408 -0.8685872 -0.53035557 4293530880
3.2629099 -0.8678807 -0.52019238 4293530880
3.279696 -0.87222779 -0.51242971 4293661440
3.2986245 -0.87714273 -0.5043025 4293661440
3.309835 -0.88000566 -0.49431625 4293661440
3.289854 -0.87458205 -0.47913218 4293661440
3.266113 -0.86816096 -0.46302387 4293530880
3.2563417 -0.86545116 -0.44851288 4293530880
3.2771204 -0.8708539 -0.43767384 4293530880
3.2821343 -0.87206948 -0.42412376 4293530880
3.2717032 -0.86918461 -0.40812269 4293530880
3.2480421 -0.86278856 -0.39016715 4293400320
3.2720892 -0.86905545 -0.377529 4293530880
3.2890697 -0.87344527 -0.36345837 4293530880
3.2849271 -0.87222934 -0.3465811 4293530880
3.2547193 -0.86409897 -0.32673571 4293400320
3.2572253 -0.86464781 -0.30997506 4293400320
3.2685604 -0.86753809 -0.29364794 4293530880
3.2642002 -0.86626524 -0.27554706 4293400320
3.2336249 -0.858042 -0.25511348 4293400320
3.2615867 -0.86533928 -0.23906572 4293400320
3.2692034 -0.86724174 -0.22105917 4293400320
3.2772253 -0.86925077 -0.20275396 4293530880
3.2737248 -0.86820585 -0.18348747 4293530880
3.2464769 -0.86086893 -0.16286242 4293400320
3.2700553 -0.86699915 -0.1446626 4293400320
3.2787821 -0.86919355 -0.12545323 4293530880
3.2311938 -0.85647196 -0.1041607 4293269760
3.2598891 -0.86395508 -0.085374273 4293400320
3.26775 -0.86591959 -0.065721199 4293400320
3.2838132 -0.87005496 -0.046025325 4293530880
3.2627592 -0.86436385 -0.025773479 4293400320
3.2814388 -0.86919081 -0.0058490615 4293530880
3.3001151 -0.87401551 0.014305942 4293530880
3.2880456 -0.8707034 0.03436622 4293530880
3.301053 -0.87402672 0.054638278 4293530880
3.3149481 -0.87758398 0.075025111 4293530880
3.3252239 -0.88018298 0.095393576 4293661440
3.3178964 -0.87812597 0.11517818 4293661440
3.3023713 -0.87390178 0.13441727 4293530880
3.3247919 -0.87971127 0.15506849 4293661440
3.3284888 -0.88056958 0.1748402 4293661440
3.3002865 -0.87299609 0.19261892 4293530880
3.3170881 -0.8773185 0.21271534 4293661440
3.3294561 -0.88046813 0.23246132 4293661440
3.3260353 -0.87944543 0.25090781 4293661440
3.290792 -0.8700164 0.26648068 4293530880
3.3255663 -0.87908447 0.28737694 4293661440
3.3455567 -0.88424569 0.30698085 4293792000
3.341722 -0.8831141 0.32415783 4293792000
3.3354592 -0.88134181 0.34068629 4293661440
3.2872572 -0.86849833 0.35230231 4293530880
3.3361936 -0.88129914 0.37386784 4293792000
3.3375261 -0.88153285 0.38995504 4293792000
3.3465867 -0.88380593 0.40654892 4293792000
3.315264 -0.87542319 0.41770485 4293661440
3.2770336 -0.86522043 0.42721406 4293530880
3.3243117 -0.87757647 0.44736058 4293661440
3.3390408 -0.88134456 0.46289819 4293792000
3.3377454 -0.88088596 0.47575146 4293792000
3.330529 -0.87886631 0.48718831 4293792000
3.3284419 -0.8781997 0.49877885 4293792000
3.3121836 -0.87379783 0.5076192 4293661440
3.3152244 -0.874484 0.51877367 4293661440
3.3195329 -0.87550437 0.52954936 4293792000
3.3144689 -0.87405485 0.53822196 4293792000
3.3231342 -0.87622333 0.54849887 4293792000
3.3162661 -0.87429929 0.55559111 4293792000
3.3233149 -0.87604171 0.5643574 4293792000
3.3175697 -0.87441432 0.57030553 4293792000
3.3122249 -0.8728931 0.57563376 4293792000
3.3161387 -0.87381023 0.58188748 4293792000
3.3183415 -0.87427688 0.58717 4293792000
3.317692 -0.87399286 0.59126341 4293792000
3.3038239 -0.87023002 0.5923003 4293661440
3.3081594 -0.87125885 0.59588069 4293792000
3.3078427 -0.87106359 0.59792888 4293792000
3.3076401 -0.8708986 0.59929359 4293792000
3.3123159 -0.87201726 0.60083413 4293792000
3.3028176 -0.86940759 0.59910703 4293661440
3.3162849 -0.87283874 0.6008212 4293792000
3.3165448 -0.87279618 0.59944147 4293792000
3.3139641 -0.87200695 0.5968464 4293792000
3.314075 -0.87192571 0.59403378 4293792000
3.3155541 -0.87220454 0.59076566 4293792000
3.3119011 -0.87113446 0.58589596 4293792000
3.3095644 -0.87041092 0.5805791 4293792000
3.314095 -0.87149227 0.57577777 4293792000
3.3140304 -0.8713662 0.56950015 4293792000
3.3179972 -0.87229949 0.5632391 4293792000
3.3077247 -0.86949253 0.55392909 4293661440
3.2970967 -0.86659312 0.54396486 4293661440
3.3020482 -0.86778581 0.53594136 4293661440
3.3127487 -0.87048793 0.52818173 4293661440
3.3333981 -0.8758015 0.52129692 4293792000
3.3220162 -0.8727057 0.50879669 4293792000
3.312211 -0.87002462 0.49602103 4293661440
3.2774804 -0.86009032 0.4060418 4293530880
3.3205991 -0.87129092 0.39617798 4293661440
3.3312402 -0.87397474 0.38176692 4293661440
3.3008997 -0.86591566 0.36235309 4293661440
3.2802312 -0.8603937 0.34383708 4293530880
3.301599 -0.86588925 0.32930905 4293530880
3.3146589 -0.86920661 0.31341386 4293661440
3.2927563 -0.86336321 0.2939339 4293530880
3.2814906 -0.86030787 0.27524614 4293530880
3.286896 -0.86162001 0.25767142 4293530880
3.2923434 -0.86294299 0.2397542 4293530880
3.3069499 -0.86666423 0.22211981 4293530880
3.2720473 -0.85742104 0.20106208 4293400320
3.3023028 -0.86523926 0.18376975 4293530880
3.3102663 -0.86722004 0.1648255 4293530880
3.300005 -0.86443013 0.14481647 4293530880
3.2630663 -0.85465902 0.12377299 4293400320
3.280658 -0.85916001 0.10474182 4293530880
3.2857592 -0.86039174 0.085066341 4293530880
3.2868395 -0.86057127 0.065156452 4293530880
3.2607527 -0.85364413 0.044802364 4293400320
3.2645428 -0.85453314 0.024924912 4293400320
3.2692974 -0.85567421 0.0049717226 4293400320
3.2392044 -0.84770244 -0.01486824 4293269760
3.2547743 -0.85167181 -0.034842938 4293400320
3.2632391 -0.85378271 -0.054850131 4293400320
3.2762077 -0.85707033 -0.075010382 4293400320
3.255435 -0.85153812 -0.094254792 4293400320
3.2740779 -0.85630804 -0.1145507 4293400320
3.2892027 -0.86015743 -0.1348042 4293530880
3.2896912 -0.86018169 -0.154401 4293530880
3.2468123 -0.84887642 -0.17152515 4293400320
3.2875583 -0.85941762 -0.19291502 4293530880
3.2732561 -0.8555786 -0.21099444 4293400320
3.2807534 -0.85743344 -0.23022452 4293530880
3.2642012 -0.85300785 -0.24745612 4293400320
3.2924054 -0.86026853 -0.26790035 4293530880
3.3060517 -0.86372697 -0.28709361 4293530880
3.3104937 -0.8647818 -0.30526945 4293661440
3.2788906 -0.8564288 -0.319628 4293530880
3.2832155 -0.85745347 -0.33701351 4293530880
3.2983644 -0.86130202 -0.35524485 4293530880
3.3083608 -0.86380517 -0.37265381 4293661440
3.2941401 -0.85999012 -0.38689283 4293530880
3.2717512 -0.85404533 -0.39956725 4293530880
3.3114474 -0.86429369 -0.41948625 4293661440
3.3097341 -0.86374098 -0.43384528 4293661440
3.3211746 -0.86661792 -0.44949129 4293661440
3.3304203 -0.8689217 -0.46442217 4293792000
3.3063297 -0.86253488 -0.47410965 4293661440
3.2830911 -0.8563714 -0.48320216 4293530880
3.291532 -0.85846525 -0.49636844 4293661440
3.2995358 -0.86044443 -0.50896394 4293661440
3.3075807 -0.86243361 -0.52104115 4293661440
3.299906 -0.86032689 -0.53004354 4293661440
3.2928023 -0.85836917 -0.53848779 4293661440
3.287847 -0.85697132 -0.54663336 4293661440
3.2988875 -0.85973901 -0.55683249 4293661440
3.2920575 -0.85785264 -0.56337845 4293661440
3.2857208 -0.8560949 -0.56932992 4293661440
3.2847462 -0.85573316 -0.57553989 4293661440
3.2540729 -0.84764123 -0.57581168 4293530880
3.2618716 -0.84956336 -0.58219993 4293530880
3.2489436 -0.84609133 -0.58419865 4293530880
3.2483721 -0.84583485 -0.58772826 4293530880
3.2369785 -0.84276283 -0.58860052 4293530880
3.2366302 -0.84256434 -0.59079051 4293530880
3.2363951 -0.84239513 -0.59231287 4293530880
3.227699 -0.84002537 -0.59159029 4293400320
3.2471993 -0.84498745 -0.59535772 4293530880
3.256839 -0.84738439 -0.59661859 4293530880
3.2645426 -0.84927714 -0.59682435 4293530880
3.2684274 -0.85017657 -0.59562993 4293530880
3.2722268 -0.8510533 -0.59372127 4293661440
3.2831721 -0.85378641 -0.59240764 4293661440
3.2872076 -0.85472322 -0.58913976 4293661440
3.2915268 -0.85573322 -0.58522779 4293661440
3.2973409 -0.857131 -0.58088827 4293661440
3.2897058 -0.85503525 -0.57350534 4293661440
3.3028944 -0.85834712 -0.56908637 4293661440
3.2877476 -0.85430092 -0.55912298 4293661440
3.2804108 -0.85228294 -0.54989916 4293661440
3.2739081 -0.85048181 -0.54021853 4293530880
3.2692201 -0.84915191 -0.53024906 4293530880
3.263036 -0.84743381 -0.51946151 4293530880
3.2747853 -0.85036916 -0.51092571 4293530880
3.2966671 -0.85593218 -0.50328344 4293661440
3.3031006 -0.85748619 -0.4926084 4293661440
3.2888281 -0.85366911 -0.47830841 4293661440
3.2567568 -0.84523708 -0.46104842 4293530880
3.2575159 -0.84531993 -0.4480539 4293530880
3.2735238 -0.849356 -0.43659174 4293530880
3.2833424 -0.85178626 -0.42370376 4293530880
3.2719316 -0.84871322 -0.40760231 4293530880
3.2578459 -0.84494758 -0.39082927 4293400320
3.2809699 -0.85082459 -0.37806097 4293530880
3.2837722 -0.85143483 -0.36240053 4293530880
3.2973444 -0.85483462 -0.34745401 4293530880
3.2414172 -0.84023196 -0.32498598 4293400320
3.2439177 -0.8407647 -0.30832279 4293400320
3.2639408 -0.84583455 -0.29287866 4293400320
3.2730768 -0.84808403 -0.27597803 4293530880
3.237705 -0.83881098 -0.25514811 4293400320
3.2579083 -0.84392518 -0.23853347 4293400320
3.2645674 -0.8455326 -0.22051288 4293400320
3.2756929 -0.84829527 -0.20245847 4293400320
3.2809405 -0.84953624 -0.18372715 4293530880
3.2545626 -0.84259546 -0.16313665 4293400320
3.2567022 -0.84303284 -0.14396034 4293400320
3.2727802 -0.84707475 -0.12514748 4293400320
3.2458351 -0.8399902 -0.10460041 4293400320
3.2600584 -0.84355175 -0.085370071 4293400320
3.2760649 -0.84757322 -0.065916449 4293400320
3.2985392 -0.85326535 -0.04629584 4293530880
3.2716446 -0.84619677 -0.025936056 4293400320
3.2847776 -0.84947354 -0.0059765554 4293530880
3.2941909 -0.85178834 0.014131775 4293530880
3.3031936 -0.8539964 0.034331545 4293530880
3.2916031 -0.8508845 0.05427235 4293530880
3.3161008 -0.85709393 0.074802376 4293530880
3.3351722 -0.86190033 0.09539213 4293661440
3.3191233 -0.85763752 0.11490948 4293530880
3.307445 -0.85450429 0.13428083 4293530880
3.3202271 -0.85768569 0.15448694 4293661440
3.3268301 -0.85927153 0.17435212 4293661440
3.2956896 -0.85111713 0.19192621 4293530880
3.3076875 -0.85409552 0.21166085 4293530880
3.3297405 -0.85966718 0.2319922 4293661440
3.3253539 -0.85841727 0.25034097 4293661440
3.2958331 -0.85068548 0.26634756 4293530880
3.3258502 -0.85830927 0.2868318 4293661440
3.3506963 -0.86459774 0.30684948 4293792000
3.3420346 -0.8622461 0.32356459 4293661440
3.3309455 -0.8592695 0.33958247 4293661440
3.2923064 -0.84919327 0.35217863 4293530880
3.3341894 -0.85987031 0.37295181 4293661440
3.3282168 -0.85821396 0.38815996 4293661440
3.3286414 -0.85820621 0.40364596 4293661440
3.3290064 -0.85818332 0.41867232 4293661440
3.263808 -0.8412742 0.42473975 4293530880
3.3246126 -0.8568185 0.44660941 4293661440
3.3355262 -0.85951239 0.46160185 4293792000
3.3342326 -0.85906285 0.47442549 4293792000
3.3264599 -0.85694587 0.48575485 4293661440
3.3239627 -0.85618734 0.49725595 4293661440
3.2990603 -0.84966332 0.50475544 4293661440
3.3194337 -0.85479134 0.51855057 4293661440
3.314096 -0.85330319 0.52779716 4293661440
3.3195493 -0.85459155 0.53814346 4293792000
3.3196185 -0.85449499 0.54701209 4293792000
3.327333 -0.85636479 0.55651885 4293792000
3.3150239 -0.8530854 0.5620333 4293661440
3.3168333 -0.85343707 0.56925166 4293792000
3.3121424 -0.85211778 0.57468879 4293661440
3.3250337 -0.85531837 0.58250463 4293792000
3.3186445 -0.85356319 0.58628589 4293792000
3.3094025 -0.85107553 0.58885622 4293661440
3.2955139 -0.84739488 0.589885 4293661440
3.3265762 -0.85526353 0.59824663 4293792000
3.3176682 -0.85286313 0.5987649 4293792000
3.3079221 -0.85024828 0.598418 4293661440
3.3126035 -0.8513394 0.59996349 4293792000
3.321203 -0.85343647 0.60151029 4293792000
3.3079877 -0.84993261 0.59841615 4293661440
3.3138742 -0.85133338 0.59805995 4293792000
3.3186417 -0.85244679 0.59679329 4293792000
3.3133171 -0.85097015 0.59301847 4293792000
3.3244259 -0.85371101 0.59146923 4293792000
3.3121727 -0.85045725 0.58508897 4293661440
3.3281858 -0.85445607 0.58298796 4293792000
3.3143642 -0.85080129 0.5749982 4293792000
3.3171666 -0.85141122 0.56922621 4293792000
3.3269532 -0.85381216 0.56395721 4293792000
3.3127565 -0.85006332 0.55399382 4293661440
3.2920644 -0.84465039 0.54238743 4293661440
3.2936697 -0.84495473 0.53385609 4293661440
3.3177838 -0.85102838 0.52826548 4293661440
3.3323226 -0.8546468 0.52043265 4293792000
3.3174796 -0.8507356 0.50743383 4293661440
3.3038187 -0.84712839 0.49412492 4293661440
3.2871699 -0.84218228 0.40661743 4293530880
3.3208065 -0.85068756 0.39560089 4293661440
3.3266459 -0.85207641 0.38066429 4293661440
3.314559 -0.84887755 0.36329088 4293661440
3.27948 -0.83979642 0.34323651 4293530880
3.2946723 -0.84357935 0.32812315 4293530880
3.3148422 -0.84863484 0.31295455 4293661440
3.2890427 -0.84193099 0.29315823 4293530880
3.2719617 -0.83745855 0.27403533 4293400320
3.2870293 -0.84120846 0.25728947 4293530880
3.3108454 -0.84719437 0.24072263 4293530880
3.2974403 -0.84366298 0.22114927 4293530880
3.2634463 -0.83486956 0.20023289 4293400320
3.3078649 -0.84612 0.18379454 4293530880
3.3113911 -0.84691733 0.16462846 4293530880
3.304985 -0.8451764 0.14480956 4293530880
3.2728312 -0.83685738 0.12394656 4293400320
3.2943237 -0.84224534 0.10500756 4293530880
3.288439 -0.84063894 0.08500196 4293530880
3.2917972 -0.84139353 0.065149568 4293530880
3.2608266 -0.83338124 0.044731941 4293400320
3.2791548 -0.83795905 0.024986256 4293400320
3.2887609 -0.8403089 0.0049784975 4293530880
3.2402124 -0.82781243 -0.014855002 4293269760
3.2635562 -0.83366942 -0.034893405 4293400320
3.2755685 -0.83663291 -0.054985553 4293400320
3.2743676 -0.83622378 -0.074858487 4293400320
3.2419379 -0.82784659 -0.093719259 4293269760
3.2774649 -0.83680862 -0.11450268 4293400320
3.294158 -0.8409642 -0.13481109 4293530880
3.3028729 -0.84308362 -0.15479787 4293530880
3.2503376 -0.82958186 -0.17145918 4293400320
3.2741287 -0.83554637 -0.19183511 4293400320
3.285578 -0.83836263 -0.21148105 4293530880
3.2760255 -0.83582395 -0.22954889 4293400320
3.2726898 -0.83487046 -0.24773538 4293400320
3.3004923 -0.84185344 -0.26816323 4293530880
3.3061998 -0.84320372 -0.28667942 4293530880
3.3106499 -0.84423321 -0.30482957 4293530880
3.2838244 -0.83729398 -0.31963485 4293530880
3.2881553 -0.83829331 -0.33702037 4293530880
3.2898333 -0.83861649 -0.35379398 4293530880
3.3085208 -0.84327143 -0.37211663 4293661440
3.3089337 -0.84327143 -0.38805842 4293661440
3.2766714 -0.83495146 -0.39957407 4293530880
3.3212357 -0.84619254 -0.42010376 4293661440
3.3227885 -0.84648174 -0.4349134 4293661440
3.3200605 -0.84568113 -0.44867009 4293661440
3.3200638 -0.84557557 -0.46228284 4293661440
3.3112988 -0.84323877 -0.47411653 4293661440
3.2828336 -0.83589 -0.48244372 4293530880
3.2807939 -0.8352654 -0.49400643 4293530880
3.2974429 -0.83939439 -0.50788176 4293661440
3.2981789 -0.83947498 -0.51878113 4293661440
3.2901051 -0.83731502 -0.52767688 4293661440
3.2928426 -0.83790427 -0.53769153 4293661440
3.2977777 -0.83905184 -0.54747152 4293661440
3.2994678 -0.83937401 -0.55610043 4293661440
3.2959599 -0.83837467 -0.56320715 4293661440
3.291512 -0.83713645 -0.56948584 4293661440
3.2715216 -0.83194888 -0.57236236 4293530880
3.2615511 -0.82930821 -0.57627821 4293530880
3.2619908 -0.82931244 -0.58135355 4293530880
3.2538178 -0.82712877 -0.58420539 4293530880
3.258018 -0.82808787 -0.5885995 4293530880
3.2284706 -0.82047665 -0.58617496 4293400320
3.2462561 -0.82488519 -0.59166914 4293530880
3.2278876 -0.82011384 -0.589872 4293400320
3.227767 -0.8199755 -0.59072161 4293400320
3.26161 -0.82845706 -0.59711576 4293530880
3.2474058 -0.82474309 -0.59400052 4293530880
3.2560737 -0.82683331 -0.59438604 4293530880
3.2637801 -0.82867879 -0.59389561 4293530880
3.2733109 -0.83098632 -0.59303457 4293530880
3.2785425 -0.83220255 -0.59068996 4293661440
3.2845037 -0.83360314 -0.58777815 4293661440
3.2921009 -0.83541805 -0.58445948 4293661440
3.2879467 -0.83425272 -0.57836759 4293661440
3.2860296 -0.83365458 -0.57201093 4293661440
3.2932098 -0.8353622 -0.56656981 4293661440
3.2818086 -0.83235997 -0.55728066 4293661440
3.2878509 -0.83377844 -0.55033064 4293661440
3.2818735 -0.83215094 -0.54073185 4293530880
3.2636616 -0.82742435 -0.52855861 4293530880
3.2583377 -0.82596314 -0.51794094 4293530880
3.2736444 -0.82972711 -0.50998884 4293530880
3.288173 -0.83329266 -0.50123757 4293530880
3.3065083 -0.83782089 -0.49238643 4293661440
3.2937458 -0.83447504 -0.47831523 4293661440
3.2606688 -0.82598794 -0.46091941 4293530880
3.2623856 -0.82630873 -0.44806066 4293530880
3.2870693 -0.83244109 -0.43775499 4293530880
3.2969065 -0.83481508 -0.42483029 4293530880
3.2671964 -0.82718354 -0.40640721 4293530880
3.2482691 -0.82228136 -0.38909864 4293400320
3.2802861 -0.83026475 -0.37742239 4293530880
3.2838571 -0.83105248 -0.36187384 4293530880
3.2839444 -0.83095896 -0.34552366 4293530880
3.2403481 -0.81982183 -0.3243981 4293400320
3.2522259 -0.82270992 -0.30866015 4293400320
3.2688134 -0.82678729 -0.29288542 4293400320
3.2573316 -0.82377028 -0.27423722 4293400320
3.2290034 -0.81649756 -0.25408274 4293269760
3.256676 -0.82337409 -0.23809148 4293400320
3.269438 -0.82648236 -0.22051963 4293400320
3.2695897 -0.82640475 -0.20178115 4293400320
3.2858341 -0.83039087 -0.18373393 4293530880
3.2594161 -0.82360405 -0.16314338 4293400320
3.2654331 -0.82500726 -0.14414024 4293400320
3.2776597 -0.82797748 -0.12515424 4293400320
3.2322605 -0.81640309 -0.10400431 4293269760
3.2746103 -0.82697493 -0.085635714 4293400320
3.282495 -0.82884789 -0.065955192 4293400320
3.2889113 -0.8303498 -0.046090629 4293530880
3.2580965 -0.82246017 -0.025786415 4293400320
3.2913761 -0.83073747 -0.0059874216 4293530880
3.3039455 -0.83379006 0.014142932 4293530880
3.3032649 -0.83350086 0.034277231 4293530880
3.2890878 -0.82980943 0.054147817 4293530880
3.3171601 -0.83676845 0.074710473 4293530880
3.325597 -0.83877683 0.094978563 4293661440
3.3240633 -0.83827221 0.11490264 4293530880
3.2993796 -0.83193505 0.13375533 4293530880
3.31548 -0.83587384 0.15403587 4293530880
3.3269372 -0.83864212 0.17409481 4293661440
3.2967191 -0.83091378 0.1916966 4293530880
3.3087356 -0.83382291 0.21140905 4293530880
3.330822 -0.8392666 0.23171848 4293661440
3.3341672 -0.83999085 0.25062254 4293661440
3.3055673 -0.83267421 0.26672781 4293530880
3.3307941 -0.83890635 0.28682494 4293661440
3.3486812 -0.84328985 0.30620733 4293661440
3.3470011 -0.84274912 0.3235577 4293661440
3.3272085 -0.83765215 0.33869696 4293661440
3.2779038 -0.8251335 0.35012364 4293530880
3.3343213 -0.83920705 0.37240961 4293661440
3.3331602 -0.83879811 0.38815311 4293661440
3.3331015 -0.83866662 0.40358093 4293661440
3.3108428 -0.83295435 0.41577899 4293661440
3.2782764 -0.82465303 0.42597699 4293530880
3.3282442 -0.83709657 0.44642854 4293661440
3.3356702 -0.83884674 0.46093398 4293792000
3.3286862 -0.83697599 0.47293463 4293661440
3.3361979 -0.8387475 0.48644495 4293792000
3.315455 -0.83342165 0.49525076 4293661440
3.3087518 -0.83162344 0.50547826 4293661440
3.319562 -0.83422375 0.51779902 4293661440
3.3238041 -0.83517444 0.52854931 4293661440
3.329263 -0.83643049 0.5389089 4293792000
3.3197508 -0.83392853 0.54622054 4293661440
3.32269 -0.83455247 0.55491942 4293792000
3.3199377 -0.8337481 0.5620265 4293661440
3.3217487 -0.83408928 0.5692448 4293792000
3.3266168 -0.83519739 0.57633269 4293792000
3.3165708 -0.83256435 0.58016491 4293661440
3.3149552 -0.83204669 0.58476704 4293661440
3.3143046 -0.83177125 0.58884943 4293661440
3.313776 -0.83152688 0.59226054 4293661440
3.313344 -0.83130682 0.59499174 4293661440
3.3034682 -0.82871985 0.59532726 4293661440
3.3175969 -0.83215022 0.59927094 4293792000
3.3079517 -0.82962203 0.59823531 4293661440
3.312741 -0.83071154 0.59909362 4293661440
3.308105 -0.82943964 0.59754968 4293661440
3.3187776 -0.83200318 0.59805316 4293792000
3.3235514 -0.83308876 0.5967865 4293792000
3.3182185 -0.8316431 0.59301168 4293792000
3.3207383 -0.83216453 0.58993977 4293792000
3.3230579 -0.83263582 0.58613402 4293792000
3.3197162 -0.83168995 0.58064824 4293792000
3.3192647 -0.83146799 0.57499141 4293792000
3.313457 -0.82990581 0.5677495 4293661440
3.3088937 -0.8286556 0.56007719 4293661440
3.3061631 -0.82786447 0.55207646 4293661440
3.30651 -0.82784367 0.5439502 4293661440
3.2939539 -0.82459551 0.53311092 4293661440
3.317966 -0.83049434 0.5275116 4293661440
3.3238149 -0.83184969 0.51834053 4293661440
3.3249176 -0.83201814 0.50781298 4293661440
3.3170502 -0.82994407 0.49535984 4293661440
3.2872369 -0.82166946 0.40601891 4293530880
3.3161008 -0.82877314 0.39445463 4293661440
3.3267651 -0.8313306 0.38011134 4293661440
3.3082461 -0.82660151 0.36206433 4293530880
3.2804129 -0.81954843 0.34282443 4293530880
3.3043928 -0.8254301 0.32859799 4293530880
3.3149319 -0.82795596 0.31250092 4293661440
3.2865345 -0.82076502 0.29250506 4293530880
3.2584422 -0.81365198 0.27251124 4293400320
3.2919071 -0.8218981 0.25729147 4293530880
3.3070464 -0.825571 0.24009877 4293530880
3.2984591 -0.82332516 0.22089659 4293530880
3.2731302 -0.81690484 0.20053199 4293400320
3.2976589 -0.82291842 0.18297198 4293530880
3.311456 -0.82625484 0.16439867 4293530880
3.3118212 -0.82624209 0.14490211 4293530880
3.2728353 -0.81642067 0.12377626 4293400320
3.2921844 -0.82114047 0.10479956 4293530880
3.3004439 -0.82309562 0.085194319 4293530880
3.2906022 -0.82054007 0.06504678 4293530880
3.2656591 -0.81422287 0.044746656 4293400320
3.2743106 -0.81627584 0.024933949 4293400320
3.2751126 -0.81637317 0.0049781459 4293400320
3.2488945 -0.80974126 -0.014857111 4293269760
3.2683911 -0.81449443 -0.034874346 4293400320
3.2804205 -0.81738728 -0.05496541 4293400320
3.2908559 -0.81988239 -0.075109504 4293530880
3.2545838 -0.81075066 -0.09392821 4293400320
3.2823184 -0.81755143 -0.11447972 4293400320
3.2893398 -0.81919593 -0.13438573 4293530880
3.3126104 -0.82488298 -0.15500249 4293530880
3.2587345 -0.81137538 -0.17162479 4293400320
3.2741318 -0.81510329 -0.19152316 4293400320
3.285599 -0.81785268 -0.21114059 4293530880
3.2905567 -0.81898236 -0.23020412 4293530880
3.2736623 -0.81467783 -0.24741314 4293400320
3.2957027 -0.82005477 -0.26734519 4293530880
3.3207626 -0.82618082 -0.28749284 4293661440
3.3107157 -0.82357872 -0.30435383 4293530880
3.2935138 -0.81919885 -0.32007781 4293530880
3.2963066 -0.81978869 -0.33732924 4293530880
3.3033869 -0.82144368 -0.35470188 4293530880
3.3047321 -0.82167315 -0.37110806 4293530880
3.2904744 -0.81802648 -0.38528338 4293530880
3.2766986 -0.81450027 -0.39895639 4293530880
3.3197927 -0.82509834 -0.41926953 4293661440
3.3277016 -0.82695639 -0.43488511 4293661440
3.3297803 -0.82736629 -0.44929379 4293661440
3.3249717 -0.82606602 -0.46225569 4293661440
3.3113868 -0.82258749 -0.47340077 4293661440
3.291239 -0.8174808 -0.48294145 4293530880
3.2952454 -0.81836921 -0.4954302 4293661440
3.2962191 -0.81850469 -0.50691783 4293661440
3.2969537 -0.81858057 -0.51779807 4293661440
3.294965 -0.81798071 -0.52765554 4293661440
3.304419 -0.82021892 -0.53876907 4293661440
3.2973757 -0.81836492 -0.5465765 4293661440
3.2909291 -0.81665921 -0.55382031 4293661440
3.2960377 -0.81781858 -0.56237245 4293661440
3.2963698 -0.81779331 -0.56947178 4293661440
3.2849612 -0.81485766 -0.57385844 4293661440
3.2759295 -0.81251162 -0.57795984 4293530880
3.2534125 -0.80682433 -0.57895631 4293530880
3.2538352 -0.80682194 -0.58333963 4293530880
3.2532613 -0.80657238 -0.58686614 4293530880
3.2236707 -0.79913527 -0.5844354 4293400320
3.2620037 -0.80852222 -0.5936693 4293530880
3.2278652 -0.79996008 -0.58900017 4293400320
3.2616425 -0.80821586 -0.59606099 4293530880
3.2434773 -0.80361003 -0.59291977 4293530880
3.2558632 -0.80656749 -0.59468323 4293530880
3.2465303 -0.80414855 -0.59177864 4293530880
3.250422 -0.80500263 -0.59060252 4293530880
3.272377 -0.81032568 -0.59200954 4293530880
3.2887259 -0.81426001 -0.59167743 4293661440
3.2845526 -0.81311661 -0.58694512 4293661440
3.2921588 -0.81488669 -0.58363605 4293661440
3.2918983 -0.8147105 -0.57824183 4293661440
3.2851996 -0.81294233 -0.5710572 4293661440
3.2915413 -0.81439823 -0.56548458 4293661440
3.2866299 -0.81307185 -0.5573194 4293661440
3.2808459 -0.81152987 -0.54838914 4293530880
3.2748492 -0.80993551 -0.53882283 4293530880
3.2636583 -0.80705792 -0.52782887 4293530880
3.2660019 -0.80752474 -0.5184508 4293530880
3.2784488 -0.81048691 -0.51004332 4293530880
3.3010674 -0.81596035 -0.50252783 4293661440
3.2882993 -0.81269312 -0.48900795 4293530880
3.2937701 -0.81393009 -0.47768044 4293530880
3.2654502 -0.80682409 -0.4609865 4293530880
3.2566669 -0.80454254 -0.44668546 4293400320
3.2784083 -0.80979544 -0.43602976 4293530880
3.2882519 -0.81211048 -0.42316559 4293530880
3.2671652 -0.80679268 -0.40588593 4293400320
3.2567663 -0.80411303 -0.38963008 4293400320
3.2802675 -0.80979633 -0.3769519 4293530880
3.2934942 -0.81294382 -0.36249682 4293530880
3.3016999 -0.81485194 -0.3469829 4293530880
3.2450936 -0.80077857 -0.32449207 4293400320
3.2473202 -0.80121356 -0.30783579 4293400320
3.2687631 -0.8063851 -0.29255044 4293400320
3.2717774 -0.80701292 -0.27515873 4293400320
3.2288899 -0.7963289 -0.25380406 4293269760
3.2662854 -0.80542922 -0.23855549 4293400320
3.2773638 -0.8080433 -0.22084355 4293400320
3.2718122 -0.8065601 -0.20173475 4293400320
3.2857957 -0.80988848 -0.18357632 4293400320
3.2554581 -0.80230165 -0.16281912 4293400320
3.2614813 -0.80366957 -0.14386961 4293400320
3.2785749 -0.80776244 -0.12512565 4293400320
3.2321382 -0.79621601 -0.10396726 4293269760
3.2696953 -0.805345 -0.085501507 4293400320
3.2872984 -0.80956101 -0.066082127 4293400320
3.2898405 -0.81007004 -0.046162568 4293400320
3.2628644 -0.80331725 -0.025915135 4293400320
3.2864821 -0.80901098 -0.0060950392 4293400320
3.3013573 -0.81255299 0.01398303 4293530880
3.3028278 -0.81279767 0.034092285 4293530880
3.2964735 -0.81111848 0.054054733 4293530880
3.3171601 -0.81608719 0.074468859 4293530880
3.3304636 -0.8192398 0.094842315 4293661440
3.3086438 -0.81375951 0.11407891 4293530880
3.3026588 -0.81217188 0.13355805 4293530880
3.3203321 -0.81639731 0.15389973 4293530880
3.3162909 -0.81528729 0.17315774 4293530880
3.2918475 -0.80916643 0.19100522 4293530880
3.3087311 -0.81319666 0.21096835 4293530880
3.3308516 -0.81851166 0.23125029 4293661440
3.3274195 -0.81755173 0.24962349 4293661440
3.2920222 -0.80874538 0.26512721 4293530880
3.3236635 -0.8163957 0.28566921 4293661440
3.3487439 -0.82243389 0.30563813 4293661440
3.3422284 -0.82071757 0.32250172 4293661440
3.3320765 -0.81810981 0.33857051 4293661440
3.2788351 -0.80493283 0.34959155 4293530880
3.3241382 -0.81592959 0.37061769 4293661440
3.327615 -0.81666607 0.38682836 4293661440
3.3244712 -0.81577909 0.40183976 4293661440
3.3162684 -0.81365228 0.41573769 4293661440
3.2953255 -0.80840319 0.4274483 4293530880
3.3186619 -0.8140083 0.44439468 4293661440
3.33448 -0.81776959 0.45999536 4293661440
3.3383629 -0.81860542 0.47351173 4293792000
3.3410733 -0.81915402 0.48634616 4293792000
3.3241448 -0.81489193 0.49572715 4293661440
3.3179159 -0.81325179 0.50604546 4293661440
3.3244102 -0.81472802 0.51771235 4293661440
3.319057 -0.81330311 0.52694911 4293661440
3.3293247 -0.81570309 0.5380584 4293792000
3.3245959 -0.81443167 0.54614699 4293661440
3.3237026 -0.81409943 0.55421346 4293661440
3.3295736 -0.81542289 0.56276917 4293792000
3.3265932 -0.81458038 0.56918561 4293792000
3.3174744 -0.81223655 0.57386768 4293661440
3.3118267 -0.81074274 0.57844979 4293661440
3.3149974 -0.81140625 0.58388346 4293661440
3.3191321 -0.81230551 0.58881122 4293661440
3.3052003 -0.80878729 0.58984572 4293661440
3.3133814 -0.81067634 0.59410995 4293661440
