# .PCD v0.7 - Point Cloud Data file format
VERSION 0.7
FIELDS x y z rgba
SIZE 4 4 4 4
TYPE F F F U
COUNT 1 1 1 1
WIDTH 1078
HEIGHT 1
VIEWPOINT 0 0 0 1 0 0 0
POINTS 1078
DATA ascii
3.3344996 -0.76341391 -0.41932517 4293661440
3.3327713 -0.76291275 -0.43367752 4293661440
3.3371389 -0.76380575 -0.44835255 4293661440
3.331964 -0.76251626 -0.461236 4293661440
3.3208075 -0.7598592 -0.47270554 4293661440
3.3040755 -0.75592822 -0.48273945 4293530880
3.3027415 -0.75551766 -0.49441686 4293530880
3.3108077 -0.75725543 -0.5069682 4293661440
3.3019071 -0.75511527 -0.51633602 4293530880
3.3044379 -0.75558746 -0.52688712 4293661440
3.3151872 -0.75793678 -0.53818911 4293661440
3.3076324 -0.75610429 -0.54590553 4293661440
3.3006749 -0.75440842 -0.55305612 4293661440
3.3058059 -0.75547326 -0.5615958 4293661440
3.3013322 -0.7543447 -0.56785458 4293661440
3.2956409 -0.75293821 -0.57322699 4293530880
3.2769601 -0.74856699 -0.5756278 4293530880
3.2774005 -0.74856061 -0.58069754 4293530880
3.2595732 -0.74438554 -0.58182567 4293530880
3.2676392 -0.74611908 -0.58689696 4293530880
3.2427168 -0.74032652 -0.58533245 4293400320
3.2375646 -0.73904479 -0.58663827 4293400320
3.2469258 -0.74107307 -0.58989823 4293400320
3.271251 -0.74651265 -0.59520727 4293530880
3.2760422 -0.74749684 -0.59626657 4293530880
3.2579117 -0.74325532 -0.59245193 4293530880
3.2608674 -0.74382079 -0.59179264 4293530880
3.2830167 -0.74876004 -0.59392214 4293530880
3.2868249 -0.74951839 -0.59201819 4293530880
3.289217 -0.74995363 -0.58916444 4293530880
3.303854 -0.75317776 -0.58780479 4293661440
3.3066893 -0.75371277 -0.58363611 4293661440
3.3112311 -0.75463611 -0.57908142 4293661440
3.304503 -0.75299269 -0.57188529 4293661440
3.3108726 -0.75433141 -0.56630015 4293661440
3.3171468 -0.75564778 -0.5600186 4293661440
3.3049421 -0.75275797 -0.54997981 4293661440
3.2892933 -0.74908495 -0.53880441 4293530880
3.286325 -0.74829793 -0.52914327 4293530880
3.2669127 -0.74377012 -0.51628774 4293400320
3.284517 -0.74766308 -0.50871259 4293530880
3.3123374 -0.75387794 -0.50199735 4293661440
3.3124442 -0.75378913 -0.49040666 4293661440
3.3011897 -0.75111705 -0.47661462 4293530880
3.2798405 -0.74615085 -0.46094581 4293530880
3.2767317 -0.74533176 -0.44742486 4293400320
3.2928517 -0.74888247 -0.43598256 4293530880
3.2961972 -0.7495293 -0.42227414 4293530880
3.2841151 -0.74667096 -0.40615052 4293530880
3.272197 -0.74385053 -0.38970408 4293400320
3.2916064 -0.7481457 -0.37653562 4293530880
3.3048508 -0.75103939 -0.36208805 4293530880
3.3080809 -0.75165844 -0.34606001 4293530880
3.2545226 -0.73938566 -0.32393879 4293400320
3.2638662 -0.74139357 -0.30797926 4293400320
3.2749805 -0.74380267 -0.29174516 4293400320
3.2835944 -0.74564344 -0.27486524 4293400320
3.2439876 -0.73654372 -0.25379649 4293269760
3.2735591 -0.74313873 -0.23795481 4293400320
3.2765491 -0.74370289 -0.21973021 4293400320
3.2830763 -0.74506897 -0.20145522 4293400320
3.2892711 -0.74635911 -0.18287162 4293400320
3.2679107 -0.74140215 -0.16263542 4293400320
3.2732286 -0.74249357 -0.1436622 4293400320
3.2933764 -0.74694538 -0.12504594 4293400320
3.2472315 -0.73637438 -0.10390095 4293269760
3.2726991 -0.74203086 -0.085101575 4293400320
3.2871032 -0.74517941 -0.065681189 4293400320
3.2945278 -0.74674624 -0.045919143 4293400320
3.2644196 -0.73981303 -0.025704844 4293269760
3.2960246 -0.74685496 -0.0059790234 4293400320
3.3021843 -0.74813426 0.014038731 4293400320
3.3026834 -0.74813193 0.034056742 4293400320
3.2872357 -0.7445206 0.053788342 4293400320
3.3268263 -0.75336432 0.074471183 4293530880
3.3265362 -0.75318253 0.094436809 4293530880
3.3152454 -0.75051242 0.11392128 4293530880
3.3034835 -0.74773657 0.13312535 4293400320
3.3195207 -0.751248 0.15330927 4293530880
3.3210728 -0.75148326 0.172766 4293530880
3.3013771 -0.74691504 0.19083382 4293400320
3.3030059 -0.7471683 0.20980503 4293530880
3.3172066 -0.75026274 0.22942367 4293530880
3.3303092 -0.75310814 0.24886544 4293530880
3.2918236 -0.74429744 0.26406971 4293400320
3.3349407 -0.75392312 0.28549638 4293661440
3.3480775 -0.75677454 0.3043595 4293661440
3.3467319 -0.75635475 0.32163826 4293661440
3.3437445 -0.75556439 0.33837861 4293661440
3.2786131 -0.74074495 0.34815168 4293400320
3.3289678 -0.75199789 0.36964238 4293661440
3.3447194 -0.75543803 0.38721657 4293661440
3.3381028 -0.75382972 0.40182328 4293661440
3.3259132 -0.75096464 0.41522393 4293661440
3.3048792 -0.74610543 0.42691055 4293530880
3.3283176 -0.75127852 0.44383454 4293661440
3.3355026 -0.75278479 0.45822355 4293661440
3.3345747 -0.75246137 0.47100583 4293661440
3.3276439 -0.75078493 0.48237613 4293661440
3.3251359 -0.75010604 0.49379683 4293661440
3.32757 -0.75054139 0.5053798 4293661440
3.3254111 -0.74994171 0.51568729 4293661440
3.3278363 -0.75037521 0.52610731 4293661440
3.3389103 -0.75275707 0.53731853 4293661440
3.3256094 -0.74964815 0.54399675 4293661440
3.3150842 -0.7471655 0.55043381 4293661440
3.3262136 -0.74955976 0.55980974 4293661440
3.3131874 -0.74651504 0.56448209 4293661440
3.318089 -0.7475071 0.57151914 4293661440
3.3127987 -0.74620509 0.57613933 4293661440
3.3168495 -0.74700582 0.58169961 4293661440
3.3143697 -0.74633706 0.58543944 4293661440
3.3234382 -0.7482667 0.59052986 4293661440
3.2999461 -0.74287176 0.58915317 4293661440
3.309237 -0.74485177 0.59289932 4293661440
3.3090293 -0.74469537 0.59425843 4293661440
3.3223774 -0.74758708 0.59734565 4293661440
3.3127899 -0.74532205 0.59562463 4293661440
3.3234046 -0.74759877 0.59681809 4293661440
3.3150091 -0.74560267 0.5939098 4293661440
3.3149991 -0.74549162 0.5918026 4293661440
3.3230886 -0.74720055 0.59043282 4293661440
3.3169634 -0.74571592 0.58585304 4293661440
3.3144796 -0.74504977 0.58123559 4293661440
3.3207297 -0.74634546 0.57745576 4293661440
3.3191862 -0.74589097 0.57164305 4293661440
3.3144183 -0.74471283 0.56462002 4293661440
3.3194492 -0.74573487 0.5585984 4293661440
3.3166971 -0.74500984 0.5506168 4293661440
3.292949 -0.73957336 0.53858775 4293530880
3.2993736 -0.74090886 0.53088844 4293530880
3.3227632 -0.74605042 0.52520835 4293661440
3.3418546 -0.75022638 0.51812023 4293661440
3.3258758 -0.74653542 0.50501394 4293661440
3.3230712 -0.74580014 0.49337807 4293661440
3.2907174 -0.73786914 0.40409386 4293530880
3.3178945 -0.74385327 0.39238122 4293530880
3.3315358 -0.746804 0.37844762 4293661440
3.2992456 -0.73946732 0.35899159 4293530880
3.2800491 -0.73506474 0.34079778 4293400320
3.2979109 -0.73896068 0.32605308 4293530880
3.3059216 -0.7406503 0.30984557 4293530880
3.2870679 -0.7363264 0.29084963 4293400320
3.2627695 -0.73078519 0.27128029 4293400320
3.2901633 -0.73681283 0.25565529 4293400320
3.2979329 -0.73844814 0.23804252 4293400320
3.29055 -0.73669326 0.21908021 4293400320
3.2666731 -0.73124975 0.19896425 4293400320
3.3062305 -0.73999441 0.18236054 4293530880
3.307194 -0.74010658 0.16321738 4293530880
3.3085725 -0.74031156 0.14390007 4293530880
3.2621665 -0.72983414 0.12263962 4293269760
3.2877874 -0.73545915 0.10402861 4293400320
3.2983861 -0.73772538 0.084619574 4293400320
3.2838023 -0.73436362 0.064508677 4293400320
3.2734313 -0.73194414 0.044555042 4293400320
3.2762272 -0.73246676 0.024766916 4293400320
3.2871807 -0.73481125 0.0049222019 4293400320
3.2442207 -0.72511446 -0.014787081 4293269760
3.263828 -0.72939169 -0.034663845 4293269760
3.2805185 -0.73301649 -0.054693729 4293400320
3.2825632 -0.73337066 -0.074528947 4293400320
3.2596967 -0.72816437 -0.093582779 4293269760
3.2842715 -0.73354721 -0.11393713 4293400320
3.3018262 -0.73736203 -0.13417552 4293400320
3.3042543 -0.73780072 -0.15376791 4293400320
3.260268 -0.72788489 -0.17076945 4293269760
3.294558 -0.73543149 -0.19167307 4293400320
3.2952337 -0.73547918 -0.21060075 4293400320
3.2940137 -0.73510402 -0.22917745 4293400320
3.2779212 -0.73141295 -0.24636832 4293400320
3.306668 -0.7377187 -0.26675522 4293530880
3.3250132 -0.74170411 -0.28626648 4293530880
3.3225355 -0.7410475 -0.30374974 4293530880
3.2809048 -0.73166639 -0.31707236 4293400320
3.3007143 -0.73597687 -0.33590129 4293530880
3.3039567 -0.73659527 -0.35278538 4293530880
3.3104599 -0.7379396 -0.3696793 4293530880
3.3087292 -0.73744977 -0.38526553 4293530880
3.2604401 -0.72659236 -0.39474925 4293400320
3.3355937 -0.7432217 -0.41891551 4293661440
3.333864 -0.74273103 -0.43325371 4293661440
3.3384321 -0.74364203 -0.44794112 4293661440
3.3326006 -0.74223816 -0.46072194 4293661440
3.3329 -0.74219877 -0.47381291 4293661440
3.303592 -0.73557198 -0.48203814 4293530880
3.3022578 -0.73516977 -0.49369857 4293530880
3.3103364 -0.73686105 -0.50623375 4293530880
3.3036983 -0.73527884 -0.51594228 4293530880
3.3090744 -0.7363683 -0.52693945 4293661440
3.3118305 -0.73687476 -0.53694052 4293661440
3.307163 -0.73573059 -0.54511505 4293661440
3.313684 -0.73707336 -0.55451679 4293661440
3.3101511 -0.7361812 -0.56160176 4293661440
3.291328 -0.73189169 -0.56539017 4293530880
3.2951598 -0.73263627 -0.57239485 4293530880
3.2812657 -0.72944295 -0.5756337 4293530880
3.2720871 -0.7272976 -0.57899702 4293530880
3.2542379 -0.7232272 -0.58011287 4293400320
3.2671227 -0.72598183 -0.58603829 4293530880
3.2421679 -0.72033495 -0.58446956 4293400320
3.2466216 -0.72121722 -0.58751601 4293400320
3.2463822 -0.72105736 -0.58902985 4293400320
3.2366459 -0.71878999 -0.58812732 4293400320
3.2620792 -0.72432619 -0.59294474 4293530880
3.2525747 -0.72210991 -0.59070778 4293400320
3.260339 -0.72372442 -0.59092522 4293530880
3.2786708 -0.72768176 -0.59236091 4293530880
3.2873044 -0.72948712 -0.59133315 4293530880
3.2935302 -0.73075801 -0.58917034 4293530880
3.3033767 -0.73283076 -0.586954 4293661440
3.3019416 -0.73240232 -0.58203697 4293661440
3.3155715 -0.73531222 -0.57908738 4293661440
3.3040206 -0.7326417 -0.57105714 4293661440
3.3073118 -0.7332598 -0.56495315 4293661440
3.310271 -0.73380399 -0.5581274 4293661440
3.2948167 -0.73026973 -0.54757679 4293530880
3.2936018 -0.72988939 -0.53881031 4293530880
3.2858064 -0.72805208 -0.52837151 4293530880
3.2798746 -0.72662765 -0.51766825 4293530880
3.293644 -0.72956401 -0.5094673 4293530880
3.3070149 -0.73241103 -0.50053698 4293530880
3.3216112 -0.73552811 -0.49112922 4293661440
3.3029482 -0.73128599 -0.47624999 4293530880
3.2841318 -0.72701114 -0.46095166 4293530880
3.2713404 -0.72406989 -0.44610628 4293400320
3.2874756 -0.72752589 -0.43470335 4293530880
3.2973676 -0.72960031 -0.42187673 4293530880
3.285846 -0.7269401 -0.40583852 4293400320
3.2667766 -0.72261238 -0.38855156 4293400320
3.2862055 -0.72679371 -0.37542811 4293400320
3.295578 -0.72875148 -0.36059996 4293530880
3.2978334 -0.72913617 -0.34453642 4293530880
3.2501488 -0.71848941 -0.32308272 4293269760
3.2584069 -0.72020096 -0.30706379 4293269760
3.2792583 -0.72469282 -0.291751 4293400320
3.2781506 -0.72433478 -0.27405247 4293400320
3.2384872 -0.71546561 -0.25303641 4293269760
3.2579527 -0.71964979 -0.23650697 4293269760
3.2792704 -0.72424126 -0.21963103 4293400320
3.2856097 -0.72552627 -0.20135279 4293400320
3.2899175 -0.72636259 -0.18267308 4293400320
3.2562749 -0.71882761 -0.16184233 4293269760
3.2752056 -0.72288954 -0.14356625 4293400320
3.2738512 -0.72247702 -0.12413545 4293400320
3.2417059 -0.71527606 -0.10358936 4293269760
3.2697861 -0.72135335 -0.08491689 4293269760
3.2874832 -0.72514021 -0.0656069 4293400320
3.2890577 -0.72537279 -0.045783553 4293400320
3.2637913 -0.7196914 -0.025669439 4293269760
3.2817647 -0.72353739 -0.0059406138 4293400320
3.296721 -0.72671753 0.013997039 4293400320
3.3034978 -0.72809541 0.034016985 4293400320
3.2966869 -0.72648078 0.053863939 4293400320
3.3213949 -0.73180592 0.074252717 4293530880
3.3259861 -0.73270112 0.09429539 4293530880
3.3146811 -0.73009735 0.11375082 4293530880
3.2931452 -0.72524315 0.13253917 4293400320
3.3287194 -0.73295587 0.15352544 4293530880
3.3205173 -0.73103601 0.17250969 4293530880
3.2920351 -0.72465616 0.1900491 4293400320
3.3121767 -0.72897154 0.21010534 4293530880
3.321521 -0.73091143 0.22941779 4293530880
3.3258729 -0.73175323 0.2482107 4293530880
3.3058412 -0.72723496 0.26483783 4293530880
3.3305161 -0.73254365 0.28474703 4293530880
3.3524294 -0.73724401 0.30435356 4293661440
3.3462191 -0.73576385 0.32116869 4293661440
3.346133 -0.73562962 0.33817619 4293661440
3.2780149 -0.7205528 0.34763387 4293400320
3.3284369 -0.73151302 0.3691012 4293530880
3.3367906 -0.73323292 0.38579959 4293661440
3.3336306 -0.73242468 0.40076435 4293661440
3.3205352 -0.72943586 0.41401544 4293530880
3.3052931 -0.725977 0.42640716 4293530880
3.3239198 -0.72995138 0.44267339 4293661440
3.3253086 -0.73014259 0.45623478 4293661440
3.3340631 -0.73194963 0.47032061 4293661440
3.3319612 -0.7313751 0.48237023 4293661440
3.3391173 -0.73283112 0.49521828 4293661440
3.3173909 -0.72795397 0.50318515 4293661440
3.3200645 -0.72842765 0.51419204 4293661440
3.3282893 -0.73011816 0.52549434 4293661440
3.3335879 -0.73116696 0.53576815 4293661440
3.3337789 -0.73109639 0.54461867 4293661440
3.3193808 -0.72782952 0.55042791 4293661440
3.3204708 -0.72795671 0.55812103 4293661440
3.3222988 -0.72824568 0.56529284 4293661440
3.3223875 -0.72815382 0.5715133 4293661440
3.3122735 -0.72582817 0.5753004 4293661440
3.3211451 -0.72765988 0.58169371 4293661440
3.3186615 -0.7270056 0.58543354 4293661440
3.3277409 -0.72888243 0.59052402 4293661440
3.3176785 -0.72657001 0.59153795 4293661440
3.308708 -0.72449744 0.59203583 4293661440
3.3171463 -0.72623402 0.59493774 4293661440
3.3170531 -0.72610414 0.59561855 4293661440
3.3132265 -0.72515804 0.59493029 4293661440
3.319042 -0.7263208 0.59526491 4293661440
3.3192966 -0.72626758 0.59390396 4293661440
3.3192859 -0.72615653 0.59179676 4293661440
3.3139074 -0.72487253 0.58804482 4293661440
3.3116229 -0.72426516 0.5841555 4293661440
3.3235791 -0.7267698 0.58206969 4293661440
3.3245382 -0.72687137 0.57736641 4293661440
3.3186574 -0.72547895 0.57081193 4293661440
3.3178205 -0.72518867 0.56446505 4293661440
3.3237374 -0.72637355 0.55859256 4293661440
3.3161583 -0.72461158 0.5498147 4293661440
3.2923772 -0.7193132 0.53779727 4293530880
3.3086717 -0.72276407 0.53168875 4293530880
3.3172765 -0.72453582 0.52366585 4293661440
3.3374734 -0.72883672 0.51677388 4293661440
3.3301682 -0.72713619 0.5050081 4293661440
3.3138216 -0.72346383 0.49137396 4293530880
3.2861981 -0.71690935 0.40302306 4293400320
3.3221412 -0.72463953 0.39237463 4293530880
3.3357995 -0.72751123 0.37844014 4293661440
3.3034675 -0.72036123 0.35898328 4293530880
3.2793851 -0.71501064 0.34028736 4293400320
3.3021302 -0.7198621 0.32604286 4293530880
3.3141112 -0.72236782 0.31020251 4293530880
3.2864044 -0.71623021 0.29041037 4293400320
3.266942 -0.71188956 0.27126706 4293400320
3.2943702 -0.71775848 0.25564086 4293400320
3.307023 -0.72040951 0.2383752 4293530880
3.2947564 -0.71763641 0.21906352 4293400320
3.2757258 -0.7133922 0.19924015 4293400320
3.300698 -0.71872336 0.18180996 4293400320
3.31142 -0.72095287 0.1631971 4293530880
3.303113 -0.71904266 0.14346373 4293400320
3.2897701 -0.71603781 0.12348286 4293400320
3.2822194 -0.7142933 0.10370219 4293400320
3.2928295 -0.7164979 0.084350206 4293400320
3.2879949 -0.71534437 0.064482704 4293400320
3.2639306 -0.7100113 0.044350214 4293269760
3.2706373 -0.71136725 0.024670757 4293269760
3.2816036 -0.71364838 0.0048839538 4293400320
3.2395656 -0.70441264 -0.014771895 4293269760
3.2640834 -0.70963794 -0.034651358 4293269760
3.2775159 -0.71245396 -0.05460234 4293400320
3.2828414 -0.71350843 -0.074471503 4293400320
3.2540848 -0.70716184 -0.093331218 4293269760
3.2868989 -0.71418476 -0.11391746 4293400320
3.3011522 -0.71717644 -0.13401093 4293400320
3.2981565 -0.71642327 -0.15332022 4293400320
3.2631519 -0.70872372 -0.17073962 4293269760
3.2835376 -0.7130453 -0.190819 4293400320
3.2893832 -0.71421099 -0.20999302 4293400320
3.2884581 -0.71390748 -0.22853428 4293400320
3.2764444 -0.71119899 -0.24598102 4293400320
3.3069799 -0.71771836 -0.26647979 4293530880
3.3204803 -0.72054207 -0.28554949 4293530880
3.3131354 -0.71884561 -0.30253989 4293530880
3.2714572 -0.70970714 -0.3157917 4293400320
3.3064651 -0.71719187 -0.33610135 4293530880
3.3097103 -0.71779114 -0.35299319 4293530880
3.3160391 -0.71905822 -0.36987439 4293530880
3.2983699 -0.7151258 -0.38360578 4293530880
3.268466 -0.70854419 -0.39526117 4293400320
3.326252 -0.72095615 -0.41724664 4293530880
3.3342216 -0.7225768 -0.43278921 4293661440
3.3426731 -0.72430098 -0.44798139 4293661440
3.3368332 -0.72293079 -0.46076152 4293661440
3.322612 -0.71974653 -0.47178325 4293661440
3.3077867 -0.71643227 -0.48207593 4293530880
3.3112857 -0.71708399 -0.49445975 4293530880
3.3145385 -0.71768212 -0.50626975 4293530880
3.3175533 -0.71822834 -0.5174886 4293661440
3.3045824 -0.71531659 -0.52558678 4293530880
3.3208597 -0.71873075 -0.5377568 4293661440
3.3159721 -0.71756727 -0.54590768 4293661440
3.309207 -0.71599793 -0.55309165 4293661440
3.3067207 -0.71535379 -0.56033361 4293530880
3.2993584 -0.71365577 -0.56607974 4293530880
3.2945209 -0.71250367 -0.57158142 4293530880
3.2635429 -0.70570356 -0.57181215 4293400320
3.2858677 -0.71042049 -0.58072418 4293530880
3.2631788 -0.70541275 -0.58099085 4293400320
3.2712653 -0.70705289 -0.58605492 4293530880
3.2462785 -0.70155048 -0.58448392 4293400320
3.2555501 -0.70344609 -0.58840019 4293400320
3.2553098 -0.70328748 -0.5899139 4293400320
3.2455606 -0.70107639 -0.58901024 4293400320
3.2796876 -0.70833445 -0.59540176 4293530880
3.2566974 -0.70326561 -0.59071028 4293400320
3.2692838 -0.70587355 -0.59179837 4293530880
3.2828264 -0.70868659 -0.59235811 4293530880
3.2866569 -0.70940399 -0.59046066 4293530880
3.2977042 -0.71167713 -0.58916199 4293530880
3.3171937 -0.71576953 -0.58865607 4293661440
3.3061259 -0.71327305 -0.58202273 4293661440
3.3071711 -0.71338797 -0.57686639 4293661440
3.3139064 -0.71472889 -0.57202327 4293661440
3.3115022 -0.71409982 -0.56492984 4293661440
3.3048198 -0.71254909 -0.55647254 4293530880
3.3086398 -0.71326089 -0.54915321 4293530880
3.2977741 -0.71080929 -0.53877771 4293530880
3.2861059 -0.70818543 -0.52771372 4293530880
3.2772629 -0.70617056 -0.51655984 4293530880
3.2929828 -0.70944375 -0.50867635 4293530880
3.3024998 -0.71138066 -0.49917185 4293530880
3.3161423 -0.71420455 -0.48964712 4293530880
3.3119705 -0.71319425 -0.47689727 4293530880
3.2786047 -0.70590335 -0.45953473 4293400320
3.2638502 -0.70261794 -0.44445896 4293400320
3.2890685 -0.70793027 -0.43430173 4293530880
3.2966907 -0.70945704 -0.42119017 4293530880
3.2861218 -0.70707202 -0.40529037 4293400320
3.2621701 -0.70181072 -0.38743916 4293400320
3.2816186 -0.70587903 -0.37435272 4293400320
3.2997465 -0.70966214 -0.36052319 4293530880
3.3068669 -0.71107876 -0.34496635 4293530880
3.2492723 -0.69859207 -0.32250383 4293269760
3.2577429 -0.70029974 -0.30652681 4293269760
3.269767 -0.70276994 -0.29044497 4293400320
3.2761047 -0.70401812 -0.27344236 4293400320
3.2416799 -0.69651443 -0.25287393 4293269760
3.2669437 -0.70182568 -0.23676799 4293269760
3.2736549 -0.70315325 -0.21887557 4293400320
3.2809737 -0.70461065 -0.20071025 4293400320
3.2804012 -0.70437449 -0.18180533 4293400320
3.2564771 -0.69912881 -0.16154245 4293269760
3.2793367 -0.70391923 -0.14345963 4293400320
3.2832658 -0.70464832 -0.12422989 4293400320
3.2369967 -0.69461387 -0.1031948 4293139200
3.2664342 -0.70081264 -0.084607311 4293269760
3.2769608 -0.70295584 -0.065192901 4293269760
3.2931998 -0.70632255 -0.045668051 4293400320
3.2532337 -0.69764465 -0.025430437 4293269760
3.2858949 -0.70452935 -0.0058229095 4293400320
3.2936761 -0.7060824 0.014089692 4293400320
3.2978747 -0.70686752 0.034042127 4293400320
3.2933526 -0.70578498 0.053866871 4293400320
3.3216588 -0.71173137 0.074289903 4293530880
3.3298705 -0.71337426 0.094410166 4293530880
3.3188441 -0.710899 0.11387362 4293530880
3.3021653 -0.70721495 0.13285489 4293400320
3.3192205 -0.71074998 0.15302654 4293530880
3.3237917 -0.71161318 0.17258675 4293530880
3.3049369 -0.70746535 0.19067121 4293400320
3.3114498 -0.70874411 0.20992056 4293530880
3.3239684 -0.71130669 0.22942157 4293530880
3.3300407 -0.71249026 0.2483311 4293530880
3.3051078 -0.70704591 0.26456928 4293400320
3.334687 -0.71325392 0.28486523 4293530880
3.3468852 -0.71574587 0.30359358 4293661440
3.3455389 -0.71534312 0.3208206 4293661440
3.333787 -0.71271783 0.33663121 4293530880
3.2821157 -0.70156717 0.34774345 4293400320
3.3374615 -0.71327388 0.36974576 4293661440
3.3370757 -0.71307725 0.38546014 4293661440
3.3144858 -0.70814055 0.39808416 4293530880
3.3246856 -0.71020454 0.41411677 4293530880
3.2900162 -0.70269209 0.42401689 4293400320
3.328073 -0.71070069 0.44276893 4293661440
3.3440042 -0.71398628 0.4583104 4293661440
3.3371387 -0.71240819 0.47025707 4293661440
3.3421862 -0.71337146 0.48332864 4293661440
3.3200555 -0.70853895 0.49187419 4293661440
3.3176634 -0.70791662 0.50267905 4293530880
3.3242102 -0.70920014 0.51426578 4293661440
3.3276117 -0.709813 0.52480507 4293661440
3.3242218 -0.70897859 0.53367108 4293661440
3.3244183 -0.70890868 0.54248226 4293661440
3.3273873 -0.70942962 0.55112112 4293661440
3.3149638 -0.70667177 0.55655849 4293661440
3.3119726 -0.7059238 0.56288946 4293661440
3.3130302 -0.70603848 0.56924373 4293661440
3.3164091 -0.7066474 0.57533664 4293661440
3.320471 -0.70740169 0.58088481 4293661440
3.3093095 -0.70491576 0.58309072 4293661440
3.3135834 -0.7057156 0.58731127 4293661440
3.3179667 -0.70653862 0.59086877 4293661440
3.3214982 -0.70718032 0.59358597 4293661440
3.3212895 -0.70702636 0.5949409 4293661440
3.3125248 -0.70505297 0.59406674 4293661440
3.3212197 -0.70679307 0.59561014 4293661440
3.3087351 -0.70402986 0.59267145 4293661440
3.3138075 -0.7049998 0.59216803 4293661440
3.318615 -0.70591336 0.59091526 4293661440
3.318049 -0.7056849 0.58801186 4293661440
3.3209949 -0.70620286 0.58503461 4293661440
3.3185155 -0.70556819 0.58041841 4293661440
3.3190491 -0.70557392 0.57564849 4293661440
3.3189471 -0.70544487 0.57009375 4293661440
3.3171432 -0.70495456 0.56358433 4293661440
3.3182395 -0.70508033 0.55690831 4293661440
3.3106477 -0.70336187 0.54814559 4293530880
3.2964942 -0.70025128 0.53771478 4293530880
3.307977 -0.70258242 0.53082746 4293530880
3.3262594 -0.70635587 0.52432907 4293661440
3.3271372 -0.70643574 0.51443785 4293661440
3.3111064 -0.7029289 0.50139838 4293530880
3.3167055 -0.7040109 0.49107438 4293530880
3.2806635 -0.69540513 0.40183401 4293400320
3.3224781 -0.70415682 0.39191449 4293530880
3.3215644 -0.70385873 0.37635633 4293530880
3.3076668 -0.70081186 0.35898271 4293530880
3.2699256 -0.69271886 0.33888528 4293400320
3.2975614 -0.69846523 0.32518744 4293400320
3.3095529 -0.70089936 0.30939367 4293530880
3.27951 -0.69443905 0.28944787 4293400320
3.2710912 -0.69255531 0.2712765 4293400320
3.3018739 -0.69896418 0.25590783 4293400320
3.3054345 -0.69961393 0.23797618 4293400320
3.3077259 -0.69999528 0.21965785 4293400320
3.2798834 -0.69400531 0.19925861 4293400320
3.3066053 -0.69955188 0.18192439 4293400320
3.3156216 -0.7013545 0.16322045 4293530880
3.3024161 -0.69846034 0.14328028 4293400320
3.2802548 -0.69367474 0.12300573 4293400320
3.2895525 -0.69553691 0.10383052 4293400320
3.2833121 -0.69411623 0.084040463 4293400320
3.2784693 -0.6929912 0.064257249 4293269760
3.2631779 -0.68965995 0.044323534 4293269760
3.2708707 -0.69118273 0.024682691 4293269760
3.2906563 -0.69525802 0.0049299668 4293400320
3.2524784 -0.68709683 -0.014773907 4293269760
3.2682209 -0.69031817 -0.034605879 4293269760
3.2790833 -0.6925087 -0.054510199 4293269760
3.2821114 -0.69304556 -0.074308336 4293400320
3.2542968 -0.68707556 -0.093165927 4293269760
3.2812855 -0.69266695 -0.11352036 4293400320
3.2955589 -0.695575 -0.13355409 4293400320
3.3028829 -0.69701672 -0.15328908 4293400320
3.2624009 -0.68837863 -0.17042406 4293269760
3.2925828 -0.69463938 -0.19104563 4293400320
3.2935512 -0.69474077 -0.2099323 4293400320
3.2850695 -0.69285041 -0.22794425 4293400320
3.2805958 -0.69180512 -0.24591847 4293400320
3.3143311 -0.69880992 -0.26667184 4293530880
3.3223901 -0.70040381 -0.28528619 4293530880
3.3119707 -0.69810522 -0.30198294 4293530880
3.2756011 -0.69034243 -0.31572682 4293400320
3.3003352 -0.6954475 -0.33498308 4293400320
3.3139021 -0.69820005 -0.35292724 4293530880
3.314003 -0.69811702 -0.36911082 4293530880
3.2976856 -0.69457853 -0.38297352 4293530880
3.2590003 -0.68633401 -0.39354736 4293400320
3.3353198 -0.70228869 -0.41779247 4293661440
3.3384428 -0.70284027 -0.43272507 4293661440
3.3372021 -0.70247364 -0.44661507 4293661440
3.3322535 -0.70132726 -0.45948154 4293661440
3.3219709 -0.69905943 -0.47103348 4293530880
3.3088691 -0.69619936 -0.48156437 4293530880
3.3041949 -0.69511151 -0.49271566 4293530880
3.3113279 -0.69650543 -0.50508219 4293530880
3.3169122 -0.69757324 -0.51668012 4293530880
3.3135958 -0.69677037 -0.52630669 4293530880
3.3116462 -0.69625473 -0.53553391 4293530880
3.3153327 -0.69692284 -0.54506606 4293661440
3.3168383 -0.69713259 -0.55362678 4293661440
3.306071 -0.69476491 -0.55947548 4293530880
3.2996652 -0.69331342 -0.56538081 4293530880
3.276001 -0.68823928 -0.56760937 4293530880
3.2676625 -0.68638319 -0.5717839 4293400320
3.2631619 -0.68533283 -0.575948 4293400320
3.2759726 -0.68791491 -0.58251715 4293530880
3.2460191 -0.6815244 -0.58077008 4293400320
3.2551906 -0.68334246 -0.58534062 4293400320
3.2596533 -0.68417215 -0.58839256 4293400320
3.2545929 -0.6830045 -0.5890367 4293400320
3.2496483 -0.68186122 -0.58901197 4293400320
3.2409654 -0.67993438 -0.58761978 4293400320
3.2607961 -0.68398422 -0.59072202 4293400320
3.2733967 -0.68651748 -0.59181535 4293530880
3.2869546 -0.68925029 -0.59238058 4293530880
3.2907887 -0.6899448 -0.59048861 4293530880
3.3066688 -0.69316214 -0.59005797 4293661440
3.3049552 -0.69269365 -0.58578068 4293530880
3.3102772 -0.69369823 -0.58206815 4293661440
3.3064983 -0.69279689 -0.57607514 4293530880
3.3084137 -0.69308764 -0.57041258 4293530880
3.3021402 -0.6916641 -0.56268436 4293530880
3.3041346 -0.691971 -0.5557279 4293530880
3.3053963 -0.69212431 -0.54800069 4293530880
3.2980399 -0.69047445 -0.53822714 4293530880
3.2867508 -0.68800241 -0.52724349 4293530880
3.2813661 -0.68676567 -0.51665407 4293530880
3.2897594 -0.68841004 -0.5076406 4293530880
3.2992253 -0.69027793 -0.49815786 4293530880
3.303431 -0.69104552 -0.48726714 4293530880
3.3025429 -0.6907481 -0.47505999 4293530880
3.2778547 -0.68547732 -0.45897961 4293400320
3.2718105 -0.68410325 -0.44512069 4293400320
3.2844412 -0.68663055 -0.43328416 4293400320
3.2920678 -0.68811166 -0.42021596 4293400320
3.2782192 -0.68510765 -0.4039565 4293400320
3.2613823 -0.68148053 -0.38701639 4293400320
3.2759879 -0.68441814 -0.3734026 4293400320
3.2972875 -0.68875188 -0.35997218 4293400320
3.2973614 -0.68865454 -0.34371513 4293400320
3.2484565 -0.67833745 -0.32219747 4293269760
3.2569349 -0.67999494 -0.30625138 4293269760
3.2635136 -0.68125546 -0.28971377 4293269760
3.2704365 -0.68258727 -0.27282062 4293269760
3.240845 -0.67630458 -0.25269112 4293269760
3.2489629 -0.67788571 -0.23536524 4293269760
3.2826245 -0.68479061 -0.21941675 4293400320
3.2876525 -0.68572557 -0.20108697 4293400320
3.288836 -0.68585902 -0.18226993 4293400320
3.2507637 -0.67781365 -0.16127636 4293269760
3.264847 -0.68063533 -0.14286625 4293269760
3.2820714 -0.68411022 -0.12426068 4293400320
3.2450287 -0.6762833 -0.10355875 4293269760
3.2568119 -0.67862469 -0.084484026 4293269760
3.2761595 -0.68254 -0.065336272 4293269760
3.3011076 -0.68761963 -0.045970831 4293400320
3.2533822 -0.67757398 -0.02564468 4293269760
3.293174 -0.68574113 -0.0060827588 4293400320
3.3052816 -0.68814635 0.013861981 4293400320
3.3032315 -0.68760586 0.033797152 4293400320
3.2886598 -0.68446159 0.053470805 4293400320
3.3160243 -0.69003808 0.073816389 4293400320
3.3340354 -0.69366819 0.09414731 4293530880
3.3275025 -0.69219536 0.1137625 4293530880
3.2877085 -0.68381047 0.1318592 4293400320
3.3135931 -0.68907589 0.15232018 4293400320
3.3240407 -0.69113231 0.17212404 4293530880
3.3090744 -0.68790913 0.19041094 4293400320
3.3107095 -0.68813491 0.20935494 4293400320
3.3232462 -0.69062448 0.22882912 4293530880
3.3382025 -0.6936155 0.2483678 4293530880
3.2964585 -0.68483549 0.26330218 4293400320
3.3259437 -0.69084215 0.28351855 4293530880
3.3462014 -0.69493198 0.30290377 4293661440
3.354605 -0.69656104 0.32103598 4293661440
3.3428364 -0.69400489 0.33687556 4293661440
3.2851038 -0.68191606 0.34738943 4293400320
3.3319075 -0.69151008 0.36844 4293530880
3.3340993 -0.6918509 0.38440877 4293530880
3.33233 -0.69137055 0.39949241 4293530880
3.3201015 -0.68872243 0.41281515 4293530880
3.298995 -0.68423539 0.42442703 4293530880
3.3348138 -0.69154543 0.44290093 4293661440
3.346447 -0.69384253 0.45787039 4293661440
3.3413165 -0.69266641 0.47006172 4293661440
3.3327937 -0.69078833 0.48118919 4293661440
3.3286734 -0.68982255 0.49235153 4293661440
3.3218133 -0.68829 0.50250697 4293530880
3.3221595 -0.68824983 0.51314682 4293661440
3.3220921 -0.68812418 0.52313137 4293661440
3.3283756 -0.68931299 0.53352374 4293661440
3.3232501 -0.68814093 0.54148054 4293661440
3.3174658 -0.68683308 0.54867357 4293661440
3.3156488 -0.68634647 0.55586284 4293661440
3.3257649 -0.68832797 0.56441295 4293661440
3.3248031 -0.68801832 0.57045019 4293661440
3.3157134 -0.68602866 0.57441425 4293661440
3.3342597 -0.68975234 0.58248568 4293661440
3.3086023 -0.68433911 0.58217698 4293530880
3.3177052 -0.68611073 0.58725411 4293661440
3.3124423 -0.68491387 0.58911341 4293661440
3.3217654 -0.68673068 0.59286517 4293661440
3.3167305 -0.68558145 0.59337044 4293661440
3.3118112 -0.68445671 0.59319466 4293661440
3.3118317 -0.6843524 0.5932008 4293661440
3.3128352 -0.68445128 0.59268379 4293661440
3.313087 -0.68439507 0.59133476 4293661440
3.3168478 -0.68506318 0.58991134 4293661440
3.3125017 -0.68405849 0.58635932 4293661440
3.3115859 -0.68376195 0.58272761 4293661440
3.3177869 -0.68493378 0.57965225 4293661440
3.3231459 -0.68593168 0.57573491 4293661440
3.3182116 -0.68480676 0.56936735 4293661440
3.3212328 -0.6853227 0.56369585 4293661440
3.3174949 -0.6844452 0.55622548 4293661440
3.30989 -0.68277103 0.54748565 4293530880
3.2966824 -0.67994291 0.5372352 4293530880
3.3023694 -0.68100917 0.52944398 4293530880
3.3206682 -0.68467355 0.52298558 4293661440
3.3294857 -0.68638384 0.51435727 4293661440
3.3225856 -0.68485659 0.5027132 4293530880
3.3110838 -0.68238223 0.48985761 4293530880
3.2846014 -0.67654908 0.40182871 4293400320
3.3134229 -0.68237656 0.39037937 4293530880
3.3264558 -0.68495375 0.37644944 4293530880
3.2931283 -0.67799306 0.35697809 4293400320
3.28262 -0.6757282 0.3397752 4293400320
3.3015175 -0.67951161 0.32517317 4293400320
3.3184001 -0.68287963 0.30982959 4293530880
3.2808628 -0.67505825 0.28920373 4293400320
3.2613451 -0.67094344 0.27013272 4293269760
3.2921584 -0.67717463 0.25483519 4293400320
3.3005345 -0.67879307 0.23731939 4293400320
3.2931185 -0.67716628 0.21841028 4293400320
3.2751355 -0.67336911 0.19870801 4293269760
3.3000441 -0.67838347 0.18132064 4293400320
3.3010042 -0.67847776 0.16228341 4293400320
3.3072748 -0.67966259 0.14328219 4293400320
3.2792895 -0.67381382 0.12278669 4293269760
3.2885964 -0.67562234 0.10363799 4293400320
3.2872436 -0.67524236 0.083997034 4293400320
3.2843654 -0.67454946 0.064248994 4293400320
3.2621861 -0.66989636 0.044212349 4293269760
3.2787032 -0.6731835 0.024659846 4293269760
3.2761023 -0.67254806 0.0048607085 4293269760
3.2426546 -0.66558617 -0.014757565 4293139200
3.257436 -0.66851658 -0.034498204 4293269760
3.2806966 -0.67318445 -0.054529101 4293269760
3.2762411 -0.67216897 -0.074141748 4293269760
3.2656176 -0.66988957 -0.093444608 4293269760
3.2803106 -0.67279917 -0.11341255 4293269760
3.2971897 -0.67615575 -0.13352557 4293400320
3.3062794 -0.67791539 -0.15333121 4293400320
3.265516 -0.66946208 -0.17045139 4293269760
3.2769516 -0.67170244 -0.18997158 4293269760
3.2957242 -0.67544466 -0.20989116 4293400320
3.2889881 -0.67396259 -0.22801684 4293400320
3.2747381 -0.67094254 -0.2452551 4293269760
3.3133998 -0.67875397 -0.26635182 4293530880
3.3117073 -0.67830396 -0.28409845 4293530880
3.3207963 -0.68006021 -0.30250606 4293530880
3.2746272 -0.67051005 -0.31533051 4293400320
3.2993917 -0.67547339 -0.33456296 4293400320
3.3075233 -0.67703301 -0.35190052 4293530880
3.3091834 -0.67726862 -0.36820805 4293530880
3.3016107 -0.67561615 -0.3830497 4293530880
3.2531495 -0.66560477 -0.39244372 4293269760
3.3295639 -0.681122 -0.41664693 4293530880
3.3375545 -0.68265003 -0.43216872 4293661440
3.336314 -0.68229103 -0.44603759 4293661440
3.3410702 -0.68315727 -0.46022534 4293661440
3.3259203 -0.6799565 -0.47110474 4293530880
3.3079529 -0.67618114 -0.48092645 4293530880
3.3032749 -0.67512071 -0.4920589 4293530880
3.3201079 -0.67845267 -0.5058884 4293530880
3.3129084 -0.67687702 -0.51550394 4293530880
3.3227706 -0.67878443 -0.52720147 4293661440
3.3204188 -0.67819822 -0.53637642 4293661440
3.3192708 -0.67785764 -0.54512221 4293661440
3.3120756 -0.67628318 -0.55222511 4293530880
3.3099978 -0.67575294 -0.55952543 4293530880
3.3074491 -0.67512661 -0.56609064 4293530880
3.2847216 -0.67038518 -0.56849027 4293530880
3.2715435 -0.66759211 -0.57182294 4293400320
3.2670374 -0.66656768 -0.57598323 4293400320
3.2760024 -0.66828918 -0.58186108 4293530880
3.2498744 -0.66285795 -0.58079708 4293400320
3.2455473 -0.6618706 -0.58293092 4293400320
3.2538764 -0.66346186 -0.586667 4293400320
3.2536349 -0.66330653 -0.58817625 4293400320
3.2486849 -0.66219199 -0.58814549 4293400320
3.2486746 -0.66208357 -0.58832443 4293400320
3.2646701 -0.66523379 -0.59072107 4293400320
3.2724619 -0.66671276 -0.59093589 4293530880
3.2727997 -0.66667384 -0.58910996 4293530880
3.2898738 -0.67004067 -0.58960462 4293530880
3.300946 -0.67218494 -0.5883106 4293530880
3.2973824 -0.67135078 -0.58371109 4293530880
3.3033376 -0.67245287 -0.58011913 4293530880
3.3060834 -0.67290163 -0.57527673 4293530880
3.3046136 -0.67249286 -0.56903106 4293530880
3.3121562 -0.67391634 -0.56367111 4293530880
3.3006718 -0.67147136 -0.55442435 4293530880
3.3044903 -0.6721372 -0.54713279 4293530880
3.2994025 -0.67099273 -0.53773779 4293530880
3.2809787 -0.66713893 -0.52561104 4293400320
3.2707407 -0.66494912 -0.51427966 4293400320
3.283982 -0.66752863 -0.50605303 4293400320
3.2983015 -0.67032605 -0.49732807 4293530880
3.3122084 -0.6730386 -0.4878805 4293530880
3.3016179 -0.6707769 -0.47425115 4293530880
3.2681599 -0.66387427 -0.45695749 4293400320
3.2572439 -0.66154844 -0.44248331 4293400320
3.2763424 -0.6653133 -0.43156922 4293400320
3.2991328 -0.66982579 -0.4204846 4293530880
3.2733591 -0.66448593 -0.40273467 4293400320
3.260391 -0.66174465 -0.38629174 4293269760
3.2711146 -0.66380823 -0.37224847 4293400320
3.2963321 -0.66880935 -0.35927948 4293400320
3.2948461 -0.66839582 -0.34287751 4293400320
3.2425592 -0.65768653 -0.3210583 4293269760
3.2510421 -0.65929478 -0.30515596 4293269760
3.2810557 -0.66526443 -0.29075187 4293400320
3.2694325 -0.66279781 -0.27222553 4293269760
3.2446885 -0.65767455 -0.25250179 4293269760
3.2563241 -0.65991956 -0.23542599 4293269760
3.2767351 -0.66394049 -0.21855758 4293269760
3.2768724 -0.66385597 -0.19997691 4293269760
3.2927308 -0.66695327 -0.18205871 4293400320
3.2546117 -0.65912658 -0.16106334 4293269760
3.2638137 -0.66087669 -0.14243193 4293269760
3.2712612 -0.6622712 -0.12347507 4293269760
3.2301748 -0.65384883 -0.10272982 4293139200
3.2606599 -0.65990263 -0.084255867 4293269760
3.2794437 -0.66358852 -0.065091714 4293269760
3.2893262 -0.66547358 -0.045507796 4293400320
3.2523196 -0.65788078 -0.025367223 4293269760
3.2840781 -0.66418701 -0.0058107087 4293269760
3.3016789 -0.66763043 0.01407889 4293400320
3.2983005 -0.66683447 0.033957627 4293400320
3.292531 -0.66555583 0.053717338 4293400320
3.3150256 -0.66998547 0.073959686 4293400320
3.3379557 -0.67450154 0.094399258 4293530880
3.312799 -0.6693083 0.11338846 4293400320
3.2964678 -0.66589826 0.13230199 4293400320
3.3174832 -0.6700263 0.1525712 4293400320
3.3181505 -0.67004722 0.17187424 4293400320
3.3050261 -0.66728574 0.19020894 4293400320
3.31459 -0.6691016 0.20960337 4293400320
3.3320301 -0.67250532 0.22941069 4293530880
3.3274455 -0.67146689 0.24753308 4293530880
3.3003168 -0.66588384 0.26354408 4293400320
3.3298347 -0.67172104 0.2837601 4293530880
3.3501143 -0.67569447 0.30314389 4293661440
3.3487654 -0.67530841 0.32034588 4293661440
3.3422821 -0.67388803 0.33666211 4293530880
3.2986925 -0.66499376 0.3486388 4293400320
3.3350585 -0.67220569 0.3685827 4293530880
3.3282492 -0.67072123 0.38351199 4293530880
3.322587 -0.66946822 0.39808241 4293530880
3.3191092 -0.66865546 0.41242188 4293530880
3.2940886 -0.66350728 0.4235085 4293400320
3.3338418 -0.67139548 0.44245628 4293530880
3.3367448 -0.67186689 0.45621091 4293661440
3.341327 -0.67267609 0.46970263 4293661440
3.3366792 -0.67162865 0.4813661 4293661440
3.3325536 -0.67068672 0.49252081 4293661440
3.3159869 -0.66724372 0.50120884 4293530880
3.3260322 -0.6691519 0.5133 4293661440
3.3259649 -0.66902691 0.52327621 4293661440
3.3351653 -0.67076451 0.5341242 4293661440
3.3271248 -0.66903752 0.54160792 4293661440
3.3261738 -0.66873544 0.54958779 4293661440
3.3243537 -0.66825908 0.55677819 4293661440
3.326755 -0.66863084 0.56402397 4293661440
3.3210311 -0.66737098 0.56923294 4293661440
3.3201683 -0.66708773 0.57459354 4293661440
3.3101234 -0.66496152 0.57768196 4293530880
3.3124657 -0.6653223 0.58223408 4293530880
3.3167496 -0.66607267 0.58644968 4293661440
3.3163126 -0.66587579 0.58914852 4293661440
3.3111589 -0.66473299 0.59031606 4293530880
3.3109496 -0.66458237 0.59166354 4293530880
3.3253431 -0.66736037 0.59491658 4293661440
3.3078821 -0.66375071 0.59179533 4293530880
3.3128493 -0.66463846 0.59197301 4293661440
3.322381 -0.66644102 0.59226108 4293661440
3.3207328 -0.66600269 0.58986396 4293661440
3.3183277 -0.66541296 0.58664215 4293661440
3.3154676 -0.66473246 0.58265567 4293661440
3.3265104 -0.6668371 0.58040762 4293661440
3.3183424 -0.66509384 0.57413822 4293661440
3.3172696 -0.66477203 0.56843251 4293661440
3.3154573 -0.66430241 0.56194067 4293530880
3.3161542 -0.66433531 0.55521774 4293530880
3.3050649 -0.66200948 0.54590571 4293530880
3.2957129 -0.66003215 0.53629184 4293530880
3.3014057 -0.66106576 0.52850044 4293530880
3.3226357 -0.66520739 0.52249777 4293530880
3.3333993 -0.66725439 0.5141595 4293661440
3.3216412 -0.66479683 0.50177419 4293530880
3.3101242 -0.66238832 0.48892316 4293530880
3.2749109 -0.65438652 0.40016672 4293400320
3.3207145 -0.66342711 0.39076364 4293530880
3.3392878 -0.66702986 0.37744102 4293530880
3.3019545 -0.65947455 0.35750264 4293400320
3.2777748 -0.65454626 0.3388747 4293400320
3.2957139 -0.6580224 0.32422271 4293400320
3.3174949 -0.66226393 0.30938298 4293530880
3.2873788 -0.65615374 0.28943729 4293400320
3.2691634 -0.65241861 0.27046347 4293269760
3.2863233 -0.65573788 0.25409725 4293400320
3.3005748 -0.65847623 0.23705511 4293400320
3.3019559 -0.65864861 0.21874797 4293400320
3.2740409 -0.65298259 0.19842586 4293269760
3.3039954 -0.65884912 0.18134186 4293400320
3.304956 -0.65893757 0.16230699 4293400320
3.3054307 -0.65892929 0.14306054 4293400320
3.2783136 -0.65342581 0.12263444 4293269760
3.2844532 -0.65454638 0.10341897 4293269760
3.2862747 -0.65480691 0.083907612 4293269760
3.283392 -0.65413094 0.064191133 4293269760
3.268687 -0.65110201 0.044283137 4293269760
3.2673287 -0.65073019 0.024593186 4293269760
3.2749953 -0.65215409 0.0048977844 4293269760
3.2416289 -0.64541429 -0.014689133 4293139200
3.2662354 -0.65020812 -0.034507196 4293269760
3.2732005 -0.65149182 -0.054285295 4293269760
3.2801585 -0.65277368 -0.074091934 4293269760
3.2620816 -0.64907765 -0.093176417 4293269760
3.2842326 -0.65337956 -0.11335906 4293269760
3.2946198 -0.65534192 -0.13320328 4293400320
3.306313 -0.65756315 -0.15309045 4293400320
3.2596245 -0.64818347 -0.16987766 4293269760
3.2857647 -0.65327507 -0.19019812 4293400320
3.2947693 -0.65496123 -0.20951629 4293400320
3.283134 -0.65254772 -0.22727227 4293400320
3.2835429 -0.6525265 -0.24556071 4293400320
3.2987816 -0.65544945 -0.26478672 4293400320
3.315665 -0.65869784 -0.28403351 4293530880
3.31988 -0.65943074 -0.30199361 4293530880
3.2736578 -0.65015423 -0.31479338 4293400320
3.2935741 -0.65400338 -0.33350387 4293400320
3.311475 -0.65745133 -0.35183445 4293530880
3.3082616 -0.65670997 -0.36759791 4293530880
3.2967839 -0.65432978 -0.38196358 4293400320
3.2531393 -0.64557189 -0.39190823 4293269760
3.3335407 -0.66140956 -0.4165819 4293530880
3.3269446 -0.65999693 -0.43020999 4293530880
3.3315449 -0.66080368 -0.44480148 4293530880
3.3265903 -0.65971661 -0.45761377 4293530880
3.3162889 -0.6575703 -0.46911368 4293530880
3.2983062 -0.65390289 -0.47888747 4293530880
3.3120701 -0.65652442 -0.49272624 4293530880
3.3056371 -0.65514517 -0.50301981 4293530880
3.307164 -0.65534228 -0.51393962 4293530880
3.3083181 -0.65546542 -0.52422416 4293530880
3.3059704 -0.65489513 -0.53335011 4293530880
3.3048277 -0.65456325 -0.54205036 4293530880
3.3063426 -0.65475726 -0.55056626 4293530880
3.3094852 -0.65527296 -0.55873162 4293530880
3.2891536 -0.65114486 -0.56224364 4293530880
3.283798 -0.64997983 -0.56761986 4293530880
3.2793059 -0.64898574 -0.5724712 4293530880
3.2660928 -0.64626747 -0.57510519 4293400320
3.2504535 -0.64307022 -0.57660317 4293400320
3.2450438 -0.64189571 -0.57922429 4293400320
3.2581015 -0.64437091 -0.58448231 4293400320
3.2529142 -0.64324009 -0.58578706 4293400320
3.2488074 -0.64232296 -0.58659935 4293400320
3.2622025 -0.64486277 -0.58989781 4293400320
3.2525315 -0.64284641 -0.58833075 4293400320
3.2733741 -0.64685547 -0.59160745 4293400320
3.2639353 -0.64488477 -0.58870882 4293400320
3.2631557 -0.64462376 -0.58669412 4293400320
3.2899086 -0.64979631 -0.58893859 4293530880
3.2943246 -0.65055937 -0.58646417 4293530880
3.2964549 -0.65087098 -0.58289337 4293530880
3.3072486 -0.65289116 -0.58016402 4293530880
3.3003254 -0.6514163 -0.57364237 4293530880
3.3085229 -0.65292341 -0.56908792 4293530880
3.3015578 -0.65144032 -0.56126016 4293530880
3.3094134 -0.65287906 -0.55530775 4293530880
3.2948375 -0.64989609 -0.5449596 4293530880
3.2936118 -0.64954466 -0.53623766 4293530880
3.2786393 -0.64648473 -0.52470124 4293400320
3.269753 -0.64462453 -0.51360935 4293400320
3.2742755 -0.64540577 -0.5040561 4293400320
3.297339 -0.64983773 -0.49670187 4293530880
3.3145635 -0.65311831 -0.48776552 4293530880
3.2983685 -0.64981878 -0.47334293 4293530880
3.2711236 -0.64434528 -0.45695814 4293400320
3.2640023 -0.64283359 -0.44301209 4293400320
3.276309 -0.64514494 -0.43119305 4293400320
3.2845199 -0.64664948 -0.41826525 4293400320
3.2723424 -0.64414322 -0.40228379 4293400320
3.2642286 -0.6424368 -0.38644746 4293269760
3.2749643 -0.64443702 -0.37241071 4293400320
3.2953329 -0.64833015 -0.35891521 4293400320
3.2987227 -0.64888453 -0.34305274 4293400320
3.25419 -0.64002091 -0.32201385 4293269760
3.2548666 -0.64004314 -0.30534014 4293269760
3.27123 -0.64314699 -0.28972414 4293269760
3.2732782 -0.64343792 -0.27242154 4293269760
3.2483838 -0.63843745 -0.25269192 4293269760
3.2566411 -0.63994801 -0.23537555 4293269760
3.2805893 -0.64453828 -0.21876904 4293269760
3.2807269 -0.64445329 -0.20019303 4293269760
3.2868061 -0.64553428 -0.18173337 4293400320
3.2499151 -0.63818347 -0.16086002 4293269760
3.2699585 -0.64200443 -0.14276178 4293269760
3.2702076 -0.64194149 -0.12351951 4293269760
3.2428803 -0.6364705 -0.10325126 4293139200
3.2621872 -0.64014512 -0.08443325 4293269760
3.2833045 -0.64417338 -0.065334685 4293269760
3.2882931 -0.64503884 -0.045683421 4293269760
3.248296 -0.63708794 -0.025547273 4293139200
3.2840211 -0.64397669 -0.0060522845 4293269760
3.2967367 -0.64635533 0.013792582 4293400320
3.2923741 -0.64538801 0.033607226 4293400320
3.2915056 -0.64510524 0.053383693 4293400320
3.3189337 -0.65036315 0.073699825 4293400320
3.3320813 -0.65282351 0.093866162 4293530880
3.3118017 -0.64874017 0.11296305 4293400320
3.2954531 -0.64542753 0.1318488 4293400320
3.3213973 -0.65039128 0.1523097 4293400320
3.3220663 -0.65040869 0.17161314 4293400320
3.3138263 -0.64868361 0.19022791 4293400320
3.308707 -0.64756936 0.20873255 4293400320
3.3271508 -0.65106285 0.22855197 4293530880
3.3225646 -0.65005285 0.24662805 4293530880
3.3042142 -0.64635289 0.26329175 4293400320
3.3232443 -0.64995944 0.28261977 4293530880
3.3443635 -0.65397292 0.30202264 4293530880
3.3524268 -0.65543449 0.32007062 4293661440
3.3364625 -0.65220243 0.33544311 4293530880
3.2879446 -0.64261413 0.34686723 4293400320
3.3292398 -0.65056592 0.36727807 4293530880
3.3308632 -0.65077013 0.38313204 4293530880
3.3302901 -0.65054554 0.39830795 4293530880
3.3307388 -0.65052062 0.41315484 4293530880
3.2833705 -0.64116555 0.42143229 4293400320
3.3241508 -0.64901066 0.44045219 4293530880
3.3406837 -0.65212357 0.45600966 4293661440
3.343329 -0.65252709 0.46923667 4293661440
3.3260372 -0.64904308 0.47908849 4293530880
3.3364849 -0.65096837 0.49234104 4293661440
3.315042 -0.64667696 0.50030822 4293530880
3.3212178 -0.64776957 0.51179618 4293530880
3.3250334 -0.64840215 0.52236211 4293530880
3.3196986 -0.64725184 0.53088862 4293530880
3.3271646 -0.64859563 0.54084241 4293661440
3.3252432 -0.64811069 0.54866308 4293661440
3.3234208 -0.64764541 0.55585241 4293661440
3.3306663 -0.64894587 0.56391466 4293661440
3.3277531 -0.64826852 0.56961453 4293661440
3.3327785 -0.64913654 0.57600415 4293661440
3.3140085 -0.64537418 0.57760382 4293530880
3.3220582 -0.6468311 0.58316445 4293661440
3.3109648 -0.64456391 0.58469158 4293530880
3.3201978 -0.6462509 0.58910298 4293661440
3.3198707 -0.64607847 0.5911395 4293661440
3.3148232 -0.64498848 0.59164083 4293530880
3.3243961 -0.64674103 0.59404486 4293661440
3.3147457 -0.64475697 0.59232986 4293530880
3.3167171 -0.64503211 0.5919857 4293661440
3.3349612 -0.64846903 0.59382969 4293661440
3.3246045 -0.64634889 0.58990097 4293661440
3.3270307 -0.64671242 0.58754218 4293661440
3.3193278 -0.64510894 0.58271724 4293661440
3.315865 -0.64432937 0.57796186 4293530880
3.3173611 -0.64451295 0.57339162 4293530880
3.3288732 -0.64664066 0.56985271 4293661440
3.3193073 -0.64467722 0.56205219 4293530880
3.3200026 -0.64470565 0.5553419 4293530880
3.308898 -0.64244497 0.54604191 4293530880
3.3043809 -0.64146298 0.53722483 4293530880
3.3052304 -0.64152217 0.52866131 4293530880
3.3216312 -0.64459705 0.52191311 4293530880
3.3469646 -0.64940292 0.51583642 4293661440
3.3206275 -0.64419121 0.50124335 4293530880
3.3139515 -0.64279187 0.48913348 4293530880
3.2864699 -0.63679439 0.40110877 4293400320
3.3179309 -0.64278114 0.38998801 4293530880
3.3284791 -0.64471853 0.37579274 4293530880
3.2959769 -0.63832438 0.35644805 4293400320
3.2668798 -0.63259125 0.3373661 4293269760
3.3028176 -0.63944119 0.32454234 4293400320
3.3164079 -0.64196652 0.3089256 4293530880
3.288559 -0.63647711 0.28920639 4293400320
3.2592077 -0.63069904 0.269335 4293269760
3.2900879 -0.63656729 0.25409222 4293400320
3.2945607 -0.63732922 0.23635352 4293400320
3.3071194 -0.63965368 0.21883352 4293400320
3.2728889 -0.63293618 0.19812723 4293269760
3.3045998 -0.6389609 0.18116453 4293400320
3.3006563 -0.63809627 0.16191037 4293400320
3.287066 -0.63536876 0.14211141 4293269760
3.268328 -0.631648 0.12212445 4293269760
3.274471 -0.63273251 0.10299005 4293269760
3.2868898 -0.63502818 0.083824269 4293269760
3.2802629 -0.63364697 0.064055748 4293269760
3.2600055 -0.62963569 0.044117402 4293269760
3.2726321 -0.63197082 0.024599059 4293269760
3.2836487 -0.63399452 0.0048972638 4293269760
3.2345366 -0.62441921 -0.014638938 4293139200
3.2562222 -0.62850106 -0.034359258 4293269760
3.2769406 -0.63239503 -0.054290298 4293269760
3.2745817 -0.63183838 -0.073881328 4293269760
3.251085 -0.62720722 -0.09275309 4293139200
3.2879834 -0.63421792 -0.11336408 4293269760
3.2885706 -0.63422883 -0.13280673 4293269760
3.3008277 -0.6364882 -0.15266222 4293400320
3.2682488 -0.63010937 -0.17014055 4293269760
3.2757902 -0.63146019 -0.18940224 4293269760
3.2914701 -0.63437784 -0.20906918 4293400320
3.2819817 -0.63244826 -0.226936 4293269760
3.2751892 -0.63103825 -0.24465553 4293269760
3.3025446 -0.63620162 -0.26479176 4293400320
3.3106401 -0.63765657 -0.28328052 4293400320
3.3143756 -0.63827193 -0.30114985 4293400320
3.2725022 -0.63011205 -0.31432638 4293269760
3.3070998 -0.63666493 -0.33450213 4293400320
3.3152494 -0.63812876 -0.35183948 4293530880
3.3217933 -0.63928318 -0.36869121 4293530880
