# .PCD v0.7 - Point Cloud Data file format
VERSION 0.7
FIELDS x y z rgba
SIZE 4 4 4 4
TYPE F F F U
COUNT 1 1 1 1
WIDTH 1079
HEIGHT 1
VIEWPOINT 0 0 0 1 0 0 0
POINTS 1079
DATA ascii
3.2482955 -0.94364607 -0.31270954 4291311360
3.2739489 -0.95098799 -0.29763258 4291572480
3.282743 -0.95343143 -0.28051567 4291572480
3.23927 -0.94069535 -0.25882253 4291180800
3.2607927 -0.94683558 -0.24216659 4291311360
3.2852235 -0.95381862 -0.22520716 4291572480
3.2927241 -0.95588517 -0.20666406 4291572480
3.2872658 -0.95418948 -0.18707669 4291572480
3.2540483 -0.94443721 -0.16593955 4291311360
3.2726841 -0.94973552 -0.14735971 4291441920
3.2739589 -0.94999486 -0.12772489 4291441920
3.2436852 -0.9411006 -0.10690115 4291180800
3.2673998 -0.94787085 -0.08778844 4291311360
3.2871239 -0.95348197 -0.068214484 4291572480
3.2881796 -0.95367706 -0.048057392 4291572480
3.2653761 -0.94695288 -0.027638087 4291311360
3.2840192 -0.95224863 -0.0075735175 4291441920
3.2942131 -0.95509332 0.012690824 4291572480
3.2916679 -0.95424426 0.032934401 4291572480
3.2936194 -0.95469874 0.053177569 4291572480
3.3133996 -0.96032059 0.07377708 4291833600
3.3310659 -0.96532851 0.094472729 4291964160
3.311213 -0.95946318 0.11398637 4291703040
3.3101745 -0.95905048 0.13389044 4291703040
3.3078821 -0.9582746 0.15357305 4291703040
3.3198779 -0.96163768 0.17380276 4291833600
3.3083582 -0.95818901 0.19261222 4291703040
3.3017576 -0.95616573 0.21138635 4291703040
3.3182638 -0.96083391 0.23145777 4291833600
3.321655 -0.96170366 0.25047067 4291964160
3.2988865 -0.95499998 0.26712593 4291703040
3.3172109 -0.96019286 0.28677943 4291964160
3.3445415 -0.96799117 0.3071368 4292225280
3.3510823 -0.96977097 0.32542425 4292225280
3.3399248 -0.96642917 0.34160632 4292094720
3.2876334 -0.9511866 0.35287955 4291703040
3.3286989 -0.96295565 0.37370348 4292094720
3.337898 -0.96550405 0.39077809 4292225280
3.3252265 -0.96172619 0.40483749 4292094720
3.3127055 -0.95799267 0.41834006 4291964160
3.2794805 -0.94827318 0.42855227 4291703040
3.3329165 -0.96361208 0.44967082 4292225280
3.3410637 -0.96585464 0.46443096 4292225280
3.3216829 -0.96013933 0.47479334 4292094720
3.3377502 -0.96467066 0.48965743 4292225280
3.3239429 -0.96056741 0.49959022 4292225280
3.3143401 -0.95767999 0.50949579 4292094720
3.3230484 -0.96008372 0.52162027 4292225280
3.3311191 -0.96230268 0.53309351 4292225280
3.3222044 -0.95961469 0.54123104 4292225280
3.3202324 -0.95893252 0.54983813 4292225280
3.3278384 -0.96101642 0.55940276 4292225280
3.3187008 -0.95826495 0.56549996 4292225280
3.3196356 -0.95842224 0.57263154 4292225280
3.3125207 -0.95625556 0.57769322 4292225280
3.3211415 -0.95863152 0.58482015 4292225280
3.3071425 -0.95447838 0.58727396 4292094720
3.3159661 -0.95691234 0.59307683 4292225280
3.3064258 -0.95404679 0.59490067 4292094720
3.3059981 -0.95381099 0.59765118 4292094720
3.3009503 -0.95224231 0.59885865 4292094720
3.3007495 -0.95207214 0.60023493 4292094720
3.3006639 -0.95193511 0.6009236 4292094720
3.3096919 -0.95442629 0.60256076 4292225280
3.305105 -0.95299101 0.60101086 4292094720
3.3091378 -0.95404118 0.60031712 4292225280
3.3160446 -0.9559195 0.59942985 4292225280
3.31616 -0.95583975 0.59660459 4292225280
3.3147826 -0.95532978 0.59280944 4292225280
3.3272746 -0.95881665 0.5907802 4292355840
3.3202269 -0.95667243 0.58458412 4292225280
3.3170836 -0.95565349 0.57840407 4292225280
3.3256352 -0.95800382 0.57357228 4292225280
3.3125167 -0.95411164 0.56434566 4292094720
3.3109038 -0.95353395 0.556449 4292094720
3.3029521 -0.95113099 0.54686195 4292094720
3.3000801 -0.95019114 0.53750569 4291964160
3.3101912 -0.95298934 0.529616 4292094720
3.3354697 -0.96015316 0.52342993 4292355840
3.3163769 -0.95454353 0.50966525 4292094720
3.311903 -0.95314246 0.49763384 4292094720
3.2752199 -0.94199932 0.40674877 4291572480
3.3228476 -0.95558441 0.39737421 4292094720
3.3303404 -0.95762509 0.38250044 4292094720
3.2894063 -0.94574147 0.36180186 4291703040
3.2732286 -0.94097787 0.34369549 4291572480
3.3017833 -0.94907367 0.32982954 4291833600
3.2995687 -0.94832397 0.31238893 4291703040
3.2858529 -0.94426906 0.29359522 4291572480
3.2745254 -0.94090134 0.27482072 4291441920
3.2968221 -0.94719517 0.25849625 4291703040
3.2997112 -0.94791204 0.24022439 4291703040
3.2976575 -0.94720888 0.22132082 4291703040
3.2700572 -0.93916845 0.20062904 4291441920
3.3000536 -0.94767058 0.18322633 4291703040
3.3144653 -0.9516955 0.16449562 4291833600
3.3094316 -0.95013642 0.1445628 4291703040
3.2732773 -0.9396438 0.12335788 4291441920
3.2881958 -0.94381362 0.10406164 4291572480
3.2836649 -0.94240034 0.083971173 4291441920
3.2857072 -0.94287366 0.063967504 4291441920
3.2613766 -0.93577939 0.043514606 4291311360
3.277025 -0.940157 0.023593232 4291441920
3.2865617 -0.9427802 0.0034429529 4291441920
3.2451363 -0.930785 -0.016570212 4291180800
3.2641146 -0.93611658 -0.036744531 4291311360
3.2831004 -0.94144899 -0.057117637 4291441920
3.2983646 -0.94571298 -0.077579282 4291572480
3.2597094 -0.93451726 -0.096549183 4291311360
3.2936318 -0.94412971 -0.11754325 4291572480
3.3028474 -0.94665813 -0.13779387 4291703040
3.3008575 -0.94597435 -0.15747622 4291703040
3.2616181 -0.93461657 -0.17496972 4291311360
3.2870374 -0.9417879 -0.19566599 4291572480
3.2960441 -0.94425541 -0.21537894 4291703040
3.2864907 -0.94140565 -0.2336466 4291572480
3.2832918 -0.94037664 -0.25204337 4291572480
3.3037317 -0.9461177 -0.27208099 4291703040
3.3313699 -0.9539187 -0.29268476 4291964160
3.3193381 -0.95035946 -0.30957314 4291964160
3.2831066 -0.93987298 -0.32361129 4291572480
3.294564 -0.94304007 -0.34186617 4291703040
3.3133795 -0.94831252 -0.3606666 4291964160
3.3135173 -0.94823837 -0.37713504 4291964160
3.3043072 -0.94548929 -0.39208108 4291833600
3.2666852 -0.93461192 -0.40300173 4291572480
3.3416443 -0.95594436 -0.42753139 4292225280
3.3303831 -0.95260864 -0.44084808 4292094720
3.330101 -0.95241398 -0.45507622 4292094720
3.3291082 -0.95201606 -0.46869361 4292094720
3.315104 -0.94789767 -0.47989443 4292094720
3.3100238 -0.94633174 -0.49177271 4291964160
3.2991774 -0.9431178 -0.50218123 4291964160
3.3023667 -0.94391656 -0.51412994 4291964160
3.3053219 -0.94464839 -0.52548027 4291964160
3.3106031 -0.94604456 -0.53662914 4292094720
3.3048754 -0.94429487 -0.54538184 4292094720
3.2989936 -0.94250154 -0.55345327 4291964160
3.2966712 -0.94172537 -0.56146592 4291964160
3.3041108 -0.94373792 -0.57050836 4292094720
3.3016009 -0.94290835 -0.57718903 4292094720
3.2792895 -0.93642431 -0.57969451 4291833600
3.2654033 -0.93234748 -0.58295226 4291703040
3.2524498 -0.92853796 -0.58565849 4291572480
3.2650363 -0.93202013 -0.59228194 4291703040
3.2450778 -0.92621213 -0.59231049 4291572480
3.2493551 -0.92732233 -0.59605646 4291572480
3.2537432 -0.928464 -0.59913772 4291703040
3.2487762 -0.92693603 -0.59980124 4291572480
3.2439246 -0.92544138 -0.59978527 4291572480
3.2344549 -0.92262971 -0.59821641 4291441920
3.2634177 -0.93078083 -0.60305429 4291703040
3.255126 -0.92830515 -0.60030621 4291703040
3.2628999 -0.93041146 -0.59982157 4291703040
3.2796712 -0.93508261 -0.60027617 4291833600
3.284966 -0.93648082 -0.59791523 4291964160
3.2936246 -0.93883759 -0.59545726 4291964160
3.2929392 -0.93853056 -0.59061116 4291964160
3.3041871 -0.9416244 -0.58720458 4292094720
3.2989769 -0.94002777 -0.58018661 4291964160
3.3042221 -0.94141054 -0.57433724 4292094720
3.3071594 -0.94213545 -0.56740862 4292094720
3.2967057 -0.93904567 -0.55755007 4291964160
3.3097801 -0.94265795 -0.55102241 4292094720
3.2831333 -0.93495733 -0.53729343 4291833600
3.2706594 -0.93129438 -0.52538395 4291703040
3.2750487 -0.93243349 -0.51560903 4291703040
3.2968278 -0.93852305 -0.50789905 4291964160
3.3152721 -0.94366187 -0.49896181 4292094720
3.3049176 -0.94060284 -0.48510057 4291964160
3.2893548 -0.93606228 -0.47002834 4291833600
3.2625194 -0.92831516 -0.45298737 4291572480
3.2942595 -0.93723577 -0.44354817 4291833600
3.2962987 -0.93770468 -0.42947358 4291833600
3.2834542 -0.93393987 -0.4130317 4291703040
3.2608767 -0.92740774 -0.39507067 4291441920
3.2729926 -0.9307434 -0.3809242 4291572480
3.2850897 -0.93407297 -0.3662397 4291572480
3.2915483 -0.93579859 -0.35043365 4291703040
3.2511861 -0.92421347 -0.32943442 4291311360
3.2450936 -0.92237222 -0.31178892 4291180800
3.2685323 -0.92892456 -0.29654977 4291441920
3.2652082 -0.92786992 -0.27845424 4291441920
3.2427554 -0.9213801 -0.25856972 4291180800
3.2527952 -0.92412341 -0.24106742 4291180800
3.2724609 -0.9296006 -0.22385256 4291441920
3.2799666 -0.93162251 -0.20541175 4291441920
3.2918565 -0.93488902 -0.18691513 4291572480
3.2460165 -0.9217608 -0.1651424 4291180800
3.2669883 -0.92760646 -0.14674364 4291311360
3.2794092 -0.93102306 -0.12760788 4291441920
3.2431955 -0.92063254 -0.10658962 4291050240
3.2680283 -0.92757213 -0.087539099 4291311360
3.2839358 -0.93197709 -0.0679124 4291441920
3.2849908 -0.9321661 -0.047806811 4291441920
3.2621474 -0.925574 -0.027440187 4291311360
3.2894783 -0.93321842 -0.0074470588 4291441920
3.2923286 -0.93391645 0.012790594 4291572480
3.2976751 -0.93532234 0.033068448 4291572480
3.2942803 -0.93424869 0.05322969 4291572480
3.3189015 -0.94112003 0.073907949 4291833600
3.3317871 -0.94466209 0.09446875 4291833600
3.319509 -0.94106919 0.11421399 4291833600
3.2996607 -0.93533111 0.13337629 4291572480
3.3229806 -0.9418301 0.15414952 4291833600
3.3171301 -0.94006026 0.1735034 4291833600
3.3042371 -0.93629527 0.19218512 4291703040
3.2960432 -0.93386251 0.21080184 4291572480
3.3237627 -0.94160485 0.2315876 4291833600
3.3271582 -0.94245499 0.25059971 4291964160
3.3139434 -0.93860012 0.2680279 4291833600
3.3227043 -0.94096982 0.28690588 4291964160
3.3414528 -0.94616723 0.30647257 4292094720
3.3432169 -0.9465543 0.32424945 4292094720
3.3368342 -0.9446348 0.34084928 4292094720
3.2844591 -0.92969662 0.35207561 4291572480
3.3271735 -0.9416759 0.37303358 4291964160
3.3252513 -0.94101989 0.3887718 4291964160
3.3260217 -0.94112593 0.40437883 4292094720
3.3178062 -0.93868947 0.41840211 4291964160
3.2715359 -0.9254877 0.42691523 4291572480
3.3233514 -0.94003457 0.44774592 4292094720
3.338002 -0.94406623 0.46334165 4292225280
3.3358271 -0.94333869 0.47612464 4292225280
3.3289728 -0.94128805 0.48765951 4292094720
3.331244 -0.94181788 0.49995127 4292225280
3.3064885 -0.93470716 0.50753742 4291964160
3.3104591 -0.93571794 0.51887077 4291964160
3.3318665 -0.94165665 0.53241193 4292225280
3.3173087 -0.93743014 0.53961647 4292094720
3.3219159 -0.93861991 0.54927862 4292225280
3.3238354 -0.93905002 0.55787355 4292225280
3.3336802 -0.94171882 0.56717342 4292355840
3.3118277 -0.93543357 0.57039815 4292094720
3.3245409 -0.93891215 0.57888126 4292225280
3.3171389 -0.9367094 0.58319694 4292225280
3.3126061 -0.93531728 0.58731216 4292094720
3.3167019 -0.93636149 0.59226352 4292225280
3.3118885 -0.93489039 0.59492791 4292094720
3.3067193 -0.93331915 0.59681767 4292094720
3.3064046 -0.93311822 0.59887445 4292094720
3.3062038 -0.93294948 0.60024488 4292094720
3.297586 -0.93040574 0.59937799 4291964160
3.3236942 -0.93765968 0.60410839 4292225280
3.3105676 -0.93384397 0.60100287 4292094720
3.3193483 -0.93620831 0.60116088 4292225280
3.3215258 -0.9367097 0.59940946 4292225280
3.3216419 -0.93662953 0.59657788 4292225280
3.3202627 -0.93612784 0.59277648 4292225280
3.3147485 -0.93446034 0.58754796 4292094720
3.3209715 -0.93610185 0.58370501 4292225280
3.317822 -0.93510109 0.57752645 4292225280
3.3216388 -0.93606383 0.5718801 4292225280
3.3227441 -0.93626225 0.56508791 4292225280
3.306951 -0.93169934 0.55479735 4292094720
3.2998593 -0.92958879 0.54537177 4291964160
3.2922242 -0.92732561 0.53525931 4291833600
3.3243024 -0.9362483 0.530904 4292094720
3.3310769 -0.9380427 0.52178192 4292225280
3.3201506 -0.93485242 0.50930011 4292094720
3.307936 -0.9313001 0.49610975 4291964160
3.2893293 -0.92505842 0.40781543 4291703040
3.3166215 -0.93262076 0.39596814 4291964160
3.335938 -0.93793863 0.38250497 4292094720
3.2853608 -0.9236052 0.36075801 4291572480
3.2739396 -0.92028224 0.34320214 4291441920
3.2977476 -0.92686194 0.32888508 4291703040
3.3099053 -0.93016583 0.31285381 4291833600
3.276984 -0.92080152 0.29232758 4291441920
3.2670712 -0.91790414 0.27375314 4291311360
3.2854142 -0.92294544 0.25719035 4291572480
3.3021386 -0.92753077 0.24001954 4291703040
3.3031936 -0.92771399 0.22134425 4291703040
3.2707407 -0.91848695 0.20036066 4291311360
3.2975135 -0.92589265 0.18280731 4291572480
3.3065641 -0.92832077 0.16386025 4291703040
3.3015177 -0.92679071 0.14400952 4291572480
3.2713838 -0.91821903 0.12311558 4291311360
3.2857816 -0.92214787 0.10384919 4291441920
3.2827783 -0.92119241 0.083848208 4291441920
3.2950695 -0.92452872 0.064084403 4291572480
3.2629962 -0.91541725 0.043507788 4291180800
3.2777073 -0.91943222 0.023605622 4291311360
3.2872593 -0.92199916 0.0034872571 4291441920
3.2370987 -0.90781856 -0.016450256 4291050240
3.2609231 -0.91438842 -0.036593758 4291180800
3.2812414 -0.91997361 -0.056934066 4291441920
3.2807922 -0.91973519 -0.076978393 4291441920
3.2651749 -0.91524488 -0.096490353 4291311360
3.2888007 -0.9217549 -0.11711285 4291441920
3.2878382 -0.92137247 -0.1368745 4291441920
3.3063915 -0.92645866 -0.15741152 4291703040
3.2701664 -0.91619575 -0.17506933 4291311360
3.2679403 -0.91546005 -0.19413601 4291311360
3.2911932 -0.92186147 -0.21463321 4291572480
3.2845647 -0.91989225 -0.2330492 4291441920
3.2753506 -0.91719937 -0.25094238 4291441920
3.3006296 -0.92416561 -0.27129877 4291703040
3.3091264 -0.92643148 -0.29017094 4291703040
3.3153102 -0.92804927 -0.30860671 4291833600
3.2703938 -0.91536331 -0.32174593 4291441920
3.3048763 -0.92490214 -0.34228894 4291703040
3.3007343 -0.92362994 -0.35861528 4291703040
3.3055844 -0.92487407 -0.37552902 4291833600
3.3012326 -0.92354351 -0.39098772 4291703040
3.2721586 -0.91529757 -0.4029296 4291572480
3.3243027 -0.92977059 -0.42452866 4291964160
3.3273642 -0.93051314 -0.43963999 4292094720
3.330905 -0.93138963 -0.45435396 4292094720
3.3307922 -0.93124431 -0.46807691 4292094720
3.3120711 -0.92589682 -0.47858587 4291964160
3.297452 -0.9216972 -0.48901999 4291833600
3.3008897 -0.92254555 -0.50153774 4291833600
3.3126578 -0.92572165 -0.51480752 4291964160
3.2927659 -0.92005032 -0.52254945 4291833600
3.2994053 -0.9217931 -0.53386289 4291964160
3.3151619 -0.92608243 -0.54610986 4292094720
3.3092675 -0.92432302 -0.55419677 4292094720
3.2974334 -0.92090517 -0.56060845 4291964160
3.2910089 -0.91899878 -0.56725132 4291833600
3.2938385 -0.9196769 -0.57482797 4291964160
3.2847719 -0.91703355 -0.57965511 4291833600
3.266115 -0.9117136 -0.58207095 4291703040
3.257885 -0.90930545 -0.5856269 4291572480
3.2330391 -0.90226054 -0.58547294 4291441920
3.2324727 -0.90199268 -0.58900309 4291441920
3.2452955 -0.90546077 -0.59430057 4291572480
3.2449481 -0.90525377 -0.59650826 4291572480
3.2494564 -0.90640134 -0.59891754 4291572480
3.2398536 -0.90361279 -0.59802997 4291441920
3.2360568 -0.90244406 -0.59751606 4291441920
3.2650664 -0.91042382 -0.60235965 4291703040
3.2558103 -0.90773255 -0.59944355 4291572480
3.2598009 -0.90873486 -0.59827083 4291703040
3.2628348 -0.90947026 -0.59622312 4291703040
3.2904377 -0.91705334 -0.59794247 4291964160
3.2915995 -0.91726589 -0.59413511 4291964160
3.3031673 -0.92037809 -0.59150004 4291964160
3.3049381 -0.92075986 -0.58640748 4292094720
3.2997162 -0.91919357 -0.57940412 4291964160
3.302403 -0.91983056 -0.57312554 4291964160
3.3079062 -0.92125189 -0.56665856 4292094720
3.302186 -0.91954738 -0.55762017 4291964160
3.2924509 -0.9167254 -0.54730463 4291833600
3.275265 -0.91182971 -0.53519917 4291703040
3.261811 -0.90797406 -0.52318227 4291572480
3.2757246 -0.91173708 -0.51495564 4291703040
3.3023012 -0.91902339 -0.50800151 4291964160
3.3160076 -0.92272657 -0.49835494 4291964160
3.3018165 -0.91866642 -0.48395801 4291833600
3.2766778 -0.91156161 -0.46756247 4291572480
3.2593367 -0.90662754 -0.45192286 4291441920
3.2853913 -0.91376495 -0.44175595 4291703040
3.2922051 -0.91554958 -0.42837095 4291703040
3.2780368 -0.9114992 -0.41181421 4291572480
3.2519276 -0.90412968 -0.39348587 4291311360
3.2737134 -0.91007727 -0.38053623 4291441920
3.2937944 -0.91554952 -0.36676833 4291703040
3.2954726 -0.91590548 -0.35044271 4291703040
3.255698 -0.90474123 -0.3295213 4291311360
3.2485549 -0.90264726 -0.31178588 4291180800
3.2739477 -0.90959358 -0.29673746 4291441920
3.2690849 -0.90813297 -0.27851653 4291311360
3.243408 -0.90089107 -0.2583904 4291180800
3.2485735 -0.90221715 -0.24055797 4291180800
3.2730756 -0.90891278 -0.22373246 4291311360
3.2838652 -0.91179925 -0.20552947 4291441920
3.2876897 -0.91275114 -0.18658796 4291441920
3.2513952 -0.90256548 -0.16536286 4291180800
3.2637382 -0.90588278 -0.14658017 4291180800
3.2848439 -0.91163135 -0.12783864 4291441920
3.239903 -0.89904994 -0.10653602 4291050240
3.2686288 -0.90691227 -0.087646723 4291311360
3.2845626 -0.91122371 -0.068053678 4291441920
3.2856195 -0.91140699 -0.047980513 4291441920
3.2531028 -0.90227783 -0.027562119 4291180800
3.2852969 -0.91109782 -0.0076736188 4291441920
3.2977891 -0.91445214 0.012538649 4291572480
3.3079631 -0.9171629 0.032861855 4291572480
3.278352 -0.9088428 0.052632362 4291311360
3.3109202 -0.91776139 0.073351651 4291703040
3.3286464 -0.92256391 0.093964346 4291833600
3.3135448 -0.91826737 0.11356176 4291703040
3.2955081 -0.91315848 0.13273068 4291572480
3.3188698 -0.91952115 0.15344496 4291703040
3.3187876 -0.9193874 0.17304367 4291703040
3.3049128 -0.91543299 0.19164903 4291572480
3.3040657 -0.91508776 0.21070841 4291572480
3.329283 -0.92196095 0.23133124 4291833600
3.3361349 -0.92374688 0.2506038 4291964160
3.314265 -0.91758007 0.26735872 4291703040
3.322125 -0.91964507 0.28613156 4291833600
3.350116 -0.92728198 0.30650884 4292094720
3.347523 -0.9264521 0.32388389 4292094720
3.3279908 -0.92093468 0.3391439 4291964160
3.2947097 -0.91161424 0.35235471 4291703040
3.3327017 -0.92201513 0.37280196 4291964160
3.3285201 -0.92074668 0.38828212 4291964160
3.3304713 -0.92117488 0.40402672 4291964160
3.3222775 -0.91879702 0.41805556 4291964160
3.2891316 -0.90951955 0.42829034 4291703040
3.3145332 -0.91643292 0.44561595 4291964160
3.3375251 -0.92267829 0.46231002 4292094720
3.3355179 -0.92201144 0.47510096 4292094720
3.3297269 -0.92029881 0.48677859 4292094720
3.322463 -0.91817945 0.49763337 4292094720
3.3119752 -0.91516972 0.50737011 4291964160
3.3254824 -0.9187904 0.52020109 4292094720
3.3240545 -0.91828418 0.53013462 4292094720
3.3275707 -0.91914368 0.54024637 4292094720
3.3274219 -0.91899073 0.54914498 4292225280
3.3245847 -0.91809517 0.55695277 4292094720
3.329689 -0.91939276 0.56544429 4292225280
3.321115 -0.91691333 0.57094729 4292094720
3.3252897 -0.91795397 0.57796121 4292225280
3.318825 -0.91605741 0.5824464 4292094720
3.3180842 -0.91574109 0.58723903 4292094720
3.3221846 -0.91676068 0.59220123 4292225280
3.2945628 -0.90902686 0.59079194 4291964160
3.3083813 -0.91272813 0.59609401 4292094720
3.2938182 -0.90859902 0.59558612 4291964160
3.303112 -0.91105127 0.5986805 4291964160
3.3030241 -0.91091532 0.59937328 4291964160
3.3111298 -0.91303897 0.60084426 4292094720
3.3160217 -0.91427577 0.6010223 4292094720
3.3200657 -0.91527843 0.6003347 4292225280
3.3269928 -0.91707557 0.59945369 4292225280
3.3176064 -0.91437572 0.5949325 4292094720
3.3219216 -0.91545254 0.59216887 4292225280
3.3249478 -0.91617393 0.58847016 4292225280
3.3226244 -0.91542101 0.58313298 4292225280
3.3185153 -0.91417623 0.57680821 4292094720
3.3185298 -0.91406757 0.57052994 4292094720
3.3148744 -0.91294813 0.5629608 4292094720
3.3123734 -0.91214681 0.55494267 4292094720
3.3005068 -0.90876669 0.54474437 4291964160
3.2976179 -0.90785909 0.53542924 4291833600
3.3249822 -0.91528004 0.53032887 4292094720
3.340344 -0.91939539 0.5225752 4292225280
3.3255844 -0.91521955 0.50950915 4292094720
3.3171651 -0.91278946 0.49690163 4291964160
3.2801492 -0.90202004 0.40602604 4291572480
3.3133438 -0.91103584 0.39494196 4291833600
3.3317277 -0.9159773 0.38140845 4291964160
3.3002417 -0.90720779 0.36180681 4291703040
3.2783282 -0.90107161 0.3431074 4291441920
3.3017619 -0.90740019 0.32875288 4291703040
3.3183475 -0.91184515 0.31314287 4291833600
3.2822604 -0.90181607 0.29232225 4291441920
3.2670434 -0.89752322 0.27330491 4291311360
3.2884429 -0.90328997 0.25700638 4291441920
3.300952 -0.90661347 0.23953965 4291572480
3.2988868 -0.90593338 0.22069149 4291572480
3.2625272 -0.89583623 0.19952673 4291180800
3.3060966 -0.90768731 0.18297619 4291572480
3.3022516 -0.90651858 0.16337107 4291572480
3.3020113 -0.90633965 0.14378552 4291572480
3.2753699 -0.89891458 0.12305208 4291311360
3.2814269 -0.90046471 0.10352889 4291311360
3.2919133 -0.90322983 0.083928145 4291441920
3.2820477 -0.90041041 0.063710757 4291311360
3.258599 -0.89386541 0.04335985 4291180800
3.2646532 -0.89541453 0.023453683 4291180800
3.2877207 -0.90162927 0.0034597982 4291441920
3.246242 -0.8901422 -0.016493928 4291050240
3.251122 -0.89136916 -0.0364489 4291050240
3.2746034 -0.89769542 -0.056752816 4291311360
3.2801573 -0.89910579 -0.0768665 4291311360
3.2655985 -0.8950032 -0.09637545 4291180800
3.2796237 -0.89873499 -0.11662673 4291311360
3.2979352 -0.90364051 -0.13710454 4291572480
3.2933936 -0.90228337 -0.15657103 4291441920
3.2596619 -0.89292979 -0.17425749 4291180800
3.2876282 -0.90047872 -0.19502486 4291441920
3.2868483 -0.90015262 -0.21403848 4291441920
3.289834 -0.90085793 -0.23308209 4291441920
3.2735295 -0.89628094 -0.25043422 4291311360
3.3138471 -0.90720719 -0.2719833 4291703040
3.3073635 -0.90531904 -0.28958622 4291703040
3.3163011 -0.90765238 -0.30823946 4291833600
3.2708354 -0.89509606 -0.32130867 4291441920
3.2952042 -0.90165275 -0.34077561 4291572480
3.3085656 -0.90519601 -0.35892597 4291703040
3.3061702 -0.90442771 -0.37502953 4291703040
3.2921462 -0.90047872 -0.38932237 4291572480
3.2516859 -0.88930023 -0.39980203 4291311360
3.3248403 -0.90919495 -0.4239527 4291964160
3.3158045 -0.90661085 -0.43744597 4291964160
3.3240938 -0.90876412 -0.45273346 4291964160
3.3227425 -0.90828145 -0.46623215 4291964160
3.3136351 -0.90567881 -0.47807863 4291964160
3.2948966 -0.90044469 -0.48789126 4291833600
3.2940993 -0.9001146 -0.49973649 4291833600
3.3020754 -0.9021818 -0.51237243 4291833600
3.3130982 -0.90508097 -0.52496421 4291964160
3.3132627 -0.9050132 -0.53527564 4291964160
3.3061743 -0.90296447 -0.54378539 4291964160
3.3017612 -0.90164691 -0.55208111 4291964160
3.3007917 -0.90127003 -0.56030613 4291964160
3.2962725 -0.8999241 -0.5672726 4291833600
3.2857873 -0.89694977 -0.57252711 4291833600
3.2805142 -0.89539897 -0.57799745 4291703040
3.2713377 -0.89278322 -0.5820868 4291703040
3.2535884 -0.88782865 -0.58393496 4291572480
3.2334564 -0.88222522 -0.58462566 4291311360
3.2461927 -0.88559055 -0.59056848 4291441920
3.255234 -0.88794708 -0.59517664 4291572480
3.1775775 -0.86665541 -0.58319837 4290789120
3.2451518 -0.88497722 -0.5971728 4291441920
3.2545314 -0.88742524 -0.59978092 4291572480
3.2412293 -0.88368839 -0.59751421 4291441920
3.2365916 -0.88231462 -0.59614998 4291441920
3.2610142 -0.88886273 -0.59943652 4291572480
3.2650108 -0.88984209 -0.598261 4291703040
3.2728004 -0.89185482 -0.59707725 4291703040
3.2814407 -0.89409888 -0.59534091 4291833600
3.2930574 -0.89715344 -0.59343153 4291833600
3.2937768 -0.89723849 -0.58885634 4291833600
3.2969046 -0.89797962 -0.58402461 4291964160
3.2964268 -0.89773864 -0.57787579 4291833600
3.2981629 -0.89810061 -0.57144618 4291964160
3.2925858 -0.89647114 -0.56310105 4291833600
3.2916055 -0.89609367 -0.55491036 4291833600
3.2881832 -0.8950516 -0.54568356 4291833600
3.2804973 -0.89284921 -0.53515613 4291703040
3.2670214 -0.8890717 -0.5231362 4291572480
3.2714167 -0.89015818 -0.51340902 4291572480
3.2916884 -0.8955642 -0.50550872 4291703040
3.303159 -0.89857453 -0.4955762 4291833600
3.3023121 -0.89823353 -0.48319936 4291833600
3.2693996 -0.8891713 -0.465718 4291441920
3.2634656 -0.88744813 -0.45170876 4291441920
3.2797697 -0.89177233 -0.44022831 4291572480
3.2921019 -0.89501554 -0.42760259 4291703040
3.2736893 -0.88989997 -0.41053763 4291441920
3.2522063 -0.88395113 -0.39281496 4291311360
3.2679946 -0.88813359 -0.3791852 4291441920
3.2839293 -0.89235467 -0.36500275 4291572480
3.2856016 -0.89269948 -0.34874895 4291572480
3.2426422 -0.88091838 -0.32758781 4291180800
3.24421 -0.88123614 -0.31078091 4291180800
3.259367 -0.88524479 -0.29485002 4291180800
3.2656403 -0.88683981 -0.27768192 4291311360
3.2437668 -0.88079119 -0.25790757 4291050240
3.2533553 -0.88328654 -0.24042588 4291180800
3.2765968 -0.8894878 -0.22351077 4291311360
3.2761846 -0.88926673 -0.2046138 4291311360
3.2890711 -0.89265525 -0.18625832 4291441920
3.2548401 -0.88325596 -0.16516276 4291180800
3.2592916 -0.88435543 -0.14603314 4291180800
3.2700145 -0.88715625 -0.12694182 4291311360
3.2402349 -0.8789686 -0.10626009 4290919680
3.2738283 -0.88797301 -0.087526456 4291311360
3.2762771 -0.88852817 -0.067651585 4291311360
3.2908432 -0.89236927 -0.047856584 4291441920
3.2487061 -0.88083422 -0.027356984 4291050240
3.2753079 -0.88793832 -0.0075113955 4291311360
3.2968986 -0.8936823 0.012643466 4291441920
3.299165 -0.89418685 0.032852087 4291441920
3.2940259 -0.89268428 0.052928649 4291441920
3.3161757 -0.89857692 0.07348232 4291703040
3.3291044 -0.90196961 0.093960345 4291833600
3.316788 -0.89852208 0.11362441 4291703040
3.3017502 -0.89433819 0.13290232 4291572480
3.3185792 -0.89878649 0.1533206 4291703040
3.3313646 -0.90213859 0.1735557 4291833600
3.3101504 -0.89628315 0.19177958 4291572480
3.3093004 -0.89594281 0.21083835 4291572480
3.3328626 -0.90221137 0.231344 4291833600
3.3235211 -0.89957172 0.24939206 4291833600
3.3147004 -0.89707369 0.26709902 4291703040
3.3225732 -0.89909381 0.28584483 4291833600
3.3458018 -0.90526843 0.30575728 4291964160
3.3480134 -0.90575528 0.32354441 4292094720
3.3428617 -0.90425003 0.34024253 4291964160
3.2855167 -0.88862759 0.3509365 4291572480
3.3278008 -0.89995384 0.37178472 4291964160
3.3241889 -0.89886618 0.38728094 4291964160
3.327225 -0.89957613 0.40310946 4291964160
3.3313611 -0.90058327 0.41864669 4291964160
3.2725697 -0.8845796 0.4255693 4291441920
3.3293436 -0.8998155 0.44700378 4291964160
3.3344736 -0.90109068 0.46126074 4292094720
3.3370795 -0.90168339 0.47467172 4292094720
3.3349857 -0.90100616 0.48687243 4292094720
3.3238878 -0.89789647 0.49715209 4291964160
3.3038344 -0.89236844 0.50541216 4291833600
3.3116405 -0.8943662 0.51730317 4291964160
3.3245318 -0.89773661 0.5294531 4292094720
3.3203499 -0.89649612 0.53829914 4292094720
3.3183734 -0.89585125 0.54685891 4292094720
3.3212554 -0.89651799 0.55558318 4292094720
3.3216069 -0.89650148 0.56324363 4292094720
3.3225484 -0.89664418 0.57034808 4292094720
3.3210175 -0.89611953 0.57635927 4292094720
3.3145452 -0.89426166 0.58082354 4292094720
3.3099988 -0.89292371 0.58492494 4291964160
3.3131566 -0.8936643 0.58969599 4292094720
3.304522 -0.89122403 0.59167039 4291964160
3.3040926 -0.89099705 0.59440595 4291964160
3.2990198 -0.88951796 0.59560221 4291964160
3.2988174 -0.88935226 0.59697098 4291964160
3.3034854 -0.89049953 0.59851676 4291964160
3.3116043 -0.89257663 0.59998178 4292094720
3.316504 -0.89378548 0.6001547 4292094720
3.3167493 -0.8937397 0.59877658 4292094720
3.3227353 -0.89524072 0.59772366 4292094720
3.3190422 -0.89413345 0.59422541 4292094720
3.3271704 -0.89621091 0.59213626 4292225280
3.3206832 -0.89435118 0.58675069 4292094720
3.3183544 -0.89361167 0.5814209 4292094720
3.3237598 -0.89495498 0.5767566 4292094720
3.3190114 -0.89356399 0.56965518 4292094720
3.3105841 -0.8911829 0.56128222 4291964160
3.308955 -0.89063215 0.55342591 4291964160
3.2961874 -0.88708371 0.54309773 4291833600
3.3028305 -0.88875967 0.53534633 4291833600
3.3264201 -0.89499503 0.52963161 4292094720
3.3370302 -0.89773667 0.52113765 4292094720
3.3222432 -0.89364558 0.50809294 4291964160
3.3138065 -0.89126348 0.49550819 4291964160
3.29494 -0.8854655 0.40721145 4291703040
3.3266594 -0.89387697 0.39590198 4291964160
3.3314815 -0.89505929 0.3807787 4291964160
3.3042233 -0.88762277 0.3616716 4291703040
3.2883286 -0.88324058 0.34361032 4291572480
3.3021877 -0.88685077 0.32827696 4291572480
3.3149493 -0.89016527 0.31232962 4291703040
3.2788005 -0.88034564 0.29155448 4291441920
3.2665181 -0.8769362 0.27283075 4291311360
3.2969294 -0.88498855 0.25726324 4291572480
3.301363 -0.88606602 0.23919252 4291572480
3.2988961 -0.88529128 0.22034508 4291572480
3.2714305 -0.87780839 0.19975601 4291311360
3.3048124 -0.88665342 0.18261799 4291572480
3.3019238 -0.88576555 0.16309856 4291572480
3.3158035 -0.88937593 0.14415866 4291703040
3.2696457 -0.87688267 0.12264521 4291180800
3.2801628 -0.87959141 0.10332742 4291311360
3.2838879 -0.8804782 0.083593681 4291311360
3.2867002 -0.88111997 0.063701756 4291311360
3.2527914 -0.87191767 0.043216389 4291050240
3.2649879 -0.87507558 0.023420794 4291180800
3.279398 -0.87882596 0.0034478738 4291311360
3.2417166 -0.86861646 -0.016442921 4290919680
3.2601264 -0.87343824 -0.036490932 4291050240
3.2759175 -0.87755734 -0.056684319 4291311360
3.2853429 -0.87997013 -0.076865055 4291311360
3.2555077 -0.871867 -0.095923841 4291050240
3.2712917 -0.8759827 -0.11614481 4291180800
3.2983212 -0.8831085 -0.13690257 4291441920
3.2988095 -0.8831265 -0.15657963 4291441920
3.2696357 -0.87520409 -0.17451368 4291180800
3.2814815 -0.87826312 -0.19435136 4291311360
3.285913 -0.87933701 -0.21363845 4291441920
3.2757549 -0.87650663 -0.2317166 4291311360
3.2677641 -0.87425673 -0.24959722 4291311360
3.2998874 -0.88273901 -0.27040863 4291572480
3.3151357 -0.88670522 -0.28980777 4291703040
3.3071039 -0.88444394 -0.30689836 4291703040
3.2889886 -0.87948668 -0.3225815 4291441920
3.2900629 -0.8796618 -0.33970612 4291572480
3.2988014 -0.88188595 -0.35730118 4291572480
3.3052309 -0.88349217 -0.37433076 4291703040
3.2939122 -0.88035423 -0.38891608 4291572480
3.2509115 -0.86875004 -0.39907578 4291180800
3.3252904 -0.88851482 -0.42334083 4291964160
3.3235734 -0.88794285 -0.43777895 4291964160
3.3233001 -0.88775671 -0.45191118 4291964160
3.323195 -0.88761562 -0.46556005 4291964160
3.3102474 -0.88404453 -0.47683662 4291833600
3.3000908 -0.88121974 -0.48788977 4291833600
3.2945118 -0.87961799 -0.49901107 4291703040
3.2977245 -0.88036376 -0.51089078 4291833600
3.3001728 -0.88090545 -0.52209216 4291833600
3.30599 -0.88234615 -0.53325915 4291833600
3.3027205 -0.88136142 -0.54236144 4291833600
3.2974236 -0.87983608 -0.5504874 4291833600
3.2964559 -0.87946612 -0.55868876 4291833600
3.2928855 -0.87840199 -0.56579727 4291833600
3.2766688 -0.87396479 -0.57003939 4291703040
3.2809167 -0.87498695 -0.57715821 4291703040
3.2679172 -0.8714093 -0.58056289 4291572480
3.2729914 -0.87265182 -0.58649224 4291703040
3.2433052 -0.86462671 -0.58548325 4291441920
3.2513015 -0.86664879 -0.59056699 4291441920
3.2470343 -0.86540169 -0.59274352 4291441920
3.1825771 -0.84811383 -0.58319694 4290789120
3.1823471 -0.84794521 -0.58469582 4290789120
3.1860352 -0.84882063 -0.58623582 4290919680
3.2463272 -0.86477554 -0.59751278 4291441920
3.2369244 -0.86216164 -0.59527379 4291311360
3.2528212 -0.8662867 -0.59699059 4291441920
3.2606285 -0.86825645 -0.59651893 4291572480
3.2693801 -0.8704772 -0.59551579 4291572480
3.2780461 -0.87267464 -0.59379041 4291703040
3.2934725 -0.8766712 -0.59257364 4291833600
3.2989526 -0.87801933 -0.58885485 4291833600
3.3018758 -0.87868667 -0.58398622 4291964160
3.3016055 -0.8785041 -0.57787424 4291833600
3.2938123 -0.87631994 -0.56979603 4291833600
3.2929897 -0.87599087 -0.5622856 4291833600
3.287236 -0.87435013 -0.55330348 4291703040
3.2955942 -0.87646323 -0.54605448 4291833600
3.2822211 -0.87279665 -0.53459656 4291703040
3.2673748 -0.86873931 -0.52237129 4291572480
3.2670791 -0.86855161 -0.51192343 4291441920
3.2946026 -0.8757593 -0.50516194 4291703040
3.3068151 -0.87889552 -0.49534595 4291833600
3.3004591 -0.877096 -0.48217022 4291703040
3.2640798 -0.86731863 -0.46423048 4291441920
3.2618823 -0.86662596 -0.45078102 4291311360
3.2778683 -0.87076432 -0.43928266 4291441920
3.2907827 -0.87408578 -0.42676049 4291572480
3.2711968 -0.86877412 -0.40958133 4291441920
3.2601881 -0.86574173 -0.39316121 4291311360
3.2632229 -0.8664391 -0.37803736 4291311360
3.2794662 -0.87064332 -0.3639347 4291441920
3.285943 -0.87225372 -0.34823787 4291441920
3.2463663 -0.86163938 -0.32744941 4291050240
3.2492929 -0.86230826 -0.31077939 4291180800
3.2627792 -0.86577928 -0.29469553 4291180800
3.2642443 -0.86605972 -0.2771275 4291180800
3.2392097 -0.85930955 -0.25714079 4291050240
3.2488084 -0.8617484 -0.23971274 4291050240
3.268224 -0.86679035 -0.22258921 4291180800
3.2759135 -0.86872125 -0.2042754 4291311360
3.2749162 -0.86834818 -0.1851647 4291311360
3.2551069 -0.86298746 -0.16491649 4291050240
3.2626934 -0.86489075 -0.14595558 4291180800
3.275131 -0.86807948 -0.1269403 4291311360
3.2433748 -0.85955435 -0.10619534 4290919680
3.2583177 -0.86340684 -0.086973205 4291050240
3.274869 -0.86768454 -0.067515053 4291180800
3.2864079 -0.87063318 -0.047715414 4291311360
3.2537858 -0.86188245 -0.027355473 4291050240
3.2891283 -0.87113601 -0.0075303186 4291311360
3.3020523 -0.87444985 0.012645001 4291441920
3.2946551 -0.87238169 0.032758154 4291441920
3.2943406 -0.87218934 0.052852985 4291441920
3.3204587 -0.87899476 0.073464051 4291703040
3.3229055 -0.87953246 0.09364149 4291703040
3.3171382 -0.87789595 0.11346109 4291572480
3.3069072 -0.8750785 0.13290387 4291572480
3.318933 -0.87815106 0.15309979 4291703040
3.3230493 -0.87913018 0.17285529 4291703040
3.2969787 -0.8721233 0.19072187 4291441920
3.3032763 -0.87367982 0.2101291 4291572480
3.3380647 -0.88277102 0.23134556 4291833600
3.3248508 -0.87916607 0.24910502 4291703040
3.3111978 -0.87544584 0.2664035 4291572480
3.3229399 -0.87844038 0.28543305 4291703040
3.3462059 -0.88448042 0.30531999 4291964160
3.3445718 -0.88393748 0.32271093 4291964160
3.3396664 -0.88253009 0.33939049 4291964160
3.2819846 -0.86717713 0.35001591 4291441920
3.3368344 -0.88156009 0.37221473 4291964160
3.3316345 -0.88007557 0.3875455 4291964160
3.3276098 -0.87890184 0.40253076 4291833600
3.3203201 -0.87686592 0.41661337 4291833600
3.2776694 -0.8654924 0.42557085 4291441920
3.3170769 -0.87578881 0.4446677 4291833600
3.3262513 -0.87810051 0.45941082 4291964160
3.3336565 -0.87994468 0.47345001 4292094720
3.326776 -0.8780176 0.4849219 4291964160
3.3328922 -0.87952095 0.4977248 4292094720
3.3089788 -0.87309968 0.50541371 4291833600
3.3129721 -0.87404293 0.51670879 4291833600
3.3201499 -0.87582606 0.52793634 4291964160
3.3293395 -0.87813926 0.53891873 4292094720
3.3235378 -0.87649804 0.54686046 4292094720
3.3216507 -0.87588936 0.55478823 4291964160
3.3172324 -0.87461334 0.5616309 4291964160
3.3134079 -0.87349415 0.56789911 4291964160
3.3176003 -0.87448847 0.57487476 4291964160
3.3063521 -0.87141269 0.57849157 4291964160
3.315146 -0.87361962 0.58492649 4291964160
3.3230734 -0.87559754 0.59054375 4292094720
3.3091898 -0.87182814 0.59158802 4291964160
3.2997012 -0.86921751 0.5926975 4291833600
3.2955735 -0.86801952 0.59405947 4291833600
3.3039441 -0.87011349 0.59697258 4291964160
3.2990928 -0.86872494 0.59679657 4291833600
3.3081763 -0.87100589 0.59843373 4291964160
3.3035562 -0.86967832 0.5968886 4291964160
3.3123741 -0.87188846 0.59706229 4291964160
3.318368 -0.87335461 0.59601527 4292094720
3.3146667 -0.8722688 0.59252489 4291964160
3.3132739 -0.87179065 0.58875328 4291964160
3.3124921 -0.87147325 0.58439958 4291964160
3.3187377 -0.87300456 0.58058912 4292094720
3.3155651 -0.87205809 0.5744465 4291964160
3.3146212 -0.8716979 0.56802303 4291964160
3.3109493 -0.87062031 0.56047666 4291964160
3.3045413 -0.86882353 0.5518344 4291833600
3.301301 -0.8678599 0.54309934 4291833600
3.3079538 -0.86949706 0.53534794 4291833600
3.3220201 -0.87308228 0.52811486 4291964160
3.3326416 -0.87576115 0.51964927 4292094720
3.319546 -0.87220716 0.50689703 4291964160
3.3006732 -0.867136 0.49278432 4291703040
3.2817965 -0.86145741 0.40496346 4291441920
3.3222034 -0.871952 0.39476287 4291833600
3.3404872 -0.87663764 0.38121876 4291964160
3.2958739 -0.86481678 0.36020297 4291572480
3.2799473 -0.86052579 0.3422077 4291441920
3.297672 -0.8650642 0.32732391 4291572480
3.3104482 -0.8683033 0.31142604 4291703040
3.2869627 -0.86203086 0.29182985 4291441920
3.2763948 -0.85914749 0.27323389 4291311360
3.2885277 -0.86221725 0.25621405 4291441920
3.2929621 -0.86326772 0.23821813 4291441920
3.2895205 -0.86225331 0.21938238 4291441920
3.2716632 -0.85746062 0.19946368 4291180800
3.296401 -0.86383224 0.18187465 4291441920
3.3148284 -0.86854857 0.1634841 4291572480
3.3064339 -0.86623609 0.14353213 4291572480
3.2672589 -0.85586047 0.12236866 4291180800
3.276464 -0.8581602 0.10305385 4291180800
3.2889645 -0.8613224 0.083595283 4291311360
3.2879117 -0.8609345 0.06362877 4291311360
3.261111 -0.85380483 0.043261427 4291050240
3.273169 -0.85685039 0.023444647 4291180800
3.2866788 -0.86027509 0.0034516694 4291311360
3.2414908 -0.84833574 -0.016414506 4290919680
3.2612932 -0.85340738 -0.036445867 4291050240
3.2794333 -0.85804272 -0.056655943 4291180800
3.2768764 -0.8572619 -0.076546438 4291180800
3.2556999 -0.85161036 -0.095779754 4291050240
3.2938149 -0.86146873 -0.11676336 4291441920
3.2924411 -0.86099714 -0.13644576 4291441920
3.2990696 -0.86261815 -0.15634879 4291441920
3.2650206 -0.85360312 -0.17399681 4291180800
3.277853 -0.85684651 -0.19383538 4291311360
3.2909837 -0.86016703 -0.21363683 4291441920
3.2947481 -0.86103868 -0.23269984 4291441920
3.276665 -0.85620087 -0.24989004 4291311360
3.3001552 -0.86222696 -0.27001232 4291572480
3.3115723 -0.86509734 -0.28904858 4291572480
3.3122795 -0.86516929 -0.30690369 4291703040
3.2844281 -0.85778201 -0.32163644 4291441920
3.2989869 -0.86147231 -0.34010157 4291572480
3.3021946 -0.8621977 -0.35711649 4291572480
3.3090742 -0.86388153 -0.37418759 4291703040
3.2905877 -0.85894299 -0.38792396 4291572480
3.2681406 -0.85297197 -0.40057185 4291311360
3.3250399 -0.86771077 -0.42265594 4291833600
3.3233221 -0.86714959 -0.43707079 4291833600
3.3218992 -0.86666548 -0.4510242 4291833600
3.3188002 -0.86574423 -0.46422765 4291833600
3.3133452 -0.8642087 -0.47654727 4291833600
3.3034518 -0.861516 -0.48763406 4291703040
3.2861807 -0.85689998 -0.49698237 4291572480
3.2980168 -0.8598749 -0.510149 4291703040
3.3004706 -0.86040294 -0.52133512 4291833600
3.2920394 -0.85809332 -0.53019136 4291703040
3.2992022 -0.85984892 -0.54094958 4291833600
3.3024981 -0.8605963 -0.55048573 4291833600
3.2929332 -0.85799229 -0.55723286 4291703040
3.2979515 -0.8591885 -0.5657956 4291833600
3.2817092 -0.85484588 -0.57003778 4291703040
3.2773769 -0.85360664 -0.57564861 4291572480
3.272943 -0.85234129 -0.58056122 4291572480
3.2551394 -0.84759474 -0.58239663 4291441920
3.2435253 -0.84446102 -0.58462256 4291311360
3.2429554 -0.84420347 -0.58814549 4291311360
3.1782808 -0.82725894 -0.57930225 4290789120
3.1874685 -0.82954341 -0.58319533 4290789120
3.2514405 -0.84608442 -0.59647053 4291441920
3.2417915 -0.84346443 -0.59557706 4291311360
3.2370222 -0.84211481 -0.59488487 4291311360
3.2285569 -0.83980393 -0.59282303 4291180800
3.2530527 -0.84606731 -0.59611595 4291441920
3.2561057 -0.84675229 -0.59477663 4291441920
3.2744005 -0.85140055 -0.59551412 4291572480
3.2830646 -0.85354376 -0.59378612 4291703040
3.2985284 -0.85745412 -0.59257203 4291833600
3.290664 -0.85529947 -0.58647376 4291703040
3.2976124 -0.85699552 -0.58233696 4291833600
3.3019006 -0.85799974 -0.57703882 4291833600
3.2988663 -0.85710108 -0.56979436 4291833600
3.2932668 -0.85553634 -0.56146997 4291703040
3.2948096 -0.85582727 -0.55372715 4291703040
3.2888405 -0.8541671 -0.54409945 4291703040
3.2773006 -0.85106057 -0.53297627 4291572480
3.2637758 -0.84743947 -0.5209955 4291441920
3.2625182 -0.84700435 -0.51042461 4291441920
3.2974024 -0.85595208 -0.50481576 4291703040
3.3054092 -0.85792083 -0.49437594 4291833600
3.295361 -0.85520315 -0.48068717 4291703040
3.267729 -0.84792298 -0.46403673 4291441920
3.2582452 -0.84535372 -0.44958791 4291311360
3.2790501 -0.85064334 -0.43876719 4291441920
3.2910888 -0.85365754 -0.42614576 4291572480
3.2665973 -0.84719598 -0.40837827 4291311360
3.2555659 -0.8442269 -0.39200178 4291180800
3.2634094 -0.84615296 -0.37747931 4291311360
3.2884045 -0.85252553 -0.36436713 4291441920
3.2861581 -0.85183442 -0.34772667 4291441920
3.2513347 -0.84269917 -0.32744774 4291050240
3.2542653 -0.84335113 -0.31077775 4291180800
3.2581282 -0.8442446 -0.29382399 4291180800
3.2692382 -0.84701568 -0.27712584 4291180800
3.2354777 -0.83816105 -0.25645038 4290919680
3.2573488 -0.84371984 -0.23997429 4291050240
3.2723238 -0.84749097 -0.22252645 4291180800
3.2743914 -0.84791839 -0.20386687 4291180800
3.2836697 -0.85021287 -0.18537468 4291311360
3.2491031 -0.84115481 -0.16435897 4290919680
3.2676802 -0.84585685 -0.14595389 4291180800
3.2788248 -0.84863377 -0.12688781 4291180800
3.2474473 -0.84040475 -0.10616475 4290919680
3.2594247 -0.84339714 -0.086868159 4291050240
3.2847114 -0.84983253 -0.067613237 4291311360
3.290062 -0.85110849 -0.047693849 4291311360
3.2486763 -0.84029436 -0.027268605 4290919680
3.2845373 -0.84946263 -0.007506066 4291311360
3.2958663 -0.85228425 0.012604483 4291311360
3.2998967 -0.85321778 0.03276195 4291441920
3.2896883 -0.85046965 0.052700277 4291311360
3.325526 -0.85962582 0.073465772 4291703040
3.3376541 -0.86265111 0.093914814 4291703040
3.3270373 -0.85979718 0.11362768 4291703040
3.299952 -0.85268813 0.13242501 4291441920
3.3104539 -0.8552928 0.15247892 4291572480
3.3184471 -0.85724872 0.17235559 4291572480
3.3116734 -0.85538948 0.1912811 4291572480
3.3083127 -0.8544122 0.21013081 4291572480
3.3199675 -0.85731298 0.22974499 4291703040
3.3237278 -0.85817438 0.24864422 4291703040
3.3114173 -0.85488629 0.26601794 4291572480
3.3231788 -0.85781318 0.28502148 4291703040
3.3426235 -0.86272258 0.30453175 4291964160
3.3448465 -0.86318588 0.32224879 4291964160
3.3348656 -0.86049974 0.33838999 4291833600
3.2908359 -0.84902894 0.35042748 4291441920
3.325161 -0.85777569 0.37035227 4291833600
3.3367071 -0.86064404 0.38754722 4291964160
3.3288286 -0.85850167 0.40206829 4291833600
3.3157613 -0.8550216 0.41541192 4291703040
3.2826581 -0.84637588 0.42557257 4291441920
3.3221247 -0.85644263 0.44466943 4291833600
3.3361115 -0.8599382 0.4600738 4291964160
3.3291345 -0.85802931 0.47209254 4291964160
3.3318365 -0.85861522 0.48492363 4291964160
3.3245432 -0.85662526 0.49572751 4291964160
3.2948511 -0.8488645 0.50249588 4291703040
3.3180096 -0.85472131 0.51671052 4291833600
3.3117974 -0.85301089 0.52581233 4291833600
3.3249075 -0.85627747 0.53738749 4291964160
3.3238075 -0.8558836 0.54607719 4291964160
3.3219185 -0.8552866 0.5539934 4291964160
3.3136716 -0.85305274 0.56017977 4291964160
3.3184421 -0.85417044 0.56790084 4291964160
3.3226402 -0.85514039 0.57487649 4291964160
3.3113742 -0.85213023 0.5784933 4291964160
3.3058608 -0.85060096 0.58240747 4291833600
3.3147569 -0.85277951 0.58817625 4291964160
3.3094425 -0.85130161 0.59073871 4291964160
3.2961228 -0.84776491 0.59116024 4291833600
3.300576 -0.8488 0.5940612 4291833600
3.3003721 -0.8486371 0.59542644 4291833600
3.308399 -0.85059053 0.59757429 4291964160
3.3084257 -0.85048652 0.59757459 4291964160
3.3085682 -0.85041225 0.59689033 4291964160
3.317399 -0.85257101 0.59706402 4291964160
3.3195841 -0.85302126 0.59533298 4291964160
3.3196938 -0.852938 0.59252661 4291964160
3.3144798 -0.85148686 0.58807814 4291964160
3.3127406 -0.85092866 0.58356106 4291964160
3.3103988 -0.85021573 0.57825726 4291964160
3.3197103 -0.85249567 0.57429606 4291964160
3.3110449 -0.85015869 0.56655443 4291833600
3.3121433 -0.85032916 0.55983269 4291833600
3.3096232 -0.84957057 0.55184865 4291833600
3.2881274 -0.84394121 0.5401181 4291703040
3.2947824 -0.84553826 0.53241402 4291703040
3.3222649 -0.85247964 0.5273574 4291964160
3.3424778 -0.85755378 0.52039605 4292094720
3.3149903 -0.85038877 0.50543904 4291833600
3.3143823 -0.85012072 0.49408361 4291833600
3.2868807 -0.84234732 0.40497991 4291441920
3.3176053 -0.8501094 0.39362395 4291703040
3.3224308 -0.8512333 0.37858993 4291833600
3.3008583 -0.84559363 0.36020473 4291572480
3.2897263 -0.84262991 0.34271097 4291441920
3.3074794 -0.84706527 0.32780302 4291572480
3.3106291 -0.84775949 0.31097522 4291572480
3.2791877 -0.83959597 0.29070318 4291311360
3.2687182 -0.83680397 0.27218536 4291180800
3.2902098 -0.8421945 0.25596038 4291441920
3.3076019 -0.84653425 0.23891705 4291572480
3.3041582 -0.84554034 0.22002703 4291441920
3.27177 -0.83713996 0.19917151 4291180800
3.2965431 -0.84336698 0.18161036 4291441920
3.315896 -0.84820575 0.16329224 4291572480
3.3007827 -0.84422696 0.14307341 4291441920
3.2709324 -0.83648008 0.12232341 4291180800
3.2950361 -0.84253252 0.10348249 4291311360
3.2836661 -0.83951312 0.083337344 4291180800
3.2930868 -0.84180969 0.063634641 4291311360
3.2747517 -0.83701062 0.043378089 4291180800
3.2693889 -0.83552837 0.023384623 4291050240
3.2867935 -0.83986479 0.0034486684 4291311360
3.2366927 -0.82695109 -0.016363183 4290789120
3.2693532 -0.83518499 -0.036479317 4291050240
3.2659733 -0.83421022 -0.056335669 4291050240
3.2798843 -0.83765203 -0.076499455 4291180800
3.2592967 -0.83228254 -0.095739365 4291050240
3.2852242 -0.83879215 -0.11628111 4291311360
3.2910182 -0.84015948 -0.13617943 4291311360
3.3083968 -0.84448379 -0.15655321 4291441920
3.2589583 -0.83175212 -0.17341019 4291050240
3.2827928 -0.83772403 -0.19383359 4291311360
3.286272 -0.83850014 -0.21300791 4291311360
3.290045 -0.83935088 -0.23201603 4291311360
3.2680726 -0.83363354 -0.24885772 4291180800
3.3002965 -0.84174192 -0.26961583 4291441920
3.3198459 -0.84661555 -0.28933322 4291703040
3.3124418 -0.84461462 -0.30645534 4291572480
3.2855148 -0.83763629 -0.32125729 4291441920
3.2904544 -0.83878398 -0.33871004 4291441920
3.298492 -0.84072095 -0.35617799 4291572480
3.3005691 -0.84113836 -0.37266299 4291572480
3.3003538 -0.84097147 -0.38848883 4291572480
3.2682469 -0.8326785 -0.3999812 4291311360
3.3235421 -0.84665519 -0.42182904 4291833600
3.3266311 -0.84732938 -0.43684694 4291833600
3.3207898 -0.84572881 -0.45019457 4291833600
3.3227124 -0.84610593 -0.46407506 4291833600
3.3020232 -0.84072524 -0.47420397 4291703040
3.2853947 -0.83637983 -0.4842388 4291572480
3.2888675 -0.83715272 -0.49664021 4291572480
3.3007219 -0.84005886 -0.5097993 4291703040
3.3085001 -0.84192687 -0.52181721 4291833600
3.2956362 -0.83854169 -0.52997237 4291703040
3.2984917 -0.83915699 -0.54001987 4291703040
3.302141 -0.83997405 -0.54959869 4291833600
3.3045874 -0.84048498 -0.55836415 4291833600
3.2885647 -0.83629853 -0.56333745 4291703040
3.2866383 -0.83569789 -0.57003593 4291703040
3.2822988 -0.83448386 -0.57564676 4291572480
3.2683055 -0.83081597 -0.57886779 4291572480
3.2648015 -0.82981533 -0.58324772 4291441920
3.2350276 -0.82213825 -0.58221543 4291180800
3.2430501 -0.82406837 -0.5872795 4291311360
3.2569063 -0.82748032 -0.59274012 4291441920
3.1922519 -0.8109448 -0.5831936 4290789120
3.2467761 -0.82468855 -0.59472096 4291311360
3.246655 -0.82454902 -0.59557527 4291311360
3.241878 -0.82322717 -0.59488308 4291311360
3.2577052 -0.82713771 -0.59727699 4291441920
3.2627029 -0.82829773 -0.59698719 4291441920
3.2571702 -0.82678419 -0.5940786 4291441920
3.2602177 -0.82744896 -0.59204572 4291441920
3.287986 -0.83438766 -0.59378433 4291703040
3.2891483 -0.83457297 -0.59000099 4291703040
3.2912285 -0.83499122 -0.58569491 4291703040
3.279623 -0.83193737 -0.57829225 4291572480
3.2925117 -0.83509755 -0.57453567 4291703040
3.2987399 -0.8365677 -0.56891847 4291833600
3.2959471 -0.83574975 -0.56108469 4291703040
3.2911332 -0.83441973 -0.55228049 4291703040
3.2876871 -0.83343673 -0.54309362 4291572480
3.2713861 -0.82919544 -0.5312174 4291441920
3.2619593 -0.82669765 -0.51992542 4291311360
3.2756341 -0.83005512 -0.51170874 4291441920
3.2969708 -0.83535331 -0.50399357 4291703040
3.3142605 -0.8396247 -0.49495724 4291833600
3.3034029 -0.83676451 -0.48113844 4291703040
3.2761698 -0.82975715 -0.46453854 4291441920
3.2583146 -0.82512689 -0.44892415 4291311360
3.2877998 -0.8324858 -0.43927914 4291441920
3.2912009 -0.83323836 -0.42552209 4291572480
3.2762935 -0.82935572 -0.40897715 4291311360
3.2556186 -0.82401413 -0.39142108 4291180800
3.2627029 -0.82569981 -0.37683243 4291180800
3.2884996 -0.8321206 -0.36383203 4291441920
3.2949944 -0.8336556 -0.34813961 4291441920
