# .PCD v0.7 - Point Cloud Data file format
VERSION 0.7
FIELDS x y z rgba
SIZE 4 4 4 4
TYPE F F F U
COUNT 1 1 1 1
WIDTH 1129
HEIGHT 1
VIEWPOINT 0 0 0 1 0 0 0
POINTS 1129
DATA ascii
2.2835374 2.1955941 -0.35219982 4292616960
2.2881203 2.2001078 -0.33797288 4292616960
2.2920721 2.2040155 -0.3232224 4292747520
2.2767255 2.1893811 -0.30547243 4292616960
2.2622936 2.1756237 -0.28771484 4292486400
2.2752495 2.1881804 -0.27313325 4292616960
2.2836394 2.1963506 -0.25755134 4292616960
2.2681017 2.1815271 -0.23904319 4292616960
2.2804604 2.1935105 -0.22323745 4292616960
2.2812524 2.1943786 -0.20595811 4292616960
2.2780898 2.1914454 -0.18811686 4292616960
2.2707922 2.1845372 -0.16981202 4292616960
2.2782176 2.1917796 -0.15242411 4292616960
2.2838643 2.1973131 -0.13464998 4292616960
2.2706223 2.1846888 -0.11567806 4292486400
2.2908497 2.2042387 -0.098232396 4292616960
2.3151231 2.2276802 -0.080495983 4292747520
2.3559668 2.2670548 -0.062722012 4292878080
2.3411701 2.2529361 -0.043185048 4292878080
2.2482748 2.163722 -0.023038274 4292486400
1.5651226 1.5069255 -0.0031333845 4289222400
1.4021515 1.3502814 0.0087269712 4288439040
1.2681191 1.2214516 0.01831775 4287916800
1.582092 1.5234604 0.035749257 4289352960
1.6040763 1.5446763 0.04933456 4289483520
1.6095623 1.5500264 0.062584639 4289483520
1.5923936 1.533587 0.074794851 4289352960
1.5914636 1.5327657 0.087537028 4289352960
1.5941054 1.5353806 0.1003929 4289352960
1.5896069 1.531127 0.11267617 4289352960
1.537015 1.4806058 0.12098983 4289091840
1.480697 1.4264954 0.12803169 4288830720
1.423018 1.3710703 0.13393961 4288569600
1.4032961 1.3521614 0.14267467 4288569600
1.2424262 1.1974355 0.13559532 4287786240
1.6119537 1.5530784 0.18759942 4289483520
1.6116086 1.5528231 0.19913469 4289483520
1.6005948 1.5423009 0.20905392 4289483520
1.5872532 1.5295382 0.21826835 4289352960
1.5191178 1.4640375 0.21916817 4289091840
1.5944479 1.5366174 0.24051827 4289483520
1.5881385 1.5306224 0.24976201 4289352960
1.4928231 1.4389497 0.2441182 4288961280
1.47221 1.4191808 0.24967416 4288830720
1.359597 1.3108412 0.23859045 4288308480
1.542335 1.4868418 0.27933964 4289222400
1.5450778 1.4895608 0.28827879 4289222400
1.5415139 1.4862083 0.29571208 4289222400
1.5498707 1.4943347 0.30511492 4289222400
1.5562061 1.5005161 0.31384456 4289352960
1.5427144 1.4876047 0.31819156 4289222400
1.5851698 1.5285736 0.33381638 4289483520
1.5828006 1.5263762 0.33980697 4289483520
1.5742887 1.5182629 0.34404662 4289352960
1.5737617 1.5178405 0.3495962 4289352960
1.5726272 1.5168335 0.35460049 4289352960
1.5660318 1.5105667 0.35793972 4289352960
1.5700834 1.514557 0.36328363 4289352960
1.5554515 1.5005479 0.36386222 4289352960
1.5553408 1.5005292 0.36737052 4289352960
1.5388035 1.4846832 0.36654237 4289222400
1.5364233 1.4824784 0.36861539 4289222400
1.5325658 1.4788501 0.36989313 4289222400
1.5358541 1.482109 0.37245753 4289222400
1.5239657 1.4707417 0.37090361 4289222400
1.5354931 1.4819434 0.3746008 4289222400
1.5318468 1.478521 0.37416756 4289222400
1.5409089 1.4873495 0.37639314 4289222400
1.53737 1.484032 0.37510434 4289222400
1.5567353 1.502797 0.37894481 4289352960
1.553293 1.4995749 0.37678885 4289352960
1.5576438 1.5038674 0.37607616 4289352960
1.5667428 1.51274 0.37604919 4289352960
1.5668025 1.5128975 0.37340218 4289352960
1.57043 1.5164967 0.3711597 4289352960
1.5760893 1.5220566 0.36894271 4289352960
1.5680503 1.5144055 0.36310065 4289352960
1.5675067 1.5139842 0.35858992 4289352960
1.565456 1.5121098 0.35332525 4289352960
1.5659617 1.5127021 0.34823057 4289352960
1.5566818 1.5038538 0.34059078 4289352960
1.5441864 1.4919026 0.33193535 4289222400
1.5618895 1.5090903 0.32935303 4289352960
1.5589919 1.5064011 0.32199419 4289352960
1.5497167 1.4975573 0.3130047 4289222400
1.5621481 1.5099776 0.26106417 4289352960
1.5840261 1.5312113 0.25498706 4289352960
1.5869622 1.5341604 0.24542607 4289352960
1.5270706 1.4764459 0.2262603 4289091840
1.4561473 1.4080706 0.20607005 4288830720
1.4632401 1.4150267 0.197091 4288830720
1.4402342 1.3929151 0.18395799 4288700160
1.5441376 1.4933773 0.18621647 4289222400
1.5463676 1.4956454 0.17527738 4289222400
1.5678233 1.5164863 0.16614383 4289352960
1.5782406 1.5266668 0.15542278 4289352960
1.5707277 1.5195258 0.14274681 4289352960
1.5659337 1.5150108 0.13025317 4289222400
1.5788696 1.5276281 0.1190225 4289352960
1.494936 1.4466347 0.10093688 4288961280
1.4164007 1.3708459 0.084387116 4288569600
1.4202648 1.3746873 0.073228717 4288569600
1.6855206 1.6311927 0.073243536 4289875200
2.2962513 2.2217026 0.081037663 4292747520
2.3211093 2.2459075 0.062971175 4292747520
2.3323789 2.2569788 0.044170797 4292878080
2.3008618 2.2266812 0.024679411 4292747520
2.2703519 2.1973524 0.0056778933 4292616960
2.2557619 2.1834149 -0.012924238 4292486400
2.2816184 2.2085924 -0.031843878 4292616960
2.2853017 2.2123275 -0.050664447 4292616960
2.2852442 2.2124448 -0.069380626 4292616960
2.2761178 2.2037888 -0.087674767 4292616960
2.2867274 2.2142248 -0.10665105 4292616960
2.2958848 2.2232571 -0.12560783 4292747520
2.2853496 2.2132361 -0.14334342 4292616960
2.2711713 2.1996882 -0.16050167 4292616960
2.2866685 2.2148561 -0.17959705 4292616960
2.2860904 2.2144678 -0.19735502 4292616960
2.2727311 2.2017083 -0.21369062 4292616960
2.2782404 2.2072108 -0.23151027 4292616960
2.292464 2.221149 -0.25011414 4292747520
2.299382 2.2280164 -0.2678076 4292747520
2.282943 2.2122707 -0.28242177 4292616960
2.1555598 2.0890989 -0.28197935 4292094720
2.2791135 2.2088985 -0.31401074 4292616960
2.2801123 2.2100325 -0.32967949 4292616960
2.2668469 2.1973512 -0.34284198 4292616960
2.1985855 2.1314013 -0.34677866 4292355840
2.1381202 2.0729923 -0.35073724 4291964160
2.2897742 2.2200527 -0.38964525 4292747520
2.2867033 2.217242 -0.40270457 4292747520
2.2812409 2.2121127 -0.41484317 4292747520
2.2368894 2.169302 -0.41916922 4292486400
2.1016147 2.0383811 -0.40502349 4291833600
2.2568746 2.1889832 -0.44647285 4292616960
2.2492971 2.1817973 -0.4559665 4292616960
2.2449362 2.177727 -0.46553746 4292616960
2.2376244 2.1707945 -0.47391433 4292486400
2.2164507 2.1504235 -0.47869471 4292486400
2.1910396 2.125941 -0.48182437 4292355840
2.1534197 2.0896184 -0.48147932 4292225280
2.1758997 2.111558 -0.49395314 4292225280
2.1195333 2.0570505 -0.487863 4291964160
2.1428268 2.0797775 -0.49942917 4292094720
2.0875375 2.0263028 -0.49203032 4291833600
2.0932572 2.031986 -0.49830493 4291833600
2.1131864 2.05145 -0.50743759 4291964160
2.1197348 2.0579371 -0.51282167 4291964160
2.0629654 2.0030069 -0.50222147 4291703040
2.0689545 2.0089471 -0.50623077 4291833600
2.0622897 2.0026112 -0.50655586 4291703040
2.0620599 2.0025165 -0.50786364 4291703040
2.0583696 1.9990635 -0.50772506 4291703040
2.1110358 2.0502911 -0.52089322 4291964160
2.1074929 2.0469813 -0.51959354 4291964160
2.0941308 2.0341413 -0.51527435 4291964160
2.0843751 2.0247986 -0.51125491 4291833600
2.1390691 2.0780044 -0.52239132 4292094720
2.1322899 2.0715497 -0.5178619 4292094720
2.1682591 2.1065872 -0.52305847 4292225280
2.1481879 2.0872285 -0.51411146 4292225280
2.1246386 2.0644906 -0.50382465 4292094720
2.199544 2.1373308 -0.51615953 4292355840
2.228013 2.1650941 -0.51674008 4292486400
2.234189 2.1712146 -0.51145738 4292616960
2.2381532 2.1751871 -0.50504643 4292616960
2.238981 2.1761134 -0.49732986 4292616960
2.2398591 2.1770873 -0.48904622 4292616960
2.2336924 2.1712191 -0.47868523 4292486400
2.2516685 2.1887968 -0.4728967 4292616960
2.2707746 2.207473 -0.4666422 4292747520
2.2682714 2.2051609 -0.45534205 4292747520
2.2554173 2.1927929 -0.44152316 4292616960
2.2423737 2.1802387 -0.42729884 4292616960
2.2476547 2.1854839 -0.41612211 4292616960
2.2626588 2.2001753 -0.40616342 4292616960
2.2676456 2.2051346 -0.39383715 4292616960
2.2499433 2.1880486 -0.37720731 4292616960
2.2510548 2.1892409 -0.36340967 4292616960
2.2648864 2.2027929 -0.35116538 4292616960
2.2854698 2.2229068 -0.3393546 4292747520
2.2849176 2.222482 -0.32389876 4292747520
2.2479954 2.1867096 -0.30318767 4292486400
2.2554274 2.1940417 -0.28832668 4292616960
2.2636564 2.2021489 -0.27313989 4292616960
2.2573309 2.1961086 -0.25588492 4292616960
2.2448456 2.1840801 -0.23779118 4292486400
2.2626307 2.2014756 -0.22260411 4292616960
2.2699685 2.2087159 -0.20595697 4292616960
2.269376 2.2082469 -0.18831545 4292616960
2.259361 2.1986167 -0.16977127 4292616960
2.2677832 2.2069113 -0.15244196 4292616960
2.2540491 2.1936629 -0.13350141 4292486400
2.2444577 2.1844416 -0.11485017 4292486400
2.2674363 2.2068908 -0.09763547 4292616960
2.2908869 2.2298012 -0.079959601 4292747520
2.3297229 2.2676764 -0.062227655 4292878080
2.3244369 2.2626433 -0.042973842 4292878080
2.2621608 2.2021799 -0.023173558 4292616960
1.6269733 1.5844615 -0.0031842543 4289614080
1.3535341 1.3185601 0.0085614175 4288308480
1.2438979 1.2119735 0.018148543 4287786240
1.5381691 1.4982986 0.035051886 4289222400
1.585116 1.544042 0.049124021 4289352960
1.5899065 1.5487761 0.062266484 4289352960
1.5807137 1.5399061 0.074759901 4289352960
1.5719109 1.5314147 0.087044209 4289352960
1.578836 1.5382266 0.10008585 4289352960
1.5733538 1.5329658 0.11224583 4289352960
1.530337 1.491179 0.12123092 4289091840
1.5543652 1.5146346 0.13522883 4289222400
1.5620395 1.522177 0.14790507 4289352960
1.5152192 1.4766825 0.1549753 4289091840
1.3390037 1.3052413 0.14700118 4288308480
1.5761038 1.5360903 0.1845517 4289352960
1.5860738 1.5458711 0.19717136 4289483520
1.5745671 1.5347465 0.20689881 4289352960
1.5303476 1.4917752 0.21171874 4289222400
1.373551 1.3391994 0.19938977 4288439040
1.5760139 1.5363865 0.2391555 4289352960
1.5738626 1.5343701 0.24898671 4289352960
1.5549234 1.5160074 0.25575522 4289352960
1.5191976 1.4812973 0.25914401 4289091840
1.401418 1.3666793 0.24735771 4288569600
1.5677547 1.5287393 0.28559712 4289352960
1.5652272 1.5263581 0.29373634 4289352960
1.5636047 1.5248588 0.30168909 4289352960
1.5499365 1.5116273 0.30690026 4289352960
1.5242925 1.4867297 0.30920067 4289222400
1.4140263 1.379398 0.29337928 4288700160
1.5522259 1.5141039 0.32877636 4289352960
1.5546114 1.5165114 0.33568701 4289352960
1.5433834 1.5056565 0.33924204 4289222400
1.5199332 1.4828928 0.3395946 4289222400
1.5307395 1.4935062 0.34714687 4289222400
1.5086247 1.4720417 0.34680992 4289091840
1.5144497 1.477803 0.35243046 4289091840
1.4769652 1.4413579 0.34749851 4288961280
1.4899418 1.4540896 0.35394815 4289091840
1.4325863 1.3982726 0.34321767 4288830720
1.4386014 1.4042192 0.3471382 4288830720
1.4418384 1.407459 0.34999794 4288830720
1.4415952 1.4073073 0.35160828 4288830720
1.4414009 1.407204 0.3528176 4288830720
1.4447824 1.4105879 0.35448834 4288830720
1.4411616 1.4071454 0.3540284 4288830720
1.431245 1.3975641 0.35160729 4288830720
1.4347769 1.4010968 0.35207051 4288830720
1.4882152 1.4533002 0.36431479 4289091840
1.4812719 1.4466223 0.36134887 4288961280
1.5190806 1.4835926 0.36882117 4289222400
1.5094182 1.4742651 0.36432379 4289091840
1.5241225 1.488706 0.36526012 4289222400
1.5290657 1.4936273 0.36339819 4289222400
1.5424886 1.5068228 0.36308315 4289352960
1.5393554 1.5038676 0.3584305 4289222400
1.5408676 1.5054455 0.35444349 4289222400
1.534947 1.4997715 0.3483507 4289222400
1.5267731 1.4918984 0.34138799 4289222400
1.5340061 1.4990611 0.33746994 4289222400
1.5527589 1.5174688 0.33559296 4289352960
1.5637043 1.5282592 0.33152619 4289352960
1.5634439 1.5281135 0.3246614 4289352960
1.5579699 1.5228788 0.31636849 4289352960
1.5453763 1.5112957 0.25974673 4289222400
1.5617045 1.5273565 0.25284204 4289352960
1.5731806 1.5386804 0.24469462 4289352960
1.5439421 1.5102332 0.2300687 4289222400
1.5307399 1.4974487 0.21784902 4289222400
1.546964 1.5134134 0.20954248 4289222400
1.5653296 1.5314733 0.20105156 4289352960
1.538903 1.5057663 0.18665513 4289222400
1.5288223 1.4960299 0.17429173 4289222400
1.5482671 1.5151485 0.16502276 4289222400
1.5522009 1.5191098 0.15374747 4289222400
1.5511465 1.5181961 0.14178728 4289222400
1.5495187 1.5167221 0.1296384 4289222400
1.5646589 1.531641 0.11863936 4289352960
1.4459919 1.4157376 0.098210968 4288700160
1.3762336 1.3476387 0.082481548 4288439040
1.3950863 1.366179 0.072357751 4288569600
1.7312857 1.6950685 0.075669408 4290136320
2.2793448 2.2312119 0.080922879 4292616960
2.2844002 2.2363307 0.0623543 4292747520
2.2990646 2.2508497 0.043813795 4292747520
2.2751317 2.2276132 0.024567483 4292616960
2.2466815 2.199954 0.0056754155 4292486400
2.2285073 2.1823447 -0.01281586 4292486400
2.2486196 2.2021945 -0.031536411 4292486400
2.2580211 2.2115664 -0.050319418 4292616960
2.2509654 2.2048345 -0.068703361 4292486400
2.2398255 2.194104 -0.086742431 4292486400
2.2611277 2.2151251 -0.1060324 4292616960
2.2559195 2.2101996 -0.12409827 4292616960
2.1818273 2.13784 -0.13760155 4292225280
2.2349625 2.190026 -0.15881698 4292486400
2.2484698 2.2034209 -0.17757718 4292486400
2.2298164 2.1853266 -0.19356759 4292486400
2.1240692 2.0819435 -0.20082359 4291964160
2.2418196 2.1974182 -0.22908176 4292486400
2.2683249 2.223546 -0.24886516 4292616960
2.2598066 2.215373 -0.26467249 4292616960
2.1947331 2.1518002 -0.2730315 4292355840
2.1317179 2.0902336 -0.28042579 4291964160
2.2393541 2.1958418 -0.31026608 4292486400
2.2381833 2.1948605 -0.32543647 4292486400
2.2227271 2.1798811 -0.33806065 4292486400
2.1387985 2.0978019 -0.33924818 4292094720
2.0642426 2.0248952 -0.34052679 4291703040
2.2602038 2.217098 -0.38678071 4292616960
2.2490344 2.2063143 -0.39830402 4292616960
2.2355855 2.1932943 -0.40883431 4292616960
2.1800687 2.1390333 -0.41082788 4292355840
2.0897067 2.0506034 -0.40500134 4291833600
2.2140462 2.1726556 -0.44047406 4292486400
2.2128754 2.171664 -0.4511174 4292486400
2.1956902 2.1549683 -0.45789883 4292355840
2.1954048 2.1548417 -0.46760106 4292355840
2.1422396 2.102855 -0.46528521 4292094720
2.1083126 2.0697284 -0.46625713 4291964160
2.1306393 2.0917711 -0.47907984 4292094720
2.1466541 2.107625 -0.49007079 4292225280
2.0906129 2.0527952 -0.48392904 4291964160
2.1201165 2.0818791 -0.49693197 4292094720
2.0588088 2.0218713 -0.4880057 4291833600
2.0849049 2.047612 -0.4991248 4291964160
2.0416648 2.0053201 -0.49304238 4291703040
2.0481901 2.0118561 -0.49832237 4291703040
2.05478 2.018455 -0.50306004 4291833600
2.0607338 2.0244296 -0.50707352 4291833600
2.0674596 2.0311618 -0.51069945 4291833600
2.0637145 2.027616 -0.51114798 4291833600
2.0466919 2.011035 -0.50770336 4291703040
2.0466087 2.01108 -0.50786018 4291703040
2.0920217 2.055789 -0.51870042 4291964160
2.0752208 2.0394216 -0.51351398 4291833600
2.0556808 2.0203612 -0.507074 4291833600
2.1234159 2.0869942 -0.52150601 4292094720
2.0864482 2.0508187 -0.50960135 4291964160
2.13908 2.1026275 -0.51894355 4292225280
2.1156025 2.079695 -0.50918239 4292094720
2.0956981 2.0602682 -0.49977794 4291964160
2.136138 2.1001081 -0.50412303 4292094720
2.1708074 2.134284 -0.50632691 4292355840
2.1886184 2.1519024 -0.50386488 4292355840
2.2018507 2.1650236 -0.49966973 4292486400
2.2026644 2.1659446 -0.49203494 4292486400
2.1971848 2.1606817 -0.48244673 4292486400
2.1884196 2.152189 -0.47164008 4292355840
2.2124379 2.1759071 -0.46728909 4292486400
2.2328253 2.1960595 -0.46144184 4292616960
2.2338541 2.1971886 -0.4509716 4292616960
2.2285633 2.1921067 -0.43873513 4292616960
2.1870804 2.1514537 -0.41912156 4292355840
2.2042105 2.1684036 -0.41038802 4292486400
2.2183895 2.1824536 -0.40046924 4292486400
2.2194901 2.1836491 -0.38765344 4292486400
2.2110279 2.1754432 -0.37277821 4292486400
2.2024028 2.1670756 -0.35756427 4292355840
2.2326963 2.1969678 -0.34812912 4292486400
2.2436883 2.207886 -0.33503103 4292616960
2.2216983 2.1863761 -0.31671363 4292486400
2.1895649 2.1548901 -0.29697174 4292355840
2.2098734 2.1749668 -0.2840943 4292355840
2.2282214 2.1931169 -0.27037713 4292486400
2.2294211 2.1944044 -0.25414187 4292486400
2.2054958 2.1709826 -0.23493452 4292355840
2.231122 2.1962919 -0.22073489 4292486400
2.238729 2.2038805 -0.20425954 4292486400
2.2287757 2.1941969 -0.18597919 4292486400
2.1821544 2.1484442 -0.16488169 4292225280
2.2425632 2.2079709 -0.15158424 4292486400
2.2355714 2.2011986 -0.13314013 4292486400
2.2451982 2.2107747 -0.11552195 4292486400
2.2287915 2.1947386 -0.096495025 4292486400
2.2643201 2.2297988 -0.079459369 4292616960
2.2977588 2.2628059 -0.061699171 4292747520
2.2869847 2.2523122 -0.042497128 4292747520
2.2282734 2.1946459 -0.022931544 4292486400
1.6616925 1.6371974 -0.0032586027 4289744640
1.3695592 1.3497831 0.0087231593 4288439040
-4.3253374 -4.254837 -0.062497813 4278190335
1.4221345 1.4016562 0.032625012 4288700160
1.5638111 1.5411682 0.048759714 4289352960
1.5692068 1.5465528 0.061826181 4289352960
1.5546235 1.5322713 0.073966339 4289222400
1.5529951 1.5307416 0.086507358 4289222400
1.5563236 1.5340916 0.099242635 4289352960
1.5537229 1.5316048 0.11149853 4289352960
1.5318638 1.5101576 0.12206072 4289222400
1.5546194 1.5326353 0.13603985 4289352960
1.5586635 1.5366915 0.14844576 4289352960
1.5460545 1.5243505 0.15904154 4289222400
1.5252757 1.5039637 0.16837184 4289222400
1.5637685 1.5419444 0.18417333 4289352960
1.5504335 1.5288879 0.1938677 4289352960
1.4326274 1.4129398 0.18937571 4288700160
1.4203111 1.4008796 0.19766381 4288700160
1.3042608 1.2866437 0.19044903 4288177920
1.4205147 1.4012212 0.21684965 4288700160
1.5212655 1.5005391 0.24207304 4289222400
1.5403351 1.5194016 0.25482515 4289222400
1.5254422 1.5048078 0.26171163 4289222400
1.4927635 1.47269 0.26497242 4289091840
1.5576266 1.5366749 0.28539479 4289352960
1.5533955 1.5325866 0.29320377 4289352960
1.553364 1.5326368 0.30144757 4289352960
1.540694 1.5202332 0.30683494 4289352960
1.5112685 1.4913167 0.30833322 4289222400
1.4094902 1.3910912 0.29412803 4288700160
1.4972147 1.4776278 0.31897381 4289091840
1.5025182 1.4829367 0.32632914 4289091840
1.467808 1.4488053 0.32451886 4288961280
1.4202763 1.4020318 0.31919575 4288700160
1.4267311 1.4084743 0.32546416 4288830720
1.4325131 1.414255 0.33124146 4288830720
1.4460552 1.4276879 0.3384814 4288830720
1.4455838 1.4273061 0.34208965 4288830720
1.4549829 1.4366575 0.34765109 4288961280
1.4581044 1.4398205 0.35133669 4288961280
1.4507455 1.4326493 0.35208362 4288961280
1.4539595 1.4359051 0.35497189 4288961280
1.4537137 1.4357498 0.35660508 4288961280
1.4500107 1.4321853 0.35696968 4288961280
1.4498646 1.4321296 0.35778612 4288961280
1.449769 1.4321245 0.35819468 4288961280
1.449724 1.43217 0.35819492 4288961280
1.4434192 1.4260405 0.35623199 4288830720
1.4434749 1.4261867 0.35541958 4288830720
1.4435804 1.4263827 0.35420191 4288830720
1.4367218 1.4197073 0.35087031 4288830720
1.4271035 1.4103087 0.34647605 4288830720
1.4105133 1.3940288 0.34002814 4288700160
1.4604082 1.4433663 0.34911123 4288961280
1.4403977 1.423712 0.34104815 4288830720
1.478251 1.4611733 0.34621352 4289091840
1.501879 1.4845976 0.3474853 4289091840
1.5058662 1.4886357 0.34373638 4289091840
1.5176637 1.5003864 0.34131587 4289222400
1.5145603 1.4974265 0.33512515 4289222400
1.5337516 1.5164815 0.33340833 4289222400
1.5456362 1.5283246 0.329597 4289352960
1.5553237 1.5380003 0.32484639 4289352960
1.5507375 1.5335804 0.31672445 4289352960
1.4092759 1.3947896 0.2383083 4288700160
1.5397494 1.5238509 0.25076485 4289222400
1.5516428 1.5357208 0.24277611 4289352960
1.5334564 1.5178583 0.22986007 4289222400
1.5173744 1.5020738 0.21722873 4289222400
1.5365943 1.5211896 0.20937411 4289222400
1.5470154 1.5316089 0.19988328 4289352960
1.5262197 1.5111622 0.18622044 4289222400
1.5064723 1.4917493 0.17277214 4289091840
1.5327053 1.5178075 0.16434285 4289222400
1.543179 1.5282834 0.15377054 4289222400
1.5340774 1.5193983 0.14107235 4289222400
1.5263177 1.5118397 0.12847133 4289222400
1.5411566 1.5266367 0.11756888 4289222400
1.374843 1.3622105 0.093961358 4288439040
1.2962937 1.2845966 0.078183033 4288047360
1.3699251 1.357556 0.071496323 4288439040
1.7492605 1.73305 0.076929882 4290266880
2.2589769 2.2376373 0.080712125 4292616960
2.2702065 2.2489264 0.062373225 4292747520
2.2650878 2.2440355 0.0434657 4292616960
2.2516394 2.2308984 0.024502654 4292616960
2.2398078 2.2193599 0.0057369983 4292486400
2.2055421 2.1856084 -0.012710404 4292355840
2.2127738 2.1929398 -0.031165561 4292355840
2.2217834 2.2020328 -0.04975085 4292486400
2.2094071 2.1899488 -0.067777917 4292355840
2.1973262 2.1781552 -0.085542411 4292355840
2.2234716 2.2042208 -0.1048237 4292486400
2.2232776 2.2042003 -0.12296496 4292486400
2.1655834 2.1472199 -0.13732454 4292225280
2.2074096 2.188823 -0.15772314 4292355840
2.2115507 2.1930957 -0.17562875 4292486400
2.1908078 2.1727126 -0.19123955 4292355840
2.1017847 2.0846667 -0.19982725 4291964160
2.2146854 2.1967101 -0.22757791 4292486400
2.2207866 2.2029254 -0.24501923 4292486400
2.1949356 2.1774724 -0.2585234 4292355840
2.1185017 2.1018765 -0.2650367 4291964160
2.0407646 2.024977 -0.26998061 4291703040
2.2093658 2.1922753 -0.30784702 4292486400
2.2057221 2.1888285 -0.32253826 4292486400
2.1741543 2.1576931 -0.3325544 4292355840
2.1129372 2.0971529 -0.33705533 4291964160
2.0486946 2.0336027 -0.33988941 4291703040
2.2104018 2.1941242 -0.38041887 4292486400
2.2190294 2.2028434 -0.39523691 4292486400
2.193104 2.1772904 -0.40336132 4292486400
2.1568151 2.1414528 -0.40877417 4292225280
2.0641711 2.0497036 -0.40234655 4291833600
2.1718264 2.1566565 -0.43455541 4292355840
2.1636522 2.1487014 -0.44361794 4292355840
2.1765771 2.1616797 -0.45652258 4292355840
2.1380701 2.1236227 -0.4580119 4292225280
2.1066077 2.09255 -0.46018225 4292094720
2.0623717 2.0487947 -0.45872793 4291833600
2.0845823 2.0709822 -0.4714295 4291964160
2.107522 2.0938952 -0.48391613 4292094720
2.0518167 2.0387428 -0.47769424 4291833600
2.0776575 2.0645347 -0.48979762 4291964160
2.0363085 2.0236237 -0.48546585 4291703040
2.0356739 2.0231297 -0.49016356 4291703040
2.0623753 2.049777 -0.50092703 4291833600
2.0026863 1.9906421 -0.49007973 4291572480
2.0155349 2.0035322 -0.49631792 4291703040
2.0221567 2.0102389 -0.50047326 4291703040
2.0183649 2.0066028 -0.50147337 4291703040
2.0216317 2.0099759 -0.50364006 4291703040
2.0179834 2.0064797 -0.50349766 4291703040
2.0046272 1.9933383 -0.5003435 4291572480
2.0567603 2.0452535 -0.51293325 4291833600
2.0435488 2.0322547 -0.50862956 4291833600
2.0269151 2.0158529 -0.50290018 4291703040
2.0677006 2.0565009 -0.51079476 4291833600
2.0372312 2.0263479 -0.5004949 4291703040
2.1028285 2.0916555 -0.51313841 4292094720
2.086473 2.0755253 -0.50511646 4291964160
2.0603867 2.0497212 -0.49424174 4291833600
2.1005833 2.0897925 -0.49864548 4292094720
2.1350427 2.1241646 -0.50091439 4292225280
2.1625395 2.1516185 -0.50079185 4292355840
2.1534841 2.1427388 -0.49157536 4292355840
2.1570802 2.1464343 -0.48469645 4292355840
2.1579244 2.1473932 -0.4766258 4292355840
2.1588128 2.1483953 -0.46801111 4292355840
2.1826828 2.1722469 -0.46373451 4292355840
2.1896243 2.1792676 -0.45519769 4292486400
2.1976507 2.1873665 -0.4462975 4292486400
2.1916661 2.1815321 -0.43403724 4292486400
2.1637611 2.1538959 -0.41712201 4292355840
2.1807852 2.1709411 -0.40844837 4292355840
2.1850305 2.175277 -0.39680427 4292355840
2.182596 2.1729684 -0.38349178 4292355840
2.1680348 2.158596 -0.36772239 4292355840
2.1796684 2.1702795 -0.35600016 4292355840
2.1833522 2.1740546 -0.34248641 4292355840
2.2101278 2.200803 -0.33201277 4292486400
2.2083609 2.1991556 -0.31671849 4292486400
2.1598284 2.1509767 -0.29471761 4292225280
2.1704755 2.1616776 -0.28072947 4292225280
2.1872938 2.1785197 -0.2670337 4292355840
2.1882062 2.1795349 -0.25097492 4292355840
2.1634624 2.1550171 -0.23187819 4292225280
2.1934102 2.1849267 -0.21834914 4292355840
2.2005248 2.1921139 -0.20202598 4292355840
2.193301 2.1850297 -0.18416864 4292355840
2.1122808 2.1044903 -0.16061173 4291964160
2.1794617 2.171464 -0.14826067 4292355840
2.1905966 2.1826525 -0.13130711 4292355840
2.1711919 2.163439 -0.11244856 4292225280
2.1949656 2.1872103 -0.095671505 4292355840
2.2317517 2.2239387 -0.078862093 4292486400
2.2708569 2.2629793 -0.061423723 4292747520
2.2626295 2.2548947 -0.042381238 4292747520
2.2286916 2.2212081 -0.023161959 4292486400
1.703257 1.6980901 -0.003435638 4290005760
1.3934427 1.3896455 0.0088649439 4288569600
1.1932428 1.1903349 0.017581904 4287655680
1.4308149 1.4269974 0.032954402 4288700160
1.5449576 1.5407492 0.048391718 4289222400
1.550109 1.5459533 0.061369151 4289352960
1.5387484 1.5347109 0.073577739 4289222400
1.5304565 1.5265244 0.085691065 4289222400
1.5401386 1.5362425 0.098724522 4289222400
1.5338042 1.5300057 0.11065414 4289222400
1.5162543 1.5125948 0.12146544 4289091840
1.5312258 1.5275842 0.13472027 4289222400
1.5415821 1.5379767 0.14762066 4289222400
1.5289446 1.5254594 0.15814602 4289222400
1.4965039 1.4932082 0.16611198 4289091840
1.5493083 1.5459015 0.18348324 4289352960
1.5345583 1.5312786 0.19295304 4289222400
1.4037906 1.4010303 0.18660736 4288700160
1.4021289 1.3994441 0.19623153 4288700160
1.2691498 1.266973 0.18637487 4288047360
1.4422626 1.4395884 0.22140391 4288830720
1.4864298 1.4836876 0.23787723 4289091840
1.5166178 1.5138566 0.25233084 4289222400
1.4996396 1.4970088 0.25875488 4289091840
1.4805104 1.4780152 0.26429841 4289091840
1.5395614 1.5369669 0.28370109 4289352960
1.5389309 1.536419 0.29214033 4289352960
1.5282208 1.5258212 0.29827699 4289222400
1.5281658 1.5258477 0.30609274 4289222400
1.4855994 1.4834815 0.30484986 4289091840
1.3879265 1.3861547 0.29130667 4288569600
1.5031945 1.5011911 0.32209626 4289222400
1.4895409 1.487656 0.32538813 4289091840
1.4737906 1.4720287 0.32772905 4289091840
1.4588486 1.4572065 0.32975435 4288961280
1.4244487 1.422973 0.32683542 4288830720
1.4336867 1.4322702 0.33344492 4288830720
1.3838089 1.3825908 0.325827 4288569600
1.3896399 1.3884888 0.33079639 4288700160
1.3892266 1.3881577 0.3339102 4288700160
1.3958328 1.3948318 0.33833066 4288700160
1.3920164 1.3911065 0.33984017 4288700160
1.3987079 1.3978679 0.34351581 4288700160
1.3984705 1.3977158 0.34509951 4288700160
1.3947946 1.3941325 0.34542778 4288700160
1.4016244 1.4010357 0.34794885 4288700160
1.3910749 1.3905923 0.34575507 4288700160
1.3910308 1.3906356 0.34575874 4288700160
1.3910353 1.3907281 0.34536833 4288700160
1.3848144 1.384606 0.34303284 4288569600
1.381429 1.381315 0.34100229 4288569600
1.4211054 1.4210228 0.34914032 4288830720
1.4613137 1.4612678 0.35689577 4288961280
1.476539 1.4765692 0.35805705 4289091840
1.4788249 1.4789503 0.35563555 4289091840
1.4852529 1.4854698 0.35377344 4289091840
1.4985495 1.4988517 0.35308275 4289222400
1.5028284 1.5032279 0.34981266 4289222400
1.5007589 1.5012637 0.34465429 4289222400
1.5024606 1.5030675 0.33996072 4289222400
1.5031623 1.503873 0.33463857 4289222400
1.5174049 1.5182098 0.33188054 4289222400
1.5255626 1.5264686 0.32732099 4289222400
1.537202 1.5382088 0.32304484 4289352960
1.5222565 1.5233817 0.31283751 4289222400
1.4759337 1.4777824 0.25102273 4288961280
1.5217962 1.5237533 0.24930137 4289222400
1.5396785 1.5417501 0.24232264 4289352960
1.5147454 1.5169297 0.2283951 4289222400
1.4987512 1.5010467 0.2158296 4289091840
1.5213736 1.5237888 0.20852418 4289222400
1.528211 1.5307442 0.19862139 4289222400
1.5030545 1.5056937 0.18448085 4289091840
1.4961011 1.4988519 0.17259762 4289091840
1.5069213 1.5097932 0.16253872 4289091840
1.5138023 1.5167947 0.15174215 4289222400
1.5146207 1.5177307 0.14011243 4289222400
1.5146632 1.5178906 0.12824933 4289222400
1.5213048 1.5246556 0.11674865 4289222400
1.3499427 1.3532473 0.092815071 4288439040
1.2958505 1.2992042 0.07862372 4288177920
1.360329 1.3638557 0.071423888 4288439040
1.7150111 1.7190676 0.075884975 4290136320
2.2295842 2.2344294 0.080151536 4292616960
2.224062 2.2290742 0.061488684 4292486400
2.2376621 2.2428682 0.043214984 4292616960
2.1931548 2.1984694 0.024033271 4292355840
2.1488338 2.1542499 0.0055664438 4292225280
2.1705291 2.1761501 -0.012556112 4292225280
2.1695373 2.1753268 -0.030708669 4292225280
2.1665692 2.1725235 -0.048770446 4292225280
2.0775743 2.0835297 -0.064074047 4291833600
2.1810701 2.187393 -0.085380428 4292355840
2.1837773 2.1902764 -0.10352696 4292355840
2.1844852 2.1911564 -0.12149838 4292355840
2.0855141 2.0921373 -0.1329919 4291833600
2.1678281 2.1748023 -0.155773 4292225280
2.1670885 2.1742296 -0.17307614 4292225280
2.1556668 2.1629484 -0.18924469 4292225280
2.0656493 2.072871 -0.19751337 4291833600
2.1814163 2.1890986 -0.22544178 4292355840
2.1903062 2.1981804 -0.24304104 4292355840
2.1716595 2.179651 -0.25724941 4292355840
2.0893424 2.0972674 -0.26288998 4291964160
2.028935 2.0368443 -0.26995873 4291703040
2.1796956 2.1882091 -0.30546027 4292355840
2.1725698 2.181227 -0.31951967 4292355840
2.1418967 2.1506219 -0.32950807 4292225280
2.0901637 2.0988841 -0.3353447 4291964160
2.0199883 2.028635 -0.33706018 4291572480
2.1905663 2.1999366 -0.37918061 4292486400
2.1928546 2.2023957 -0.3928299 4292486400
2.1600866 2.1696746 -0.39958373 4292355840
2.127516 2.1371465 -0.40555137 4292225280
2.1132772 2.1230111 -0.41429603 4292094720
2.1459508 2.1559601 -0.43186086 4292225280
2.1448143 2.1549745 -0.44229883 4292225280
2.1347387 2.145014 -0.45033872 4292225280
2.1186874 2.1290522 -0.45648611 4292094720
2.0943837 2.1048014 -0.46015966 4292094720
2.043433 2.0537903 -0.45714688 4291833600
2.0662138 2.0768089 -0.46998128 4291964160
2.0855401 2.0963607 -0.48164251 4291964160
2.0294647 2.0401888 -0.4752278 4291703040
2.0356734 2.0465639 -0.48268238 4291833600
1.9910955 2.0019271 -0.47743979 4291572480
2.0141194 2.0251892 -0.48778456 4291703040
2.0267627 2.0380254 -0.49513206 4291703040
2.0429397 2.0544119 -0.50282335 4291833600
1.9836781 1.995007 -0.49130672 4291572480
1.9805373 1.9919811 -0.49301705 4291572480
1.9864969 1.9980983 -0.49641901 4291572480
1.9862732 1.9980013 -0.49770275 4291572480
1.9798688 1.9916922 -0.49685484 4291572480
2.0413518 2.0536089 -0.51246017 4291833600
2.0316164 2.0439525 -0.50960225 4291833600
2.015008 2.027385 -0.50443608 4291703040
1.9915228 2.0039022 -0.49698702 4291572480
2.0417941 2.0545599 -0.50732166 4291833600
2.022615 2.0354028 -0.49978656 4291703040
2.0739326 2.0871184 -0.50902396 4291964160
2.0507178 2.0639007 -0.49934205 4291833600
2.0317285 2.0449281 -0.49019557 4291833600
2.0814219 2.0950167 -0.49696323 4291964160
2.1122005 2.1260893 -0.49843019 4292094720
2.1243336 2.1384127 -0.49479917 4292225280
2.1374867 2.1517627 -0.49075344 4292225280
2.1347935 2.1491747 -0.48247084 4292225280
2.1286626 2.1431277 -0.47288987 4292225280
2.1295383 2.1441271 -0.46434224 4292225280
2.1462901 2.1610961 -0.45864728 4292355840
2.1699085 2.184974 -0.45371401 4292355840
2.1778843 2.1931159 -0.44484684 4292486400
2.1621678 2.1774204 -0.43067721 4292355840
2.1502824 2.1655772 -0.41692501 4292355840
2.1380556 2.1533883 -0.40276581 4292225280
2.1590395 2.1746166 -0.39435503 4292355840
2.1601093 2.175806 -0.3817381 4292355840
2.1386292 2.1543007 -0.36483437 4292225280
2.1431844 2.1589956 -0.3520667 4292225280
2.1566417 2.1726499 -0.34025285 4292355840
2.1706393 2.1868486 -0.3279655 4292355840
2.171674 2.188 -0.31325614 4292355840
2.1428549 2.1590989 -0.2940895 4292225280
2.1469741 2.1633527 -0.27929169 4292225280
2.1618578 2.1784437 -0.26544961 4292355840
2.1586158 2.1752868 -0.2490066 4292225280
2.1304953 2.1470802 -0.22965798 4292094720
2.16729 2.1842327 -0.2169881 4292355840
2.1778738 2.1949959 -0.20109306 4292355840
2.1636543 2.180783 -0.18271884 4292355840
2.0901358 2.1068525 -0.15983534 4291964160
2.1639605 2.1813009 -0.14804451 4292225280
2.1653733 2.1828282 -0.13053109 4292355840
2.1244895 2.1417551 -0.11064912 4292094720
2.145545 2.1630645 -0.094039522 4292225280
2.1888311 2.2067685 -0.077772669 4292355840
2.2369068 2.2553008 -0.060834061 4292616960
2.2230344 2.2414329 -0.041857339 4292616960
2.1952848 2.2135839 -0.02292292 4292486400
1.6524775 1.6668298 -0.0033300188 4289875200
1.3282646 1.3402606 0.0085229687 4288308480
-4.2750459 -4.3053427 -0.062364992 4278190335
1.4260005 1.438867 0.033050831 4288700160
1.5266588 1.540364 0.048116822 4289222400
1.530516 1.5443242 0.060966939 4289222400
1.5199271 1.5337267 0.073121957 4289222400
1.5108278 1.5246294 0.085106231 4289222400
1.5241278 1.5381068 0.098288737 4289222400
1.5187473 1.5327574 0.11022783 4289222400
1.503902 1.5178678 0.12119918 4289091840
1.5163103 1.5304486 0.13420779 4289222400
1.51351 1.5276998 0.14580294 4289222400
1.5104568 1.5246961 0.15716836 4289222400
1.4547076 1.4685676 0.16244341 4288961280
1.5233313 1.5378252 0.18148534 4289222400
1.5246141 1.5391945 0.19284353 4289222400
1.5060276 1.5205301 0.20135593 4289222400
1.4517214 1.4658469 0.20436208 4288961280
1.2278916 1.2402128 0.18139865 4287786240
1.5194118 1.5342559 0.23460548 4289222400
1.5172285 1.5321318 0.24423462 4289222400
1.5108622 1.5257895 0.25286317 4289222400
1.4450886 1.4595289 0.25083515 4288961280
1.2987078 1.311958 0.23327376 4288177920
1.5182825 1.5335112 0.28144166 4289222400
1.522958 1.5383083 0.2908231 4289222400
1.4974505 1.5126574 0.29400957 4289222400
1.4854656 1.5006471 0.29931319 4289091840
1.3700691 1.3843026 0.28284487 4288569600
1.3085513 1.3223081 0.27630016 4288308480
1.5005232 1.5160844 0.32342488 4289222400
1.4994714 1.5151067 0.32948935 4289222400
1.4991463 1.5148628 0.33532768 4289222400
1.4945704 1.5103297 0.33981121 4289222400
1.4893171 1.5051131 0.34371266 4289091840
1.4950522 1.5109875 0.3497473 4289222400
1.4802867 1.4961706 0.35056278 4289091840
1.4832835 1.4992825 0.35513505 4289091840
1.4800667 1.496123 0.35780808 4289091840
1.4668339 1.4828523 0.35761121 4289091840
1.4604431 1.4764886 0.35862321 4289091840
1.4670795 1.4832778 0.36240754 4289091840
1.463364 1.479616 0.36321938 4289091840
1.4694028 1.4858046 0.36602339 4289091840
1.4595506 1.475947 0.36444521 4289091840
1.4525228 1.4689415 0.36313519 4288961280
1.4751484 1.4918849 0.36879826 4289091840
1.4682227 1.4849843 0.36665404 4289091840
1.4714012 1.4882897 0.36659858 4289091840
1.4777342 1.494783 0.36689007 4289091840
1.4858649 1.503094 0.36718172 4289091840
1.4880909 1.5054413 0.36557326 4289222400
1.4943796 1.5118947 0.36451879 4289222400
1.488206 1.5057573 0.36000407 4289222400
1.4910347 1.5087167 0.3572486 4289222400
1.498365 1.5162265 0.35512736 4289222400
1.4989423 1.5169132 0.35097346 4289222400
1.4882714 1.506232 0.34381324 4289091840
1.4877352 1.505794 0.33862615 4289091840
1.4785616 1.4966258 0.33111897 4289091840
1.4999014 1.5183035 0.33000049 4289222400
1.5126888 1.5313385 0.32648504 4289222400
1.5018086 1.5204465 0.31748816 4289222400
1.4882487 1.5068443 0.30767205 4289091840
1.4809386 1.4998701 0.2533426 4289091840
1.503961 1.5232686 0.2478233 4289222400
1.5151515 1.5347024 0.23986183 4289222400
1.486878 1.5062151 0.2255103 4289091840
1.4842966 1.5037168 0.21500027 4289091840
1.5044012 1.5241723 0.20740664 4289222400
1.5077366 1.5276631 0.19711015 4289222400
1.4846011 1.5043677 0.18328492 4289091840
1.4776833 1.4974816 0.17147315 4289091840
1.4947443 1.514864 0.16216992 4289091840
1.4952743 1.515517 0.15076472 4289091840
1.4925777 1.5129042 0.13888478 4289091840
1.4919137 1.512349 0.12706591 4289091840
1.5047646 1.5254767 0.11615726 4289222400
1.3695428 1.3886837 0.094707981 4288569600
1.2751956 1.293258 0.07782691 4288047360
1.369347 1.3887014 0.072315201 4288569600
1.7557 1.7800823 0.078132637 4290397440
2.2101493 2.2404933 0.079919472 4292486400
2.2068427 2.237319 0.06137111 4292486400
2.2044053 2.2350254 0.042825006 4292486400
2.1581538 2.1883452 0.02379146 4292225280
2.0593977 2.0884638 0.0053745843 4291833600
2.1438701 2.1742156 -0.012471947 4292225280
2.158602 2.1893137 -0.030731466 4292225280
2.1434453 2.1741254 -0.048529986 4292225280
2.1019065 2.1321983 -0.065205038 4291964160
2.1446331 2.1756697 -0.084442064 4292225280
2.1704814 2.2020397 -0.10349686 4292355840
2.1480374 2.1794603 -0.120167 4292225280
2.0531499 2.0834365 -0.13169107 4291833600
2.1426282 2.1743155 -0.1548602 4292225280
2.1591468 2.1912327 -0.17344844 4292355840
2.140831 2.1728306 -0.18903905 4292225280
2.036927 2.0676317 -0.19590324 4291703040
2.1520331 2.1845267 -0.22370265 4292225280
2.1608779 2.1936655 -0.24117452 4292355840
2.1485343 2.1813133 -0.25599495 4292225280
2.0605099 2.0921891 -0.26077467 4291833600
1.9773933 2.0080295 -0.26463574 4291441920
2.1538398 2.1871946 -0.30359739 4292355840
2.1562021 2.1897569 -0.3189618 4292355840
2.1305661 2.1639092 -0.32967603 4292225280
2.044627 2.0768628 -0.32995191 4291833600
1.9853297 2.0168402 -0.3332085 4291572480
2.1674759 2.2018549 -0.37737033 4292355840
2.1565268 2.1909044 -0.38857353 4292355840
2.146817 2.1812096 -0.3994422 4292355840
2.1020222 2.135896 -0.40302551 4292094720
2.0878716 2.1216857 -0.41169894 4292094720
2.1079648 2.1422398 -0.42668656 4292094720
2.1096251 2.1440799 -0.43757457 4292225280
2.0908568 2.1251752 -0.44364884 4292094720
2.053473 2.0873628 -0.44501099 4291964160
2.0656505 2.0998774 -0.45648572 4291964160
2.0219309 2.0556207 -0.45496553 4291703040
2.0411203 2.0752554 -0.46697107 4291833600
1.9922323 2.0257387 -0.46277088 4291572480
2.0080535 2.0419502 -0.47294372 4291703040
1.9636662 1.996995 -0.46831444 4291441920
1.9795943 2.0133133 -0.4774344 4291572480
1.9990275 2.0331943 -0.48693576 4291703040
2.0219669 2.0566399 -0.49682128 4291833600
1.9595143 1.9933109 -0.48508862 4291441920
1.9625447 1.9965216 -0.48888612 4291441920
1.9690943 2.0033083 -0.4930034 4291572480
1.9784725 2.0129697 -0.49727109 4291572480
1.9747961 2.0093617 -0.49768522 4291572480
1.9649754 1.9995064 -0.49596417 4291572480
1.9579881 1.992529 -0.49437448 4291441920
2.0033035 2.0387242 -0.50539851 4291703040
1.9930048 2.0283792 -0.50180268 4291703040
1.9703449 2.0054634 -0.494533 4291572480
1.9567285 1.9917394 -0.48898798 4291441920
2.0040174 2.0399482 -0.49803704 4291703040
1.9746462 2.0102003 -0.48744482 4291572480
2.0388646 2.0756316 -0.4993031 4291833600
2.013073 2.049521 -0.48847789 4291703040
2.0493412 2.0865309 -0.49210569 4291964160
2.040256 2.0774095 -0.48420998 4291833600
2.0805986 2.1185677 -0.48738202 4292094720
2.0996327 2.1380515 -0.48481351 4292094720
2.0934839 2.131916 -0.47583157 4292094720
2.1066606 2.1454415 -0.47066465 4292225280
2.1005988 2.1393919 -0.46063447 4292094720
2.1241772 2.1635015 -0.45649651 4292225280
2.1476545 2.1875095 -0.45160353 4292355840
2.1486416 2.1886322 -0.44135478 4292355840
2.1330075 2.172838 -0.42726603 4292225280
2.1149325 2.154557 -0.41238019 4292225280
2.1124911 2.1521854 -0.40018561 4292225280
2.1326413 2.1728082 -0.39171639 4292225280
2.1441288 2.1846144 -0.38103169 4292355840
2.1191049 2.1592531 -0.36351854 4292225280
2.1106007 2.1507061 -0.34864089 4292094720
2.140341 2.1810935 -0.339551 4292225280
2.1413598 2.1822407 -0.32532677 4292225280
2.14238 2.1833889 -0.31072861 4292225280
2.1172063 2.157865 -0.29215863 4292094720
2.127564 2.1685193 -0.2782726 4292225280
2.1393011 2.1805787 -0.26410076 4292225280
2.12308 2.1641662 -0.24622306 4292225280
2.1083858 2.1493068 -0.22848636 4292094720
2.1180522 2.1592562 -0.21317819 4292094720
2.1422093 2.1839659 -0.19883348 4292225280
2.134347 2.1760628 -0.18117364 4292225280
2.0542524 2.0945799 -0.15788846 4291833600
2.1335847 2.1754951 -0.14669256 4292225280
2.1487129 2.1910107 -0.13015516 4292225280
2.1267831 2.1687737 -0.1112884 4292225280
2.1306498 2.1728165 -0.093802415 4292225280
2.155849 2.1985943 -0.076914474 4292355840
2.2008419 2.2445433 -0.060064957 4292486400
2.2000084 2.2438004 -0.041527752 4292486400
2.1733932 2.216785 -0.022689655 4292355840
1.6880572 1.7222955 -0.0033204854 4290005760
1.3205659 1.3478577 0.0086069331 4288308480
-4.2503033 -4.3297558 -0.062636413 4278190335
1.3558587 1.3839563 0.031705931 4288439040
1.5127064 1.543892 0.048053477 4289222400
1.5083426 1.5395173 0.060533907 4289222400
1.5006166 1.5317148 0.072713114 4289222400
1.4915715 1.522567 0.084610291 4289091840
1.4985008 1.529704 0.097300217 4289091840
1.499239 1.5305297 0.10954594 4289091840
1.4818965 1.5129216 0.12022106 4289091840
1.4819651 1.5130643 0.13203426 4289091840
1.4374734 1.4677712 0.13939373 4288830720
1.3872577 1.4166371 0.14530736 4288569600
1.3179497 1.3460287 0.14814749 4288308480
1.4736328 1.5048617 0.17669177 4289091840
1.5131202 1.5452074 0.19260132 4289222400
1.5044897 1.5364815 0.20241477 4289222400
1.4830269 1.5146668 0.21006605 4289091840
1.4230582 1.4535739 0.21147223 4288830720
1.5108263 1.5431762 0.23473068 4289222400
1.5064423 1.5387821 0.244002 4289222400
1.4884384 1.5204937 0.25065359 4289091840
1.4297503 1.4606972 0.24970396 4288830720
1.3182505 1.3470126 0.23822883 4288308480
1.4078096 1.4384621 0.26259542 4288830720
1.3781261 1.4082494 0.26481929 4288569600
1.40374 1.4344611 0.27732 4288700160
1.3452359 1.3748349 0.27275264 4288439040
1.3376189 1.3671353 0.27783173 4288439040
1.3106425 1.3396773 0.2784147 4288308480
1.4908235 1.5236528 0.3232775 4289222400
1.4942513 1.5272355 0.33032253 4289222400
1.4839011 1.5167552 0.33391938 4289222400
1.4880399 1.5210651 0.34035981 4289222400
1.4822885 1.5152795 0.34414309 4289222400
1.4847205 1.517849 0.3494119 4289222400
1.4795768 1.5126847 0.35248733 4289091840
1.4777043 1.5108604 0.35591051 4289091840
1.4787041 1.5119698 0.35960668 4289091840
1.4716846 1.5048909 0.36092359 4289091840
1.4700283 1.5032891 0.36311418 4289091840
1.4697292 1.503074 0.36521095 4289091840
1.4694791 1.5029098 0.36689103 4289091840
1.4692789 1.5027974 0.36815271 4289091840
1.4691294 1.5027373 0.36899462 4289091840
1.4628301 1.4963958 0.3678591 4289091840
1.470292 1.504113 0.36974469 4289091840
1.470296 1.5042125 0.36932349 4289091840
1.4755311 1.5096574 0.36977738 4289091840
1.4735788 1.5077599 0.36799744 4289091840
1.474719 1.5090231 0.36655703 4289091840
1.4719615 1.5063039 0.36372212 4289091840
1.481724 1.5163808 0.36353669 4289222400
1.4771156 1.5117717 0.35939777 4289091840
1.4733829 1.5080577 0.35506931 4289091840
1.481298 1.5162506 0.35311675 4289222400
1.4871687 1.5223554 0.3502284 4289222400
1.4654813 1.5002875 0.34050426 4289091840
1.4338479 1.4680485 0.32825392 4288961280
1.3617934 1.394475 0.30675867 4288569600
1.3823568 1.4156002 0.30591872 4288700160
1.3863723 1.4198066 0.30097175 4288700160
1.3964292 1.4301927 0.29692537 4288700160
1.4307281 1.4653754 0.29747698 4288961280
1.4649833 1.5011188 0.25212303 4289091840
1.4750667 1.5115492 0.24453101 4289091840
1.3764135 1.4106982 0.21924895 4288569600
1.3358004 1.3692367 0.20385951 4288439040
1.3294561 1.3628459 0.19377483 4288439040
1.401033 1.4362193 0.19434719 4288700160
1.4866843 1.5240127 0.19553469 4289091840
1.462587 1.4994577 0.18166183 4288961280
1.4522221 1.4889599 0.16954236 4288961280
1.4752929 1.5126981 0.16103159 4289091840
1.4820876 1.5197725 0.15034242 4289091840
1.4798385 1.5175866 0.13853669 4289091840
1.4733166 1.5110241 0.12624778 4289091840
1.4833298 1.5213977 0.1152037 4289091840
1.2874163 1.320829 0.089590095 4288177920
1.2290416 1.2611301 0.075479582 4287916800
1.3293769 1.3640246 0.070643969 4288308480
1.7885852 1.8346381 0.080083184 4290528000
2.1753552 2.2310989 0.079156317 4292486400
2.1770141 2.2329736 0.060928024 4292486400
2.1673071 2.2232003 0.04238148 4292355840
2.1303997 2.1855469 0.023650331 4292225280
2.1268818 2.1821127 0.0055990126 4292225280
2.1225281 2.1778204 -0.012397324 4292225280
2.1335342 2.1892743 -0.030531188 4292225280
2.115886 2.1713521 -0.048167188 4292094720
2.0796785 2.1343977 -0.064876534 4291964160
2.1062987 2.1618612 -0.083402283 4292094720
2.1346025 2.1910555 -0.10236806 4292225280
2.113091 2.1691649 -0.11889242 4292094720
2.0242422 2.0782065 -0.13058807 4291703040
2.1188426 2.1754026 -0.15403058 4292225280
2.11533 2.1719685 -0.1709176 4292094720
2.1086316 2.1652651 -0.18728253 4292094720
2.0081356 2.0623271 -0.19426371 4291703040
2.1190851 2.1763256 -0.22156805 4292225280
2.125113 2.1826785 -0.23857406 4292225280
2.1156237 2.1731079 -0.25355414 4292225280
2.0246542 2.0799139 -0.25774336 4291703040
1.951768 2.005265 -0.26274356 4291441920
2.1209252 2.1790466 -0.30071864 4292225280
2.1232831 2.1816323 -0.31594348 4292225280
2.0978091 2.1556451 -0.32652193 4292094720
2.0227892 2.0787864 -0.32835421 4291703040
1.9402888 1.9942346 -0.32757255 4291311360
2.1261504 2.1852303 -0.37236249 4292225280
2.1271071 2.1863744 -0.38553783 4292225280
2.1043303 2.1631444 -0.39385259 4292225280
2.0563598 2.1140347 -0.39660349 4291964160
2.0291815 2.0862732 -0.40249524 4291833600
2.0746264 2.1331055 -0.42242429 4292094720
2.0762868 2.1349649 -0.43320987 4292094720
2.0697992 2.1284528 -0.44178146 4292094720
2.0546434 2.1130328 -0.44790068 4291964160
2.0237482 2.0814378 -0.44987696 4291833600
1.9768566 2.0333998 -0.44746107 4291572480
2.0055864 2.0630655 -0.46156245 4291703040
2.0212595 2.0793159 -0.47229335 4291833600
1.9699813 2.0267563 -0.46672955 4291572480
1.9885093 2.0459387 -0.47704819 4291703040
1.9382703 1.9944358 -0.47024277 4291441920
1.9507234 2.0073717 -0.47799098 4291441920
1.9632291 2.0203621 -0.48525423 4291572480
1.9792256 2.0369425 -0.4928723 4291572480
1.9822305 2.0401659 -0.49671701 4291703040
1.9921682 2.0505173 -0.50173694 4291703040
1.9918727 2.0503459 -0.50360781 4291703040
1.991647 2.0502453 -0.50490826 4291703040
1.9811952 2.0396264 -0.50302356 4291703040
1.9715018 2.0297849 -0.50073898 4291572480
1.961193 2.0193081 -0.49771458 4291572480
1.948208 2.0060761 -0.49343869 4291441920
2.0012484 2.0607626 -0.50526738 4291703040
1.982224 2.0413163 -0.4982968 4291703040
1.9660097 2.0247574 -0.49149448 4291572480
2.0132873 2.0735223 -0.49992955 4291833600
1.9910222 2.0507352 -0.49048468 4291703040
1.9715583 2.0308268 -0.48124701 4291572480
2.0144751 2.0751097 -0.48660699 4291833600
2.0692644 2.1316152 -0.49400657 4292094720
2.0561695 2.1182601 -0.48451966 4291964160
2.0664015 2.1289113 -0.479974 4292094720
2.079354 2.1423631 -0.47542527 4292094720
2.0767238 2.139775 -0.46673104 4292094720
2.0679352 2.130846 -0.45616412 4292094720
2.0815737 2.1450033 -0.44999695 4292094720
2.099653 2.1637332 -0.44413128 4292225280
2.1102722 2.1747832 -0.43604594 4292225280
2.1037469 2.1681807 -0.4239049 4292225280
2.0726659 2.1362915 -0.40653661 4292094720
2.086458 2.1506062 -0.39759773 4292094720
2.0971484 2.1617277 -0.38748103 4292094720
2.1009514 2.1657562 -0.37557188 4292225280
2.0864351 2.1509173 -0.36003485 4292094720
2.0814309 2.1458728 -0.34585866 4292094720
2.0954039 2.1603744 -0.33439013 4292094720
2.1154528 2.1811354 -0.32329234 4292225280
2.1164598 2.1822822 -0.30878437 4292225280
2.0844965 2.1494629 -0.28934479 4292094720
2.0954871 2.1608922 -0.27569556 4292094720
2.1164291 2.1825752 -0.26281875 4292225280
2.0972493 2.1629205 -0.24466105 4292094720
2.0791643 2.1443918 -0.22664618 4291964160
2.0922399 2.1579695 -0.2118184 4292094720
2.1058238 2.1720719 -0.1966034 4292094720
2.0953267 2.1613591 -0.17890304 4292094720
2.0218515 2.0857408 -0.15630615 4291703040
2.0982771 2.164607 -0.14510529 4292094720
2.1057265 2.1723886 -0.12829089 4292094720
2.0929115 2.1592832 -0.11014799 4292094720
2.1047339 2.1715722 -0.093192734 4292094720
2.124409 2.1919568 -0.076222338 4292225280
2.1738071 2.2429845 -0.059657738 4292486400
2.1632304 2.2321866 -0.041052554 4292355840
2.1406748 2.2090378 -0.022456754 4292225280
1.7176816 1.7730262 -0.0033848437 4290266880
1.339149 1.3828152 0.0087908413 4288439040
-4.2250018 -4.3544359 -0.062682882 4278190335
1.3310691 1.3746144 0.031330559 4288439040
1.4960558 1.544817 0.047827329 4289222400
1.4923915 1.5411112 0.060270634 4289222400
1.4819294 1.5303948 0.072256461 4289091840
1.4729401 1.5211964 0.084072724 4289091840
1.4831278 1.5317768 0.096897356 4289091840
1.4827932 1.5315049 0.10901216 4289091840
1.4626352 1.510785 0.11938875 4288961280
1.4716537 1.520161 0.13191877 4289091840
1.3594044 1.4044367 0.13264638 4288569600
1.2789675 1.3215209 0.134809 4288177920
1.1816891 1.2212218 0.13367786 4287655680
1.3366017 1.381115 0.16127187 4288439040
1.4815238 1.5307158 0.18973348 4289091840
1.4885857 1.5380785 0.20149529 4289222400
1.4630381 1.5117921 0.20849781 4289091840
1.4218147 1.4693264 0.2125691 4288830720
1.4982016 1.5482334 0.23418395 4289222400
1.4796427 1.5291578 0.24112152 4289091840
1.4820282 1.5316979 0.25108787 4289222400
1.4380128 1.4863448 0.25266504 4288961280
1.2972661 1.3411382 0.23586342 4288308480
1.4100173 1.4575996 0.26459822 4288830720
1.3855517 1.4324192 0.26785451 4288700160
1.3491836 1.3949487 0.2681742 4288569600
1.3650087 1.4113618 0.27842814 4288569600
