# .PCD v0.7 - Point Cloud Data file format
VERSION 0.7
FIELDS x y z rgba
SIZE 4 4 4 4
TYPE F F F U
COUNT 1 1 1 1
WIDTH 1103
HEIGHT 1
VIEWPOINT 0 0 0 1 0 0 0
POINTS 1103
DATA ascii
2.7483382 0.11032905 -0.23985499 4291180800
2.727946 0.10959303 -0.22376694 4291180800
2.676754 0.10762352 -0.20528981 4290919680
2.6783457 0.10776414 -0.19090605 4291050240
2.6565423 0.10696745 -0.17476037 4290919680
2.6513524 0.1068355 -0.15967022 4290919680
2.5996847 0.10483843 -0.14192869 4290658560
2.5815485 0.1041846 -0.12626259 4290658560
2.564517 0.10357405 -0.11071815 4290528000
2.548521 0.10300411 -0.095292404 4290528000
2.4911048 0.10076665 -0.078642629 4290397440
2.5087738 0.10154907 -0.06451726 4290397440
2.5036113 0.10141254 -0.049664278 4290397440
2.4775045 0.10043121 -0.034528747 4290266880
2.4563415 0.09964785 -0.01970789 4290266880
2.4644573 0.10004546 -0.0051836506 4290266880
2.4834275 0.10088214 0.0094790896 4290266880
2.4811361 0.10086019 0.024147285 4290266880
2.5056152 0.10192134 0.039174836 4290397440
2.5526941 0.10389899 0.054929018 4290528000
2.574147 0.10484099 0.070473611 4290658560
2.5663621 0.10459873 0.085220896 4290528000
2.5808933 0.10526158 0.1006498 4290658560
2.6139178 0.10667624 0.11695906 4290789120
2.6254907 0.10722119 0.13243563 4290789120
2.5612128 0.10468259 0.14365003 4290528000
2.6941445 0.11016507 0.16612174 4291050240
2.8738406 0.11755948 0.19301762 4291703040
3.2776632 0.1340971 0.23791118 4293008640
3.3050666 0.13530874 0.25759348 4293139200
3.4080324 0.13960551 0.28355899 4293400320
3.4112151 0.13983375 0.30147368 4293530880
3.4194238 0.14026774 0.31955284 4293530880
3.3767791 0.13862285 0.33235645 4293400320
3.280803 0.13479328 0.33886525 4293008640
3.412303 0.1402736 0.36862043 4293530880
3.4038475 0.14002647 0.38344067 4293530880
3.3956993 0.13979164 0.39778656 4293400320
3.3732839 0.13897108 0.40987784 4293400320
3.3303683 0.13730755 0.41873631 4293269760
3.4072731 0.14056599 0.44230187 4293530880
3.4148693 0.1409788 0.45671755 4293530880
3.4124823 0.14098145 0.4692978 4293530880
3.3982677 0.14049712 0.47965437 4293530880
3.3774462 0.13973992 0.48840457 4293400320
3.3555291 0.13893658 0.49628961 4293400320
3.3919115 0.14053853 0.51225823 4293530880
3.3932946 0.14069732 0.52247047 4293530880
3.3978369 0.14098707 0.53257936 4293530880
3.3973117 0.1410678 0.54128683 4293530880
3.3845043 0.14064041 0.54737663 4293530880
3.3962071 0.1412279 0.55678368 4293530880
3.3856351 0.14089303 0.56189561 4293530880
3.3886704 0.14112236 0.5685904 4293530880
3.3828521 0.14098464 0.57313019 4293530880
3.3869739 0.14125989 0.57867622 4293530880
3.3779004 0.14098711 0.58128417 4293530880
3.3861763 0.14143603 0.58618855 4293530880
3.3857031 0.14152147 0.58889735 4293530880
3.3764865 0.14124291 0.5893864 4293530880
3.3811672 0.14154367 0.5916006 4293530880
3.3712025 0.14123386 0.59055626 4293530880
3.361356 0.14092875 0.58883393 4293400320
3.3796842 0.14180097 0.59134459 4293530880
3.3897438 0.14232886 0.59170425 4293530880
3.3909781 0.1424883 0.58982188 4293530880
3.3910546 0.14259967 0.58704233 4293530880
3.3856387 0.14248113 0.58262676 4293530880
3.3887303 0.14271957 0.57899028 4293530880
3.3813503 0.14251883 0.57289219 4293530880
3.3869731 0.14286438 0.56832409 4293530880
3.3848948 0.14288676 0.56179303 4293530880
3.3850858 0.14300486 0.55498403 4293530880
3.3792732 0.14287043 0.54655522 4293530880
3.3682485 0.14251626 0.53668576 4293400320
3.3693678 0.14267397 0.52814817 4293400320
3.3893366 0.14362784 0.52189064 4293530880
3.4051976 0.14440979 0.51429385 4293530880
3.4036818 0.14445832 0.50343758 4293530880
3.3796651 0.14355493 0.48875856 4293400320
3.3611758 0.14349875 0.40183279 4293400320
3.3855927 0.14465153 0.38977474 4293400320
3.4045842 0.14557505 0.37645721 4293530880
3.3378222 0.14284411 0.35346773 4293269760
3.1254807 0.1338973 0.31600985 4292486400
2.7902853 0.11969022 0.268453 4291441920
2.677949 0.1149845 0.24421711 4291050240
2.6042376 0.11192325 0.22416608 4290789120
2.5863578 0.1112469 0.2091336 4290658560
2.5826161 0.1111751 0.19512209 4290658560
2.5762923 0.11099245 0.18075213 4290658560
2.5614491 0.11044395 0.16569924 4290528000
2.5293632 0.1091541 0.14960726 4290528000
2.5294304 0.10924392 0.135424 4290528000
2.5151274 0.10871577 0.12040265 4290397440
2.4912126 0.10777298 0.10500559 4290397440
2.463414 0.10666129 0.08962474 4290266880
2.466239 0.10686801 0.075398006 4290266880
2.4586866 0.10662722 0.060797572 4290266880
2.4056721 0.10442281 0.045363348 4290005760
2.4936826 0.10830934 0.032314874 4290397440
2.5042381 0.10885198 0.017650194 4290397440
2.519501 0.10959914 0.0028428445 4290397440
2.516901 0.10957351 -0.012064974 4290397440
2.5468802 0.11096016 -0.027284229 4290528000
2.5735116 0.11220363 -0.042776376 4290658560
2.5682952 0.11206596 -0.057821237 4290658560
2.6171911 0.1142795 -0.074285477 4290789120
2.6603436 0.1162466 -0.091048725 4290919680
2.684582 0.11739334 -0.10746163 4291050240
2.6290839 0.11506828 -0.12038726 4290789120
2.7105467 0.11871024 -0.13961048 4291050240
2.7186894 0.11915877 -0.15541774 4291050240
2.7457364 0.12043322 -0.17233907 4291180800
2.6492546 0.11631136 -0.18093647 4290919680
2.8465233 0.12502941 -0.20995662 4291572480
2.9700506 0.13053341 -0.23505063 4291964160
3.1937549 0.14043362 -0.26967046 4292747520
3.3105276 0.14566156 -0.29675859 4293139200
3.2987089 0.14525606 -0.31254244 4293139200
3.3415723 0.14725031 -0.3333222 4293269760
3.3603821 0.14819042 -0.35164475 4293269760
3.3569081 0.14815177 -0.36732545 4293269760
3.3533027 0.14810689 -0.38255477 4293269760
3.2965114 0.14571927 -0.39102009 4293139200
3.3855741 0.14975585 -0.41648906 4293400320
3.3804207 0.14964262 -0.43027493 4293400320
3.3853858 0.14997543 -0.44486824 4293400320
3.374579 0.14961161 -0.45686957 4293400320
3.3705881 0.14954813 -0.46922356 4293400320
3.3533576 0.14889836 -0.47912866 4293400320
3.3569229 0.1491679 -0.49141425 4293400320
3.348726 0.14891624 -0.50140762 4293400320
3.368243 0.14989258 -0.51501644 4293400320
3.3652461 0.1498709 -0.52465045 4293400320
3.3628337 0.14987466 -0.53376186 4293400320
3.3523369 0.1495187 -0.54094577 4293400320
3.3523114 0.1496274 -0.54917198 4293400320
3.3574772 0.14996681 -0.55762988 4293400320
3.3456187 0.14954802 -0.56260633 4293400320
3.3226929 0.14863487 -0.56500572 4293269760
3.3091118 0.14813668 -0.56827581 4293269760
3.2969937 0.14770256 -0.5710991 4293269760
3.3011954 0.14799628 -0.5760752 4293269760
3.2392046 0.14533123 -0.56877208 4293008640
3.2436333 0.14563283 -0.57240689 4293008640
3.2432537 0.14571914 -0.57453215 4293008640
3.2429876 0.14581019 -0.57600951 4293008640
3.2330003 0.14546509 -0.5750879 4293008640
3.2992363 0.14853819 -0.58705574 4293269760
3.2894812 0.14820397 -0.58482593 4293139200
3.3009613 0.14882267 -0.58568841 4293269760
3.3099773 0.14933099 -0.58542371 4293269760
3.3411279 0.15083516 -0.58836424 4293400320
3.3523865 0.15144551 -0.58708429 4293400320
3.3575079 0.15177977 -0.58403176 4293400320
3.3603764 0.15201244 -0.57990074 4293400320
3.3561299 0.15192403 -0.57387382 4293400320
3.3629854 0.15233609 -0.56907642 4293400320
3.3556788 0.15210861 -0.56122869 4293400320
3.3545239 0.15215838 -0.55378032 4293400320
3.3485289 0.15198883 -0.54491317 4293400320
3.3357599 0.15151203 -0.53436542 4293269760
3.3227735 0.1510243 -0.5232392 4293269760
3.32127 0.15105586 -0.51336354 4293269760
3.3369935 0.15186822 -0.50552201 4293269760
3.3608074 0.15304834 -0.4982062 4293400320
3.3569145 0.15297151 -0.48615512 4293400320
3.3400974 0.15230694 -0.47175694 4293269760
3.3135149 0.15119711 -0.45560801 4293269760
3.3129244 0.15126795 -0.44262317 4293139200
3.3301041 0.15214749 -0.43145007 4293269760
3.3457234 0.15295671 -0.41945863 4293269760
3.3029442 0.15110458 -0.39979872 4293139200
3.2438838 0.14850712 -0.37817341 4292878080
3.0797315 0.14110941 -0.34489462 4292355840
2.9123521 0.13355456 -0.31241667 4291833600
2.8225765 0.12953632 -0.2891441 4291441920
2.7360308 0.1256604 -0.26674747 4291180800
2.7228198 0.12513494 -0.25170562 4291180800
2.7138162 0.12480122 -0.23689231 4291180800
2.6944094 0.12399023 -0.22106223 4291050240
2.64222 0.1216751 -0.20268294 4290919680
2.6388152 0.12159475 -0.18812619 4290919680
2.6369381 0.12158422 -0.17350553 4290789120
2.6117995 0.12050509 -0.15731822 4290789120
2.5611293 0.11825105 -0.13984942 4290528000
2.5442441 0.11754768 -0.12445983 4290528000
2.5343723 0.11716603 -0.10943502 4290528000
2.5268304 0.11689103 -0.094496332 4290397440
2.4744163 0.11454817 -0.078127012 4290266880
2.4736891 0.1145851 -0.063621342 4290266880
2.4840047 0.11513136 -0.049279001 4290266880
2.452908 0.11376666 -0.034185454 4290266880
2.4369619 0.11309994 -0.019548573 4290136320
2.4573393 0.11411096 -0.0051620933 4290266880
2.4760108 0.11504426 0.0094611589 4290266880
2.4755144 0.11509171 0.024106523 4290266880
2.5009863 0.11634147 0.039120212 4290397440
2.5420611 0.11831555 0.054722607 4290528000
2.5695007 0.11965992 0.070372313 4290658560
2.5567265 0.11914056 0.084931001 4290528000
2.5802388 0.12030471 0.10065754 4290658560
2.6172459 0.12209701 0.11714514 4290789120
2.6248238 0.12252387 0.1324435 4290789120
2.5809779 0.12056006 0.14480083 4290658560
2.6595602 0.12429016 0.1640427 4290919680
2.7430508 0.12825337 0.1843023 4291180800
3.0042791 0.14050141 0.21815819 4292094720
3.265384 0.15275878 0.25457913 4293008640
3.4021857 0.1592335 0.28315544 4293400320
3.4153197 0.1599445 0.30192322 4293530880
3.4046261 0.15954368 0.31826288 4293400320
3.3858573 0.15876508 0.33334425 4293400320
3.2759891 0.15372595 0.33846489 4293008640
3.4014981 0.15969326 0.36755857 4293530880
3.3940418 0.15944315 0.38244522 4293400320
3.389868 0.15934661 0.39721602 4293400320
3.3590248 0.15799992 0.4082616 4293400320
3.3146465 0.15601684 0.41687831 4293139200
3.4024353 0.16023444 0.44179806 4293530880
3.4100311 0.16069135 0.45619845 4293530880
3.4116046 0.16086599 0.46930805 4293530880
3.3930461 0.16009437 0.47905141 4293530880
3.3765762 0.15942021 0.4884147 4293400320
3.3586168 0.15867521 0.49688396 4293400320
3.3959751 0.16053553 0.51301384 4293530880
3.3973553 0.16070235 0.52324027 4293530880
3.4018936 0.16101854 0.53336257 4293530880
3.4003794 0.16104962 0.54192543 4293530880
3.3974342 0.16101336 0.54961836 4293530880
3.3815272 0.16036466 0.55453253 4293530880
3.3847582 0.16062041 0.5619058 4293530880
3.3828664 0.16063426 0.56777453 4293530880
3.3819745 0.1606957 0.57314038 4293530880
3.3723094 0.16034172 0.57633239 4293530880
3.3721006 0.16043587 0.58044767 4293530880
3.3764374 0.16074604 0.58466601 4293530880
3.3848224 0.16124901 0.58890754 4293530880
3.3805277 0.16115049 0.5902549 4293530880
3.3802865 0.16124476 0.59161073 4293530880
3.380163 0.16134498 0.59228915 4293530880
3.3752382 0.161217 0.5914281 4293530880
3.3788018 0.16149342 0.59135479 4293530880
3.3790181 0.16161086 0.58999759 4293530880
3.3793657 0.16173494 0.58796734 4293530880
3.381309 0.16193558 0.58551979 4293530880
3.3945966 0.16267851 0.58433014 4293530880
3.3976889 0.16293539 0.58068192 4293530880
3.3905284 0.16270247 0.57460666 4293530880
3.3860846 0.16259946 0.56833428 4293530880
3.3978019 0.16327047 0.56409174 4293530880
3.3841965 0.16272905 0.55499423 4293530880
3.3833151 0.16279727 0.54736239 4293530880
3.3673625 0.16214252 0.5366959 4293400320
3.3635466 0.16206987 0.52738529 4293400320
3.378571 0.16290264 0.52038157 4293400320
3.4092383 0.16448893 0.51504958 4293530880
3.4004562 0.16417925 0.50310379 4293530880
3.378773 0.16324808 0.48876873 4293400320
3.3454075 0.16236529 0.40006557 4293269760
3.3846943 0.16438 0.38978493 4293400320
3.3947446 0.16498145 0.37548015 4293400320
3.2842906 0.15974283 0.34790698 4293008640
2.8989382 0.14116293 0.2932173 4291703040
2.7011518 0.13166128 0.25996593 4291050240
2.6633096 0.12991534 0.24295659 4290919680
2.6024249 0.12704691 0.22407776 4290789120
2.5772069 0.12590933 0.2084581 4290658560
2.5869067 0.12646981 0.19550562 4290658560
2.5779462 0.12612212 0.18092398 4290658560
2.5607646 0.12537318 0.16570696 4290528000
2.5197129 0.12345882 0.14908499 4290397440
2.5247638 0.12379213 0.13521841 4290397440
2.504477 0.12288818 0.11993358 4290397440
2.4818239 0.12186723 0.10464632 4290266880
2.4627533 0.12102003 0.089632176 4290266880
2.4552913 0.12073983 0.075091928 4290266880
2.4449661 0.1203189 0.060483206 4290136320
2.4074924 0.11856646 0.045416906 4290005760
2.4590557 0.12117916 0.031885196 4290266880
2.4845874 0.12251757 0.017525535 4290266880
2.4808683 0.12242084 0.0028105937 4290266880
2.4976735 0.12333281 -0.011967042 4290397440
2.5224426 0.12463771 -0.027020359 4290397440
2.5452826 0.12584934 -0.042308982 4290528000
2.5386441 0.12561035 -0.05715955 4290528000
2.5887895 0.12817013 -0.073489673 4290658560
2.6318934 0.13038599 -0.090089872 4290789120
2.645932 0.13116995 -0.10593317 4290919680
2.6348276 0.13071273 -0.12067531 4290789120
2.6659241 0.13234088 -0.13733928 4290919680
2.7002635 0.13413154 -0.15439735 4291050240
2.7160838 0.13500768 -0.17051481 4291050240
2.6778095 0.13320509 -0.18292935 4291050240
2.7723505 0.13798377 -0.20453057 4291311360
2.8442447 0.14164537 -0.22514346 4291572480
2.9485133 0.14691889 -0.24901618 4291964160
3.1985195 0.15943898 -0.28678429 4292747520
3.2512307 0.16216856 -0.3081173 4293008640
3.3406613 0.16672812 -0.33331209 4293269760
3.3544984 0.16753073 -0.35111466 4293269760
3.3520203 0.16752137 -0.3668806 4293269760
3.3375018 0.1669115 -0.38084596 4293269760
3.2956102 0.16493505 -0.39101011 4293139200
3.3697786 0.1687485 -0.41464907 4293400320
3.3695877 0.16885267 -0.42900327 4293400320
3.3782187 0.16939752 -0.44403782 4293400320
3.3696949 0.1690847 -0.45632324 4293400320
3.3558145 0.16850294 -0.46728495 4293400320
3.352437 0.168446 -0.47911853 4293400320
3.3494296 0.1684071 -0.49044195 4293400320
3.3517568 0.16863522 -0.50198919 4293400320
3.3574436 0.1690318 -0.51349634 4293400320
3.3554385 0.16904218 -0.52325535 4293400320
3.3619075 0.16947794 -0.53375167 4293400320
3.3518474 0.16908273 -0.54100573 4293400320
3.3484426 0.16902137 -0.54867941 4293400320
3.3417716 0.16879502 -0.55516469 4293400320
3.3309059 0.16835658 -0.56027699 4293269760
3.3254344 0.16818903 -0.56561804 4293269760
3.308197 0.16742727 -0.56826574 4293269760
3.3172104 0.16798908 -0.57474959 4293269760
3.2904425 0.16674389 -0.57434797 4293139200
3.3045881 0.16756438 -0.5804022 4293269760
3.2328982 0.16404462 -0.57066113 4293008640
3.2423539 0.16462614 -0.57452232 4293008640
3.2322536 0.1642177 -0.57425278 4293008640
3.2983565 0.16766924 -0.58686513 4293269760
3.2884862 0.16727288 -0.5852958 4293139200
3.314595 0.16870075 -0.58944422 4293269760
3.2951255 0.16781633 -0.58480585 4293269760
3.335331 0.16996133 -0.5900616 4293400320
3.3401968 0.1703124 -0.58835411 4293400320
3.3465326 0.17073819 -0.58621258 4293400320
3.3526349 0.17115211 -0.58333683 4293400320
3.349596 0.17110063 -0.57819188 4293400320
3.3453476 0.170987 -0.57218003 4293400320
3.3571212 0.17168951 -0.56823295 4293400320
3.3547399 0.17167039 -0.5612185 4293400320
3.3437309 0.17121044 -0.5521431 4293400320
3.344979 0.17137545 -0.54447794 4293400320
3.3348248 0.17095755 -0.53435534 4293269760
3.3218412 0.17039408 -0.52322912 4293269760
3.323302 0.17056845 -0.51381177 4293269760
3.3311188 0.17106795 -0.50476378 4293269760
3.3598626 0.17263947 -0.49819601 4293400320
3.3460863 0.17203334 -0.4847132 4293269760
3.336828 0.17165777 -0.47141775 4293269760
3.3125818 0.17051239 -0.45559794 4293269760
3.3119907 0.17057969 -0.4426131 4293139200
3.329165 0.17155921 -0.43143994 4293269760
3.3309062 0.1717463 -0.41770867 4293269760
3.268302 0.16862434 -0.39570716 4293008640
3.081198 0.15909253 -0.35929835 4292355840
2.8825846 0.14895709 -0.32289693 4291703040
2.8131106 0.14546208 -0.30184627 4291441920
2.784025 0.14404453 -0.28526658 4291311360
2.7033482 0.13996458 -0.26362696 4291050240
2.6892316 0.13931423 -0.24866219 4291050240
2.6896071 0.13941111 -0.23483692 4291050240
2.6652064 0.13822803 -0.21871942 4290919680
2.5986524 0.13486475 -0.19938824 4290789120
2.6056192 0.13529953 -0.18580331 4290789120
2.6035216 0.13526562 -0.17134634 4290789120
2.5885556 0.13456526 -0.15595371 4290658560
2.5364678 0.13194111 -0.13853341 4290528000
2.5285571 0.13160348 -0.12371927 4290528000
2.5199003 0.13122664 -0.10883273 4290397440
2.4971685 0.130119 -0.09340445 4290397440
2.4547448 0.12798771 -0.077519387 4290266880
2.4590061 0.12827887 -0.063253365 4290266880
2.4534192 0.12805842 -0.048676591 4290266880
2.4507267 0.12798814 -0.034157258 4290266880
2.4268205 0.12681401 -0.019464668 4290136320
2.44929 0.12805259 -0.0051386044 4290136320
2.4820888 0.12983043 0.009494083 4290266880
2.4847906 0.13004173 0.024210475 4290266880
2.5002687 0.13091937 0.039127823 4290397440
2.5513153 0.13365345 0.054944433 4290528000
2.5637712 0.13437615 0.070243858 4290528000
2.5375197 0.1330781 0.084326789 4290528000
2.574507 0.13508306 0.10047119 4290658560
2.6164927 0.13735153 0.11715311 4290789120
2.6200783 0.13761371 0.13225056 4290789120
2.5802341 0.13560309 0.14480868 4290658560
2.6719534 0.14047997 0.16486132 4290919680
2.7043095 0.14225177 0.18176426 4291050240
2.825422 0.14867859 0.20525685 4291441920
3.1360056 0.16505094 0.24458532 4292486400
3.3723414 0.17754456 0.2807658 4293400320
3.4043841 0.17932424 0.30105495 4293400320
3.3986692 0.17912216 0.31780887 4293400320
3.3848767 0.1784953 0.33335459 4293400320
3.2700729 0.17255485 0.33796209 4293008640
3.4054759 0.17977557 0.36810499 4293530880
3.3930569 0.17922065 0.38245556 4293400320
3.3888838 0.17909968 0.39722633 4293400320
3.353092 0.17731193 0.40766975 4293269760
3.3136828 0.17533155 0.41688842 4293139200
3.3964942 0.17979902 0.44116583 4293530880
3.3991401 0.18003872 0.45488542 4293530880
3.4056642 0.18048374 0.46863836 4293530880
3.4019456 0.18038797 0.48045707 4293530880
3.3716381 0.17888598 0.48785347 4293400320
3.3576367 0.1782454 0.49689421 4293400320
3.3900464 0.18006179 0.5122788 4293530880
3.3963625 0.18049797 0.52325064 4293530880
3.3870869 0.18010831 0.53120852 4293530880
3.3954399 0.18065348 0.54130739 4293530880
3.3826382 0.18007678 0.54739714 4293530880
3.3756094 0.17980617 0.55373526 4293530880
3.3837662 0.18034233 0.56191611 4293530880
3.3867986 0.1806069 0.56861097 4293530880
3.3809822 0.18040131 0.57315069 4293530880
3.3801785 0.18046252 0.577856 4293530880
3.3711097 0.1800839 0.58045799 4293530880
3.3843009 0.18089119 0.58620906 4293530880
3.3700526 0.1802367 0.58652252 4293530880
3.3795326 0.18084753 0.59026527 4293530880
3.3832254 0.18115041 0.59230936 4293530880
3.3594937 0.17998913 0.58885396 4293400320
3.359488 0.18009469 0.58885425 4293400320
3.3778048 0.18118039 0.5913651 4293530880
3.3780351 0.1812999 0.59001052 4293530880
3.3734479 0.18116187 0.5871222 4293530880
3.3891652 0.18211159 0.58706284 4293530880
3.3886716 0.18219379 0.58349389 4293530880
3.3966832 0.18273246 0.58069229 4293530880
3.3794625 0.18191792 0.57291269 4293530880
3.3850811 0.18232903 0.56834459 4293530880
3.3879282 0.18259194 0.56263089 4293530880
3.3881195 0.18271263 0.55581218 4293530880
3.3803425 0.18240499 0.54705447 4293530880
3.3619227 0.18152431 0.535999 4293400320
3.3625467 0.18166848 0.52739561 4293400320
3.3923705 0.18338668 0.52267092 4293530880
3.3970647 0.18375205 0.51337504 4293530880
3.3806744 0.18298028 0.50033879 4293400320
3.3777659 0.18293567 0.48877907 4293400320
3.3404403 0.18164423 0.39960182 4293269760
3.3886409 0.18437193 0.39036614 4293400320
3.3770945 0.1838602 0.37365204 4293400320
3.0719993 0.1674047 0.32554936 4292355840
2.7431312 0.14963666 0.27756879 4291180800
2.676486 0.14610609 0.25768068 4291050240
2.6706669 0.14588095 0.24370809 4290919680
2.6016426 0.14221412 0.22408573 4290789120
2.5759327 0.14090258 0.20842567 4290658560
2.5950894 0.14203539 0.19618991 4290658560
2.5771699 0.14114708 0.18093188 4290658560
2.5550106 0.14002621 0.16539289 4290528000
2.5230269 0.13836731 0.14933334 4290397440
2.5279906 0.13872564 0.13543938 4290528000
2.5136945 0.1380311 0.12041794 4290397440
2.4897926 0.13680997 0.10502074 4290397440
2.462009 0.1353747 0.089639723 4290266880
2.4478033 0.13468152 0.07489375 4290136320
2.4406886 0.13437621 0.060403503 4290136320
2.3778119 0.13101122 0.044880666 4290005760
2.4432104 0.13468379 0.031698208 4290136320
2.4598708 0.13568366 0.017366067 4290266880
2.4561517 0.13556452 0.0027929547 4290266880
2.4679594 0.1362991 -0.011818418 4290266880
2.497714 0.13802223 -0.026754156 4290397440
2.5205486 0.13936631 -0.041901171 4290397440
2.5139146 0.13908811 -0.056610651 4290397440
2.5540669 0.14138918 -0.072516121 4290528000
2.6021531 0.14413072 -0.089089334 4290658560
2.6211815 0.14527132 -0.1049649 4290789120
2.6001117 0.14419802 -0.11911193 4290658560
2.6384478 0.14640702 -0.13595591 4290789120
2.6665435 0.14805219 -0.15250623 4290919680
2.6869588 0.14927411 -0.16872852 4291050240
2.6481028 0.14721484 -0.1809461 4290919680
2.743052 0.15256768 -0.20242161 4291180800
2.7797508 0.15469696 -0.22009525 4291311360
2.8338294 0.15779293 -0.23939228 4291572480
2.9425254 0.16392475 -0.26389796 4291964160
3.1434071 0.17518504 -0.29797867 4292616960
3.3157921 0.18487485 -0.33092171 4293139200
3.3395665 0.18631038 -0.34964859 4293269760
3.3460283 0.18678381 -0.36632693 4293269760
3.3463967 0.18691811 -0.38196811 4293269760
3.284682 0.18359277 -0.3898232 4293139200
3.373697 0.18866722 -0.4152486 4293400320
3.3635981 0.18821783 -0.42836222 4293400320
3.3732185 0.18886831 -0.44350681 4293400320
3.3770654 0.18919669 -0.45745191 4293400320
3.3498349 0.18778811 -0.46658593 4293400320
3.3474491 0.18776685 -0.47854301 4293400320
3.3411338 0.18752526 -0.48936805 4293269760
3.3467717 0.18795224 -0.50138718 4293400320
3.3465362 0.18805023 -0.51197612 4293400320
3.3632796 0.1890997 -0.52462995 4293400320
3.3608673 0.1890755 -0.5337413 4293400320
3.3503754 0.18859737 -0.54092532 4293400320
3.345422 0.18842924 -0.54834408 4293400320
3.3456604 0.18855217 -0.55597275 4293400320
3.333811 0.18799518 -0.56092936 4293400320
3.3244023 0.18757437 -0.56560785 4293269760
3.3022494 0.18643527 -0.56741023 4293269760
3.2965035 0.18621843 -0.57132959 4293269760
3.3090911 0.18703398 -0.5777722 4293269760
3.293726 0.1862739 -0.57866454 4293269760
3.2318919 0.18289092 -0.57065117 4293008640
3.2315125 0.1829726 -0.57277 4293008640
3.2361615 0.1833379 -0.57511628 4293008640
3.297328 0.18689698 -0.58685499 4293269760
3.2786131 0.18594289 -0.58371079 4293139200
3.30373 0.18746699 -0.58768559 4293269760
3.3116398 0.18801831 -0.58790988 4293269760
3.320524 0.18862492 -0.58761579 4293269760
3.3204694 0.18872519 -0.58505243 4293269760
3.3356507 0.18968895 -0.58447921 4293400320
3.3368304 0.18985899 -0.58075881 4293400320
3.3446109 0.1904034 -0.57750207 4293400320
3.3541403 0.19104727 -0.57385331 4293400320
3.3560681 0.19125943 -0.56822258 4293400320
3.353687 0.19122636 -0.56120813 4293400320
3.3387403 0.19047807 -0.55148202 4293400320
3.3350589 0.19036967 -0.54302365 4293269760
3.3239179 0.18983594 -0.53276503 4293269760
3.3109338 0.1891962 -0.5216651 4293269760
3.3173225 0.18965967 -0.51303858 4293269760
3.3381672 0.1909477 -0.50598085 4293269760
3.3532765 0.19190937 -0.49736586 4293400320
3.3499715 0.19182032 -0.48541874 4293400320
3.3268781 0.19060043 -0.47015014 4293269760
3.301645 0.18925662 -0.454227 4293139200
3.314605 0.19009495 -0.4430922 4293269760
3.3231623 0.19068192 -0.43078792 4293269760
3.3110309 0.1900849 -0.41533729 4293139200
3.1294987 0.17978555 -0.37901115 4292616960
2.8906584 0.16619174 -0.33717585 4291703040
2.7892711 0.16046362 -0.31253365 4291441920
2.7596071 0.15884316 -0.29618999 4291311360
2.7354698 0.15753797 -0.28037104 4291180800
2.6547949 0.15298517 -0.25896513 4290919680
2.6615489 0.15344971 -0.24617182 4290919680
2.6499641 0.15286055 -0.23143992 4290919680
2.6265485 0.15159032 -0.2156063 4290789120
2.5884743 0.14947531 -0.19866219 4290658560
2.5858691 0.14939952 -0.18444501 4290658560
2.5688219 0.14849181 -0.16910721 4290658560
2.5538483 0.14770252 -0.15390238 4290528000
2.5067503 0.14506051 -0.13694489 4290397440
2.4992723 0.14470069 -0.12231625 4290397440
2.4861815 0.14401652 -0.10740124 4290266880
2.4844122 0.14398512 -0.092948608 4290266880
2.4270315 0.14074162 -0.076659508 4290136320
2.4283576 0.14088722 -0.062475473 4290136320
2.4336696 0.14126329 -0.048291348 4290136320
2.4140184 0.14019571 -0.033646274 4290136320
2.4125576 0.14017968 -0.019347947 4290136320
2.4435134 0.14204045 -0.005120167 4290136320
2.4673164 0.14348862 0.0094494121 4290266880
2.4879866 0.14475659 0.024256734 4290266880
2.503459 0.14572436 0.039197706 4290397440
2.5371182 0.14774807 0.054665327 4290528000
2.5588775 0.14908308 0.070140615 4290528000
2.5367038 0.1478682 0.084334634 4290528000
2.5696886 0.14985667 0.10032377 4290658560
2.6084666 0.15218382 0.11684016 4290789120
2.6319363 0.153623 0.13289867 4290789120
2.5639825 0.14974432 0.14395267 4290658560
2.6710918 0.15605251 0.16486959 4290919680
2.6836021 0.15685748 0.18044122 4291050240
2.725497 0.15937546 0.19808105 4291180800
2.9339426 0.17160541 0.22892962 4291833600
3.3374259 0.19522321 0.27796236 4293269760
3.3943336 0.19864005 0.30027461 4293400320
3.3930984 0.19866574 0.31740156 4293400320
3.3639109 0.1970588 0.33140954 4293400320
3.188879 0.18692702 0.32969621 4292747520
3.4043725 0.19961944 0.36811554 4293530880
3.3969171 0.19928224 0.38302478 4293400320
3.3873601 0.19882181 0.39718708 4293400320
3.3470485 0.19656017 0.40707806 4293269760
3.3175595 0.19493045 0.41752136 4293269760
3.3953905 0.19958998 0.44117635 4293530880
3.398035 0.19984499 0.45489594 4293530880
3.3952198 0.19978006 0.46736482 4293530880
3.3913434 0.19965297 0.47912732 4293530880
3.3744924 0.19876388 0.48843545 4293400320
3.3476546 0.19728723 0.49558994 4293400320
3.3889413 0.1998146 0.51228929 4293530880
3.3853879 0.19970708 0.52174181 4293530880
3.3948576 0.20036614 0.53261042 4293530880
3.3795428 0.19956668 0.53896153 4293530880
3.4002576 0.20088929 0.55043626 4293530880
3.3794315 0.19976488 0.55455333 4293530880
3.37872 0.19982581 0.56127274 4293530880
3.3807673 0.20004986 0.56779534 4293530880
3.3660951 0.1992873 0.57082623 4293400320
3.3839912 0.20044793 0.57870722 4293530880
3.3700047 0.19972582 0.58046842 4293530880
3.3595827 0.199214 0.58213216 4293400320
3.3738642 0.20016335 0.58738846 4293530880
3.3600161 0.19944893 0.5870623 4293400320
3.3683469 0.20004749 0.58991069 4293530880
3.3682225 0.20014597 0.59058714 4293530880
3.3583829 0.19966884 0.58886468 4293400320
3.3816099 0.20115286 0.59223598 4293530880
3.381825 0.20127301 0.59087682 4293530880
3.3781381 0.20116185 0.58814198 4293530880
3.3841133 0.20162487 0.58639216 4293530880
3.3727965 0.20106073 0.58096451 4293530880
3.3857219 0.20193806 0.57902133 4293530880
3.3783467 0.20160854 0.57292318 4293530880
3.3839624 0.20205241 0.56835514 4293530880
3.37696 0.20174529 0.56100672 4293530880
3.3820732 0.20216021 0.55501509 4293530880
3.365427 0.20127814 0.5448333 4293400320
3.3647528 0.20134836 0.53663784 4293400320
3.3663635 0.20155533 0.52817905 4293400320
3.3764462 0.20226881 0.52040237 4293400320
3.3959379 0.20354567 0.51338559 4293530880
3.3795524 0.20267855 0.50034928 4293400320
3.3766441 0.20261708 0.48878956 4293400320
3.3432918 0.20134702 0.40008619 4293269760
3.3637106 0.20268737 0.3876366 4293400320
3.348187 0.20186836 0.37059075 4293269760
2.8893158 0.17437835 0.30632272 4291703040
2.6888649 0.16241169 0.27218404 4291050240
2.6653559 0.16108778 0.25670454 4290919680
2.659833 0.16084625 0.2428102 4290919680
2.6007721 0.15737651 0.22409382 4290789120
2.5795491 0.15618552 0.20879562 4290658560
2.5892432 0.15685943 0.19582221 4290658560
2.5663488 0.15556587 0.18024176 4290658560
2.5591342 0.15521842 0.16572277 4290528000
2.527076 0.15336837 0.1496305 4290528000
2.5181711 0.15291697 0.13496745 4290397440
2.4978945 0.15177669 0.11971068 4290397440
2.4789829 0.15071772 0.10460872 4290266880
2.4561934 0.1494225 0.089466237 4290266880
2.4419911 0.14864646 0.074749187 4290136320
2.4249859 0.14769943 0.060044114 4290136320
2.3785703 0.14496584 0.044917364 4290005760
2.4084523 0.14686355 0.031268395 4290005760
2.4345856 0.1485355 0.017203072 4290136320
2.4272738 0.14817545 0.002770955 4290136320
2.4431708 0.14922705 -0.011694146 4290136320
2.4679255 0.15081903 -0.026434151 4290266880
2.4970026 0.15267602 -0.041514397 4290397440
2.4976039 0.15279938 -0.056253556 4290397440
2.5252659 0.15457307 -0.071713038 4290397440
2.5623672 0.15692464 -0.087746665 4290528000
2.5983648 0.15921132 -0.10407718 4290658560
2.5613408 0.1570396 -0.11736568 4290528000
2.6136296 0.16032441 -0.13471347 4290789120
2.6361823 0.16179416 -0.15081148 4290789120
2.6621385 0.16347364 -0.16721743 4290919680
2.6183248 0.16088296 -0.1789629 4290789120
2.7194846 0.16717057 -0.20074145 4291180800
2.7521994 0.16926958 -0.21797854 4291311360
2.7722821 0.17059597 -0.23426245 4291311360
2.7862301 0.17154716 -0.24995366 4291311360
2.8796296 0.17737745 -0.27305305 4291703040
3.2481179 0.20011374 -0.32426706 4293008640
3.3146031 0.20431152 -0.34714264 4293139200
3.339926 0.20598207 -0.36577314 4293269760
3.340296 0.20611863 -0.3813915 4293269760
3.2885163 0.20304412 -0.39040133 4293139200
3.3675911 0.20802703 -0.41462821 4293400320
3.3757193 0.20864205 -0.43004239 4293400320
3.3760231 0.20877483 -0.4440169 4293400320
3.3670077 0.20833232 -0.45623517 4293400320
3.3575854 0.20786378 -0.46781513 4293400320
3.3413618 0.20697422 -0.47782612 4293269760
3.3399885 0.20700112 -0.48935762 4293269760
3.3456237 0.20746103 -0.50137675 4293400320
3.3453877 0.20755772 -0.51196569 4293400320
3.3483181 0.20785011 -0.52246517 4293400320
3.3449261 0.2077508 -0.53138196 4293400320
3.3447311 0.20784904 -0.54018933 4293400320
3.3442717 0.20793054 -0.54833364 4293400320
3.3395863 0.2077495 -0.55514401 4293400320
3.3287263 0.20718457 -0.56025636 4293269760
3.3330972 0.20756444 -0.56727195 4293400320
3.3011112 0.20568523 -0.56739992 4293269760
3.3101189 0.20635204 -0.57387656 4293269760
3.2882845 0.20510072 -0.57432759 4293139200
3.2876737 0.20516841 -0.5777905 4293139200
3.2734132 0.20438582 -0.57817107 4293139200
3.2353098 0.20211665 -0.57363105 4293008640
3.2203019 0.20128417 -0.57248592 4293008640
3.2863607 0.20550564 -0.58509541 4293139200
3.2823915 0.20536183 -0.58457547 4293139200
3.3025858 0.20672573 -0.58767527 4293269760
3.2929547 0.20622782 -0.5847854 4293269760
3.3193729 0.20798148 -0.58760542 4293269760
3.3242326 0.20838866 -0.58590817 4293269760
3.3295774 0.20882614 -0.58360726 4293400320
3.345505 0.20992582 -0.58246017 4293400320
3.3434491 0.20990019 -0.57749164 4293400320
3.3382175 0.20967515 -0.57131749 4293400320
3.3411241 0.20995945 -0.56587893 4293400320
3.3525202 0.21077588 -0.56119764 4293400320
3.3375781 0.20994045 -0.55147159 4293400320
3.3266561 0.20935605 -0.54183394 4293269760
3.3227594 0.2092118 -0.5327546 4293269760
3.3088791 0.20843978 -0.52151287 4293269760
3.2974246 0.20781909 -0.51012915 4293139200
3.3222003 0.20947558 -0.50372618 4293269760
3.3521056 0.21145596 -0.49735537 4293400320
3.3339851 0.21041504 -0.48326072 4293269760
3.3257151 0.20999302 -0.47013971 4293269760
3.3004904 0.2085021 -0.45421666 4293139200
3.2998936 0.20856169 -0.4412697 4293139200
3.2843878 0.20768084 -0.42590028 4293139200
3.2114339 0.20317453 -0.40297458 4292878080
2.9219444 0.1849966 -0.35398814 4291833600
2.7759395 0.1758621 -0.32389855 4291311360
2.740685 0.17371561 -0.3071883 4291180800
2.7258916 0.1728601 -0.29266503 4291180800
2.7061424 0.1716902 -0.2774536 4291050240
2.6250563 0.16663867 -0.25614545 4290789120
2.6228497 0.16657469 -0.24266869 4290789120
2.6201992 0.16648233 -0.22891191 4290789120
2.6129529 0.16609854 -0.21455722 4290789120
2.567661 0.16330299 -0.19712551 4290658560
2.5573444 0.16272236 -0.18246566 4290528000
2.5534751 0.16255002 -0.16814762 4290528000
2.5240581 0.16075602 -0.15215163 4290528000
2.4856534 0.15838963 -0.13583152 4290397440
2.4744668 0.15774985 -0.12113602 4290266880
2.4653621 0.15724166 -0.10653066 4290266880
2.4496262 0.15631132 -0.091669895 4290266880
2.4072208 0.15368371 -0.076051913 4290005760
2.4085431 0.15383618 -0.061978787 4290005760
2.4077399 0.15385339 -0.047784399 4290005760
2.4003203 0.1534491 -0.033458699 4290005760
2.4117026 0.15424244 -0.019340379 4290136320
2.4376574 0.15596533 -0.0051016472 4290136320
2.4664414 0.15787013 0.0094571542 4290266880
2.4871037 0.15925838 0.024264542 4290266880
2.4935894 0.15974291 0.039065685 4290397440
2.536217 0.16253582 0.054673288 4290528000
2.5579681 0.16399744 0.070148647 4290528000
2.5308149 0.16233453 0.084177218 4290528000
2.5777493 0.16540767 0.10068146 4290658560
2.6107316 0.16759098 0.11699112 4290789120
2.6120617 0.16775042 0.13195233 4290789120
2.5531051 0.16404983 0.14340219 4290528000
2.6628129 0.17115045 0.16442639 4290919680
2.6911976 0.17304561 0.18102396 4291050240
2.6867013 0.17283431 0.19534402 4291050240
2.7503526 0.17699417 0.21470986 4291180800
3.1970706 0.20574051 0.26639166 4292747520
3.3593218 0.21624929 0.29729751 4293269760
3.3869171 0.2181185 0.31694782 4293400320
3.3537691 0.21608613 0.33054009 4293269760
3.2628806 0.21034001 0.3374697 4293008640
3.3932316 0.21881841 0.36705405 4293400320
3.3916473 0.21881501 0.38257873 4293400320
3.3861458 0.21855959 0.39719772 4293400320
3.3458483 0.21606304 0.40708858 4293269760
3.3074574 0.21368726 0.41641089 4293139200
3.3892233 0.21905519 0.44054443 4293530880
3.3968146 0.21964447 0.45490661 4293530880
3.3934464 0.21952735 0.46729937 4293530880
3.389734 0.2193881 0.47908291 4293530880
3.3643894 0.21785188 0.48716003 4293400320
3.3415136 0.21647398 0.49487007 4293269760
3.3739064 0.21866764 0.5102126 4293400320
3.3940315 0.22007021 0.52327186 4293530880
3.3887045 0.21982752 0.53184807 4293530880
3.3881793 0.21989569 0.54054314 4293530880
3.3803129 0.21948873 0.54741824 4293530880
3.3831356 0.2197742 0.55537164 4293530880
3.3774996 0.2195119 0.56128335 4293530880
3.3844666 0.22006695 0.56863207 4293530880
3.3648779 0.21889976 0.57083684 4293400320
3.3507905 0.21808884 0.57325178 4293400320
3.3638675 0.21904162 0.5796324 4293400320
3.3507781 0.21829538 0.58082849 4293400320
3.3677261 0.21950135 0.58654362 4293530880
3.372283 0.21990286 0.58942789 4293530880
3.3720403 0.21999273 0.59078175 4293530880
3.3620856 0.2194507 0.58973634 4293400320
3.3483171 0.21866001 0.58732474 4293400320
3.3754668 0.22053523 0.5913862 4293530880
3.3619328 0.21976013 0.58762795 4293400320
3.3711104 0.220466 0.5871433 4293530880
3.3685207 0.22040491 0.58391529 4293530880
3.3715692 0.22071213 0.58097512 4293530880
3.3844891 0.22166477 0.579032 4293530880
3.377116 0.22129233 0.57293379 4293530880
3.3866658 0.22202636 0.56902665 4293530880
3.3757286 0.22142109 0.56101739 4293530880
3.3670526 0.22096345 0.55276424 4293400320
3.3730645 0.22146748 0.5462786 4293400320
3.3595819 0.22069497 0.53602004 4293400320
3.3552749 0.2205234 0.52664357 4293400320
3.375212 0.22194193 0.52041298 4293400320
3.3996294 0.22365613 0.5141418 4293530880
3.3881872 0.22301801 0.50182074 4293530880
3.3602962 0.22129899 0.48661375 4293400320
3.3281922 0.21991383 0.39843774 4293269760
3.3337266 0.22039181 0.38433623 4293269760
3.1803319 0.21038575 0.35216999 4292747520
2.7825816 0.18424073 0.29513761 4291441920
2.6551132 0.17591795 0.2688792 4290919680
2.6643741 0.1766208 0.25671294 4290919680
2.6565123 0.17619246 0.24260513 4290919680
2.5998132 0.17253359 0.22410204 4290789120
2.5746191 0.17095581 0.20848213 4290658560
2.5743577 0.17102724 0.19477816 4290658560
2.5640566 0.17043371 0.18015558 4290658560
2.5482314 0.16947342 0.16508695 4290528000
2.5171771 0.16750225 0.14910848 4290397440
2.5311892 0.16851912 0.13572179 4290528000
2.5119205 0.16732775 0.1204337 4290397440
2.4780653 0.1651663 0.10461655 4290266880
2.4502978 0.16340713 0.089292839 4290266880
2.4560461 0.16387446 0.075213507 4290266880
2.4276671 0.16207202 0.060140114 4290136320
2.3911476 0.15972582 0.045177873 4290005760
2.4006646 0.16044278 0.031187093 4290005760
2.4047463 0.16079831 0.017008692 4290005760
2.417392 0.161725 0.0027691044 4290136320
2.4095962 0.16128923 -0.011527486 4290005760
2.4575281 0.16457166 -0.026324082 4290266880
2.4721303 0.16563214 -0.041106645 4290266880
2.4727337 0.16575848 -0.055704698 4290266880
2.5048172 0.16798884 -0.07114967 4290397440
2.5519378 0.1712269 -0.087413453 4290528000
2.5734689 0.17275614 -0.10310896 4290658560
2.5364642 0.17036843 -0.11625987 4290528000
2.5831997 0.17358655 -0.13318515 4290658560
2.6112907 0.17555849 -0.14943396 4290789120
2.6223078 0.17638758 -0.16476722 4290789120
2.5844965 0.17394201 -0.17670736 4290658560
2.6756802 0.18015097 -0.19757198 4291050240
2.7084 0.1824404 -0.21457997 4291050240
2.728493 0.18388368 -0.23063874 4291180800
2.7058384 0.18245485 -0.24282217 4291050240
2.6652906 0.179821 -0.2528109 4290919680
3.0075769 0.20294324 -0.30035263 4292094720
3.215467 0.21704127 -0.33687487 4292878080
3.291065 0.22224301 -0.36054644 4293139200
3.318212 0.22418471 -0.37900153 4293269760
3.2823272 0.22187833 -0.38980255 4293139200
3.3663259 0.22765608 -0.41461754 4293400320
3.3695016 0.22798458 -0.42940101 4293400320
3.3658502 0.22785206 -0.44283482 4293400320
3.3558536 0.22729033 -0.45488429 4293400320
3.3523684 0.22716779 -0.46725354 4293400320
3.3427153 0.22662762 -0.47818917 4293269760
3.3337936 0.226136 -0.48862362 4293269760
3.3443623 0.22696279 -0.50136614 4293400320
3.3441257 0.2270582 -0.51195508 4293400320
3.3470542 0.22736776 -0.52245456 4293400320
3.3347943 0.22664753 -0.52996206 4293269760
3.3336174 0.22667785 -0.53858745 4293269760
3.3400662 0.22722521 -0.54784065 4293400320
3.3334019 0.22688243 -0.55431515 4293400320
3.3127081 0.22558592 -0.55776107 4293269760
3.3219993 0.22632536 -0.56558692 4293269760
3.3124928 0.22578701 -0.56956118 4293269760
3.3039491 0.22531322 -0.57301366 4293269760
3.278192 0.22366707 -0.57277179 4293139200
3.282496 0.22406559 -0.57708907 4293139200
3.2859266 0.22440453 -0.58059084 4293139200
3.2242575 0.22030689 -0.57187849 4293008640
3.2813382 0.22430132 -0.58354652 4293139200
3.2811825 0.22439483 -0.58438522 4293139200
3.2713208 0.22382556 -0.58281523 4293139200
3.2964182 0.22564213 -0.58679056 4293269760
3.2779484 0.22448401 -0.58233196 4293139200
3.3043547 0.22639106 -0.58515942 4293269760
3.3082275 0.22675881 -0.58329922 4293269760
3.3243778 0.22796619 -0.5829075 4293269760
3.3294852 0.22841856 -0.57988191 4293400320
3.3372579 0.22905332 -0.57663172 4293400320
3.3280926 0.2285281 -0.56979173 4293269760
3.3300111 0.22876142 -0.56420177 4293269760
3.3364789 0.2293064 -0.55871552 4293400320
3.3313808 0.22905815 -0.5506475 4293269760
3.3303077 0.22908545 -0.54262555 4293269760
3.3152275 0.2281508 -0.53173995 4293269760
3.3036704 0.2274569 -0.52088082 4293269760
3.3010919 0.22737882 -0.51088154 4293269760
3.3235362 0.22902016 -0.50411129 4293269760
3.3310831 0.22963816 -0.49441528 4293269760
3.3376434 0.23018841 -0.48396596 4293269760
3.3194997 0.22903857 -0.46943069 4293269760
3.2755029 0.22610728 -0.45094061 4293139200
3.2476113 0.2242825 -0.43443489 4293008640
3.1633584 0.21857189 -0.4103533 4292747520
2.9493637 0.2039116 -0.3702217 4291964160
2.8003113 0.19371763 -0.33937338 4291441920
2.7000382 0.18688047 -0.31515434 4291050240
2.6920407 0.1864069 -0.30184311 4291050240
2.6905603 0.18638273 -0.28897396 4291050240
2.6723492 0.18520242 -0.27408543 4291050240
2.6147161 0.18129627 -0.25522637 4290789120
2.5930297 0.17987213 -0.23999335 4290789120
2.5965476 0.18019003 -0.2269243 4290789120
2.5731671 0.17864659 -0.21136257 4290658560
2.5288708 0.17565371 -0.1942132 4290528000
2.532474 0.17597559 -0.18075207 4290528000
2.5096834 0.17446883 -0.1653181 4290397440
2.5054171 0.1742447 -0.15107761 4290397440
2.4657652 0.17156647 -0.13478811 4290266880
2.4495947 0.17051487 -0.11995584 4290266880
2.4409838 0.1699869 -0.10550905 4290136320
2.4157791 0.16830631 -0.090428658 4290136320
2.3823574 0.16605347 -0.075286448 4290005760
2.3925261 0.16682763 -0.061581869 4290005760
2.3935199 0.16696455 -0.047512047 4290005760
2.3991847 0.1674263 -0.033448201 4290005760
2.4107659 0.16829997 -0.019332698 4290136320
2.4466858 0.17086825 -0.0051155584 4290136320
2.4694726 0.17252412 0.0094799893 4290266880
2.4771585 0.17312942 0.024185602 4290266880
2.5015962 0.17490253 0.039213534 4290397440
2.5302427 0.17697044 0.054574277 4290528000
2.5519857 0.17855854 0.070020474 4290528000
2.5348136 0.17743288 0.084350675 4290528000
2.5817285 0.18077934 0.10088392 4290658560
2.6136994 0.18308511 0.11717774 4290789120
2.61728 0.18340956 0.13227522 4290789120
2.5521083 0.17892972 0.14341033 4290528000
2.661773 0.18666923 0.16443487 4290919680
2.6801927 0.18803348 0.18036386 4291050240
2.6926284 0.18898018 0.19585928 4291050240
2.6146357 0.18359804 0.20421898 4290789120
2.9581516 0.2077278 0.24661461 4291964160
3.2765238 0.23011601 0.29010218 4293008640
3.361753 0.2361834 0.31472936 4293269760
3.3613901 0.2362549 0.33143082 4293400320
3.1765652 0.22338834 0.32869077 4292747520
3.3829749 0.23796396 0.36609986 4293400320
3.3942819 0.2388559 0.38303658 4293400320
3.3758996 0.23766373 0.39616311 4293400320
3.3445344 0.23555858 0.40709925 4293269760
3.3101172 0.23323737 0.41691962 4293139200
3.3928375 0.23915093 0.44119784 4293530880
3.3905351 0.23908874 0.4542557 4293530880
3.3976057 0.23968633 0.46806645 4293530880
3.378912 0.2384707 0.47775337 4293400320
3.3630645 0.23745476 0.48717079 4293400320
3.335263 0.23559588 0.49415034 4293269760
3.3725765 0.23832577 0.51022339 4293400320
3.3779042 0.23880251 0.52100354 4293530880
3.3829341 0.2392589 0.53116339 4293530880
3.3681245 0.23831558 0.53756905 4293400320
3.378978 0.23918387 0.54742903 4293530880
3.381799 0.23948573 0.55538243 4293530880
3.3761647 0.23919055 0.56129414 4293530880
3.3644361 0.23846449 0.5655036 4293400320
3.3684645 0.23885265 0.5716815 4293530880
3.3583138 0.23823805 0.57477587 4293400320
3.3625355 0.2386407 0.57964313 4293400320
3.3619502 0.23870352 0.58300501 4293400320
3.3391516 0.23719266 0.58181196 4293400320
3.3535357 0.23831667 0.58639681 4293400320
3.3657897 0.23929088 0.58993208 4293530880
3.3656642 0.23938788 0.59060854 4293530880
3.3469877 0.23816843 0.58733541 4293400320
3.3652823 0.23957373 0.58984816 4293530880
3.3605964 0.23934788 0.58763868 4293400320
3.3746839 0.24045648 0.5880096 4293530880
3.3671808 0.24003103 0.58392608 4293530880
3.3751426 0.24070573 0.58183259 4293530880
3.3742919 0.24075408 0.57752937 4293530880
3.366919 0.2403383 0.5714435 4293400320
3.3715432 0.24077712 0.56672436 4293530880
3.3743825 0.24108937 0.56102818 4293530880
3.3706312 0.24093224 0.55358267 4293400320
3.3717184 0.24112037 0.54628938 4293400320
3.3621807 0.24055064 0.53665924 4293400320
3.3450654 0.23943952 0.52526277 4293400320
3.3689334 0.2412554 0.51966405 4293400320
3.3884068 0.24275909 0.5126617 4293530880
3.3818979 0.24240656 0.50110114 4293530880
3.3727722 0.24186671 0.48862505 4293400320
3.3041997 0.23768076 0.39573753 4293139200
3.2134783 0.23128037 0.37064585 4292878080
2.9041946 0.209176 0.32176313 4291833600
2.722851 0.1962443 0.28893483 4291180800
2.6490834 0.19103423 0.26838568 4290919680
2.6633019 0.19214782 0.2567215 4290919680
2.6554427 0.19167382 0.24261364 4290919680
2.5937972 0.18732707 0.22368251 4290789120
2.5636396 0.18524429 0.20768623 4290658560
2.5832658 0.18674718 0.19553803 4290658560
2.5643663 0.18547389 0.18025808 4290658560
2.5472031 0.18432467 0.16509512 4290528000
2.5211394 0.182532 0.14941101 4290528000
2.516223 0.18226452 0.13498348 4290397440
2.505924 0.18160798 0.12020336 4290397440
2.4720807 0.17924918 0.10441459 4290266880
2.4516547 0.17785826 0.089386046 4290266880
2.4400983 0.17710763 0.074764729 4290136320
2.4266841 0.17622179 0.060147904 4290136320
2.3920727 0.17380011 0.045221157 4290005760
2.3762462 0.17273697 0.030892201 4290005760
2.3839021 0.17337476 0.016877525 4290005760
2.3825004 0.17335629 0.0027407743 4290005760
2.3946552 0.17432128 -0.011451834 4290005760
2.4226215 0.17643477 -0.025950354 4290136320
2.4516206 0.17862523 -0.040772896 4290266880
2.447798 0.17843299 -0.055155877 4290266880
2.4798717 0.18084979 -0.070460245 4290266880
2.5170093 0.18363705 -0.086242005 4290397440
2.5399618 0.18539475 -0.10179794 4290528000
2.5193367 0.18398175 -0.11551292 4290397440
2.5492783 0.18625002 -0.13148001 4290528000
2.5865474 0.18905419 -0.14806896 4290658560
2.6002483 0.19014277 -0.16343857 4290789120
2.574955 0.18838821 -0.17611822 4290658560
2.6551335 0.19432792 -0.19612566 4290919680
2.6878474 0.19680798 -0.21302938 4291050240
2.7064219 0.19825748 -0.22885728 4291050240
2.6886859 0.19705483 -0.24137248 4291050240
2.5927122 0.19013117 -0.24601729 4290789120
2.8384037 0.2081904 -0.28356209 4291572480
2.9755468 0.21832331 -0.31185395 4292094720
3.1686747 0.23256402 -0.34726882 4292747520
3.2692893 0.24004175 -0.37355569 4293008640
3.247309 0.23854266 -0.38579124 4293008640
3.3560371 0.24662429 -0.41350898 4293400320
3.3592157 0.24697146 -0.42825499 4293400320
3.3545811 0.24674524 -0.44152251 4293400320
3.3643594 0.24757655 -0.45621368 4293400320
3.343991 0.24619405 -0.4662666 4293269760
3.3364058 0.24574919 -0.47747198 4293269760
3.3373578 0.24593115 -0.48933631 4293269760
3.3406689 0.24628638 -0.50100768 4293400320
3.3338773 0.24589813 -0.51058555 4293269760
3.3308954 0.24578957 -0.52013576 4293269760
3.3472114 0.24710171 -0.53214353 4293400320
3.3420904 0.2468351 -0.54016799 4293400320
3.3249109 0.24567896 -0.54556918 4293269760
3.318254 0.24529733 -0.55201322 4293269760
3.3162594 0.2452589 -0.55857867 4293269760
3.3068638 0.24467368 -0.563232 4293269760
3.2973642 0.24407983 -0.56718367 4293269760
3.2888272 0.2435561 -0.57061636 4293139200
3.2719252 0.24241321 -0.57190269 4293139200
3.2850683 0.24349043 -0.57776946 4293139200
3.2845676 0.24355885 -0.58058029 4293139200
3.2180133 0.23873854 -0.570997 4293008640
3.2839077 0.24371974 -0.58423465 4293139200
3.2837515 0.24381246 -0.58507437 4293139200
3.2699654 0.24289481 -0.58280468 4293139200
3.2901423 0.24449365 -0.58590579 4293269760
3.3039327 0.24561973 -0.58718038 4293269760
3.3069122 0.2459442 -0.58584464 4293269760
3.3117652 0.24640755 -0.58415467 4293269760
3.313174 0.24661504 -0.58117384 4293269760
3.333015 0.24819154 -0.58072704 4293400320
3.3407848 0.24887179 -0.57747024 4293400320
3.331624 0.24829336 -0.57062274 4293400320
3.3335426 0.24853808 -0.56502432 4293400320
3.3350906 0.24875498 -0.55870479 4293400320
3.3178415 0.24757233 -0.5486275 4293269760
3.3239992 0.24813144 -0.5418126 4293269760
3.3138461 0.24747539 -0.53172928 4293269760
3.3062339 0.24700776 -0.52149165 4293269760
3.3036573 0.2469148 -0.51148123 4293269760
3.3195419 0.2481984 -0.50370491 4293269760
3.3444896 0.25015897 -0.49660155 4293400320
3.3224323 0.24861169 -0.48195094 4293269760
3.2894771 0.24624898 -0.4653689 4293139200
3.209914 0.24040194 -0.44208547 4292878080
3.0672569 0.22983433 -0.41047058 4292355840
2.9067469 0.21792325 -0.37721345 4291833600
2.8033354 0.2102734 -0.35202909 4291441920
2.7049479 0.2029932 -0.32794416 4291180800
2.6612675 0.1998022 -0.31075019 4290919680
2.663588 0.2000533 -0.29876918 4291050240
2.6569293 0.19963166 -0.28547251 4290919680
2.6486704 0.19908953 -0.27176189 4290919680
2.5709412 0.19333844 -0.25104961 4290658560
2.5685349 0.193232 -0.23781727 4290658560
2.5666478 0.1931642 -0.22439639 4290658560
2.5526464 0.19218692 -0.20975627 4290528000
2.4989738 0.1882299 -0.19198881 4290397440
2.5025635 0.18857099 -0.17868324 4290397440
2.4977596 0.18828143 -0.16459341 4290397440
2.4804733 0.18705317 -0.1496274 4290266880
2.4308729 0.18339381 -0.13292724 4290136320
2.4198973 0.18263724 -0.11854218 4290136320
2.4200299 0.18271597 -0.1046385 4290136320
2.4002402 0.18129475 -0.089876249 4290005760
2.3528755 0.17779559 -0.074376687 4289875200
2.3755705 0.17957217 -0.061162479 4290005760
2.3780994 0.17983007 -0.047217153 4290005760
2.3920653 0.18095042 -0.033354837 4290005760
2.3997757 0.18159971 -0.019244149 4290005760
2.4406657 0.184753 -0.0050968281 4290136320
2.4684284 0.18691771 0.0094879726 4290266880
2.4761105 0.18756765 0.024193611 4290266880
2.491564 0.18880513 0.039081689 4290397440
2.5291712 0.19171762 0.054582458 4290528000
2.5450017 0.19298603 0.069867246 4290528000
2.5287564 0.19182961 0.084193468 4290528000
2.5706697 0.19507225 0.10050374 4290658560
