# .PCD v0.7 - Point Cloud Data file format
VERSION 0.7
FIELDS x y z rgba
SIZE 4 4 4 4
TYPE F F F U
COUNT 1 1 1 1
WIDTH 1102
HEIGHT 1
VIEWPOINT 0 0 0 1 0 0 0
POINTS 1102
DATA ascii
1.851738 -1.2625544 -0.35810694 4289614080
1.857625 -1.2664827 -0.36474663 4289614080
1.8454528 -1.2580992 -0.36740232 4289614080
1.836969 -1.252231 -0.37031168 4289483520
1.8343945 -1.2503915 -0.37395501 4289483520
1.8177284 -1.2389476 -0.37425083 4289483520
1.8136488 -1.2360836 -0.37666082 4289483520
1.7988719 -1.2259297 -0.37637946 4289352960
1.8026533 -1.2284238 -0.37952355 4289352960
1.7911528 -1.2205044 -0.37899926 4289352960
1.7909858 -1.2203082 -0.38041735 4289352960
1.7980806 -1.2250596 -0.38293642 4289352960
1.7939689 -1.2221757 -0.38262308 4289352960
1.7980595 -1.2248797 -0.38360998 4289352960
1.8166342 -1.2374498 -0.38723445 4289483520
1.8237083 -1.2421846 -0.38794741 4289483520
1.8246415 -1.2427363 -0.38689616 4289483520
1.8351107 -1.2497823 -0.38740382 4289483520
1.8433518 -1.2553101 -0.3869687 4289614080
1.8512145 -1.2605795 -0.38598117 4289614080
1.842679 -1.2546824 -0.38112724 4289614080
1.8519022 -1.2608774 -0.3794989 4289614080
1.8561859 -1.2637087 -0.37638992 4289614080
1.8589783 -1.2655243 -0.37252533 4289614080
1.8428581 -1.2544655 -0.3644743 4289614080
1.8367237 -1.2502053 -0.35803595 4289483520
1.8305511 -1.2459196 -0.35121295 4289483520
1.8180491 -1.2373269 -0.34283078 4289483520
1.8248385 -1.2418637 -0.33770949 4289483520
1.838708 -1.2512178 -0.3334356 4289483520
1.8504446 -1.2591194 -0.32829559 4289614080
1.8487281 -1.2578664 -0.32035506 4289614080
1.8358458 -1.249017 -0.31017786 4289483520
1.8119271 -1.2326607 -0.29794765 4289352960
1.8352081 -1.2484145 -0.29314008 4289483520
1.8485405 -1.2573991 -0.28623781 4289483520
1.8467458 -1.2560934 -0.27661487 4289483520
1.815827 -1.2349801 -0.26248986 4289352960
1.8250169 -1.2411463 -0.25398117 4289483520
1.8538275 -1.2606546 -0.24771038 4289483520
1.8534869 -1.2603378 -0.23711088 4289483520
1.8487638 -1.2570412 -0.2257172 4289483520
1.8149107 -1.2339399 -0.21074699 4289352960
1.8375878 -1.2492734 -0.20217238 4289483520
1.8456225 -1.2546511 -0.19157608 4289483520
1.8377236 -1.249197 -0.1791157 4289483520
1.8182701 -1.2358898 -0.1655084 4289352960
1.8471546 -1.255438 -0.15605679 4289483520
1.8404864 -1.2508214 -0.14328684 4289483520
1.8376232 -1.2487911 -0.13072088 4289483520
1.8223526 -1.23833 -0.11725359 4289352960
1.8298986 -1.2433736 -0.10517945 4289352960
1.8371423 -1.2482113 -0.092872441 4289483520
1.8309393 -1.2439126 -0.079778746 4289352960
1.8203856 -1.2366589 -0.066527188 4289352960
1.8370761 -1.2479131 -0.054156173 4289483520
1.8438013 -1.2523968 -0.041267794 4289483520
1.8287122 -1.2420638 -0.027906936 4289352960
1.843779 -1.2522125 -0.014976643 4289483520
1.8521321 -1.2578005 -0.0018090013 4289483520
1.8606867 -1.2635245 0.011480658 4289483520
1.8545965 -1.2593038 0.024684671 4289483520
1.9827691 -1.3462443 0.040518317 4290005760
1.9890903 -1.3504449 0.054775745 4290005760
1.9429475 -1.3190281 0.067247227 4289875200
1.842955 -1.2510607 0.076751865 4289483520
1.9727709 -1.3390937 0.095947504 4290005760
1.9720336 -1.3385026 0.10959137 4290005760
1.9338828 -1.3125193 0.12076922 4289875200
1.7756249 -1.2050288 0.12297498 4289222400
1.9686284 -1.3359203 0.14959587 4290005760
1.9774413 -1.3418101 0.16341457 4290005760
1.9388013 -1.3155016 0.17293796 4289875200
1.7533444 -1.1895864 0.16772407 4289091840
1.9871422 -1.3481193 0.20271923 4290005760
1.9961784 -1.354158 0.21610427 4290136320
1.9615926 -1.3306059 0.2243728 4290005760
1.8387285 -1.2471793 0.2213468 4289483520
1.7214417 -1.1675466 0.21732192 4288961280
1.9850909 -1.3462723 0.26196742 4290005760
1.9763799 -1.340274 0.27183843 4290005760
1.9433062 -1.3177561 0.27782655 4289875200
1.8145586 -1.2303691 0.26896822 4289352960
1.7690192 -1.1994098 0.27123171 4289222400
1.9801943 -1.3424975 0.31335711 4290005760
1.980436 -1.3425704 0.32278958 4290136320
1.9594762 -1.3282717 0.32830611 4290005760
1.9240952 -1.3041997 0.33078307 4289875200
1.8876655 -1.2794201 0.33239624 4289744640
1.8166449 -1.2312006 0.32710451 4289352960
1.8965552 -1.2852715 0.34863347 4289744640
1.8957573 -1.2846439 0.35522398 4289744640
1.8727353 -1.2689574 0.35716164 4289614080
1.8770543 -1.2717979 0.36383837 4289614080
1.8874402 -1.2787484 0.37131405 4289744640
1.8587322 -1.2592133 0.37062228 4289614080
1.8736806 -1.2692543 0.37816522 4289614080
1.8772435 -1.2715819 0.38301495 4289744640
1.8109163 -1.2265711 0.37303674 4289352960
1.8301078 -1.2394861 0.38014287 4289483520
1.833849 -1.2419357 0.3836346 4289483520
1.8490691 -1.2521585 0.38910386 4289614080
1.8488504 -1.2519257 0.39088786 4289614080
1.8446174 -1.2489749 0.3913624 4289614080
1.8600215 -1.2593197 0.39554948 4289614080
1.8404233 -1.2459664 0.39183259 4289483520
1.8290452 -1.2381797 0.38940203 4289483520
1.8250707 -1.2354056 0.38809267 4289483520
1.8178973 -1.2304665 0.38565323 4289483520
1.8684564 -1.2646025 0.39497548 4289614080
1.8565187 -1.2564378 0.39059836 4289614080
1.841375 -1.2461047 0.3851209 4289483520
1.8690377 -1.2647392 0.38812426 4289614080
1.8738623 -1.267918 0.38588279 4289614080
1.8692744 -1.2647281 0.3812542 4289614080
1.8817227 -1.2730643 0.3796384 4289744640
1.8856459 -1.275632 0.37582466 4289744640
1.8949301 -1.281826 0.37260938 4289744640
1.9049147 -1.2884929 0.36904696 4289744640
1.9283974 -1.3042884 0.36757115 4289875200
1.9606783 -1.3260322 0.36716762 4290005760
1.9694532 -1.3318765 0.361801 4290005760
1.9785322 -1.3379258 0.35600999 4290136320
1.9713776 -1.3329974 0.34688503 4290005760
1.9415153 -1.3122317 0.28289744 4289875200
1.9758323 -1.3353354 0.27735442 4290005760
1.9801799 -1.3381829 0.26708779 4290005760
1.9573926 -1.3226939 0.25296846 4290005760
1.9415044 -1.3118688 0.23968041 4289875200
1.9552737 -1.3210833 0.22979863 4289875200
1.9673725 -1.3291678 0.219312 4290005760
1.9492413 -1.3168291 0.20525274 4289875200
1.9295857 -1.3034623 0.19104321 4289744640
1.9596949 -1.3237118 0.18148246 4289875200
1.9650007 -1.3272058 0.1691993 4290005760
1.9567138 -1.3215191 0.15558146 4289875200
1.9442846 -1.3130357 0.14160278 4289875200
1.9746231 -1.333434 0.13046323 4290005760
1.9725133 -1.331919 0.1168479 4290005760
1.9257618 -1.3002625 0.10079868 4289744640
1.86481 -1.259023 0.084643677 4289483520
1.8642932 -1.2585888 0.071568146 4289483520
1.8576068 -1.2539897 0.058229677 4289483520
1.8536048 -1.2512034 0.044988435 4289483520
1.8382336 -1.2407436 0.031560741 4289352960
1.8432417 -1.2440397 0.018522965 4289483520
1.8423231 -1.2433355 0.0053771096 4289483520
1.8159339 -1.2254431 -0.0076535325 4289352960
1.8336893 -1.237341 -0.020799756 4289352960
1.8335947 -1.2371933 -0.033846419 4289352960
1.832164 -1.2361443 -0.046820544 4289352960
1.8319811 -1.235937 -0.05976402 4289352960
1.8517417 -1.2491838 -0.073430687 4289483520
1.8557904 -1.2518302 -0.08656162 4289483520
1.870085 -1.2613872 -0.10020372 4289483520
1.8433348 -1.2432598 -0.11145252 4289483520
1.8513452 -1.2485778 -0.12455206 4289483520
1.8594719 -1.2539737 -0.13763286 4289483520
1.8601041 -1.254315 -0.15006751 4289483520
1.8567072 -1.2519395 -0.1619947 4289483520
1.8673257 -1.259014 -0.17501347 4289614080
1.8615758 -1.2550522 -0.18633796 4289483520
1.876403 -1.2649627 -0.19957317 4289614080
1.8545653 -1.2501563 -0.20864713 4289483520
1.861324 -1.2546272 -0.22061402 4289483520
1.8715125 -1.2614094 -0.23284347 4289614080
1.8749921 -1.263669 -0.2440594 4289614080
1.8732299 -1.2623956 -0.25433111 4289614080
1.8453107 -1.2434963 -0.26060507 4289483520
1.8711597 -1.2608296 -0.27416506 4289614080
1.8784575 -1.2656614 -0.28487322 4289614080
1.8903522 -1.2735893 -0.29605395 4289744640
1.8887743 -1.27244 -0.30484167 4289744640
1.867146 -1.257784 -0.30994096 4289614080
1.8453012 -1.2429842 -0.31445637 4289483520
1.8555135 -1.2497783 -0.32402316 4289614080
1.8615596 -1.2537657 -0.33255985 4289614080
1.8653256 -1.256217 -0.34034717 4289614080
1.872488 -1.260955 -0.34840384 4289614080
1.8734453 -1.2615141 -0.3549343 4289614080
1.8680698 -1.2578092 -0.359842 4289614080
1.8612888 -1.2531583 -0.36402622 4289614080
1.8590863 -1.2515906 -0.36865851 4289614080
1.8524164 -1.2470157 -0.37195474 4289614080
1.8531009 -1.2473919 -0.37628049 4289614080
1.8322763 -1.2332904 -0.37576029 4289483520
1.8363551 -1.2359519 -0.3798745 4289483520
1.8133413 -1.2203798 -0.37791279 4289352960
1.8253095 -1.2283511 -0.38278022 4289483520
1.8064058 -1.2155474 -0.38072172 4289352960
1.8103229 -1.2181005 -0.38301072 4289352960
1.8102164 -1.2179463 -0.38400319 4289352960
1.8206697 -1.2248964 -0.38678923 4289483520
1.8206906 -1.2248274 -0.38690919 4289483520
1.8238131 -1.2268447 -0.38723445 4289483520
1.8431729 -1.2397836 -0.3905448 4289483520
1.8441107 -1.2403302 -0.38948548 4289483520
1.8546226 -1.2473159 -0.38998213 4289614080
1.8610498 -1.2515535 -0.3891466 4289614080
1.8630265 -1.2527978 -0.38691553 4289614080
1.8614094 -1.2516255 -0.38348651 4289614080
1.863308 -1.252817 -0.38033396 4289614080
1.8728111 -1.2591212 -0.37826711 4289614080
1.8663199 -1.2546719 -0.37252533 4289614080
1.8555385 -1.2473392 -0.36553869 4289614080
1.8573735 -1.2484881 -0.36063719 4289614080
1.8429443 -1.238705 -0.35220003 4289483520
1.8333565 -1.2321771 -0.34435773 4289483520
1.843529 -1.2389299 -0.33982679 4289483520
1.8628731 -1.251845 -0.33648938 4289614080
1.8747969 -1.2597722 -0.33130822 4289614080
1.8614454 -1.2507159 -0.32129061 4289614080
1.8482718 -1.2417802 -0.31104961 4289483520
1.8347056 -1.2325819 -0.30050731 4289483520
1.8539717 -1.2454406 -0.29497313 4289483520
1.8714794 -1.2571164 -0.28865072 4289614080
1.8696856 -1.2558262 -0.27895021 4289614080
1.8386527 -1.2348983 -0.26474491 4289483520
1.8437631 -1.2382466 -0.25558171 4289483520
1.8652667 -1.2526031 -0.2482595 4289614080
1.8690543 -1.2550614 -0.23816289 4289614080
1.8645653 -1.2519619 -0.226752 4289483520
1.8419033 -1.2366617 -0.2130411 4289483520
1.860545 -1.2490931 -0.203894 4289483520
1.8616669 -1.2497613 -0.19248241 4289483520
1.8565569 -1.2462463 -0.18024054 4289483520
1.8337193 -1.2308327 -0.1662591 4289352960
1.8618923 -1.2496582 -0.15668412 4289483520
1.8573519 -1.2465261 -0.14403202 4289483520
1.8548119 -1.2447369 -0.1314255 4289483520
1.8378285 -1.2332559 -0.11778501 4289352960
1.848724 -1.2404829 -0.10584429 4289483520
1.8443835 -1.2374865 -0.092872441 4289483520
1.8464543 -1.2387917 -0.080138929 4289483520
1.8391805 -1.2338279 -0.066950217 4289352960
1.8504181 -1.2412825 -0.054335367 4289483520
1.8514076 -1.2418619 -0.041275397 4289483520
1.8483741 -1.239743 -0.028096279 4289483520
1.860474 -1.2477739 -0.015052945 4289483520
1.862751 -1.2492161 -0.0018122334 4289483520
1.879644 -1.2604595 0.01155212 4289614080
1.8225536 -1.2220926 0.024163 4289352960
1.9789525 -1.326874 0.040281661 4290005760
1.9852991 -1.331039 0.054456864 4290005760
1.9431269 -1.3026762 0.066989616 4289875200
1.8419112 -1.2347372 0.076407507 4289352960
1.9741158 -1.3232715 0.095636323 4290005760
1.9715006 -1.3214287 0.10913204 4290005760
1.9373491 -1.2984499 0.1205112 4289744640
1.7826154 -1.1946632 0.12297498 4289222400
1.9361917 -1.2974979 0.14655407 4289744640
1.9646016 -1.3164468 0.16171692 4289875200
1.9306911 -1.293636 0.17153935 4289744640
1.7685273 -1.1848996 0.16851321 4289091840
1.9994566 -1.3395295 0.20317586 4290136320
1.9883118 -1.3319725 0.21440886 4290005760
1.9726201 -1.3213708 0.22474976 4290005760
1.8302554 -1.2259238 0.21946323 4289352960
1.7207776 -1.1525161 0.21638669 4288961280
1.9805113 -1.3263865 0.26033881 4290005760
1.9725971 -1.3209964 0.27025494 4290005760
1.9385734 -1.2981234 0.27606395 4289875200
1.8216962 -1.2197763 0.26896822 4289352960
1.7603149 -1.1785963 0.26883972 4289091840
1.9756235 -1.3226634 0.31140903 4290005760
1.9799893 -1.3254962 0.32145259 4290005760
1.9484831 -1.3043159 0.32518545 4289875200
1.9275475 -1.2902138 0.33007863 4289875200
1.8205032 -1.2184805 0.31931421 4289352960
1.7314286 -1.1587832 0.31053954 4289091840
1.9072853 -1.276391 0.34923294 4289744640
1.9073161 -1.2763249 0.35599041 4289744640
1.9028504 -1.27325 0.36148417 4289744640
1.8967416 -1.2690762 0.36621502 4289744640
1.8907568 -1.2649859 0.37051031 4289744640
1.917191 -1.2825842 0.38078222 4289875200
1.8695664 -1.2506386 0.3758578 4289614080
1.8846202 -1.2606231 0.38301495 4289744640
1.8964441 -1.2684458 0.38912591 4289744640
1.8258295 -1.221132 0.37776992 4289483520
1.8369584 -1.2284915 0.38278124 4289483520
1.8366789 -1.2282211 0.38498417 4289483520
1.8405553 -1.2307297 0.38761148 4289483520
1.8363065 -1.2278051 0.38807479 4289483520
1.8362157 -1.227661 0.38895929 4289483520
1.8361895 -1.2275599 0.38940185 4289483520
1.8403217 -1.2302388 0.39027014 4289483520
1.890941 -1.2639915 0.40052688 4289744640
1.8829254 -1.2585479 0.39788613 4289744640
1.8790684 -1.2558844 0.39566526 4289614080
1.8679029 -1.248337 0.39145663 4289614080
1.8997066 -1.2695054 0.39576718 4289744640
1.9013426 -1.2705123 0.39328885 4289744640
1.8967906 -1.2673844 0.38907722 4289744640
1.9114615 -1.2771002 0.38833442 4289744640
1.9079586 -1.2746731 0.38342667 4289744640
1.9127237 -1.2777697 0.37973124 4289744640
1.9134516 -1.278169 0.37478065 4289744640
1.9154412 -1.279411 0.36963588 4289744640
1.9470582 -1.300441 0.3696776 4289875200
1.9560443 -1.306354 0.36486831 4290005760
1.9730688 -1.3176343 0.36104879 4290005760
1.9780682 -1.3208832 0.35453573 4290005760
1.9732779 -1.3175946 0.34586275 4290005760
1.9539988 -1.3041488 0.28360444 4289875200
1.9753166 -1.3182871 0.27619919 4290005760
1.9808569 -1.3218946 0.26613578 4290005760
1.9534864 -1.3035407 0.25147784 4289875200
1.9408395 -1.2950134 0.23866284 4289875200
1.9583802 -1.3066285 0.22926512 4289875200
1.9133518 -1.2764987 0.21245739 4289744640
1.9403894 -1.2944489 0.20352304 4289875200
1.9329891 -1.2894243 0.19063313 4289744640
1.9516137 -1.3017595 0.18002866 4289875200
1.9621286 -1.308684 0.1682926 4289875200
1.9560785 -1.3045599 0.15492398 4289875200
1.9477493 -1.2989166 0.14130156 4289875200
1.9748818 -1.3169211 0.12997118 4290005760
1.9723948 -1.3151731 0.11638499 4289875200
1.939196 -1.2929486 0.10110585 4289744640
1.8772055 -1.2515315 0.084873892 4289483520
1.8818655 -1.254553 0.071960911 4289614080
1.8806852 -1.2536807 0.058723148 4289614080
1.8733419 -1.2487006 0.045290124 4289483520
1.8612397 -1.2405492 0.031831101 4289483520
1.8662683 -1.2438163 0.018681221 4289483520
1.8546318 -1.2359767 0.0053919251 4289483520
1.834693 -1.2226057 -0.0077024424 4289352960
1.8408672 -1.2266366 -0.020799756 4289352960
1.852421 -1.2342513 -0.034060616 4289483520
1.8626317 -1.2409701 -0.047413565 4289483520
1.8516296 -1.233556 -0.060169529 4289483520
1.8644754 -1.2420292 -0.073647432 4289483520
1.8770213 -1.2503016 -0.087210655 4289483520
1.8778677 -1.2507802 -0.10022855 4289483520
1.859522 -1.2384765 -0.11199305 4289483520
1.8743777 -1.2482858 -0.12561019 4289483520
1.8866848 -1.2563964 -0.13910291 4289614080
1.8715329 -1.2462214 -0.1504012 4289483520
1.8681208 -1.2438647 -0.16235545 4289483520
1.8862475 -1.2558486 -0.17609815 4289614080
1.8929133 -1.2602009 -0.18873662 4289614080
1.8961791 -1.2622889 -0.20089093 4289614080
1.8610723 -1.238834 -0.20856364 4289483520
1.8768867 -1.2492758 -0.22159213 4289614080
1.887605 -1.2563244 -0.23393095 4289614080
1.8912591 -1.2586708 -0.24521808 4289614080
1.8846895 -1.2542131 -0.25489053 4289614080
1.8525368 -1.2327324 -0.26060686 4289483520
1.882606 -1.252656 -0.27476817 4289614080
1.8973645 -1.26239 -0.2866202 4289614080
1.8996811 -1.2638452 -0.29635671 4289744640
1.8879035 -1.2559241 -0.30351496 4289614080
1.8785666 -1.2496277 -0.3106229 4289614080
1.8640538 -1.2398893 -0.31641558 4289614080
1.8784204 -1.2493601 -0.32674664 4289614080
1.877561 -1.2487035 -0.33411303 4289614080
1.880846 -1.250803 -0.34184355 4289614080
1.8872094 -1.2549493 -0.34977657 4289614080
1.8807634 -1.2505777 -0.3549343 4289614080
1.8909901 -1.257292 -0.36283985 4289744640
1.8759564 -1.2472113 -0.36546749 4289614080
1.8786726 -1.2489321 -0.37109321 4289614080
1.8728656 -1.2449868 -0.37459797 4289614080
1.863705 -1.2388128 -0.37696171 4289614080
1.8550301 -1.2329626 -0.37894696 4289614080
1.847629 -1.2279596 -0.3807202 4289483520
1.8368342 -1.2207022 -0.38132021 4289483520
1.8292795 -1.2155987 -0.38212106 4289483520
1.8290457 -1.2153604 -0.38399437 4289483520
1.8288741 -1.2151636 -0.38543117 4289483520
1.8287661 -1.2150091 -0.38642994 4289483520
1.8359783 -1.2197176 -0.38852513 4289483520
1.8277959 -1.2141988 -0.38690919 4289483520
1.8465165 -1.2265513 -0.39053094 4289483520
1.8503648 -1.2290238 -0.3905448 4289483520
1.8783826 -1.2475483 -0.39518201 4289614080
1.8659614 -1.2392142 -0.39084157 4289614080
1.8765178 -1.24614 -0.39085618 4289614080
1.8817874 -1.2495542 -0.38929322 4289614080
1.8768818 -1.2462118 -0.38517171 4289614080
1.8832338 -1.250344 -0.38290769 4289614080
1.8842235 -1.2509159 -0.37909365 4289614080
1.8851053 -1.251416 -0.37481329 4289614080
1.8701744 -1.2414196 -0.36699083 4289614080
1.8687288 -1.2403754 -0.36143264 4289614080
1.857536 -1.2328621 -0.35360992 4289483520
1.8520299 -1.2291238 -0.34651417 4289483520
1.8592005 -1.2337985 -0.34138471 4289483520
1.8701349 -1.2409703 -0.33648938 4289614080
1.8821048 -1.2488278 -0.33130822 4289614080
1.8761244 -1.2447749 -0.32256696 4289614080
1.8629028 -1.2359183 -0.31229475 4289483520
1.8435044 -1.2229652 -0.30077627 4289483520
1.8705777 -1.2408409 -0.29645994 4289614080
1.8870379 -1.2516743 -0.28992069 4289614080
1.8830498 -1.2489438 -0.2798537 4289614080
1.8499538 -1.2269089 -0.26533833 4289483520
1.8592254 -1.2329739 -0.25672492 4289483520
1.8841301 -1.2494047 -0.24979705 4289614080
1.8879381 -1.2518444 -0.23963569 4289614080
1.8884124 -1.2520735 -0.22876105 4289614080
1.8490771 -1.2259094 -0.2130411 4289483520
1.8677909 -1.2382319 -0.203894 4289483520
1.8730689 -1.2416462 -0.19291005 4289483520
1.8720945 -1.2409157 -0.181044 4289483520
1.8524958 -1.2278409 -0.16731006 4289483520
1.8849405 -1.2492601 -0.1580085 4289614080
1.880388 -1.2461579 -0.1452529 4289614080
1.8695219 -1.2388722 -0.13195412 4289483520
1.8691229 -1.2385232 -0.11932615 4289483520
1.8653754 -1.2359558 -0.10638354 4289483520
1.8715519 -1.2399637 -0.09387511 4289483520
1.8694696 -1.2384995 -0.080823272 4289483520
1.8429322 -1.2208356 -0.066826724 4289352960
1.8576186 -1.2304804 -0.054335367 4289483520
1.8669472 -1.2365752 -0.04146051 4289483520
1.8606406 -1.232314 -0.028173121 4289483520
1.8760494 -1.2424346 -0.01512014 4289483520
1.8900077 -1.2515932 -0.0018316254 4289614080
1.8951107 -1.2548869 0.011602044 4289614080
1.8413153 -1.2191819 0.024317151 4289352960
1.9712759 -1.3051431 0.03996994 4289875200
1.9813498 -1.3117232 0.054137979 4290005760
1.9423486 -1.2858154 0.066703379 4289744640
1.829073 -1.2107453 0.075581029 4289352960
1.9701272 -1.3040264 0.095073402 4289875200
1.9708359 -1.3044065 0.10867271 4289875200
1.9323893 -1.2788731 0.11973716 4289744640
1.7695639 -1.1710339 0.12160188 4289091840
1.8739306 -1.2400153 0.14129215 4289483520
1.9568402 -1.2947897 0.16045433 4289875200
1.9265513 -1.2746614 0.17050879 4289744640
1.7596041 -1.1641248 0.16701385 4289091840
1.991437 -1.3174117 0.20157754 4290005760
1.988562 -1.31542 0.21360576 4290005760
1.9686605 -1.3021663 0.22343042 4289875200
1.8298972 -1.210299 0.21857102 4289352960
1.7150196 -1.1342412 0.21482797 4288961280
1.9824119 -1.3109936 0.25958019 4290005760
1.9761162 -1.306741 0.26968941 4290005760
1.9345065 -1.2791386 0.27441886 4289744640
1.8171806 -1.201478 0.26726341 4289352960
1.7588764 -1.1628492 0.26758078 4289091840
1.983296 -1.3111306 0.31140903 4290005760
1.9761041 -1.3062869 0.31958079 4290005760
1.9486123 -1.2880257 0.3239491 4289875200
1.9275985 -1.2740486 0.32881066 4289744640
1.8201416 -1.2029427 0.31801605 4289352960
1.7381506 -1.1486759 0.31053954 4289091840
1.9229374 -1.2707075 0.35073736 4289744640
1.9221399 -1.2700938 0.35736996 4289744640
1.9184775 -1.2675872 0.3630437 4289744640
1.9146857 -1.2649955 0.36825034 4289744640
1.9231875 -1.2705256 0.37540841 4289744640
1.917222 -1.2664981 0.37931633 4289744640
1.8685912 -1.2342887 0.37420967 4289614080
1.884528 -1.2447306 0.38151586 4289614080
1.8914638 -1.2492263 0.38660404 4289744640
1.9033886 -1.2570164 0.39229518 4289744640
1.8325735 -1.2101667 0.38039184 4289483520
1.8199626 -1.2017567 0.38000619 4289352960
1.8394746 -1.2145579 0.38588709 4289483520
1.8319217 -1.2094883 0.38565233 4289483520
1.8277212 -1.2066326 0.38566419 4289483520
1.8276945 -1.2065326 0.386103 4289483520
1.8981669 -1.2529684 0.40098223 4289744640
1.8900537 -1.2475277 0.39879262 4289744640
1.8787178 -1.2399607 0.39546368 4289614080
1.8748437 -1.2373194 0.39325106 4289614080
1.9264351 -1.2712806 0.40216416 4289875200
1.8996691 -1.2535317 0.39423114 4289744640
1.9128256 -1.262127 0.39413634 4289744640
1.9082566 -1.2590262 0.38991785 4289744640
1.922985 -1.2686568 0.38916725 4289744640
1.9153527 -1.2635354 0.38342667 4289744640
1.9242537 -1.2693205 0.38054565 4289744640
1.9175704 -1.2648253 0.37413764 4289744640
1.9228628 -1.2682295 0.36963588 4289744640
1.9306889 -1.2733042 0.36515492 4289875200
1.952073 -1.2873192 0.36272228 4289875200
1.9650309 -1.2957759 0.35819036 4290005760
1.9659129 -1.2962689 0.35099748 4290005760
1.9610938 -1.2930028 0.34240097 4289875200
1.9499584 -1.2850939 0.28192651 4289875200
1.9713521 -1.2991042 0.27458185 4290005760
1.9802265 -1.3048631 0.26502514 4290005760
1.9527452 -1.2866664 0.25041312 4289875200
1.9284145 -1.270548 0.23622064 4289744640
1.9460125 -1.2820549 0.22693893 4289875200
1.9219791 -1.2661349 0.21259262 4289744640
1.9279317 -1.2699693 0.20143688 4289744640
1.9288162 -1.2704651 0.18948838 4289744640
1.9466746 -1.2821404 0.17888093 4289875200
1.9572245 -1.2890006 0.16722499 4289875200
1.9599837 -1.2907295 0.15463504 4289875200
1.9519494 -1.2853507 0.14106058 4289875200
1.9741813 -1.2999015 0.12942444 4289875200
1.9758527 -1.300913 0.11613982 4289875200
1.9461908 -1.2812958 0.10107961 4289744640
1.8919773 -1.2455186 0.085212223 4289614080
1.8966565 -1.2485136 0.072247118 4289614080
1.9046577 -1.2536947 0.059242591 4289614080
1.8881016 -1.242712 0.045471139 4289614080
1.8851405 -1.2406783 0.032115687 4289483520
1.8776599 -1.2356704 0.018722866 4289483520
1.8776731 -1.2355946 0.005437891 4289483520
1.8500735 -1.2173495 -0.0077371052 4289352960
1.8680311 -1.2290816 -0.02102541 4289483520
1.8754516 -1.2338794 -0.034351315 4289483520
1.8781826 -1.2355918 -0.047625355 4289483520
1.8621258 -1.2249446 -0.060277663 4289483520
1.8875452 -1.2415811 -0.074271701 4289614080
1.8902875 -1.2432998 -0.087488987 4289614080
1.8934698 -1.2453077 -0.10067233 4289614080
1.8750508 -1.2331094 -0.11249369 4289483520
1.8932979 -1.2450242 -0.12638985 4289614080
1.899228 -1.2488383 -0.13948888 4289614080
1.9029393 -1.2511932 -0.15233669 4289614080
1.8953378 -1.2461098 -0.16408709 4289614080
1.8935324 -1.2448376 -0.17609815 4289614080
1.911882 -1.256815 -0.18989459 4289614080
1.9193169 -1.2616161 -0.20256007 4289744640
1.8840672 -1.2383608 -0.21032846 4289614080
1.8957766 -1.2459719 -0.2229615 4289614080
1.9032052 -1.2507685 -0.23495719 4289614080
1.9110235 -1.2558206 -0.24682783 4289744640
1.9034092 -1.2507315 -0.25643235 4289614080
1.8754587 -1.2322807 -0.26281694 4289614080
1.9069605 -1.2528933 -0.27725261 4289744640
1.9129796 -1.256762 -0.28786805 4289744640
1.9153005 -1.2582006 -0.29764473 4289744640
1.9109286 -1.2552427 -0.30603573 4289744640
1.9015477 -1.2489949 -0.31321424 4289614080
1.8805991 -1.2351508 -0.31799716 4289614080
1.895057 -1.2445613 -0.32837364 4289614080
1.908783 -1.2534899 -0.33836365 4289744640
1.901615 -1.2486973 -0.34429017 4289744640
1.906881 -1.2520694 -0.35206449 4289744640
1.9007436 -1.2479541 -0.35732669 4289744640
1.9033384 -1.2495723 -0.36380613 4289744640
1.8953878 -1.2442672 -0.36783448 4289614080
1.8971126 -1.2453142 -0.37329614 4289744640
1.8883337 -1.2394667 -0.37624103 4289614080
1.8783106 -1.2328032 -0.37845668 4289614080
1.870424 -1.227543 -0.38062415 4289614080
1.862992 -1.2225816 -0.38241163 4289614080
1.855449 -1.2175481 -0.38370538 4289483520
1.844568 -1.2103251 -0.38383511 4289483520
1.8443316 -1.2100872 -0.38571686 4289483520
1.8441582 -1.2098905 -0.38716006 4289483520
1.8440487 -1.2097359 -0.3881633 4289483520
1.8440039 -1.2096236 -0.38872549 4289483520
1.8546022 -1.2164924 -0.39107662 4289483520
1.846453 -1.2110642 -0.3890186 4289483520
1.8579001 -1.2184888 -0.39063019 4289483520
1.8766421 -1.2306962 -0.39330062 4289614080
1.8864024 -1.2370121 -0.39360681 4289614080
1.8994012 -1.2454509 -0.39410442 4289744640
1.8972769 -1.2439728 -0.3909916 4289744640
1.9006995 -1.2461314 -0.38856298 4289744640
1.8975691 -1.2439938 -0.38434219 4289744640
1.9038519 -1.2480272 -0.38157332 4289744640
1.8964899 -1.2431159 -0.37563041 4289744640
1.8930581 -1.2407814 -0.37005648 4289614080
1.8883096 -1.2375844 -0.36381903 4289614080
1.8812088 -1.232846 -0.35674295 4289614080
1.871556 -1.2264361 -0.34882465 4289614080
1.8787594 -1.2310721 -0.34365323 4289614080
1.8938774 -1.2408932 -0.33945468 4289614080
1.9009352 -1.2454323 -0.33333996 4289614080
1.8990774 -1.2441298 -0.32526153 4289614080
1.8783565 -1.2304707 -0.31367823 4289614080
1.8663472 -1.2225199 -0.30333593 4289483520
1.894362 -1.2407855 -0.29907861 4289614080
1.9059151 -1.2482672 -0.29169863 4289614080
1.8944455 -1.2406701 -0.28046826 4289614080
1.8770066 -1.2291651 -0.26818681 4289614080
1.8713613 -1.2253842 -0.25741047 4289483520
1.8974899 -1.2424083 -0.25060433 4289614080
1.9110075 -1.2511734 -0.24163449 4289614080
1.8990049 -1.2432299 -0.22916286 4289614080
1.872012 -1.2254744 -0.21485727 4289483520
1.8839699 -1.2332177 -0.20487233 4289614080
1.9002786 -1.2438078 -0.19496274 4289614080
1.8909688 -1.2376294 -0.18216884 4289614080
1.8712993 -1.2246718 -0.16836102 4289483520
1.8941531 -1.2395436 -0.15817268 4289614080
1.9076575 -1.2482952 -0.14679506 4289614080
1.900933 -1.2438097 -0.13365741 4289614080
1.8838276 -1.2325329 -0.11980443 4289483520
1.8809035 -1.2305353 -0.10685842 4289483520
1.89045 -1.236696 -0.094460003 4289614080
1.8766537 -1.2275866 -0.080823272 4289483520
1.8700897 -1.223209 -0.067551911 4289483520
1.8731226 -1.2251087 -0.054579146 4289483520
1.8858348 -1.2333385 -0.041719671 4289483520
1.8795048 -1.2291144 -0.028349841 4289483520
1.8949733 -1.2391452 -0.015214212 4289614080
1.9140069 -1.2515056 -0.0018477855 4289614080
1.9141073 -1.2514855 0.011673506 4289614080
1.852572 -1.2111691 0.024372203 4289352960
1.9788465 -1.2936358 0.03996994 4289875200
1.9805903 -1.294687 0.053910203 4289875200
1.9488412 -1.2738457 0.066670336 4289744640
1.8277303 -1.1946005 0.075236663 4289352960
1.9735092 -1.2897928 0.094872363 4289875200
1.9649496 -1.2841105 0.10793377 4289875200
1.9239234 -1.2572132 0.11875669 4289744640
1.7529552 -1.1454133 0.11999992 4288961280
1.9625528 -1.2822802 0.14740837 4289875200
1.9626039 -1.2822256 0.16031165 4289875200
1.9214213 -1.2552338 0.16940463 4289744640
1.7538378 -1.1456755 0.16583017 4288961280
1.9873991 -1.2981578 0.20039983 4290005760
1.9878532 -1.2983652 0.21271344 4290005760
1.9603767 -1.2803313 0.22163989 4289875200
1.8244203 -1.1914557 0.21708401 4289352960
1.7057765 -1.1138977 0.2128536 4288830720
1.9816928 -1.2939863 0.25849447 4290005760
1.9686369 -1.285373 0.26764205 4289875200
1.9294531 -1.2597026 0.27265626 4289744640
1.8083586 -1.1805612 0.26494977 4289222400
1.749838 -1.1422786 0.26518878 4289091840
1.9751257 -1.2892557 0.30894145 4290005760
1.9795319 -1.2920432 0.3189123 4290005760
1.9583372 -1.2781217 0.32432231 4289875200
1.9266977 -1.2573856 0.32740179 4289744640
1.8146887 -1.184206 0.31585249 4289352960
1.7406719 -1.1358271 0.30980244 4288961280
1.9434719 -1.2680715 0.35312921 4289875200
1.9377707 -1.2642648 0.35890049 4289875200
1.9299666 -1.2590867 0.36382347 4289744640
1.9261582 -1.2565159 0.36904255 4289744640
1.9264238 -1.2566029 0.37460467 4289744640
1.9204364 -1.2526113 0.37850195 4289744640
1.9157182 -1.2494482 0.38218313 4289744640
1.8793594 -1.2256504 0.37901738 4289614080
1.8830215 -1.2279544 0.38340965 4289614080
1.8982971 -1.2378309 0.38975278 4289744640
1.8905165 -1.2326727 0.3909218 4289614080
1.8269334 -1.1911329 0.38000619 4289352960
1.8267159 -1.1909093 0.3817485 4289352960
1.8348119 -1.1961052 0.38478717 4289483520
1.8305951 -1.1932744 0.38479707 4289352960
1.8971454 -1.2365704 0.39924583 4289744640
1.8897588 -1.2316711 0.39768341 4289614080
1.8898642 -1.2316552 0.39723179 4289614080
1.8859102 -1.2289939 0.39546368 4289614080
1.8737681 -1.2209975 0.39152667 4289614080
1.9222536 -1.2525058 0.39976099 4289744640
1.9395252 -1.2636729 0.4009676 4289875200
1.9307539 -1.2578716 0.39631364 4289875200
1.9384526 -1.2628006 0.3945778 4289875200
1.941898 -1.2649581 0.39149666 4289875200
1.9440864 -1.2662967 0.38769522 4289875200
1.9447608 -1.266649 0.3831352 4289875200
1.941352 -1.2643418 0.37733403 4289875200
1.9331081 -1.2588863 0.37018913 4289744640
1.933936 -1.259339 0.36437514 4289744640
1.95954 -1.2759242 0.36272228 4289875200
1.9666752 -1.2804822 0.35712412 4289875200
1.9701164 -1.2826346 0.35040778 4290005760
1.96113 -1.2766963 0.34110278 4289875200
1.9374415 -1.2607157 0.27905005 4289744640
1.9709182 -1.2824113 0.27347606 4289875200
1.9877952 -1.2933037 0.26502514 4290005760
1.9602084 -1.2752675 0.25041312 4289875200
1.9241098 -1.2516965 0.23479603 4289744640
1.9482582 -1.2673187 0.2263359 4289744640
1.9580171 -1.2735792 0.2157544 4289875200
1.9523593 -1.2698119 0.20321271 4289875200
1.9194754 -1.2483385 0.18785302 4289614080
1.9499322 -1.268059 0.17849834 4289744640
1.9571753 -1.2726817 0.16658442 4289875200
1.9557588 -1.2716732 0.15371455 4289875200
1.9351362 -1.2581775 0.13931343 4289744640
1.9700013 -1.2807579 0.12865902 4289875200
1.9758619 -1.2844797 0.1156985 4289875200
1.9502724 -1.2677572 0.10090625 4289744640
1.9159589 -1.2453663 0.085964069 4289614080
1.9198211 -1.2477911 0.072851337 4289614080
1.9119296 -1.2425765 0.059242591 4289614080
1.9020058 -1.2360419 0.045631785 4289614080
1.8925896 -1.2298381 0.032119974 4289483520
1.8932123 -1.2301582 0.018806159 4289483520
1.9007725 -1.2349856 0.0054838569 4289614080
1.8655202 -1.2119979 -0.0077720406 4289483520
1.8800213 -1.2213351 -0.021079915 4289483520
1.8909936 -1.2283785 -0.034504313 4289483520
1.8937339 -1.230074 -0.047837149 4289483520
1.8859246 -1.2249173 -0.06081599 4289483520
1.8989379 -1.2332847 -0.074435979 4289614080
1.9073855 -1.2386858 -0.087944813 4289614080
1.9166124 -1.2445924 -0.10151551 4289614080
1.9023069 -1.2352178 -0.11369522 4289614080
1.9047067 -1.236691 -0.1266683 4289614080
1.9098203 -1.2399259 -0.13973388 4289614080
1.9143811 -1.2428014 -0.1526704 4289614080
1.8998861 -1.2333065 -0.16385597 4289614080
1.9174782 -1.2446408 -0.17764769 4289614080
1.9233516 -1.2483674 -0.19030814 4289744640
1.9232272 -1.2482008 -0.20220181 4289744640
1.8954263 -1.230073 -0.21079288 4289614080
1.9113522 -1.2403229 -0.22393961 4289614080
1.9263146 -1.2499465 -0.23690704 4289744640
1.9258142 -1.2495358 -0.24779367 4289744640
1.9181668 -1.2444882 -0.25743932 4289744640
1.8951049 -1.2294414 -0.26456174 4289614080
1.9225558 -1.2471642 -0.27845883 4289744640
1.9319229 -1.2531544 -0.28961506 4289744640
1.9300864 -1.2518771 -0.29880396 4289744640
1.9265252 -1.2494812 -0.30736244 4289744640
1.917104 -1.2432853 -0.31457812 4289744640
1.8952404 -1.2290218 -0.31925663 4289614080
1.9147316 -1.2415758 -0.33052376 4289744640
1.9160537 -1.2423476 -0.33836365 4289744640
1.9130061 -1.2402862 -0.34503835 4289744640
1.9257532 -1.2484649 -0.35419986 4289744640
1.9204162 -1.2449193 -0.35965535 4289744640
1.9105865 -1.2384617 -0.36380613 4289744640
1.9142014 -1.2407197 -0.37007645 4289744640
1.9117881 -1.2390702 -0.37475696 4289744640
1.9071119 -1.2359543 -0.37854129 4289744640
1.8978744 -1.229883 -0.38094828 4289614080
1.8891268 -1.22413 -0.38297224 4289614080
1.8711448 -1.2123945 -0.38262865 4289614080
1.8634657 -1.2073357 -0.38390204 4289483520
1.8631641 -1.2070572 -0.38623479 4289483520
1.8629248 -1.2068192 -0.38812828 4289483520
1.8586159 -1.2039448 -0.38871607 4289483520
1.8626381 -1.2064673 -0.39059004 4289483520
1.8667254 -1.2090315 -0.39202368 4289483520
1.8699243 -1.2110199 -0.39281306 4289614080
1.8576107 -1.2029624 -0.38988608 4289483520
1.8765416 -1.2151381 -0.39305443 4289614080
1.8961825 -1.2277719 -0.39588994 4289614080
1.8968852 -1.2281423 -0.39429438 4289614080
1.9137148 -1.2389532 -0.39556983 4289744640
1.9158926 -1.2402778 -0.39333206 4289744640
1.9120648 -1.2377145 -0.38940558 4289744640
1.9216784 -1.243852 -0.38775098 4289744640
1.9268219 -1.2470953 -0.38471425 4289744640
1.9139295 -1.2386657 -0.37764877 4289744640
1.912683 -1.2377738 -0.37247673 4289744640
1.9112364 -1.2367524 -0.36684176 4289744640
1.8916764 -1.2240109 -0.35736954 4289614080
1.8861359 -1.2203418 -0.35021093 4289614080
1.8903906 -1.2230104 -0.34447151 4289614080
1.908548 -1.2346725 -0.34078908 4289744640
1.9247742 -1.2450837 -0.3362425 4289744640
1.9187613 -1.2411087 -0.32738882 4289744640
1.894151 -1.2251056 -0.31511855 4289614080
1.8817586 -1.2170066 -0.30468312 4289614080
1.9048889 -1.2318809 -0.29960236 4289614080
1.9144855 -1.2380017 -0.29190141 4289744640
1.9216429 -1.2425444 -0.28341815 4289744640
1.8933054 -1.2241369 -0.26949194 4289614080
1.8909829 -1.222551 -0.25912529 4289614080
1.9122087 -1.2361887 -0.25159276 4289614080
1.9279497 -1.2462789 -0.24285446 4289744640
1.9187497 -1.2402463 -0.23066963 4289614080
1.8915949 -1.2226096 -0.2162836 4289614080
1.9111967 -1.2351938 -0.20704699 4289614080
1.915861 -1.2381232 -0.19581802 4289614080
1.9110489 -1.2349283 -0.18340702 4289614080
1.8875502 -1.2196592 -0.16918091 4289483520
1.9172627 -1.2387729 -0.15949705 4289614080
1.9224418 -1.2420336 -0.14737336 4289614080
1.9081475 -1.2327135 -0.13365741 4289614080
1.8951706 -1.2242457 -0.12007014 4289614080
1.8997877 -1.2271435 -0.10752326 4289614080
1.8976231 -1.2256609 -0.094460003 4289614080
1.9039217 -1.2296443 -0.081687711 4289614080
1.8771846 -1.2122927 -0.067551911 4289483520
1.9037434 -1.2293597 -0.055261739 4289614080
1.9055876 -1.2304658 -0.041997343 4289614080
1.8950343 -1.223567 -0.028476071 4289483520
1.9105616 -1.2335075 -0.015281406 4289614080
1.9224048 -1.2410681 -0.0018488807 4289614080
1.9297677 -1.2457356 0.01172455 4289614080
1.8553965 -1.1976438 0.024317151 4289352960
1.9858799 -1.2817813 0.039960481 4289875200
1.9884596 -1.2833579 0.053919956 4289875200
1.9436316 -1.2543393 0.066240974 4289744640
1.8229029 -1.1763449 0.074754551 4289222400
1.9608405 -1.2652707 0.093907364 4289744640
1.9690403 -1.2704741 0.10775004 4289875200
1.9270197 -1.2432756 0.11849868 4289614080
1.7428203 -1.1243563 0.11885566 4288961280
1.9613285 -1.2652365 0.14676023 4289875200
1.9541118 -1.2604942 0.1590154 4289744640
1.9277346 -1.2433939 0.16931964 4289744640
1.7370259 -1.120309 0.16362061 4288961280
2.0001717 -1.289938 0.2009265 4290005760
1.9895352 -1.28299 0.21208994 4290005760
1.9707371 -1.27078 0.22197036 4289875200
1.8196229 -1.1732568 0.21569613 4289222400
1.696355 -1.0937008 0.21087922 4288830720
1.9862139 -1.2804947 0.25810665 4290005760
1.9719168 -1.2711898 0.26707652 4289875200
1.9399697 -1.2505089 0.27310815 4289744640
1.8110347 -1.1673166 0.26434091 4289222400
1.7522942 -1.129377 0.2645593 4288961280
1.9809473 -1.276659 0.30868337 4290005760
1.9711984 -1.2702885 0.31637201 4289875200
1.96242 -1.2645442 0.32377282 4289875200
1.9223396 -1.2386317 0.32542938 4289744640
1.8215574 -1.1736132 0.31585249 4289352960
1.7472599 -1.1256663 0.30980244 4288961280
1.9629655 -1.2645466 0.35532647 4289875200
1.9616346 -1.2636021 0.3619507 4289875200
1.9559594 -1.2598594 0.36733347 4289875200
1.9209948 -1.2372528 0.3666659 4289744640
1.9337124 -1.2453579 0.37460467 4289744640
1.9235541 -1.2387302 0.37768757 4289744640
1.9229653 -1.2382655 0.38218313 4289744640
1.879007 -1.2098758 0.3775183 4289614080
1.8942879 -1.2196308 0.38425025 4289614080
1.8980188 -1.2219486 0.38822731 4289614080
1.9009802 -1.2237706 0.39160448 4289614080
1.8379841 -1.1831348 0.38086447 4289352960
1.9004626 -1.2232686 0.39566401 4289614080
1.8260137 -1.175267 0.38149959 4289352960
1.8292347 -1.1772588 0.38306281 4289352960
1.8968644 -1.2206998 0.39768323 4289614080
1.8927619 -1.2179755 0.39681527 4289614080
1.8887259 -1.2152945 0.3954975 4289614080
1.8847556 -1.2126561 0.39373335 4289614080
1.8775365 -1.2079279 0.39083689 4289614080
1.9212331 -1.2359551 0.39804447 4289744640
1.9269664 -1.2395579 0.39687148 4289744640
1.9305899 -1.2418029 0.39478815 4289744640
1.9374862 -1.2461528 0.3928965 4289875200
1.9533815 -1.2562896 0.39232948 4289875200
1.9593997 -1.2600731 0.38927835 4289875200
1.962496 -1.2619771 0.38517413 4289875200
1.9483578 -1.2527992 0.37727058 4289875200
1.9453089 -1.2507523 0.37112376 4289875200
1.9453821 -1.2507129 0.36515254 4289875200
1.9627844 -1.261814 0.36195585 4289875200
1.9741021 -1.2690022 0.35712412 4289875200
1.9820722 -1.2740375 0.35120803 4290005760
1.9602108 -1.2598984 0.33966038 4289875200
1.9486006 -1.2518778 0.27960205 4289744640
1.9708349 -1.2660748 0.27243635 4289875200
1.9888253 -1.2775437 0.26416558 4290005760
1.9583293 -1.2578673 0.24923261 4289875200
1.9313698 -1.240465 0.23479603 4289744640
1.9377928 -1.2445043 0.22427393 4289744640
1.9470617 -1.2503707 0.21374086 4289744640
1.9396685 -1.2455368 0.20113303 4289744640
1.926716 -1.237134 0.18785302 4289614080
1.9500953 -1.2520592 0.17784247 4289744640
1.9598905 -1.2582612 0.16618872 4289744640
1.9631346 -1.260257 0.15371455 4289875200
1.9340336 -1.2414894 0.13871096 4289744640
1.9742879 -1.2672417 0.1284546 4289875200
1.966871 -1.2623938 0.1147394 4289875200
1.9576255 -1.2563729 0.10090625 4289744640
1.9231164 -1.2341403 0.085961133 4289614080
1.9312645 -1.2392836 0.07301034 4289614080
1.9309157 -1.2389741 0.059606202 4289614080
1.9209558 -1.232498 0.045913361 4289614080
1.9123466 -1.2268896 0.032333411 4289614080
1.9079224 -1.2239666 0.018881122 4289614080
1.9163525 -1.2292897 0.0055080494 4289614080
1.8885425 -1.2113665 -0.0078384187 4289483520
1.8955222 -1.2157595 -0.021173937 4289483520
1.9114138 -1.2258674 -0.034746002 4289614080
1.9130727 -1.2268465 -0.048144281 4289614080
1.9014441 -1.2193048 -0.061086327 4289614080
1.9220768 -1.2324504 -0.075060248 4289614080
1.9305526 -1.2377995 -0.088678978 4289614080
1.9314003 -1.2382574 -0.10191491 4289614080
1.9147693 -1.2275101 -0.11401068 4289614080
1.9222611 -1.2322277 -0.12735611 4289614080
1.9371796 -1.2417049 -0.14120393 4289744640
1.936491 -1.2411778 -0.15385433 4289744640
1.9187956 -1.229751 -0.16486609 4289614080
1.9377893 -1.2418382 -0.17885607 4289744640
1.9485112 -1.248623 -0.19207449 4289744640
1.942209 -1.2444984 -0.20343171 4289744640
1.9226813 -1.2319006 -0.21302213 4289614080
1.9322474 -1.2379441 -0.22553888 4289744640
1.9377522 -1.2413851 -0.23742016 4289744640
1.9467087 -1.2470366 -0.24954306 4289744640
1.9379365 -1.2413313 -0.25911757 4289744640
1.9064175 -1.2210577 -0.26514336 4289614080
1.937313 -1.2407603 -0.27954444 4289744640
1.9405253 -1.2427317 -0.28981429 4289744640
1.9551817 -1.2520312 -0.30155459 4289875200
1.9462203 -1.2462064 -0.30934098 4289744640
1.9284866 -1.2347656 -0.31526005 4289744640
1.9190466 -1.2286365 -0.32205555 4289744640
1.9219328 -1.2303991 -0.33052376 4289744640
1.9432541 -1.2439629 -0.34188139 4289744640
1.9401858 -1.2419127 -0.34862962 4289744640
1.9461436 -1.2456402 -0.35660931 4289875200
1.9434459 -1.2438273 -0.36260498 4289744640
1.9377311 -1.2400841 -0.3675929 4289744640
1.9371948 -1.239655 -0.37311909 4289744640
1.9355978 -1.2385473 -0.37800327 4289744640
1.9225894 -1.2301384 -0.38018432 4289744640
1.9166368 -1.2262449 -0.38327378 4289744640
1.8974667 -1.213896 -0.38322267 4289614080
1.885649 -1.2062522 -0.38415092 4289614080
1.8746188 -1.1991131 -0.38475391 4289483520
1.8826143 -1.2041442 -0.38880587 4289614080
1.8570865 -1.1877341 -0.3854636 4289483520
1.86023 -1.1896623 -0.38759744 4289483520
1.8895489 -1.2083288 -0.39475015 4289614080
1.8737378 -1.198135 -0.39202368 4289483520
1.8737574 -1.1980646 -0.39214528 4289483520
1.880353 -1.2021985 -0.39318258 4289614080
1.8993559 -1.2142639 -0.39634445 4289614080
1.9149222 -1.2241307 -0.39830664 4289744640
1.920609 -1.227681 -0.39773214 4289744640
1.9292026 -1.2330889 -0.39727941 4289744640
1.9305594 -1.2338707 -0.39486057 4289744640
1.9350244 -1.2366387 -0.39260745 4289744640
1.93637 -1.237413 -0.38925409 4289744640
1.943028 -1.2415818 -0.38649911 4289875200
1.9410659 -1.2402421 -0.38157097 4289744640
1.9251435 -1.2299833 -0.37350139 4289744640
1.9258972 -1.2303797 -0.36827359 4289744640
1.9112605 -1.2209443 -0.35971931 4289614080
1.9032032 -1.215713 -0.35205877 4289614080
1.9174776 -1.2247462 -0.34810117 4289744640
1.9293367 -1.2322357 -0.34321332 4289744640
1.9436698 -1.241304 -0.33827424 4289744640
1.9334683 -1.2347034 -0.32866517 4289744640
1.9137774 -1.2220442 -0.31719378 4289614080
1.9005094 -1.213488 -0.30656919 4289614080
1.9177132 -1.2243879 -0.30049229 4289614080
1.9300263 -1.232164 -0.29317138 4289744640
1.9405606 -1.2388034 -0.28513893 4289744640
1.9004053 -1.2130853 -0.26949194 4289614080
1.9139843 -1.2216686 -0.2612974 4289614080
1.9361354 -1.2357217 -0.25378925 4289744640
1.9427226 -1.23984 -0.24380127 4289744640
1.937685 -1.2365394 -0.23207597 4289744640
1.9028816 -1.2142453 -0.21676154 4289614080
1.9309539 -1.2320732 -0.20840615 4289744640
1.9241765 -1.2276636 -0.19593354 4289614080
1.9266146 -1.2291341 -0.18421048 4289614080
1.9148006 -1.2215124 -0.17098257 4289614080
1.9244475 -1.2275814 -0.15949705 4289614080
1.9400368 -1.2374399 -0.14816698 4289744640
1.9312886 -1.2317746 -0.13477336 4289614080
1.9106905 -1.2185527 -0.12060157 4289614080
1.915327 -1.2214249 -0.10799814 4289614080
1.9131562 -1.219956 -0.094877779 4289614080
1.9110535 -1.2185308 -0.081687711 4289614080
1.9002292 -1.211545 -0.068126015 4289483520
1.9193033 -1.2236214 -0.055505518 4289614080
1.9203119 -1.2241796 -0.042163949 4289614080
1.9181514 -1.2227175 -0.028715907 4289614080
1.9310365 -1.2308458 -0.015387553 4289614080
1.9464685 -1.2405962 -0.0018650407 4289744640
1.9489838 -1.2421132 0.01179713 4289744640
1.9191605 -1.2230216 0.025059037 4289614080
1.9774779 -1.2600982 0.039643008 4289875200
1.9733583 -1.257386 0.053310905 4289875200
1.9582552 -1.247676 0.066490486 4289744640
1.8255112 -1.1630193 0.074582368 4289222400
1.9721057 -1.2563266 0.094094716 4289875200
1.9700401 -1.2549236 0.10740282 4289875200
1.9374698 -1.2340907 0.11869713 4289744640
1.7535518 -1.1168648 0.11914173 4288961280
1.8709047 -1.1915261 0.13947226 4289483520
1.874477 -1.1937184 0.1519666 4289483520
1.9317111 -1.2300813 0.16903657 4289614080
1.7351147 -1.1048155 0.16283147 4288830720
1.9945745 -1.2699356 0.19961759 4289875200
2.0048978 -1.2764199 0.21293125 4290005760
1.9747481 -1.2571379 0.22159341 4289875200
1.8180333 -1.1572919 0.21470478 4289222400
1.7026983 -1.0837989 0.21087922 4288830720
1.9936407 -1.2689009 0.25810665 4290005760
1.9750984 -1.2570121 0.26651099 4289875200
1.9514115 -1.2418509 0.27369568 4289744640
1.8178049 -1.1567453 0.26434091 4289222400
1.7588444 -1.1191486 0.2645593 4288961280
1.9824852 -1.2613633 0.30777261 4289875200
1.9902719 -1.2662297 0.3182438 4290005760
1.9582906 -1.2457964 0.32188854 4289875200
1.8807577 -1.1963898 0.31720465 4289483520
1.8325388 -1.1656359 0.31657368 4289352960
1.7663071 -1.1234294 0.3120138 4289091840
1.9702997 -1.2530886 0.35532647 4289875200
1.9598753 -1.2463722 0.36028007 4289875200
1.9520084 -1.2412832 0.36522704 4289875200
1.9523333 -1.2414037 0.37126073 4289875200
1.9492642 -1.2393662 0.37621218 4289875200
1.9307386 -1.2275022 0.37768757 4289744640
1.8898785 -1.2014413 0.37420967 4289614080
1.9059954 -1.211603 0.38151586 4289614080
1.908849 -1.2133329 0.38576341 4289614080
1.8537896 -1.1782534 0.37776992 4289483520
1.8492867 -1.1753098 0.37953848 4289483520
1.8606439 -1.1824458 0.38412589 4289483520
1.8487823 -1.1748261 0.38347292 4289483520
1.8644192 -1.1846806 0.38807479 4289483520
1.8526876 -1.1771444 0.38653132 4289483520
1.8559841 -1.1791571 0.38766563 4289483520
1.8402274 -1.1690652 0.38436696 4289352960
1.848642 -1.1743294 0.3856647 4289483520
1.907585 -1.2116882 0.39702097 4289614080
1.8920256 -1.2017215 0.39238888 4289614080
1.8881693 -1.1991889 0.38974008 4289614080
1.9329327 -1.2275332 0.39662054 4289744640
1.9387525 -1.2311437 0.3949838 4289744640
1.9457815 -1.2355214 0.39311227 4289875200
1.9490266 -1.2374961 0.39000008 4289875200
1.9612918 -1.2451972 0.3882063 4289875200
1.9627199 -1.2460175 0.38378671 4289875200
1.960119 -1.2442799 0.37813777 4289875200
1.9518137 -1.2389216 0.37098134 4289875200
1.9526486 -1.2393655 0.36515492 4289875200
1.9576846 -1.2424756 0.35967436 4289875200
1.9835339 -1.2587938 0.35749751 4290005760
1.9748962 -1.2532252 0.34863678 4289875200
1.9767818 -1.2543347 0.34125963 4289875200
1.9600532 -1.2431623 0.28020129 4289875200
1.9867849 -1.2600293 0.27362171 4289875200
1.9915688 -1.2629756 0.26354814 4289875200
1.9614261 -1.2437739 0.24870025 4289744640
1.9352163 -1.2270685 0.23439054 4289744640
1.9172473 -1.2155905 0.22107263 4289614080
1.8214121 -1.154748 0.19920559 4289222400
1.9372127 -1.2280785 0.20013301 4289744640
1.9435753 -1.2320263 0.18879372 4289744640
1.950368 -1.2362465 0.17720748 4289744640
1.9711628 -1.2493404 0.1665245 4289875200
1.9627955 -1.2439507 0.1531179 4289744640
1.9509338 -1.2363472 0.13940406 4289744640
1.9775538 -1.2531298 0.12818988 4289875200
1.9823915 -1.256108 0.11521591 4289875200
1.9645792 -1.2447351 0.10088915 4289744640
1.9463787 -1.2331178 0.086678326 4289744640
1.9468952 -1.2333593 0.073328353 4289744640
1.9468007 -1.2332138 0.059873745 4289744640
1.9441516 -1.2314501 0.046295501 4289744640
1.9312884 -1.2232174 0.032532625 4289614080
1.9254588 -1.2194403 0.018984033 4289614080
1.924261 -1.2185969 0.0055102799 4289614080
1.8997924 -1.203018 -0.0078558866 4289483520
1.9067974 -1.2073698 -0.021220949 4289483520
1.9185236 -1.2147102 -0.034746002 4289614080
1.9277905 -1.2204928 -0.048334897 4289614080
1.9169618 -1.2135527 -0.061356664 4289614080
1.9410474 -1.2287149 -0.07552024 4289744640
1.9461749 -1.2318751 -0.089065373 4289744640
1.945959 -1.2316529 -0.10230274 4289744640
1.936825 -1.2257864 -0.11489675 4289614080
1.9454379 -1.2311518 -0.12841424 4289744640
1.9497881 -1.233819 -0.14159659 4289744640
1.9554937 -1.2373434 -0.15478869 4289744640
1.9385706 -1.2265501 -0.16594836 4289744640
1.9449916 -1.2305272 -0.17885607 4289744640
1.9599638 -1.2399133 -0.19248806 4289744640
1.9582672 -1.2387539 -0.20435426 4289744640
1.921424 -1.2153631 -0.21209468 4289614080
1.9469969 -1.2314533 -0.22641918 4289744640
1.9609251 -1.2401764 -0.23937 4289744640
1.9657052 -1.2431132 -0.2510455 4289875200
1.9568943 -1.237455 -0.26068395 4289744640
1.9139134 -1.2101915 -0.26520073 4289614080
1.944509 -1.2294521 -0.27954444 4289744640
1.9603124 -1.2393578 -0.29168609 4289875200
1.9666342 -1.2432681 -0.30219862 4289875200
1.9693662 -1.2449087 -0.31186175 4289875200
1.9546895 -1.235545 -0.3183614 4289744640
1.9295204 -1.219551 -0.32261533 4289744640
1.9449641 -1.2292267 -0.33324724 4289744640
1.9482533 -1.2312198 -0.34149307 4289744640
1.9549111 -1.2353413 -0.34997633 4289875200
1.9533679 -1.2342803 -0.35660931 4289875200
1.9623517 -1.2398707 -0.3647784 4289875200
1.9566108 -1.2361574 -0.36980185 4289875200
1.948557 -1.2309835 -0.37391979 4289744640
1.9461179 -1.229357 -0.37865254 4289744640
1.9333887 -1.2212311 -0.38090637 4289744640
1.9320859 -1.2203233 -0.38493484 4289744640
1.907841 -1.2049261 -0.38389355 4289614080
1.9009781 -1.2005082 -0.38584235 4289614080
1.8974034 -1.1981673 -0.38799092 4289614080
1.9012604 -1.2005193 -0.39120555 4289614080
1.892686 -1.1950221 -0.39140096 4289614080
1.8796223 -1.1866912 -0.39019081 4289483520
1.8753453 -1.1839086 -0.3903352 4289483520
1.8923454 -1.1945575 -0.39445394 4289614080
1.8890336 -1.192384 -0.39388171 4289614080
1.8956536 -1.1964793 -0.39491758 4289614080
1.9105626 -1.2058055 -0.39721024 4289614080
1.9336836 -1.2203128 -0.40072334 4289744640
1.9393926 -1.2238305 -0.40013859 4289744640
1.9438534 -1.22656 -0.39881805 4289744640
1.9543843 -1.2331191 -0.39825729 4289875200
1.9496993 -1.2300775 -0.39412412 4289875200
1.9518853 -1.231371 -0.39092419 4289875200
