# .PCD v0.7 - Point Cloud Data file format
VERSION 0.7
FIELDS x y z rgba
SIZE 4 4 4 4
TYPE F F F U
COUNT 1 1 1 1
WIDTH 1130
HEIGHT 1
VIEWPOINT 0 0 0 1 0 0 0
POINTS 1130
DATA ascii
3.0518477 1.6616375 -0.26245528 4293661440
3.0725615 1.6730232 -0.24530639 4293792000
3.079165 1.6767298 -0.22659793 4293792000
3.0792458 1.6768862 -0.20712246 4293792000
3.0423949 1.6569374 -0.1851816 4293661440
3.0696406 1.6718811 -0.16698553 4293792000
3.0732923 1.673981 -0.14713061 4293792000
3.0758548 1.6754878 -0.12702394 4293792000
3.062192 1.6681596 -0.10618714 4293661440
3.0843024 1.6803112 -0.086411707 4293792000
3.094187 1.6858063 -0.065990008 4293792000
3.0660872 1.6706141 -0.044817459 4293661440
3.0850112 1.6810325 -0.024335681 4293792000
3.0941758 1.6861364 -0.0035638576 4293792000
3.0985649 1.6886393 0.017307475 4293792000
3.0378339 1.6556664 0.037404917 4293661440
3.1143064 1.6974403 0.059282139 4293922560
3.125699 1.7037604 0.08043433 4293922560
3.1108396 1.6957769 0.10079661 4293922560
2.9561071 1.6115717 0.11536872 4293269760
3.1231854 1.7027309 0.14250693 4293922560
3.1238291 1.7031952 0.16297425 4293922560
3.0871663 1.6833264 0.18107903 4293792000
2.8885267 1.5751654 0.18794833 4293008640
3.1265495 1.7050197 0.22333241 4293922560
3.1284118 1.7061492 0.24309166 4293922560
3.0949671 1.6880302 0.25964165 4293792000
2.8796887 1.5707694 0.25910908 4293008640
3.1467979 1.7165184 0.30205637 4294053120
3.1483741 1.7174938 0.32075924 4294053120
3.1265223 1.7056935 0.33660167 4294053120
3.0263472 1.6511767 0.34293714 4293661440
2.8343441 1.5465695 0.33684662 4292878080
3.1412954 1.7140989 0.39033899 4294053120
3.1327245 1.7095405 0.40576655 4294053120
3.0825701 1.6822973 0.4150483 4293792000
3.0262983 1.6517135 0.42250463 4293661440
2.890516 1.5777456 0.41744468 4293139200
3.1376841 1.7127165 0.46775627 4294053120
3.1365793 1.7122321 0.48164716 4294053120
3.1232858 1.7050966 0.49305728 4294053120
3.095547 1.6900771 0.50145382 4293922560
3.0254991 1.6519644 0.50203097 4293661440
2.966109 1.619664 0.5033052 4293400320
3.1279752 1.7081338 0.54191929 4294053120
3.1333683 1.7111983 0.55338347 4294053120
3.1277225 1.7082373 0.56226069 4294053120
3.1302245 1.7097247 0.57194412 4294053120
3.1238925 1.7063893 0.57934159 4294053120
3.1197011 1.7042228 0.58643723 4294053120
3.0903094 1.6882946 0.58803493 4293922560
3.1144326 1.7015909 0.59911817 4294053120
3.0981045 1.6927961 0.60173935 4294053120
3.10164 1.6948502 0.60749346 4294053120
3.0867064 1.6868165 0.60890436 4293922560
3.0817966 1.684258 0.61155468 4293922560
3.0856366 1.6864796 0.615224 4293922560
3.1016815 1.6953706 0.6206221 4294053120
3.0893106 1.6887366 0.61961079 4293922560
3.0848277 1.6864125 0.61944872 4293922560
3.1111066 1.7008997 0.62473845 4294053120
3.1154838 1.7034194 0.62489522 4294053120
3.1026855 1.6965524 0.62087816 4294053120
3.0976388 1.6939219 0.61769462 4294053120
3.1098742 1.700739 0.61722696 4294053120
3.1133907 1.7027909 0.61429006 4294053120
3.1226118 1.7079625 0.61174375 4294053120
3.1327267 1.7136241 0.60862851 4294183680
3.1192544 1.7063888 0.60022742 4294053120
3.1187804 1.7062615 0.59365499 4294053120
3.1160219 1.7048851 0.58596414 4294053120
3.1215863 1.7080611 0.57915068 4294053120
3.1181898 1.7063365 0.56999785 4294053120
3.1023128 1.6977848 0.55795908 4294053120
3.1109998 1.7026706 0.54971516 4294053120
3.1311305 1.7138186 0.54276597 4294053120
3.1353209 1.716247 0.53234601 4294053120
3.1401176 1.7190077 0.52138567 4294183680
3.0763226 1.6849692 0.42296037 4293792000
3.1019642 1.6991451 0.41086027 4293922560
3.1266663 1.7128091 0.3979176 4294053120
3.1175458 1.7079536 0.38014209 4293922560
3.0912619 1.6936976 0.36003968 4293922560
3.0914612 1.6939447 0.34276658 4293922560
3.107234 1.7027227 0.32675022 4293922560
3.102562 1.7003025 0.30815649 4293922560
3.0752001 1.6854516 0.28715536 4293792000
3.0878942 1.6925451 0.269669 4293792000
3.0956929 1.6969572 0.25133294 4293922560
3.0971589 1.6979002 0.23214857 4293922560
3.0742142 1.6854656 0.21101187 4293792000
3.0991149 1.699252 0.192921 4293922560
3.1099274 1.7053188 0.17351094 4293922560
3.1121488 1.7066773 0.15334614 4293922560
3.0788875 1.6885842 0.13146357 4293792000
3.0911496 1.6954465 0.11152598 4293792000
3.0884647 1.6941148 0.090861201 4293792000
3.0766335 1.6877674 0.069923028 4293792000
3.0705848 1.6845902 0.049160045 4293792000
3.0745687 1.6869147 0.02851874 4293792000
3.0804529 1.6902817 0.0077966349 4293792000
3.0464375 1.6717634 -0.012854404 4293661440
3.0564983 1.677421 -0.033508725 4293661440
3.0764549 1.6885084 -0.054437041 4293792000
3.0797796 1.6904724 -0.075173937 4293792000
3.0461748 1.672173 -0.094735332 4293661440
3.0769794 1.6892154 -0.11616533 4293792000
3.0896866 1.6963288 -0.13708092 4293792000
3.1022081 1.7033414 -0.1580077 4293922560
3.0542417 1.6771536 -0.17546755 4293661440
3.0657473 1.6836077 -0.19590324 4293792000
3.0749347 1.6887901 -0.21611266 4293792000
3.0716362 1.6871179 -0.23525147 4293792000
3.0497603 1.6752452 -0.25256005 4293661440
3.0848179 1.6946331 -0.27437323 4293792000
3.098392 1.7022264 -0.29427859 4293922560
3.0887997 1.6970974 -0.31169277 4293922560
3.0558615 1.6791447 -0.32616696 4293792000
3.0730228 1.6887082 -0.3455227 4293792000
3.0912561 1.6988618 -0.36481726 4293922560
3.0875878 1.6969844 -0.38121122 4293922560
3.0882492 1.6974852 -0.39769933 4293922560
3.0523539 1.6778989 -0.40886554 4293792000
3.0969155 1.7025214 -0.4303681 4293922560
3.0995984 1.7041329 -0.44581786 4293922560
3.1002917 1.7046508 -0.46049795 4293922560
3.0933878 1.7009923 -0.47350541 4293922560
3.0884039 1.6983886 -0.48621869 4293922560
3.060714 1.6833014 -0.49467596 4293792000
3.0556557 1.6806542 -0.50608659 4293792000
3.0745842 1.6911944 -0.52093834 4293922560
3.0656593 1.6864202 -0.53052455 4293922560
3.0702157 1.6890585 -0.54181576 4293922560
3.0706153 1.6894107 -0.55176997 4293922560
3.0648451 1.6863691 -0.55996674 4293922560
3.0785825 1.6940565 -0.57109731 4293922560
3.0518868 1.6795031 -0.57404977 4293792000
3.0586782 1.683369 -0.582573 4293922560
3.0373905 1.6717869 -0.58505201 4293792000
3.0376029 1.6720321 -0.59094059 4293792000
3.0343425 1.670366 -0.59546214 4293792000
3.0107849 1.6575296 -0.59527344 4293661440
3.0144982 1.6596991 -0.59974337 4293661440
3.0062296 1.6552738 -0.60112953 4293661440
3.0179121 1.6618288 -0.60579699 4293661440
3.0219319 1.6641662 -0.60823166 4293792000
3.0174298 1.6618122 -0.60824341 4293661440
3.0009573 1.6528671 -0.60513198 4293661440
3.0315831 1.6698517 -0.61078781 4293792000
3.0341706 1.6713998 -0.61008304 4293792000
3.0462446 1.6781715 -0.6105603 4293792000
3.057369 1.6844207 -0.6101163 4293922560
3.0591173 1.6855067 -0.60707998 4293922560
3.064784 1.6887503 -0.60410172 4293922560
3.0664108 1.6897688 -0.5996139 4293922560
3.0677786 1.690644 -0.59437215 4293922560
3.0694458 1.6916841 -0.5884912 4293922560
3.0574882 1.6852171 -0.57934237 4293922560
3.0572767 1.6852208 -0.57177109 4293922560
3.0595825 1.6866111 -0.56400245 4293922560
3.0426061 1.6773754 -0.552077 4293792000
3.0359704 1.6738368 -0.54145783 4293792000
3.0451078 1.6789905 -0.53301454 4293792000
3.0755074 1.6958636 -0.527538 4293922560
3.0828872 1.7000498 -0.51738232 4293922560
3.0662124 1.690976 -0.50264394 4293922560
3.0550606 1.6849453 -0.48834726 4293792000
3.0404363 1.676999 -0.47304982 4293792000
3.0554392 1.6853865 -0.46181303 4293792000
3.0667746 1.6917526 -0.4493826 4293792000
3.0706739 1.6940187 -0.43528774 4293792000
3.0385151 1.6763994 -0.41574284 4293661440
3.0598652 1.6882883 -0.40308833 4293792000
3.0772679 1.6980015 -0.38926509 4293792000
3.0874767 1.7037476 -0.37395439 4293922560
3.077775 1.698511 -0.35582075 4293792000
3.0417321 1.6787416 -0.33451131 4293661440
3.0510707 1.6840067 -0.31796026 4293792000
3.0678406 1.6933724 -0.30167902 4293792000
3.0666513 1.6928296 -0.28321344 4293792000
3.0464787 1.6818111 -0.26281875 4293661440
3.0714943 1.6957282 -0.24599162 4293792000
3.0693421 1.6946533 -0.22658582 4293792000
3.069422 1.69481 -0.20711035 4293792000
3.0458016 1.6818851 -0.18596721 4293661440
3.0633438 1.69168 -0.16716351 4293792000
3.0634854 1.6918701 -0.14711851 4293792000
3.0747879 1.6982218 -0.12737231 4293792000
3.0585473 1.6893675 -0.10638691 4293661440
3.0776951 1.7000517 -0.086489849 4293792000
3.088248 1.7059909 -0.066061236 4293792000
3.0606763 1.690878 -0.044868656 4293661440
3.0795393 1.7014067 -0.024357282 4293792000
3.1053061 1.7157497 -0.0035717685 4293922560
3.0886714 1.7066752 0.01731967 4293792000
3.058305 1.6900144 0.037795417 4293661440
3.1075988 1.7173557 0.059356812 4293922560
3.1244678 1.7267883 0.080674119 4293922560
3.105279 1.716301 0.10095183 4293922560
2.9510388 1.6311952 0.11555239 4293269760
3.1132092 1.7209097 0.14251922 4293922560
3.1142886 1.72162 0.16300955 4293922560
3.0860445 1.7061259 0.18160693 4293792000
2.8032069 1.5499272 0.18298012 4292747520
3.1227601 1.7266448 0.22378995 4293922560
3.1221545 1.7264249 0.243396 4294053120
3.0783412 1.7023215 0.25908598 4293792000
2.7988741 1.5479449 0.25264558 4292747520
3.1417959 1.7376291 0.30255625 4294053120
3.1383109 1.7358187 0.32077163 4294053120
3.1252406 1.7287085 0.33755606 4294053120
3.0332179 1.6779406 0.34483206 4293661440
2.8130968 1.5563294 0.33540338 4292878080
3.1346238 1.7342472 0.39077207 4294053120
3.1244576 1.7287421 0.40600646 4294053120
3.0900929 1.7098525 0.41741002 4293922560
3.020963 1.6717304 0.42312524 4293661440
2.8847435 1.5964912 0.41795954 4293139200
3.1406629 1.7381787 0.46971628 4294183680
3.1386867 1.7372048 0.48353091 4294183680
3.1254287 1.7299889 0.49499241 4294053120
3.0977714 1.714805 0.503438 4294053120
3.03227 1.6786776 0.50478286 4293792000
2.9773879 1.6484224 0.50685436 4293530880
3.1227753 1.7290012 0.54276788 4294053120
3.1233413 1.7294356 0.55339581 4294053120
3.1298118 1.7331387 0.56445593 4294183680
3.122885 1.7294265 0.57244766 4294183680
3.1225288 1.7293518 0.58096111 4294183680
3.1097152 1.7223805 0.5864495 4294053120
3.1054406 1.7201366 0.59282589 4294053120
3.0933809 1.7135822 0.59699118 4294053120
3.1045704 1.7199016 0.60494536 4294053120
3.0861304 1.7098136 0.60640919 4294053120
3.0811319 1.7071691 0.6097697 4293922560
3.0848544 1.709355 0.61414117 4294053120
3.0921259 1.7135077 0.61851197 4294053120
3.0874393 1.711037 0.61976928 4294053120
3.0957832 1.7157854 0.62291753 4294053120
3.0835602 1.7091399 0.62119681 4294053120
3.0791993 1.7068504 0.62032914 4293922560
3.1011951 1.7191658 0.62404048 4294053120
3.0892982 1.7127014 0.62019837 4294053120
3.1006365 1.7191135 0.62029302 4294053120
3.1162803 1.7279134 0.62050009 4294183680
3.1046996 1.721625 0.61455715 4294053120
3.1246712 1.7328264 0.61412859 4294183680
3.114064 1.7270778 0.60695988 4294053120
3.1178792 1.7293249 0.60190511 4294183680
3.1294849 1.7358925 0.59762222 4294183680
3.1189752 1.7301984 0.58841914 4294183680
3.1202095 1.7310164 0.58077025 4294183680
3.1081915 1.7244854 0.57001013 4294053120
3.113096 1.7273395 0.56171358 4294053120
3.1096647 1.7255709 0.55125999 4294053120
3.124927 1.7341722 0.54344624 4294183680
3.1329415 1.7387543 0.53366667 4294183680
3.1248565 1.7344055 0.52053326 4294053120
3.0829425 1.7120296 0.42524916 4293922560
3.0998247 1.7215388 0.41191196 4293922560
3.1138473 1.7294624 0.39757425 4294053120
3.1121471 1.7286577 0.38071868 4294053120
3.0772855 1.7094398 0.35957783 4293922560
3.086689 1.7147999 0.34335256 4293922560
3.1153617 1.7308625 0.32867476 4294053120
3.0969541 1.7207794 0.3086032 4293922560
3.0691936 1.7054999 0.28753042 4293792000
3.0823357 1.712939 0.27006361 4293792000
3.0988297 1.7222418 0.25241232 4293922560
3.0994227 1.7227118 0.23308088 4293922560
3.0730646 1.7082074 0.21162619 4293792000
3.0962176 1.7212127 0.19337513 4293922560
3.1027327 1.7249743 0.17368017 4293922560
3.1100092 1.7291597 0.15374821 4293922560
3.0694833 1.7067769 0.13149673 4293792000
3.0975516 1.7225189 0.11213229 4293922560
3.0947816 1.7211207 0.091355667 4293922560
3.0816116 1.7139403 0.070276864 4293792000
3.0607154 1.702463 0.049172148 4293792000
3.0777953 1.7121 0.028655389 4293792000
3.0705504 1.7082121 0.0078087784 4293792000
3.0410132 1.691926 -0.012859997 4293661440
3.0545361 1.6995863 -0.03358154 4293661440
3.0621939 1.7039855 -0.054348279 4293792000
3.0744362 1.7109355 -0.075272478 4293792000
3.0398729 1.691848 -0.094831564 4293661440
3.0682199 1.7077581 -0.11619598 4293792000
3.0884809 1.7191715 -0.1374554 4293922560
3.084373 1.7170266 -0.15759581 4293792000
3.0444167 1.6949317 -0.17545551 4293661440
3.0680985 1.7082504 -0.19667119 4293792000
3.072891 1.7110574 -0.21665204 4293792000
3.0661118 1.7074237 -0.2355732 4293792000
3.0487695 1.6979089 -0.25327873 4293792000
3.0755849 1.7129757 -0.27442282 4293792000
3.0919032 1.7222008 -0.29459733 4293922560
3.0910425 1.7218612 -0.31291085 4293922560
3.0582039 1.7037143 -0.32745567 4293792000
3.0666084 1.7085327 -0.34590194 4293792000
3.0813046 1.7168556 -0.36480504 4293922560
3.0819902 1.7173758 -0.38173574 4293922560
3.0696247 1.7106258 -0.39656803 4293792000
3.045996 1.6975999 -0.40931889 4293792000
3.0956144 1.7253797 -0.43156239 4293922560
3.0939498 1.7245899 -0.4464297 4293922560
3.0903065 1.7226973 -0.46048573 4293922560
3.092082 1.7238234 -0.4748202 4293922560
3.0784557 1.7163659 -0.4862065 4293922560
3.0465295 1.6987076 -0.49396405 4293792000
3.0631003 1.7080779 -0.50894189 4293922560
3.0693529 1.7116975 -0.52171946 4293922560
3.0635533 1.7085984 -0.5318594 4293922560
3.068954 1.7117428 -0.54332918 4293922560
3.0650339 1.7096901 -0.55253416 4293922560
3.063592 1.7090187 -0.5615328 4293922560
3.0583036 1.7062018 -0.56916112 4293922560
3.054976 1.7044773 -0.57647282 4293922560
3.0445237 1.6987786 -0.58174175 4293792000
3.0405159 1.696673 -0.58753198 4293792000
3.0321138 1.6921154 -0.59176731 4293792000
3.0280013 1.6899498 -0.59612685 4293792000
3.0096812 1.6798565 -0.59696549 4293661440
3.0176818 1.6844472 -0.60230297 4293792000
2.9626608 1.6538724 -0.59433389 4293530880
2.9622684 1.653777 -0.59655505 4293530880
3.0121844 1.6817571 -0.60821974 4293792000
3.0197353 1.6860963 -0.61066216 4293792000
3.0076144 1.6794554 -0.6084199 4293661440
3.0295415 1.6918188 -0.61233753 4293792000
3.0329804 1.6938627 -0.61180294 4293792000
3.0484555 1.7026259 -0.61296535 4293922560
3.0440753 1.7003042 -0.60941923 4293922560
3.0409818 1.6987001 -0.60542548 4293792000
3.0669382 1.7133168 -0.60646766 4293922560
3.0612979 1.7102903 -0.60053885 4293922560
3.065623 1.7128283 -0.5958634 4293922560
3.0655613 1.712916 -0.58963591 4293922560
3.063982 1.7121556 -0.58243585 4293922560
3.0486212 1.7036963 -0.57198668 4293922560
3.0497034 1.7044209 -0.56399041 4293922560
3.037092 1.6974951 -0.55284834 4293792000
3.039537 1.6989799 -0.54383397 4293792000
3.0439024 1.7015377 -0.53451514 4293792000
3.0655739 1.713766 -0.52752584 4293922560
3.0701625 1.716449 -0.51690519 4293922560
3.0684049 1.7155852 -0.50461763 4293922560
3.0408685 1.7003127 -0.48764333 4293792000
3.0306132 1.6946971 -0.47303781 4293792000
3.0490286 1.705107 -0.46232483 4293792000
3.0639672 1.7135744 -0.45041248 4293922560
3.0607512 1.7118928 -0.43527561 4293792000
3.0366852 1.6985536 -0.41682529 4293792000
3.0464396 1.7041223 -0.40260991 4293792000
3.062984 1.7134883 -0.38870367 4293792000
3.0688171 1.7168657 -0.37288994 4293792000
3.0673902 1.7161827 -0.35575822 4293792000
3.0360518 1.6987702 -0.33495641 4293661440
3.0533745 1.7085726 -0.31921712 4293792000
3.0634005 1.7142946 -0.30220601 4293792000
3.0610847 1.7131131 -0.28360319 4293792000
3.0370634 1.6997882 -0.26284438 4293661440
3.0670466 1.7166758 -0.24641888 4293792000
3.0594149 1.7125192 -0.22657369 4293792000
3.059494 1.7126764 -0.20709823 4293792000
3.0359492 1.699614 -0.18595518 4293661440
3.0534339 1.7095108 -0.16715142 4293792000
3.0622931 1.7145814 -0.14752445 4293792000
3.0726879 1.7205119 -0.12768456 4293792000
3.0503922 1.7081451 -0.10643521 4293661440
3.0720978 1.7204074 -0.086599715 4293792000
3.0861058 1.7283621 -0.066215873 4293922560
3.0756428 1.7226176 -0.045217138 4293792000
3.0727994 1.7211385 -0.024370069 4293792000
3.0948966 1.7336237 -0.0035591633 4293922560
3.0873983 1.7295387 0.017382655 4293922560
3.0571289 1.7127013 0.037917349 4293792000
3.1081834 1.7414055 0.059575055 4293922560
3.1220939 1.7493104 0.080888405 4294053120
3.1074204 1.7412065 0.10136404 4293922560
2.945842 1.6508144 0.1157361 4293269760
3.1146369 1.7454776 0.14306206 4293922560
3.116838 1.7468252 0.16368745 4294053120
3.0882466 1.7309219 0.18234122 4293922560
2.7941263 1.5662444 0.18299119 4292747520
3.1245713 1.7515036 0.2246616 4294053120
3.1163917 1.7470356 0.24374932 4294053120
3.0727179 1.7226766 0.25946608 4293792000
2.8063281 1.5734967 0.25415552 4292878080
3.1339729 1.7572366 0.30279672 4294053120
3.1450849 1.7635819 0.32252368 4294183680
3.1194677 1.7493398 0.33804092 4294053120
2.9533422 1.6563294 0.3368462 4293400320
2.8204618 1.5819447 0.3373884 4292878080
3.1366026 1.7592978 0.39230415 4294183680
3.1186624 1.7493571 0.4065842 4294053120
3.0954211 1.7364429 0.41950363 4293922560
3.0111682 1.6893137 0.42313719 4293661440
2.9726131 1.667806 0.43211395 4293530880
3.1378286 1.7605802 0.4708322 4294183680
3.1311123 1.7569332 0.48394603 4294183680
3.1282511 1.7554483 0.49706495 4294183680
3.1031332 1.7414787 0.50596398 4294053120
3.0805831 1.7289479 0.51451176 4293922560
2.9677296 1.6657519 0.50686616 4293530880
3.1285441 1.7560971 0.54555392 4294183680
3.1218262 1.7524498 0.55494076 4294183680
3.1282713 1.7561886 0.56602758 4294183680
3.1256678 1.7548506 0.57483631 4294183680
3.1201427 1.7518731 0.58241999 4294183680
3.1159708 1.7496551 0.58955598 4294183680
3.0953619 1.7382109 0.59283817 4294053120
3.0996773 1.740757 0.60016769 4294053120
3.0944932 1.7379708 0.60495764 4294053120
3.0838463 1.7321178 0.60794663 4294053120
3.0831575 1.7318556 0.61217093 4294053120
3.0954549 1.7388859 0.61827248 4294053120
3.0906749 1.7363274 0.62024838 4294053120
3.0902956 1.7362407 0.62237662 4294053120
3.0900235 1.7362149 0.62379676 4294053120
3.085567 1.7338389 0.6236394 4294053120
3.0855124 1.7339358 0.6236397 4294053120
3.0735455 1.7273414 0.62050313 4294053120
3.0955782 1.7398477 0.62349772 4294053120
3.1068802 1.7463272 0.62358123 4294183680
3.1018617 1.7436378 0.61965424 4294053120
3.0980482 1.7416257 0.61525202 4294053120
3.1231098 1.7558408 0.61583567 4294183680
3.1159756 1.7519639 0.60932559 4294183680
3.1111851 1.7494041 0.60258359 4294183680
3.1160991 1.7522994 0.59701836 4294183680
3.1253676 1.7576436 0.59156138 4294183680
3.1182394 1.7537708 0.58230925 4294183680
3.1189322 1.7542952 0.57385921 4294183680
3.1029754 1.7454584 0.56172585 4294053120
3.1116133 1.7504507 0.55341798 4294053120
3.1147666 1.75236 0.54345858 4294183680
3.1184437 1.7545644 0.53294206 4294183680
3.1224568 1.7569587 0.52184355 4294183680
3.0777221 1.7326802 0.42592752 4293922560
3.0958376 1.7430133 0.41273803 4294053120
3.1212971 1.7574816 0.3998408 4294053120
3.1119065 1.7523365 0.38194564 4294053120
3.0875909 1.7387894 0.36197469 4293922560
3.084516 1.737198 0.34424445 4293922560
3.1001914 1.746163 0.32815403 4293922560
3.0955536 1.7436925 0.30948445 4293922560
3.0678864 1.728254 0.28836 4293792000
3.0757756 1.7328365 0.27038178 4293922560
3.0922165 1.742236 0.25270918 4293922560
3.1058493 1.7500557 0.23434192 4293922560
3.0674057 1.7285434 0.21193945 4293792000
3.0948339 1.7441348 0.19393386 4293922560
3.1063738 1.7507778 0.17446665 4293922560
3.1042314 1.7497133 0.15397708 4293922560
3.0668328 1.7287831 0.13182597 4293792000
3.083107 1.7380948 0.11198565 4293922560
3.081573 1.7373722 0.091274776 4293922560
3.077657 1.7353069 0.070429422 4293792000
3.0672925 1.7296065 0.04945416 4293792000
3.06341 1.7275592 0.028626038 4293792000
3.0736103 1.7334505 0.007856857 4293792000
3.0354574 1.7120821 -0.012865554 4293661440
3.0489352 1.7198211 -0.033616588 4293792000
3.0565667 1.7242647 -0.054412782 4293792000
3.068768 1.731286 -0.075366333 4293792000
3.0386693 1.7144526 -0.095090114 4293661440
3.0625689 1.728072 -0.11634824 4293792000
3.0796382 1.7378409 -0.13749772 4293922560
3.0732181 1.7343608 -0.15752764 4293792000
3.0352902 1.7131047 -0.17548963 4293661440
3.0548759 1.7242942 -0.19645298 4293792000
3.0680084 1.7318441 -0.21700221 4293792000
3.0648 1.7301741 -0.23622872 4293792000
3.0508769 1.7224568 -0.25426817 4293792000
3.0863891 1.7426385 -0.27627066 4293922560
3.0818155 1.7401978 -0.29458508 4293922560
3.0854843 1.742409 -0.31335726 4293922560
3.064271 1.7305738 -0.32916301 4293792000
3.0566008 1.7263826 -0.34588981 4293792000
3.0755792 1.7372364 -0.36530611 4293922560
3.0805883 1.7402037 -0.38279694 4293922560
3.0639315 1.7309365 -0.39711541 4293922560
3.0250547 1.7091191 -0.40782732 4293792000
3.0823114 1.7415929 -0.43110391 4293922560
3.079529 1.7401594 -0.44579339 4293922560
3.0923045 1.7475135 -0.46227705 4294053120
3.0897522 1.7462095 -0.47600222 4294053120
3.0770278 1.739158 -0.48755842 4293922560
3.0486488 1.72326 -0.49591151 4293792000
3.0530961 1.7259077 -0.50892973 4293922560
3.0636334 1.731997 -0.52244025 4293922560
3.0621541 1.7312956 -0.53334385 4293922560
3.0589283 1.7296067 -0.54331702 4293922560
3.0631914 1.73215 -0.55399734 4293922560
3.0656171 1.7336545 -0.56372988 4293922560
3.0654962 1.7337192 -0.57235229 4293922560
3.0492878 1.7246882 -0.57727242 4293922560
3.0474539 1.7237829 -0.5841946 4293922560
3.0230963 1.7101408 -0.58607185 4293792000
3.0274844 1.7127516 -0.59278762 4293792000
3.0048316 1.7000699 -0.59349781 4293792000
3.0118501 1.7041671 -0.59933907 4293792000
3.0112464 1.7039531 -0.60297668 4293792000
2.9658351 1.6783929 -0.59690619 4293661440
2.9611549 1.6758701 -0.59827244 4293530880
2.9651508 1.6782547 -0.60068774 4293661440
2.9692504 1.6806977 -0.60242474 4293661440
3.0063491 1.7018124 -0.61014462 4293792000
2.9978018 1.6971003 -0.60790592 4293661440
3.024049 1.7120774 -0.61199087 4293792000
3.014724 1.7069241 -0.60816813 4293792000
3.04269 1.7228758 -0.61112624 4293922560
3.0516112 1.7280495 -0.60951704 4293922560
3.0466015 1.7253375 -0.60441506 4293922560
3.0632899 1.7349081 -0.60288632 4293922560
3.0560215 1.7309165 -0.59593499 4293922560
3.0512378 1.7283307 -0.58879709 4293922560
3.0582464 1.732421 -0.58324093 4293922560
3.0463717 1.7258185 -0.57342696 4293922560
3.0474522 1.7265514 -0.56541032 4293922560
3.035744 1.7200408 -0.55440307 4293792000
3.0252874 1.7142379 -0.54305166 4293792000
3.0459781 1.7260765 -0.53662068 4293922560
3.0520945 1.7296604 -0.52692056 4293922560
3.0773268 1.7440736 -0.51979601 4293922560
3.0583568 1.7334458 -0.50460547 4293922560
3.0395265 1.7228954 -0.48901501 4293792000
3.0293083 1.7172228 -0.47437322 4293792000
3.0562923 1.7326301 -0.46493185 4293922560
3.0539308 1.7314091 -0.45040032 4293922560
3.0581403 1.7339116 -0.43631941 4293922560
3.0310557 1.7186774 -0.4174068 4293792000
3.0486255 1.7287515 -0.40420759 4293792000
3.065918 1.7386695 -0.39033926 4293922560
3.0674121 1.7396326 -0.37392998 4293922560
3.0659933 1.7389439 -0.35675082 4293922560
3.0340846 1.7209684 -0.33582583 4293792000
3.0489204 1.7294945 -0.31978604 4293792000
3.0568261 1.7340915 -0.30253607 4293792000
3.0510504 1.7309307 -0.28359106 4293792000
3.027107 1.7174661 -0.26283234 4293661440
3.0604622 1.7364966 -0.24668564 4293792000
3.0584207 1.7354525 -0.22723076 4293792000
3.058145 1.73541 -0.20767367 4293792000
3.0338109 1.7217196 -0.18642163 4293661440
3.0521085 1.7322124 -0.16761442 4293792000
3.0600708 1.7368429 -0.14788851 4293792000
3.0547872 1.7339584 -0.12734802 4293792000
3.044733 1.7283666 -0.10657432 4293792000
3.0698454 1.7427291 -0.086807147 4293792000
3.0846772 1.7512594 -0.06638898 4293922560
3.0655522 1.7405195 -0.045204949 4293792000
3.071676 1.7441083 -0.024427339 4293792000
3.0882199 1.753612 -0.0035502191 4293922560
3.0833657 1.7509706 0.017430531 4293922560
3.047096 1.7304953 0.037929464 4293792000
3.1038923 1.7628516 0.059702121 4293922560
3.124018 1.7743925 0.081219353 4294053120
3.0972338 1.7593004 0.10137679 4293922560
2.9396477 1.6699347 0.11588544 4293400320
3.1059732 1.7644924 0.14314662 4293922560
3.1026974 1.7627472 0.16349328 4293922560
3.0781066 1.7488966 0.18235345 4293922560
2.7849507 1.5825082 0.18300226 4292747520
3.1143107 1.7696894 0.22467399 4294053120
3.1193595 1.7726735 0.24479964 4294053120
3.0857933 1.7537216 0.26144433 4293922560
2.7884421 1.5849072 0.25337774 4292747520
3.135452 1.7821664 0.30395201 4294183680
3.1302335 1.7793188 0.32207054 4294183680
3.0975285 1.7608526 0.3367807 4294053120
2.9600763 1.6828601 0.33874103 4293530880
2.8362706 1.6126126 0.34041247 4293008640
3.1323855 1.7810143 0.39308143 4294183680
3.1101305 1.768484 0.40682131 4294053120
3.0734057 1.7477275 0.41790438 4293922560
3.0055857 1.7092921 0.42375788 4293661440
2.87025 1.6324697 0.41861171 4293139200
3.1201887 1.774678 0.46974111 4294183680
3.1285729 1.7795652 0.48516154 4294183680
3.1093559 1.7687591 0.49570385 4294053120
3.0972338 1.7619864 0.50668061 4294053120
3.0747547 1.7493232 0.51524502 4293922560
3.040247 1.7298179 0.52098399 4293792000
3.1182556 1.7743055 0.54556632 4294183680
3.1282473 1.7801112 0.55793083 4294183680
3.1179824 1.7743955 0.56603998 4294183680
3.1204493 1.7759222 0.57578319 4294183680
3.1227472 1.7773535 0.58484334 4294183680
3.0971444 1.7629111 0.58793974 4294053120
3.0928936 1.7606163 0.59433353 4294053120
3.0894787 1.7587973 0.60017997 4294053120
3.0928783 1.7608566 0.60665095 4294053120
3.0736983 1.750066 0.60795885 4294053120
3.0815744 1.7546738 0.61388969 4294053120
3.0809865 1.7544649 0.61742657 4294053120
3.080502 1.7543154 0.62026066 4294053120
3.0878267 1.7586119 0.62394595 4294053120
3.0755723 1.7517626 0.62294197 4294053120
3.0796878 1.7542335 0.62451965 4294053120
3.0839117 1.7567668 0.62538797 4294053120
3.0972047 1.7644655 0.62735969 4294183680
3.0853848 1.7578641 0.62351 4294053120
3.0923693 1.7619718 0.62273145 4294053120
3.1044867 1.7690046 0.62224108 4294183680
3.1079705 1.7711207 0.61927575 4294183680
3.1042595 1.7691392 0.61415333 4294183680
3.1139388 1.7747861 0.61095273 4294183680
3.1197948 1.7782563 0.60626203 4294183680
3.1144028 1.7753183 0.59867865 4294183680
3.1150701 1.7758332 0.59157377 4294183680
3.1199701 1.7787608 0.5845719 4294183680
3.1086545 1.7724476 0.57387161 4294183680
3.0981221 1.7665802 0.56271446 4294053120
3.092773 1.763667 0.5518977 4294053120
3.1165245 1.7773426 0.54557687 4294183680
3.1091304 1.7732646 0.5331201 4294183680
3.1052835 1.771209 0.52070171 4294053120
3.0742455 1.7544001 0.42686716 4293922560
3.09691 1.7674686 0.41426089 4294053120
3.11851 1.7799319 0.40081912 4294053120
3.1168315 1.7791157 0.3838304 4294053120
3.0730844 1.7542946 0.36147824 4293922560
3.082119 1.7595903 0.34512883 4293922560
3.1036236 1.7720037 0.32961899 4294053120
3.0896647 1.7641784 0.30993125 4293922560
3.0625741 1.7488567 0.28882667 4293922560
3.0795865 1.7587085 0.2716274 4293922560
3.0922294 1.7660675 0.25356084 4293922560
3.0955973 1.7681326 0.23435424 4293922560
3.061614 1.7488714 0.21225275 4293792000
3.0889521 1.7646233 0.1942194 4293922560
3.098896 1.7704444 0.17463599 4293922560
3.089644 1.7653035 0.15377282 4293922560
3.0567057 1.7466333 0.13183814 4293792000
3.0772648 1.7585182 0.11215679 4293922560
3.0823238 1.7615505 0.091613725 4293922560
3.0692394 1.7542182 0.070482075 4293792000
3.05282 1.7449793 0.049395289 4293792000
3.0654457 1.752335 0.028754523 4293792000
3.0626559 1.7508829 0.0078668473 4293792000
3.0375836 1.7366964 -0.012902698 4293792000
3.0518837 1.7450101 -0.033745822 4293792000
3.0508072 1.7445364 -0.054477248 4293792000
3.0540969 1.7465582 -0.075243503 4293792000
3.0362473 1.7364955 -0.095315605 4293792000
3.0567853 1.748378 -0.11650047 4293792000
3.0772662 1.7602298 -0.13783345 4293922560
3.0806305 1.7622958 -0.15841497 4293922560
3.0374615 1.7377517 -0.17618267 4293792000
3.0601161 1.7508481 -0.19742686 4293792000
3.0570734 1.7492491 -0.21693408 4293792000
3.0589967 1.75049 -0.23655035 4293792000
3.0407882 1.7402147 -0.25425607 4293792000
3.0711658 1.7577331 -0.27580917 4293922560
3.0802732 1.7630847 -0.29540017 4293922560
3.083925 1.7653154 -0.31422371 4293922560
3.0584559 1.7508824 -0.32961535 4293922560
3.0540032 1.7484739 -0.34672868 4293792000
3.0688577 1.7571145 -0.36570445 4293922560
3.0703962 1.7581347 -0.38278472 4293922560
3.0701795 1.7581502 -0.39922941 4293922560
3.0236642 1.7316614 -0.4089787 4293792000
3.0841722 1.7664388 -0.43278065 4294053120
3.0813918 1.764986 -0.44752845 4294053120
3.0820696 1.7655127 -0.46226478 4294053120
3.0799563 1.7644409 -0.47605649 4294053120
3.074579 1.7614993 -0.48877385 4294053120
3.0471485 1.7459264 -0.49729905 4293922560
3.0472071 1.7460957 -0.50962198 4293922560
3.0491979 1.7473712 -0.52169514 4293922560
3.0527978 1.7495683 -0.53346837 4293922560
3.0497625 1.7479641 -0.54347634 4293922560
3.0573328 1.7524356 -0.55476147 4293922560
3.0543835 1.7508798 -0.56351876 4293922560
3.0510602 1.7491088 -0.57153928 4293922560
3.0504031 1.748865 -0.57938707 4293922560
3.0373585 1.7415214 -0.5841825 4293922560
3.0216362 1.7326413 -0.58772111 4293792000
3.0174537 1.7303741 -0.59277564 4293792000
3.0025706 1.721972 -0.59500837 4293792000
3.0018697 1.7216986 -0.59932715 4293792000
2.9607732 1.6982647 -0.59484291 4293661440
2.9602783 1.6981066 -0.59775573 4293661440
2.9598846 1.6980062 -0.59998977 4293661440
2.9630113 1.6999239 -0.60223615 4293661440
2.9628246 1.6999412 -0.60310733 4293661440
3.0083423 1.7261714 -0.61256397 4293792000
2.9921341 1.717 -0.60876161 4293792000
3.0140224 1.7296798 -0.61197883 4293792000
3.0175431 1.7318242 -0.61074579 4293792000
3.0402904 1.7449987 -0.6126613 4293922560
3.045764 1.7482638 -0.61035979 4293922560
3.0527375 1.7523896 -0.60763019 4293922560
3.0520515 1.7521203 -0.60266167 4293922560
3.0576689 1.7554678 -0.59822464 4294053120
3.0540526 1.7535158 -0.59128541 4293922560
3.0446036 1.7482153 -0.58256078 4293922560
3.049103 1.7509201 -0.57583541 4293922560
3.0381224 1.7447386 -0.56554353 4293922560
3.0256035 1.7376727 -0.55437875 4293792000
3.0229597 1.736275 -0.54442608 4293792000
3.0358691 1.7438062 -0.53660858 4293922560
3.0582595 1.7567822 -0.52972585 4293922560
3.0628223 1.7595223 -0.51905805 4293922560
3.0482047 1.7512475 -0.50459331 4293922560
3.0337303 1.7430537 -0.48969477 4293792000
3.0192511 1.7348555 -0.47436118 4293792000
3.0375481 1.745482 -0.46361017 4293792000
3.0480909 1.7516553 -0.45102328 4293922560
3.0643353 1.7611046 -0.43864295 4293922560
3.0209899 1.7363203 -0.41739476 4293792000
3.0385005 1.7464964 -0.40419549 4293792000
3.0557349 1.756515 -0.39032707 4293922560
3.0677454 1.7635329 -0.37520179 4293922560
3.0593264 1.7588115 -0.35714835 4293922560
3.0205529 1.7366447 -0.33543134 4293792000
3.0418901 1.7490221 -0.32009923 4293792000
3.0498645 1.7537204 -0.30284035 4293792000
3.0452332 1.7511731 -0.28398076 4293792000
3.0256929 1.7400552 -0.2635712 4293792000
3.0502915 1.75431 -0.24667346 4293792000
3.055687 1.7575264 -0.22777069 4293792000
3.0523076 1.7556978 -0.20795529 4293792000
3.028055 1.7418668 -0.18667537 4293792000
3.0345249 1.7457004 -0.16719423 4293792000
3.0585589 1.7596347 -0.14829431 4293792000
3.0489624 1.7542297 -0.12751606 4293792000
3.0372119 1.7475851 -0.10665302 4293792000
3.0639706 1.7630891 -0.086916924 4293792000
3.0657527 1.7642282 -0.066191413 4293922560
3.0588243 1.7603567 -0.045243323 4293792000
3.0603321 1.7613378 -0.024406355 4293792000
3.0822823 1.7740799 -0.003542071 4293922560
3.0852439 1.7758986 0.017513994 4293922560
3.0369596 1.7482306 0.037941583 4293792000
3.0963423 1.7825145 0.05976855 4293922560
3.1084285 1.7895849 0.081095301 4294053120
3.0990446 1.7843 0.10178915 4294053120
2.9264011 1.6850507 0.11575945 4293269760
3.1062052 1.7886525 0.14364941 4294053120
3.1040583 1.7875326 0.1641254 4294053120
3.0843067 1.7762784 0.18334581 4293922560
2.7877939 1.6056919 0.18381406 4292747520
3.1171787 1.7954348 0.22564632 4294053120
3.1122446 1.7927108 0.24506992 4294053120
3.0720632 1.7696909 0.26116225 4293922560
2.7834771 1.6036248 0.25378329 4292747520
3.1282063 1.8022542 0.30427554 4294183680
3.1402814 1.8093268 0.32419896 4294183680
3.1066298 1.7900637 0.33891362 4294053120
2.9545295 1.7025719 0.33924839 4293530880
2.8268237 1.6291209 0.34042376 4293008640
3.1219523 1.799245 0.39309388 4294183680
3.1126847 1.7940251 0.40853 4294183680
3.0881212 1.7799921 0.42132378 4294053120
3.0076127 1.7337226 0.42547438 4293661440
2.8692822 1.6541286 0.41988188 4293139200
3.1259267 1.8021352 0.47219229 4294183680
3.120713 1.7992517 0.48557332 4294183680
3.0989943 1.7868556 0.49571621 4294053120
3.0946314 1.7844619 0.5079608 4294053120
3.0687933 1.7696893 0.5159784 4294053120
2.9601073 1.7071565 0.50895333 4293530880
3.1164262 1.7973912 0.54708296 4294183680
3.1131718 1.7956382 0.55711126 4294183680
3.1110103 1.7945155 0.56667614 4294183680
3.1100454 1.7940831 0.57579565 4294183680
3.0995095 1.7881318 0.58244479 4294183680
3.0996373 1.78833 0.59039497 4294183680
3.0825794 1.7786168 0.59434587 4294053120
3.1021049 1.7900035 0.60466331 4294183680
3.0859783 1.7808272 0.60733569 4294053120
3.0979943 1.7878847 0.6148299 4294183680
3.0789764 1.7770399 0.61543781 4294053120
3.078388 1.776827 0.61898357 4294053120
3.0744905 1.7747052 0.621135 4294053120
3.0817895 1.7790443 0.62482333 4294053120
3.0772519 1.7765538 0.62538195 4294053120
3.0736756 1.7746184 0.62539989 4294053120
3.0650904 1.7697922 0.6236642 4294053120
3.0868678 1.782491 0.62737203 4294183680
3.087029 1.7827142 0.6259445 4294183680
3.0905778 1.784894 0.62446797 4294183680
3.0975361 1.7890427 0.62294 4294183680
3.1018612 1.7916722 0.62014139 4294183680
3.105844 1.7941049 0.61653841 4294183680
3.1120782 1.7978384 0.61264622 4294183680
3.1076589 1.7954208 0.60593927 4294183680
3.1159601 1.8003498 0.60099822 4294183680
3.1089387 1.7964301 0.59240049 4294183680
3.105705 1.794698 0.58386123 4294183680
3.0980837 1.7904315 0.57384926 4294183680
3.0943925 1.7884353 0.56393361 4294183680
3.0952756 1.7890821 0.55420905 4294183680
3.1065915 1.7957574 0.54567343 4294183680
3.1072392 1.7962695 0.53459507 4294183680
3.1121492 1.7992455 0.52361643 4294183680
3.0693491 1.7754036 0.42762965 4293922560
3.0908558 1.7879788 0.41485074 4294053120
3.1228836 1.8066403 0.40274188 4294183680
3.1064098 1.7972558 0.38384283 4294053120
3.0671139 1.7746706 0.36199918 4293922560
3.0846677 1.7849644 0.34658715 4294053120
3.0889339 1.7875739 0.32917154 4294053120
3.0914032 1.7891445 0.31116027 4294053120
3.0561604 1.7688975 0.28920189 4293922560
3.0709066 1.7775705 0.27178344 4293922560
3.0869329 1.786986 0.25398928 4294053120
3.0974064 1.7931898 0.23529254 4294053120
3.0645542 1.7743207 0.21318409 4293922560
3.0894954 1.7888983 0.19491978 4293922560
3.0885255 1.7884805 0.17464833 4293922560
3.08283 1.785327 0.15396179 4293922560
3.0594473 1.7719339 0.13241394 4293922560
3.0790744 1.7834398 0.11261403 4293922560
3.0763311 1.7819949 0.091755778 4293922560
3.0589643 1.772082 0.070494302 4293792000
3.0425992 1.7627475 0.049407452 4293792000
3.0551817 1.7701768 0.028766735 4293792000
3.0567274 1.7712145 0.0078910599 4293792000
3.0235691 1.7521505 -0.012875009 4293661440
3.0416629 1.7627732 -0.033733662 4293792000
3.0483761 1.7668042 -0.054602943 4293792000
3.0518425 1.7689549 -0.075426742 4293792000
3.0305908 1.7567834 -0.095444694 4293792000
3.0532026 1.7700276 -0.11674137 4293792000
3.0700598 1.7799391 -0.13795994 4293922560
3.0659871 1.7777215 -0.15818073 4293922560
3.0229633 1.7529269 -0.17592017 4293792000
3.0448542 1.7657566 -0.19709174 4293792000
3.0554636 1.7720485 -0.21753459 4293922560
3.0541487 1.7714279 -0.2369561 4293922560
3.0340476 1.7599146 -0.25453261 4293792000
3.0565588 1.7731081 -0.27540946 4293922560
3.0656366 1.7785136 -0.29497424 4293922560
3.0735862 1.7832652 -0.31421143 4293922560
3.0568147 1.7736795 -0.33053219 4293922560
3.0569355 1.7738901 -0.3482134 4293922560
3.0628693 1.7774725 -0.36620542 4293922560
3.0678394 1.780496 -0.38373849 4293922560
3.0641806 1.7785136 -0.39977667 4293922560
3.0255499 1.7562393 -0.41059536 4293792000
3.0695343 1.7818992 -0.43216518 4293922560
3.0710554 1.7829213 -0.44751614 4294053120
3.0760188 1.7859409 -0.46289659 4294053120
3.0739093 1.7848556 -0.47670764 4294053120
3.0660515 1.7804331 -0.48904634 4294053120
3.0419948 1.7666063 -0.49811575 4293922560
3.0498199 1.7712854 -0.51176018 4293922560
3.056 1.7750096 -0.524602 4293922560
3.0545228 1.7742879 -0.53555131 4293922560
3.0600381 1.7776262 -0.54712522 4294053120
3.0633013 1.7796568 -0.5576992 4294053120
3.0569389 1.7760968 -0.56587356 4294053120
3.0527673 1.7738085 -0.57376933 4294053120
3.0494609 1.7720219 -0.58114415 4293922560
3.043366 1.7686146 -0.58729249 4293922560
3.0308595 1.7614818 -0.59148282 4293922560
3.0105984 1.7498423 -0.59340864 4293792000
3.0184529 1.7545359 -0.60015064 4293922560
3.0045671 1.7465975 -0.60187095 4293792000
2.995445 1.7414256 -0.60380989 4293792000
2.9992018 1.7437369 -0.60762805 4293792000
3.007318 1.7485816 -0.61162812 4293792000
2.9985073 1.7435881 -0.61147767 4293792000
3.0068316 1.7485536 -0.61409837 4293792000
2.9897196 1.7387328 -0.61081535 4293792000
3.0156846 1.753953 -0.61559838 4293922560
3.0190878 1.7560576 -0.61505723 4293922560
3.0267451 1.7606355 -0.61465549 4293922560
3.0343294 1.7651712 -0.6135087 4293922560
3.0474503 1.7729264 -0.61274129 4294053120
3.0467348 1.7726356 -0.60846728 4294053120
3.0503116 1.7748408 -0.60433483 4294053120
3.0475757 1.773374 -0.59824908 4294053120
3.0480466 1.7737718 -0.59209985 4294053120
3.0505683 1.7753623 -0.58565402 4294053120
3.0430405 1.771106 -0.57661605 4293922560
3.0338755 1.7658961 -0.56664461 4293922560
3.0154274 1.7552837 -0.55436671 4293792000
3.0127919 1.7538706 -0.54441404 4293792000
3.0307164 1.7644211 -0.53749216 4293922560
3.0449035 1.7727976 -0.52918142 4293922560
3.0644901 1.7843173 -0.52107781 4294053120
3.0507817 1.7764592 -0.50670868 4293922560
3.0362947 1.7681463 -0.49174732 4293922560
3.0176549 1.7574145 -0.47569647 4293792000
3.0358939 1.7681501 -0.46490756 4293922560
3.0470877 1.7747852 -0.45238245 4293922560
3.0552316 1.779645 -0.43880415 4293922560
3.0151117 1.7564023 -0.4179762 4293792000
3.0290639 1.7646431 -0.40428877 4293792000
3.0497427 1.7768018 -0.39086407 4293922560
3.0574176 1.7813886 -0.37518954 4293922560
3.0610626 1.7836286 -0.35854271 4293922560
3.0103824 1.7542259 -0.3354193 4293792000
3.0350893 1.7687324 -0.32044959 4293792000
3.0395939 1.771472 -0.30282816 4293792000
3.0388517 1.771155 -0.28433013 4293792000
3.0189486 1.7596741 -0.26385945 4293792000
3.0400174 1.772064 -0.24666129 4293792000
3.049705 1.7778238 -0.22807986 4293922560
3.0551877 1.7811337 -0.20883967 4293922560
3.0331388 1.7683992 -0.18760508 4293792000
3.0317135 1.7676826 -0.16759014 4293792000
3.0353053 1.7698898 -0.14765522 4293792000
3.0464587 1.776505 -0.1278282 4293792000
3.0364726 1.7707981 -0.10697334 4293792000
3.0579627 1.7834398 -0.087026663 4293922560
3.0589423 1.7841253 -0.066254735 4293922560
3.0485141 1.7781599 -0.045231119 4293792000
3.0586548 1.7841866 -0.024461489 4293922560
3.0750866 1.7938826 -0.003532815 4293922560
3.0795317 1.7965897 0.017553933 4293922560
3.035358 1.7709438 0.03806366 4293792000
3.0979939 1.8075879 0.060017355 4294053120
3.1100368 1.814728 0.081426382 4294053120
3.0972281 1.8073732 0.1020876 4294053120
2.9329333 1.7116512 0.11642514 4293400320
3.0914133 1.8042135 0.14346084 4294053120
3.1014211 1.8101683 0.16455463 4294053120
3.0695896 1.791713 0.18310018 4293922560
2.8784854 1.6803229 0.19046472 4293139200
3.1055405 1.8129224 0.22557712 4294053120
3.1105497 1.8159628 0.24577938 4294053120
3.0780628 1.7971213 0.26257282 4293922560
2.7826936 1.6248507 0.25458339 4292878080
3.129698 1.8274926 0.30546555 4294183680
3.1210814 1.822582 0.32331932 4294183680
3.1081686 1.8151631 0.34024373 4294183680
3.0216386 1.7647671 0.34815094 4293792000
2.8172808 1.645574 0.34043503 4293008640
3.1149139 1.8194586 0.39354905 4294183680
3.1098981 1.8166497 0.40956023 4294183680
3.0734069 1.7954611 0.42074865 4294053120
3.0180278 1.7632399 0.42840856 4293792000
2.8715858 1.6778325 0.42165565 4293269760
3.1187952 1.8223281 0.47272417 4294183680
3.1101735 1.8174138 0.48558578 4294183680
3.1047778 1.8143839 0.4983384 4294183680
3.0774715 1.7985542 0.50686789 4294053120
3.0170913 1.7634007 0.5090133 4293792000
2.9629171 1.7318687 0.51117635 4293661440
3.1140575 1.8202962 0.54853344 4294183680
3.114598 1.8207361 0.55926949 4294183680
3.1132908 1.8200966 0.56902766 4294183680
3.1021795 1.813728 0.57629931 4294183680
3.0975564 1.8111508 0.58406448 4294183680
3.1010869 1.8133396 0.59268737 4294183680
3.092597 1.8085028 0.59831339 4294183680
3.0764282 1.7991768 0.60170352 4294053120
3.0925665 1.8087373 0.61071026 4294183680
3.0692544 1.7952347 0.61120343 4294053120
3.0651641 1.7929696 0.61476749 4294053120
3.0722318 1.7972292 0.61985409 4294053120
3.0717473 1.7970734 0.62269914 4294053120
3.07987 1.8019519 0.62656581 4294183680
3.0753462 1.7994349 0.62712836 4294183680
3.0709307 1.7969816 0.6269747 4294053120
3.0666239 1.7945919 0.62610698 4294053120
3.0925777 1.8099045 0.63067919 4294183680
3.0765858 1.8006803 0.62595683 4294183680
3.0920248 1.8098445 0.6268943 4294183680
3.0870562 1.8070697 0.62295234 4294183680
3.103272 1.8166913 0.62254304 4294183680
3.0953345 1.8121803 0.6165508 4294183680
3.1052854 1.8181382 0.61339742 4294183680
3.1048005 1.8179893 0.60745066 4294183680
3.1085968 1.8203472 0.60162693 4294183680
3.1058924 1.8189002 0.59384298 4294183680
3.1037097 1.817759 0.58548099 4294183680
3.103785 1.8179401 0.57687181 4294183680
3.0878131 1.8087258 0.56465894 4294183680
3.0830793 1.8060911 0.55391294 4294183680
3.100338 1.8163351 0.54643798 4294183680
3.1137867 1.8243499 0.53755575 4294183680
3.1091888 1.8217965 0.52490902 4294183680
3.0627532 1.7954957 0.42817405 4294053120
3.0922744 1.8129361 0.41646594 4294053120
3.1123013 1.8248152 0.40275434 4294183680
3.0873041 1.8103069 0.38279063 4294053120
3.0687342 1.799564 0.36343586 4294053120
3.0810421 1.8069208 0.34737033 4294053120
3.0898054 1.8122007 0.33039808 4294053120
3.0766265 1.804617 0.31073806 4294053120
3.0540185 1.7915035 0.28999561 4293922560
3.0682356 1.7999824 0.27248421 4293922560
3.0862367 1.8106817 0.25480968 4294053120
3.079082 1.8066295 0.23470758 4294053120
3.0584669 1.7946817 0.2134975 4293922560
3.083324 1.8094053 0.19520544 4294053120
3.0823579 1.8089827 0.17490579 4294053120
3.0731676 1.8037354 0.15401405 4293922560
3.0535674 1.7923796 0.1326223 4293922560
3.0643184 1.7988311 0.1124674 4293922560
3.0615833 1.7973698 0.091638282 4293922560
3.0468497 1.788867 0.070466079 4293792000
3.0452101 1.7880478 0.049632855 4293792000
3.0416245 1.7860862 0.02874819 4293792000
3.0505981 1.7914968 0.0079151215 4293922560
3.0257602 1.777059 -0.012913563 4293792000
3.0347881 1.7825015 -0.033759166 4293792000
3.0345793 1.7825214 -0.054529503 4293792000
3.045604 1.7891375 -0.075515859 4293792000
3.0203021 1.7744223 -0.095432572 4293792000
3.0525761 1.7935179 -0.11710063 4293922560
3.0565429 1.7959911 -0.13780892 4293922560
3.0501828 1.7923986 -0.15789054 4293922560
3.0290594 1.780133 -0.17685954 4293792000
3.0395036 1.7864103 -0.19740248 4293792000
3.0450857 1.7898321 -0.21752237 4293922560
3.0418296 1.7880613 -0.23679298 4293792000
3.03234 1.7826269 -0.25524214 4293792000
3.0477195 1.791806 -0.27553648 4293922560
3.0650251 1.8021184 -0.29590595 4293922560
3.0586607 1.7985201 -0.31374055 4293922560
3.0339754 1.7841519 -0.32917231 4293792000
3.0431154 1.7896653 -0.34780988 4293922560
3.0578635 1.7984761 -0.36683992 4293922560
3.0515165 1.7948855 -0.38298786 4293922560
3.0448325 1.7910959 -0.39859754 4293922560
2.9999864 1.7648649 -0.4085072 4293792000
3.0688636 1.8055072 -0.43352944 4294053120
3.0702798 1.8064805 -0.44891426 4294053120
3.0697598 1.8063147 -0.46351716 4294053120
3.0675416 1.8051494 -0.47732967 4294053120
3.0633104 1.8027996 -0.49026167 4294053120
3.0316498 1.7843122 -0.49810356 4293922560
3.0471244 1.7935535 -0.51303816 4293922560
3.0456059 1.792797 -0.52458978 4293922560
3.0526543 1.7970811 -0.53703558 4294053120
3.0453699 1.7929308 -0.5463503 4294053120
3.0486233 1.7949814 -0.55691069 4294053120
3.0465384 1.7938898 -0.56586134 4294053120
3.0508869 1.7965842 -0.57535863 4294053120
3.0390844 1.7897713 -0.58113194 4293922560
3.024509 1.7813244 -0.58563715 4293922560
3.0281928 1.7836257 -0.59296578 4293922560
3.0164928 1.7768692 -0.59658349 4293922560
3.0166719 1.7771059 -0.60183007 4293922560
2.9900942 1.7615858 -0.60100698 4293792000
2.9979815 1.76636 -0.60636914 4293792000
3.000874 1.7681926 -0.61002767 4293792000
2.9970789 1.766086 -0.61161608 4293792000
2.9925401 1.7635405 -0.61233246 4293792000
2.9923501 1.7635558 -0.61321831 4293792000
2.9880233 1.7611336 -0.61253995 4293792000
3.005414 1.771506 -0.61558628 4293922560
3.0130477 1.7761303 -0.61591101 4293922560
3.028316 1.7852535 -0.61706024 4293922560
3.0239933 1.7828326 -0.6134966 4293922560
3.0336733 1.7886631 -0.61204523 4293922560
3.0448446 1.795373 -0.61015356 4294053120
3.0399189 1.7925951 -0.60432261 4294053120
3.0414383 1.7936158 -0.59907198 4294053120
3.0495543 1.7985247 -0.59440219 4294053120
3.0444217 1.7956232 -0.58645898 4294053120
3.0369201 1.7913241 -0.57741064 4293922560
3.0311887 1.7880678 -0.56806439 4293922560
3.0259936 1.7851266 -0.55819309 4293922560
3.0227613 1.7833421 -0.54806525 4293922560
3.0323048 1.7890915 -0.53959751 4293922560
3.0429666 1.7955006 -0.53063911 4293922560
3.0636725 1.8078346 -0.52270579 4294053120
3.0492554 1.7994519 -0.50817299 4294053120
3.0263684 1.7860712 -0.49180454 4293922560
3.0191247 1.781917 -0.47754109 4293922560
3.0357089 1.7918199 -0.46645492 4293922560
3.0463493 1.7982169 -0.4538056 4293922560
3.041317 1.7953665 -0.43828952 4293922560
3.0123351 1.7783825 -0.41900641 4293792000
3.0221524 1.7842931 -0.40473399 4293792000
3.0395956 1.7947047 -0.39088497 4293922560
3.053921 1.8032773 -0.37602934 4293922560
3.0475531 1.7996361 -0.35817111 4293922560
3.0076365 1.7761906 -0.3362467 4293792000
3.0216532 1.7845805 -0.32011217 4293792000
3.0389161 1.7948878 -0.30378273 4293922560
3.0366352 1.7936571 -0.28508148 4293922560
3.0172303 1.7823154 -0.26459819 4293792000
3.0308514 1.7904733 -0.24674746 4293792000
3.0405059 1.7962897 -0.22815831 4293922560
3.0433052 1.7980583 -0.20872821 4293922560
3.0118482 1.7795951 -0.18691698 4293792000
3.0303152 1.7906164 -0.16807251 4293792000
3.0422521 1.7977818 -0.14848404 4293792000
3.0378509 1.795297 -0.12789121 4293792000
3.0227664 1.7865005 -0.10684402 4293792000
3.0486381 1.8018993 -0.087046154 4293922560
3.0574663 1.8072301 -0.066435561 4293922560
3.0264726 1.7890322 -0.045048255 4293792000
3.0536304 1.8051939 -0.024491655 4293922560
3.0700054 1.8149858 -0.003525665 4293922560
3.0729456 1.8168389 0.017589549 4293922560
3.0206821 1.7860662 0.038020819 4293792000
3.0874076 1.8256183 0.06002976 4294053120
3.0994086 1.8328284 0.081438839 4294053120
3.0900846 1.8274337 0.10221446 4294053120
2.9306514 1.7332989 0.11674672 4293400320
3.0980489 1.8323756 0.14427716 4294053120
3.0993512 1.8332628 0.16502269 4294053120
3.0676923 1.8146609 0.1836284 4293922560
2.7817795 1.6457119 0.18469433 4292878080
3.0992179 1.8335365 0.22590327 4294053120
3.0913262 1.8289874 0.24510972 4294053120
3.0718291 1.8175738 0.26295316 4294053120
2.7937694 1.653227 0.25648817 4292878080
3.1232824 1.8482435 0.30589864 4294183680
3.118979 1.8458173 0.32422403 4294183680
3.0941226 1.8312323 0.3398807 4294053120
2.9421914 1.7414653 0.3401641 4293530880
2.8119221 1.6645035 0.34096584 4293008640
3.1205125 1.847205 0.39562422 4294183680
3.1078086 1.8398086 0.41070366 4294183680
3.0671637 1.8158765 0.42134845 4294053120
3.0077 1.7808044 0.42842063 4293792000
2.8660269 1.6970718 0.42229658 4293269760
3.1166542 1.8455291 0.47403529 4294183680
3.1157317 1.8451056 0.48813832 4294314240
3.1026742 1.8374988 0.49972445 4294183680
3.0788636 1.8235253 0.50885248 4294053120
3.0110199 1.7834804 0.50974655 4293792000
2.9646878 1.7561674 0.51325196 4293661440
3.1153047 1.845471 0.55065191 4294314240
3.1064734 1.8403662 0.55973983 4294314240
3.1063647 1.8404269 0.56972539 4294314240
3.0915556 1.8317816 0.57631177 4294183680
3.0988367 1.8362194 0.58632725 4294183680
3.0947099 1.8339012 0.59351414 4294183680
