# .PCD v0.7 - Point Cloud Data file format
VERSION 0.7
FIELDS x y z rgba
SIZE 4 4 4 4
TYPE F F F U
COUNT 1 1 1 1
WIDTH 1080
HEIGHT 1
VIEWPOINT 0 0 0 1 0 0 0
POINTS 1080
DATA ascii
3.3784533 0.0079162084 -0.54072434 4293400320
3.3587604 0.0079742754 -0.52843732 4293400320
3.3533211 0.008063118 -0.51785892 4293400320
3.3693762 0.0082006231 -0.50997669 4293400320
3.3978808 0.0083677303 -0.50325781 4293530880
3.389647 0.0084498879 -0.49046367 4293400320
3.377192 0.0085212477 -0.47657773 4293400320
3.3565447 0.0085718678 -0.46112096 4293400320
3.3702657 0.0087049101 -0.44989192 4293400320
3.367846 0.0087986598 -0.43596134 4293400320
3.384496 0.0089397151 -0.42395329 4293400320
3.359272 0.0089756241 -0.40626785 4293269760
3.3465676 0.0090418756 -0.38981205 4293269760
3.3664391 0.0091914898 -0.37668598 4293269760
3.3815758 0.0093296841 -0.36245304 4293400320
3.3730276 0.0094058998 -0.34525347 4293400320
3.3204749 0.0093637034 -0.32347232 4293139200
3.3315661 0.009490422 -0.30774325 4293139200
3.3502245 0.0096383179 -0.29222715 4293269760
3.3482141 0.0097300485 -0.27450606 4293269760
3.312398 0.0097271446 -0.25391775 4293139200
3.327316 0.0098651499 -0.23705703 4293139200
3.3191283 0.0099380556 -0.21825981 4293139200
3.319062 0.010033759 -0.1998093 4293139200
3.2809725 0.010018811 -0.17907052 4293008640
2.9687126 0.0091965524 -0.14515504 4291964160
2.7982533 0.0087766722 -0.1207752 4291311360
2.7187369 0.0086191827 -0.10163396 4291050240
2.6785109 0.0085758269 -0.084550694 4290919680
2.6903858 0.0086890915 -0.069192171 4291050240
2.6871755 0.0087565416 -0.053323586 4290919680
2.6466053 0.0087076398 -0.036915623 4290789120
2.6206217 0.0087021543 -0.021068752 4290789120
2.6121204 0.0087505197 -0.0055486416 4290789120
2.6106896 0.0088209836 0.0098992148 4290658560
2.5346785 0.008650953 0.024598187 4290528000
2.5688171 0.0088348128 0.040078532 4290528000
2.5708702 0.0089153787 0.055227309 4290528000
2.5901184 0.009053003 0.070805095 4290658560
2.5684595 0.0090552 0.08517465 4290528000
2.5993438 0.0092331218 0.10123797 4290658560
2.6987743 0.0096456585 0.12059984 4291050240
3.1749511 0.011354289 0.15990464 4292616960
3.3315837 0.011986835 0.1865574 4293139200
3.3979335 0.012314097 0.20920652 4293400320
3.4096551 0.012453471 0.22869803 4293400320
3.4094698 0.012551484 0.24720056 4293400320
3.3506684 0.01244039 0.26086745 4293269760
3.4347703 0.012840234 0.28548315 4293530880
3.4379492 0.012951565 0.30352044 4293530880
3.4421751 0.013067065 0.32134822 4293530880
3.4134226 0.013061428 0.33561897 4293530880
3.3034279 0.012752488 0.34085664 4293139200
3.4390082 0.013356737 0.37113142 4293530880
3.4305379 0.013425562 0.3860606 4293530880
3.4223747 0.013495257 0.40051225 4293530880
3.4048958 0.013528981 0.41330823 4293530880
3.3420894 0.013386855 0.41979682 4293269760
3.4339335 0.013843002 0.44532418 4293530880
3.4375632 0.01395895 0.45930231 4293661440
3.429224 0.01402807 0.47114012 4293530880
3.4205451 0.014095591 0.48232815 4293530880
3.408999 0.01415135 0.49248654 4293530880
3.3722146 0.01410472 0.4982737 4293400320
3.4185135 0.014394288 0.51577455 4293530880
3.4248335 0.014522998 0.52681452 4293530880
3.4293716 0.014645008 0.53700072 4293661440
3.4189625 0.014705395 0.54420978 4293530880
3.4248981 0.014833936 0.55337179 4293661440
3.4089696 0.014870846 0.55833733 4293530880
3.4171338 0.015009513 0.56657422 4293530880
3.4053736 0.015063667 0.57084191 4293530880
3.4005363 0.015147265 0.5755704 4293530880
3.4086051 0.015286932 0.5818094 4293530880
3.3896682 0.015309281 0.5827468 4293530880
3.3940125 0.015433331 0.58697879 4293530880
3.3984683 0.015558464 0.59054685 4293530880
3.4030387 0.015684705 0.59344518 4293530880
3.3978751 0.015767764 0.59394819 4293530880
3.3977554 0.015873671 0.59462941 4293530880
3.3928297 0.015957972 0.59376842 4293530880
3.402313 0.016108461 0.5947246 4293530880
3.4064758 0.01623527 0.59404618 4293530880
3.4077165 0.016349057 0.59215552 4293530880
3.4087844 0.016462434 0.58953524 4293530880
3.4122403 0.01658747 0.58662874 4293530880
3.4114003 0.016692633 0.58229142 4293530880
3.4178264 0.016832815 0.57850069 4293661440
3.4224806 0.016965194 0.5737142 4293661440
3.4115353 0.017022548 0.5656544 4293530880
3.4117382 0.017133912 0.55879885 4293530880
3.3921118 0.017148171 0.54808789 4293530880
3.3949111 0.017272355 0.54039448 4293530880
3.3911049 0.017364129 0.53102416 4293530880
3.4012191 0.017525693 0.52319652 4293530880
3.4257035 0.017760675 0.5168705 4293530880
3.4165821 0.017826945 0.50483644 4293530880
3.3979082 0.017844075 0.49089897 4293530880
3.3641756 0.018392976 0.40177187 4293400320
3.412461 0.018764222 0.39245281 4293530880
3.4126003 0.018879369 0.37694389 4293530880
3.3798959 0.018816575 0.35753733 4293400320
3.3620946 0.01883311 0.33954093 4293269760
3.3953085 0.019128768 0.32623175 4293400320
3.400275 0.019270767 0.30965757 4293400320
3.3384359 0.019041892 0.28695071 4293269760
2.9276631 0.016857492 0.23642237 4291833600
2.6409414 0.015343402 0.19929387 4290789120
2.5949328 0.015172544 0.18184642 4290658560
2.5637686 0.015083192 0.16565277 4290528000
2.5557015 0.015124119 0.15097904 4290528000
2.5669789 0.015276048 0.13725914 4290528000
2.5656793 0.015355915 0.12265926 4290528000
2.5400889 0.015294129 0.10691729 4290528000
2.5816834 0.015624667 0.093783095 4290658560
2.6158834 0.015914472 0.07983762 4290789120
2.6164427 0.016007071 0.064576723 4290789120
2.5284717 0.015571494 0.047577851 4290397440
2.6551554 0.016418086 0.034313429 4290919680
2.6726079 0.01661412 0.018756919 4290919680
2.6763206 0.016727967 0.0029558677 4290919680
2.696285 0.016941264 -0.012975723 4291050240
2.7370689 0.017283702 -0.029358186 4291180800
2.7614405 0.017527623 -0.045920774 4291180800
2.7965717 0.017839961 -0.062968098 4291311360
2.9570265 0.01893669 -0.083928064 4291833600
3.1142497 0.020024054 -0.10656704 4292486400
3.2579618 0.021036861 -0.13038222 4292878080
3.3262043 0.021580756 -0.15226327 4293139200
3.3309846 0.021724569 -0.17149667 4293139200
3.3447866 0.021926459 -0.19111915 4293269760
3.3554223 0.02210879 -0.21049538 4293269760
3.3633728 0.022274349 -0.22958237 4293269760
3.3601217 0.022367386 -0.24768522 4293269760
3.3902993 0.022678912 -0.26813182 4293400320
3.3916368 0.022802582 -0.28617731 4293400320
3.3890657 0.02290035 -0.30357748 4293400320
3.3318238 0.022634359 -0.3154451 4293139200
3.3751571 0.023036331 -0.33641806 4293400320
3.3897505 0.023248065 -0.35444656 4293400320
3.3947754 0.023396028 -0.37118158 4293400320
3.3783107 0.023398392 -0.38510621 4293400320
3.3120668 0.023060169 -0.39255488 4293139200
3.4092176 0.023836449 -0.41906357 4293530880
3.4097602 0.023954084 -0.43366101 4293530880
3.4137883 0.024095641 -0.4482379 4293530880
3.4063017 0.024157215 -0.46078908 4293530880
3.3830955 0.024108293 -0.47057918 4293400320
3.3852558 0.02423555 -0.48328808 4293400320
3.3911402 0.024388947 -0.49601236 4293530880
3.3918302 0.024505688 -0.50743914 4293530880
3.3972573 0.024655914 -0.51901889 4293530880
3.3980196 0.024772881 -0.52931547 4293530880
3.3862233 0.024799451 -0.53702176 4293530880
3.3829348 0.024886329 -0.54542172 4293530880
3.3753514 0.024941584 -0.55247748 4293400320
3.3736267 0.025038695 -0.55983555 4293400320
3.3641157 0.025078474 -0.56523412 4293400320
3.3544827 0.025116442 -0.56992316 4293400320
3.3458123 0.025160585 -0.57408518 4293400320
3.3287513 0.025141714 -0.57610404 4293269760
3.2665792 0.024785871 -0.56954426 4293139200
3.2846918 0.025025526 -0.57626051 4293139200
3.2743502 0.025052549 -0.57732725 4293139200
3.2838175 0.02522785 -0.58121318 4293139200
3.2786291 0.025292553 -0.58183402 4293139200
3.2784798 0.0253949 -0.58267009 4293139200
3.2735245 0.025460258 -0.58197433 4293139200
3.3163173 0.025890753 -0.58908284 4293269760
3.3425832 0.026196493 -0.59255522 4293400320
3.350631 0.026362861 -0.59209579 4293400320
3.3547308 0.026498798 -0.59024328 4293400320
3.3725147 0.026741199 -0.59009248 4293400320
3.369741 0.026823711 -0.58564669 4293400320
3.3718536 0.026944077 -0.58137196 4293400320
3.3795602 0.027108325 -0.57737398 4293530880
3.3760691 0.027184187 -0.57079017 4293400320
3.3847258 0.027355962 -0.5655908 4293530880
3.3690372 0.02733396 -0.55568933 4293400320
3.3827796 0.027546126 -0.55000496 4293530880
3.36848 0.02753368 -0.53913498 4293400320
3.3497708 0.02748454 -0.52702963 4293400320
3.34828 0.027573284 -0.51708686 4293400320
3.3653204 0.027812123 -0.50936908 4293400320
3.3878865 0.028096747 -0.50178367 4293400320
3.3845959 0.028170964 -0.48973858 4293400320
3.377089 0.028210118 -0.47656864 4293400320
3.3514884 0.028099509 -0.46043146 4293269760
3.3503382 0.028189301 -0.44723666 4293269760
3.3637745 0.028399827 -0.43543878 4293400320
3.3744683 0.028588081 -0.42270127 4293400320
3.3502319 0.028484847 -0.40517822 4293269760
3.3375225 0.028476642 -0.38876173 4293269760
3.3524194 0.028699808 -0.37512004 4293269760
3.3764963 0.029001173 -0.36191103 4293400320
3.3729191 0.029069426 -0.34524441 4293400320
3.310415 0.028636245 -0.32249367 4293139200
3.3278837 0.028881585 -0.30740407 4293139200
3.3159521 0.028876085 -0.28923753 4293139200
3.2809536 0.028671606 -0.2689901 4293008640
3.124001 0.027413854 -0.23947045 4292486400
2.9796064 0.026255501 -0.21227337 4291964160
2.8720477 0.025408309 -0.18884532 4291572480
2.8196583 0.025035094 -0.16972628 4291441920
2.7401485 0.024421895 -0.14953105 4291180800
2.7359118 0.024463667 -0.13375935 4291180800
2.7280686 0.024473419 -0.1177392 4291180800
2.7183566 0.024466179 -0.1016159 4291050240
2.6513321 0.023951156 -0.08368694 4290919680
2.6499965 0.024015428 -0.068146199 4290919680
2.6503513 0.024094645 -0.052585185 4290919680
2.6175165 0.023877297 -0.036502119 4290789120
2.5865319 0.023674633 -0.020785969 4290658560
2.5930288 0.023807241 -0.0054998416 4290658560
2.581598 0.023778489 0.0097985333 4290658560
2.5284338 0.0233714 0.024545806 4290397440
2.5456858 0.02360056 0.039727967 4290528000
2.5602772 0.023806497 0.055009604 4290528000
2.5900242 0.024151763 0.070812069 4290658560
2.5683658 0.024027655 0.085181564 4290528000
2.5952516 0.024348635 0.10108969 4290658560
2.638449 0.024821643 0.11792163 4290789120
2.8432665 0.026792331 0.14324184 4291572480
3.2885284 0.031006142 0.18416589 4293008640
3.3978062 0.032118171 0.20921569 4293400320
3.4118769 0.03234762 0.22886465 4293400320
3.3999255 0.032334272 0.24652791 4293400320
3.3455565 0.031921834 0.26048884 4293269760
3.4264266 0.032780901 0.28481057 4293530880
3.4427979 0.033035081 0.30396894 4293530880
3.427108 0.032986362 0.31996468 4293530880
3.4033387 0.032860048 0.33465067 4293400320
3.3032994 0.032004874 0.34086555 4293139200
3.428932 0.033303645 0.37006876 4293530880
3.4214599 0.033332292 0.38506433 4293530880
3.413301 0.033354092 0.39947635 4293530880
3.394834 0.03327607 0.41211352 4293400320
3.3419561 0.03286384 0.41980585 4293269760
3.4248712 0.033768155 0.444177 4293530880
3.4275134 0.03389525 0.45798838 4293530880
3.4290855 0.034012292 0.47114936 4293530880
3.4253573 0.0340777 0.48303494 4293530880
3.3999529 0.033929951 0.49120995 4293530880
3.3671305 0.033707775 0.49755254 4293400320
3.4134293 0.034266818 0.51503843 4293530880
3.4286454 0.034520414 0.52743143 4293661440
3.4193499 0.034531191 0.53546417 4293530880
3.4237578 0.03467853 0.54500437 4293661440
3.4148831 0.034693398 0.55178726 4293530880
3.4088264 0.034736335 0.55834651 4293530880
3.4031787 0.034783334 0.56429529 4293530880
3.4052291 0.034908101 0.57085109 4293530880
3.3954618 0.034913499 0.57474577 4293530880
3.4084594 0.0351501 0.58181858 4293530880
3.3993781 0.035162628 0.58444899 4293530880
3.3889394 0.035161033 0.58613652 4293530880
3.3983212 0.035362497 0.59055603 4293530880
3.4028907 0.035515342 0.59345436 4293530880
3.3977265 0.035568312 0.59395736 4293530880
3.4025314 0.035724513 0.59549981 4293530880
3.3877554 0.035677966 0.59291631 4293530880
3.3972373 0.035883542 0.5938735 4293530880
3.4063246 0.036085915 0.59405535 4293530880
3.4124906 0.036258578 0.59302008 4293530880
3.4135585 0.036378361 0.59039587 4293530880
3.3982897 0.036326267 0.58426774 4293530880
3.4112463 0.036572058 0.58230066 4293530880
3.4129579 0.036699705 0.57771266 4293530880
3.4085181 0.03676232 0.57141072 4293530880
3.416312 0.036955535 0.56648088 4293530880
3.4214499 0.037121136 0.56042314 4293661440
3.3968914 0.036968488 0.54889393 4293530880
3.3996918 0.037109226 0.54118901 4293530880
3.3909476 0.037125718 0.53103334 4293530880
3.4208274 0.037560463 0.52624398 4293530880
3.4268301 0.037737936 0.51707375 4293661440
3.4065294 0.037629329 0.50338519 4293530880
3.4013002 0.037684463 0.49142095 4293530880
3.3779135 0.038153682 0.40343961 4293400320
3.4172626 0.038706884 0.39303276 4293530880
3.4174037 0.038823161 0.37750155 4293530880
3.3847029 0.038570177 0.35807195 4293400320
3.3669043 0.038483337 0.34005192 4293269760
3.3851876 0.038803831 0.32528555 4293400320
3.3901486 0.038974512 0.30876085 4293400320
3.2376471 0.037352987 0.27832022 4292878080
2.7181327 0.031530462 0.21954353 4291050240
2.6118932 0.030405948 0.19712223 4290789120
2.57585 0.030080648 0.18052748 4290658560
2.5726204 0.030131023 0.16623899 4290658560
2.5441823 0.029889995 0.15031435 4290528000
2.5465763 0.030004416 0.13618426 4290528000
2.5500202 0.030131275 0.12192543 4290528000
2.5109866 0.029763279 0.10570759 4290397440
2.5665617 0.030498747 0.093247041 4290528000
2.5817668 0.030764712 0.078810692 4290658560
2.5873184 0.030918242 0.063870899 4290658560
2.5043466 0.030028194 0.047135342 4290397440
2.6260216 0.031552989 0.033948265 4290789120
2.6484706 0.031909119 0.018597608 4290789120
2.6471825 0.031984419 0.0029332556 4290789120
2.6800573 0.032467209 -0.012889854 4290919680
2.7113688 0.032933541 -0.029074941 4291050240
2.7417004 0.033390246 -0.04558621 4291180800
2.7247627 0.03328022 -0.061342746 4291050240
2.788949 0.034147933 -0.079145126 4291311360
2.8264134 0.034696631 -0.096701033 4291441920
2.8553762 0.035144672 -0.11425171 4291572480
2.8327773 0.034967162 -0.1296552 4291441920
3.0257411 0.037418671 -0.15576988 4292094720
3.2067051 0.039736412 -0.18322568 4292747520
3.3282914 0.041337729 -0.20879483 4293139200
3.3503077 0.041721947 -0.22869354 4293269760
3.3509629 0.041843958 -0.24701427 4293269760
3.3761578 0.042269535 -0.26701853 4293269760
3.3864679 0.042512007 -0.28574762 4293400320
3.3789189 0.042532839 -0.30267593 4293400320
3.3216844 0.041933171 -0.31449336 4293139200
3.3699944 0.042649727 -0.33591291 4293269760
3.3895612 0.04300886 -0.35443732 4293400320
3.3915999 0.043148689 -0.37084588 4293400320
3.3731532 0.043030143 -0.38453069 4293400320
3.306915 0.042305905 -0.39195734 4293139200
3.4139869 0.043774083 -0.41966429 4293530880
3.4095666 0.043832093 -0.43365175 4293530880
3.3947573 0.043757182 -0.44575518 4293400320
3.3922346 0.043838039 -0.45890313 4293400320
3.3928053 0.043958116 -0.47194758 4293400320
3.3712029 0.043793198 -0.48130038 4293400320
3.3859975 0.04409527 -0.49527955 4293400320
3.3794155 0.044122089 -0.505602 4293400320
3.386878 0.044329975 -0.51745403 4293400320
3.3879416 0.044455051 -0.52776718 4293530880
3.3761499 0.044412691 -0.53544641 4293400320
3.3778007 0.04454457 -0.54461676 4293400320
3.3712058 0.044568468 -0.55182225 4293400320
3.3734279 0.04470719 -0.55982637 4293400320
3.3540556 0.044562042 -0.56356823 4293400320
3.3444257 0.044543646 -0.56823927 4293400320
3.335758 0.044537026 -0.57238519 4293269760
3.3334789 0.044614084 -0.57694751 4293269760
3.2713089 0.043896113 -0.57039404 4293139200
3.2608576 0.043861654 -0.57210499 4293139200
3.274153 0.044142783 -0.57731831 4293139200
3.2885423 0.044439055 -0.58207554 4293139200
3.2735076 0.044341814 -0.58095151 4293139200
3.2733581 0.044443142 -0.58178639 4293139200
3.2595422 0.044360235 -0.57951528 4293139200
3.3161144 0.045225576 -0.58907378 4293269760
3.3374553 0.045617815 -0.59167349 4293400320
3.3405783 0.045764189 -0.59034675 4293400320
3.3495998 0.045990549 -0.58936781 4293400320
3.3634415 0.046282761 -0.58853233 4293400320
3.3733861 0.046522334 -0.58630735 4293400320
3.3716435 0.046602383 -0.58136278 4293400320
3.3689985 0.04666964 -0.57559651 4293400320
3.3719141 0.046812795 -0.57011425 4293400320
3.3792849 0.047017153 -0.56470793 4293400320
3.3812997 0.047147755 -0.55773765 4293530880
3.3776309 0.047199592 -0.54919344 4293400320
3.3714292 0.047215804 -0.53963196 4293400320
3.3495579 0.047013737 -0.52702051 4293400320
3.3530076 0.047162481 -0.51784074 4293400320
3.368762 0.04748277 -0.50991333 4293400320
3.373822 0.047654245 -0.4997234 4293400320
3.3843784 0.047902744 -0.48972934 4293400320
3.3719208 0.047828563 -0.4758608 4293400320
3.3413658 0.047498815 -0.45906135 4293269760
3.3412011 0.047595408 -0.4460367 4293269760
3.3675225 0.048065886 -0.4359431 4293400320
3.3692875 0.048190083 -0.42207059 4293400320
3.3400862 0.047874916 -0.40396842 4293269760
3.3273718 0.047792166 -0.38759559 4293269760
3.355382 0.048288517 -0.37546706 4293269760
3.3657386 0.048534349 -0.3607724 4293269760
3.3637438 0.048603952 -0.34431869 4293269760
3.301239 0.04780611 -0.32161191 4293139200
3.2519062 0.047193617 -0.30039552 4292878080
3.0491896 0.044371109 -0.26597261 4292225280
2.9166625 0.04254869 -0.23912288 4291833600
2.802846 0.040988784 -0.21485016 4291441920
2.8129332 0.041215748 -0.20039971 4291441920
2.7963786 0.041056767 -0.18387191 4291311360
2.7770386 0.040856261 -0.16716284 4291311360
2.722461 0.040141433 -0.14856768 4291050240
2.7167506 0.040136393 -0.13282326 4291050240
2.6989129 0.03995366 -0.11647997 4291050240
2.6845925 0.039821368 -0.10035145 4290919680
2.617171 0.038908862 -0.082605176 4290789120
2.6298232 0.039169952 -0.06762363 4290789120
2.6261761 0.039191578 -0.052100353 4290789120
2.5933256 0.038781855 -0.036158487 4290658560
2.5523577 0.038250167 -0.020503247 4290528000
2.5688515 0.038567696 -0.0054400447 4290528000
2.5574212 0.038471535 0.0097164009 4290528000
2.4864182 0.037488468 0.024150038 4290266880
2.5410869 0.038374558 0.039666332 4290528000
2.5495045 0.038573075 0.054789953 4290528000
2.5759728 0.039042193 0.070441231 4290658560
2.5681846 0.038999308 0.085188612 4290528000
2.5977151 0.039516557 0.10119966 4290658560
2.6178739 0.039894518 0.11701963 4290789120
2.702569 0.041246749 0.13618454 4291050240
3.1445351 0.048001006 0.17613573 4292486400
3.3686216 0.051483124 0.20744526 4293269760
3.4026537 0.052096277 0.22827247 4293400320
3.3946953 0.052073549 0.24617609 4293400320
3.3403313 0.051344126 0.26011038 4293269760
3.4211972 0.052674036 0.28440627 4293530880
3.4325888 0.052947234 0.3030999 4293530880
3.4223809 0.052890602 0.31955636 4293530880
3.3981159 0.052617934 0.33417124 4293400320
3.2980857 0.051179767 0.34036195 4293139200
3.4336522 0.053363185 0.37061414 4293530880
3.4212093 0.053271651 0.38507372 4293530880
3.4130504 0.053245794 0.39948571 4293530880
3.3995473 0.053136926 0.41272479 4293400320
3.3377414 0.052278154 0.41931695 4293269760
3.4196599 0.053649835 0.44354391 4293530880
3.4272592 0.053869277 0.45799777 4293530880
3.4238777 0.05391809 0.47047877 4293530880
3.4201517 0.053961571 0.48234677 4293530880
3.4031694 0.053797483 0.49172032 4293530880
3.3767698 0.053484887 0.49902233 4293400320
3.4092183 0.05409614 0.51445156 4293530880
3.4145517 0.054282527 0.52531403 4293530880
3.4190922 0.054457009 0.53547359 4293530880
3.4086869 0.054395754 0.54265767 4293530880
3.410676 0.054530509 0.55115914 4293530880
3.4085674 0.054600656 0.55835587 4293530880
3.4117973 0.054755878 0.56577563 4293530880
3.4148307 0.054908477 0.57251239 4293530880
3.3952019 0.054699816 0.57475513 4293530880
3.4081979 0.055012081 0.58182794 4293530880
3.3991165 0.05497168 0.58445835 4293530880
3.398531 0.05506745 0.58784872 4293530880
3.4029844 0.05524458 0.59142071 4293530880
3.392777 0.055186007 0.59174711 4293530880
3.3876133 0.05520859 0.59224612 4293530880
3.3835533 0.055249035 0.59223628 4293530880
3.3874912 0.055419225 0.59292567 4293530880
3.4018967 0.05576003 0.59474313 4293530880
3.4060578 0.055935346 0.59406477 4293530880
3.3984311 0.055919033 0.59063441 4293530880
3.4034371 0.056108978 0.58870238 4293530880
3.4118176 0.05635481 0.58664733 4293530880
3.4011202 0.056288578 0.58062875 4293530880
3.3986692 0.056357514 0.57535088 4293530880
3.413178 0.056705892 0.57224607 4293530880
3.4061756 0.05670061 0.56485581 4293530880
3.402343 0.056747589 0.55734986 4293530880
3.3916843 0.056681558 0.54810637 4293530880
3.3757205 0.056527097 0.53742856 4293400320
3.3817844 0.056738205 0.5296514 4293400320
3.4007869 0.057165585 0.52321506 4293530880
3.4302104 0.057768483 0.51763457 4293661440
3.4013083 0.057397932 0.50266427 4293530880
3.4010243 0.057505425 0.49143034 4293530880
3.3637362 0.057603143 0.40179029 4293400320
3.402081 0.058368195 0.39132997 4293400320
3.4121521 0.058654163 0.37696254 4293530880
3.3794508 0.058210615 0.35755584 4293400320
3.3566766 0.057934906 0.33905742 4293269760
3.3898823 0.058617566 0.32577261 4293400320
3.3809044 0.058578026 0.30795482 4293400320
2.95735 0.051402498 0.25428328 4291964160
2.6316993 0.045886803 0.21259776 4290789120
2.6009092 0.045444176 0.19631824 4290658560
2.5832629 0.045227125 0.18106845 4290658560
2.5634234 0.044970922 0.1656668 4290528000
2.5453751 0.044744596 0.15040441 4290528000
2.5413685 0.044761661 0.13592485 4290528000
2.525214 0.044566553 0.12075925 4290397440
2.4867978 0.043981187 0.10470763 4290266880
2.5289328 0.044804357 0.091898523 4290397440
2.567555 0.045568798 0.078392006 4290528000
2.5731032 0.045754276 0.063533843 4290658560
2.4651446 0.043940082 0.046411917 4290266880
2.6020207 0.046441097 0.033650097 4290658560
2.6102495 0.046675816 0.018341087 4290658560
2.6139593 0.046831027 0.0029064768 4290789120
2.6408319 0.047397818 -0.01269214 4290789120
2.6721423 0.048045397 -0.028646706 4290919680
2.7074723 0.048766773 -0.045011315 4291050240
2.7005353 0.048735633 -0.060793653 4291050240
2.757736 0.049851719 -0.078256778 4291180800
2.7906337 0.050535958 -0.095475622 4291311360
2.8130503 0.051034126 -0.11255811 4291441920
2.7316508 0.049665354 -0.12502533 4291180800
2.8630152 0.052127421 -0.14739084 4291572480
2.9523358 0.053838834 -0.16868894 4291833600
3.1763663 0.057994477 -0.19926798 4292616960
3.3021305 0.060383346 -0.22541435 4293139200
3.3483217 0.061334997 -0.24683215 4293269760
3.3692825 0.061830427 -0.26648897 4293269760
3.3848698 0.062229153 -0.28562883 4293400320
3.3758895 0.062179942 -0.30242217 4293400320
3.3341737 0.061530795 -0.31569505 4293269760
3.3647177 0.06220372 -0.33540761 4293269760
3.386627 0.062719904 -0.35415292 4293400320
3.3813555 0.06273713 -0.36974955 4293400320
3.3699558 0.062640801 -0.38419148 4293400320
3.2877514 0.061235592 -0.38971195 4293139200
3.408716 0.063584447 -0.41904482 4293530880
3.4069259 0.063665412 -0.43334574 4293530880
3.4019721 0.063687272 -0.44673374 4293530880
3.3958888 0.063687548 -0.45942992 4293530880
3.3736801 0.063386612 -0.46932074 4293400320
3.3708947 0.063446619 -0.48129106 4293400320
3.3807409 0.063742466 -0.49454662 4293400320
3.3840492 0.063916191 -0.50633234 4293400320
3.3816245 0.063982241 -0.51668966 4293400320
3.3737984 0.063946277 -0.52560323 4293400320
3.3802803 0.06417904 -0.53614157 4293400320
3.3686044 0.064069293 -0.54317504 4293400320
3.3787005 0.064370036 -0.55309081 4293400320
3.3494422 0.063925959 -0.55588865 4293400320
3.3537433 0.06411621 -0.56355894 4293400320
3.3441136 0.064041749 -0.56822997 4293400320
3.3305192 0.063890889 -0.57153052 4293269760
3.3183889 0.063766755 -0.57438064 4293269760
3.317668 0.063859396 -0.57852149 4293269760
3.2605507 0.062872916 -0.57209593 4293139200
3.269906 0.063156076 -0.5766148 4293139200
3.273464 0.063328259 -0.57945257 4293139200
3.264338 0.063256517 -0.57937014 4293139200
3.2691102 0.063451484 -0.58107752 4293139200
3.3304808 0.064738005 -0.59217292 4293269760
3.315799 0.064558886 -0.58906454 4293269760
3.3420596 0.06517072 -0.59253681 4293400320
3.3363211 0.065163709 -0.58964157 4293400320
3.3394325 0.065327801 -0.58762598 4293400320
3.3532705 0.065700307 -0.5867998 4293400320
3.3632116 0.065997459 -0.58458596 4293400320
3.3774877 0.066379443 -0.58241701 4293530880
3.3637462 0.066214673 -0.5747453 4293400320
3.3666592 0.066374585 -0.5692715 4293400320
3.3740273 0.066621661 -0.5638746 4293400320
3.3622286 0.066492707 -0.55463666 4293400320
3.363487 0.066619381 -0.54693764 4293400320
3.3622158 0.066696033 -0.53820044 4293400320
3.3344164 0.066249259 -0.5246802 4293269760
3.3457668 0.066573612 -0.51676375 4293269760
3.3536041 0.066828884 -0.50765944 4293400320
3.373491 0.067322999 -0.49971402 4293400320
3.3785079 0.06752307 -0.48891854 4293400320
3.3666389 0.067387715 -0.47515282 4293400320
3.3271692 0.066702254 -0.45714679 4293269760
3.3417759 0.067091703 -0.44614822 4293269760
3.3506808 0.067367993 -0.43379644 4293269760
3.3600249 0.067653358 -0.42094263 4293269760
3.3347917 0.067247018 -0.40335882 4293269760
3.3308899 0.067266531 -0.38803479 4293269760
3.3451116 0.067649387 -0.37434572 4293269760
3.3604319 0.068054952 -0.36023015 4293269760
3.3584342 0.068112604 -0.34380016 4293269760
3.2441103 0.065905534 -0.31606808 4292878080
3.0261295 0.061598975 -0.27955469 4292225280
2.8884127 0.058902368 -0.25196213 4291703040
2.8392484 0.057990521 -0.23278959 4291572480
2.7960749 0.057197176 -0.21434478 4291311360
2.7826436 0.057005107 -0.19825311 4291311360
2.7771401 0.05697336 -0.18261698 4291311360
2.742825 0.056354553 -0.16511114 4291180800
2.68924 0.055340767 -0.14676076 4291050240
2.6735342 0.055097282 -0.13071421 4290919680
2.6606808 0.054911155 -0.11483231 4290919680
2.6453536 0.054673575 -0.098885283 4290789120
2.5985215 0.053789068 -0.08201661 4290658560
2.5960119 0.053811934 -0.066751726 4290658560
2.5963585 0.053893346 -0.051504917 4290658560
2.5690658 0.053405643 -0.035815082 4290528000
2.5393581 0.052866563 -0.020392893 4290528000
2.5436695 0.053028196 -0.0053782384 4290528000
2.5331616 0.05288367 0.0096342573 4290528000
2.493721 0.052139487 0.024229769 4290266880
2.5221231 0.052799694 0.039383106 4290397440
2.5582352 0.053621616 0.054989602 4290528000
2.5757041 0.054058034 0.070448413 4290658560
2.5679164 0.053969655 0.085195772 4290528000
2.5924482 0.054554675 0.10101278 4290658560
2.6212938 0.05523121 0.11719171 4290789120
2.6493635 0.055893246 0.13353041 4290919680
2.8455822 0.060077004 0.15944259 4291572480
3.3403256 0.07053005 0.20573622 4293139200
3.3873315 0.071612917 0.22727934 4293400320
3.3893504 0.07175298 0.24582443 4293400320
3.3359904 0.070727594 0.25980955 4293139200
3.4258161 0.072717361 0.28482953 4293530880
3.4182811 0.072657473 0.30187953 4293530880
3.4215176 0.072824977 0.31951934 4293530880
3.3927786 0.072316073 0.33369195 4293400320
3.2877882 0.070189603 0.33934578 4293008640
3.4233446 0.073162392 0.36955178 4293530880
3.4208426 0.073209211 0.38508329 4293530880
3.4077189 0.07303004 0.39891458 4293530880
3.3758512 0.072450854 0.40990415 4293400320
3.3373816 0.071729146 0.41932628 4293269760
3.4143336 0.073471949 0.44291097 4293530880
3.4169791 0.073629417 0.45668408 4293530880
3.4185548 0.073764361 0.46980834 4293530880
3.4197807 0.073892161 0.48235634 4293530880
3.3844867 0.073235549 0.48908576 4293400320
3.3813477 0.073269017 0.49976203 4293400320
3.412801 0.074047975 0.51505733 4293530880
3.4141788 0.074180141 0.52532357 4293530880
3.414767 0.074295618 0.53486478 4293530880
3.4083135 0.07425905 0.54266721 4293530880
3.4053669 0.074298397 0.55037171 4293530880
3.4081926 0.074463129 0.5583654 4293530880
3.4074764 0.074551374 0.56513137 4293530880
3.4045937 0.074592762 0.57086998 4293530880
3.3997557 0.074591689 0.57559842 4293530880
3.3856397 0.074388176 0.57805341 4293530880
3.3938131 0.074671216 0.58362126 4293530880
3.3883018 0.074655615 0.58615535 4293530880
3.3878305 0.074750453 0.58886409 4293530880
3.3835349 0.074761674 0.59021157 4293530880
3.3921597 0.075056911 0.59311593 4293530880
3.3831751 0.074965484 0.59224576 4293530880
3.3782487 0.074963264 0.59138477 4293530880
3.3916667 0.075365961 0.59303206 4293530880
3.4007506 0.075674042 0.59321594 4293530880
3.4029737 0.075831175 0.59149933 4293530880
3.4030538 0.075941287 0.58871192 4293530880
3.3927114 0.075820394 0.58344007 4293530880
3.4105911 0.076326534 0.58231962 4293530880
3.4073722 0.076364465 0.5768978 4293530880
3.4029307 0.076375253 0.57060361 4293530880
3.4008572 0.076438956 0.56404811 4293530880
3.3971086 0.076465383 0.55656588 4293530880
3.3912978 0.076445714 0.54811591 4293530880
3.3802719 0.076309033 0.53822339 4293400320
3.3853488 0.076533556 0.53027928 4293530880
3.405338 0.077094086 0.52398419 4293530880
3.429817 0.077757329 0.51764423 4293661440
3.4058626 0.077330053 0.50340414 4293530880
3.4006331 0.077324443 0.49143988 4293530880
3.3583815 0.077092461 0.40120733 4293269760
3.396719 0.078080758 0.39076877 4293400320
3.4117544 0.078538932 0.37697214 4293530880
3.3691142 0.077677302 0.35651433 4293400320
3.3562839 0.077496782 0.33906683 4293269760
3.3705771 0.077938646 0.32396671 4293269760
3.3088226 0.076632135 0.30144107 4293139200
2.7588823 0.06407401 0.23727642 4291311360
2.598505 0.060467284 0.20995231 4290658560
2.5982544 0.060549907 0.19614856 4290658560
2.5779715 0.060169037 0.18072674 4290658560
2.5631201 0.059912771 0.165674 4290528000
2.5400836 0.059465602 0.15011723 4290528000
2.5310838 0.059343215 0.13539907 4290528000
2.5217659 0.059212878 0.12061612 4290397440
2.50439 0.058894124 0.10546601 4290397440
2.5232961 0.059421297 0.091712251 4290397440
2.5323522 0.059719518 0.07733696 4290528000
2.5418262 0.060028188 0.062779114 4290528000
2.4942145 0.05899892 0.046969093 4290397440
2.5727191 0.060928088 0.033284869 4290658560
2.5782061 0.061145432 0.018127965 4290658560
2.5931573 0.061586071 0.0028925943 4290658560
2.6165209 0.062226161 -0.012567673 4290789120
2.6540864 0.06320332 -0.028447866 4290919680
2.679157 0.063887462 -0.044536579 4290919680
2.6572316 0.06346 -0.059815884 4290919680
2.7184284 0.065002978 -0.077140786 4291050240
2.7623191 0.06613896 -0.094509088 4291180800
2.7887344 0.066862114 -0.11158967 4291311360
2.764652 0.066383846 -0.12654504 4291311360
2.8047593 0.067435481 -0.14439897 4291441920
2.8588052 0.068822846 -0.16335309 4291572480
2.9416461 0.070902854 -0.18454927 4291833600
3.1954994 0.077086441 -0.2181499 4292747520
3.3239827 0.080278687 -0.24505799 4293139200
3.3598993 0.081255056 -0.26576981 4293269760
3.3744917 0.081720561 -0.28477839 4293269760
3.3704948 0.081738919 -0.30196652 4293269760
3.3248048 0.080750652 -0.31483731 4293139200
3.3543541 0.081577443 -0.33440626 4293269760
3.3739228 0.082164526 -0.35285839 4293400320
3.3719923 0.082231708 -0.36876181 4293400320
3.3596046 0.082044788 -0.3830494 4293269760
3.2923064 0.080522396 -0.39029115 4293139200
3.4033303 0.083334848 -0.41842526 4293530880
3.3889978 0.083099693 -0.43110955 4293400320
3.3926263 0.083301648 -0.44555259 4293400320
3.396672 0.083513789 -0.45958376 4293530880
3.3772182 0.083150946 -0.46986228 4293400320
3.3704717 0.083097905 -0.48128155 4293400320
3.3664675 0.083111443 -0.49251115 4293400320
3.3697817 0.083304241 -0.5042516 4293400320
3.3762572 0.083574757 -0.51592511 4293400320
3.3733728 0.083614834 -0.52559376 4293400320
3.3699794 0.083641887 -0.53456593 4293400320
3.3694224 0.083738469 -0.54336619 4293400320
3.3733394 0.083945371 -0.55227375 4293400320
3.357893 0.08367268 -0.5573523 4293400320
3.3345854 0.083203726 -0.5604018 4293269760
3.32989 0.08319509 -0.56587595 4293269760
3.3251681 0.083185181 -0.57067567 4293269760
3.2992494 0.082646959 -0.57113171 4293269760
3.3172438 0.083201356 -0.57851213 4293269760
3.2650566 0.082004942 -0.5729506 4293139200
3.2596416 0.081973732 -0.57486951 4293139200
3.2592623 0.082067855 -0.57700384 4293139200
3.2688401 0.082411088 -0.58023441 4293139200
3.2490041 0.082016744 -0.57756925 4293008640
3.3113506 0.083685003 -0.58883846 4293269760
3.3015909 0.083543487 -0.58660716 4293269760
3.3268623 0.084283099 -0.58990961 4293269760
3.3358891 0.084614418 -0.58963215 4293400320
3.3301384 0.084572949 -0.58605731 4293269760
3.3626823 0.085498601 -0.58851349 4293400320
3.3627744 0.085604779 -0.58457649 4293400320
3.3681815 0.085845292 -0.58087856 4293400320
3.3780885 0.086199947 -0.57726139 4293530880
3.3662195 0.086001866 -0.56926197 4293400320
3.378516 0.086417168 -0.56468904 4293400320
3.3617883 0.086094052 -0.55462712 4293400320
3.3630459 0.086227991 -0.54692811 4293400320
3.3469677 0.085919343 -0.53582066 4293400320
3.3380139 0.085791431 -0.52530587 4293269760
3.3354466 0.085826039 -0.51522827 4293269760
3.358104 0.086506143 -0.50839812 4293400320
3.3730457 0.0869895 -0.49970448 4293400320
3.3746941 0.087132283 -0.48842168 4293400320
3.3562944 0.086759731 -0.47374615 4293400320
3.3366318 0.086353324 -0.45849827 4293269760
3.3255644 0.086166881 -0.44403341 4293269760
3.3479049 0.086840972 -0.43348521 4293269760
3.3595777 0.087240756 -0.42093313 4293269760
3.334347 0.086687267 -0.4033494 4293269760
3.3215086 0.086452708 -0.38698411 4293139200
3.3406904 0.087046579 -0.37389144 4293269760
3.3550122 0.087515347 -0.35968778 4293269760
3.3341169 0.087070495 -0.3413468 4293269760
3.0770221 0.080485523 -0.29981768 4292355840
2.8750668 0.07532014 -0.26562396 4291703040
2.8236015 0.074062794 -0.24633211 4291441920
2.8039076 0.073630825 -0.22991408 4291441920
2.7478542 0.072248429 -0.21066742 4291180800
2.7344053 0.071976103 -0.19483326 4291180800
2.7351294 0.072073713 -0.17986952 4291180800
2.722409 0.071819142 -0.16389583 4291180800
2.6599281 0.07025902 -0.14517199 4290919680
2.6496353 0.070065118 -0.12955472 4290919680
2.6426022 0.069956213 -0.11405917 4290789120
2.6166282 0.069348589 -0.097815856 4290789120
2.5641956 0.068042651 -0.080934942 4290528000
2.5818858 0.068582334 -0.066389382 4290658560
2.5722356 0.068401426 -0.051024485 4290658560
2.530731 0.067378342 -0.035275619 4290397440
2.510021 0.066902861 -0.020150758 4290397440
2.5143304 0.067088634 -0.0053075217 4290397440
2.5105224 0.067059502 0.0095584299 4290397440
2.493768 0.066686623 0.0242406 4290397440
2.5201793 0.067459419 0.039365474 4290397440
2.548887 0.068294808 0.054804292 4290528000
2.5663545 0.068832643 0.070210531 4290528000
2.5675609 0.068938181 0.085203052 4290528000
2.5920887 0.069665991 0.10102013 4290658560
2.6191354 0.070462525 0.11711909 4290789120
2.6304536 0.070840172 0.13260518 4290789120
2.6736698 0.072072238 0.14985596 4290919680
3.0886662 0.083267562 0.19029379 4292355840
3.3579342 0.090578288 0.22535044 4293269760
3.3888769 0.091505736 0.24583404 4293400320
3.3305407 0.090035439 0.25943136 4293139200
3.415374 0.092414193 0.28401178 4293530880
3.4178019 0.092578322 0.30188921 4293530880
3.4260137 0.092898726 0.31999338 4293530880
3.3923016 0.092088088 0.33370158 4293400320
3.2922971 0.089484259 0.33986783 4293139200
3.4188864 0.093004636 0.3691327 4293530880
3.4203598 0.09314429 0.385093 4293530880
3.4122016 0.093023136 0.39950493 4293530880
3.3753734 0.09212362 0.40991372 4293400320
3.3269904 0.090908244 0.41809052 4293269760
3.4188058 0.093503445 0.44356316 4293530880
3.4214478 0.093676291 0.45735544 4293530880
3.4180684 0.093685418 0.46981806 4293530880
3.4054356 0.093442112 0.48041278 4293530880
3.3889511 0.093093105 0.48980975 4293400320
3.3660312 0.092567407 0.49758077 4293400320
3.4034169 0.093691595 0.5137254 4293530880
3.4136901 0.09407524 0.52533329 4293530880
3.4098349 0.094072171 0.53417909 4293530880
3.4127605 0.094255418 0.54346228 4293530880
3.413759 0.094386168 0.55181593 4293530880
3.3978374 0.094051518 0.55676001 4293530880
3.4020545 0.094271213 0.56432378 4293530880
3.399173 0.094295643 0.57005364 4293530880
3.3844805 0.093994014 0.57310665 4293530880
3.3935325 0.094348349 0.57949328 4293530880
3.3883958 0.094310828 0.58278441 4293530880
3.3878107 0.094399452 0.58616495 4293530880
3.3922632 0.094628133 0.58972913 4293530880
3.3869822 0.094587103 0.59090787 4293530880
3.3867424 0.094686262 0.59226525 4293530880
3.3866208 0.094789036 0.59294444 4293530880
3.3728325 0.094511278 0.59053308 4293400320
3.3911712 0.095129326 0.59304166 4293530880
3.4051771 0.095627859 0.59408396 4293530880
3.3926268 0.09538503 0.58979821 4293530880
3.3976297 0.095633157 0.58787012 4293530880
3.3971393 0.095727973 0.58429623 4293530880
3.395309 0.095785514 0.57980728 4293530880
3.3977842 0.095964208 0.57537007 4293530880
3.3974998 0.096065789 0.56978726 4293530880
3.4003553 0.096256092 0.56405777 4293530880
3.4015391 0.096399777 0.55738312 4293530880
3.3907962 0.096207283 0.54812557 4293530880
3.3698993 0.095727541 0.53666222 4293400320
3.3759587 0.096009202 0.52889758 4293400320
3.3959405 0.096685834 0.52262658 4293530880
3.4157667 0.097359657 0.51561177 4293530880
3.4004114 0.097036488 0.50268352 4293530880
3.3876712 0.096786909 0.48965088 4293400320
3.3628399 0.096805528 0.4018093 4293400320
3.396208 0.097875163 0.39077845 4293400320
3.4162083 0.098563612 0.37753031 4293530880
3.3735764 0.097453982 0.35704944 4293400320
3.3418539 0.096655488 0.33767104 4293269760
3.3312621 0.09646365 0.32024989 4293139200
2.9770696 0.086363494 0.27130154 4291964160
2.6533394 0.077118881 0.22825418 4290919680
2.5931289 0.075468913 0.20955777 4290658560
2.6028435 0.075838394 0.19653167 4290789120
2.5825651 0.075339712 0.18108308 4290658560
2.5627298 0.074852601 0.16568132 4290528000
2.5396965 0.074271351 0.15012449 4290528000
2.540679 0.07438685 0.13593924 4290528000
2.5190337 0.073843837 0.1205113 4290397440
2.4974563 0.07330139 0.10519794 4290397440
2.4935181 0.073272169 0.090653963 4290397440
2.5118575 0.073893487 0.076731995 4290397440
2.5174534 0.074143417 0.062196165 4290397440
2.4698455 0.072835989 0.046526641 4290266880
2.53934 0.074958041 0.032868207 4290528000
2.5678134 0.075880989 0.018065846 4290528000
2.5687675 0.075997323 0.0028750745 4290528000
2.5851431 0.076567374 -0.012409162 4290658560
2.6206923 0.077703238 -0.028084453 4290789120
2.6517704 0.078709707 -0.044078771 4290919680
2.622843 0.077946924 -0.059041269 4290789120
2.6800382 0.079727426 -0.076053292 4290919680
2.7241893 0.081125863 -0.093209155 4291050240
2.7453537 0.081846341 -0.10986087 4291180800
2.7122986 0.080960222 -0.12415776 4291050240
2.7873645 0.083282046 -0.14351708 4291311360
2.8104584 0.084064029 -0.16060561 4291441920
2.8370204 0.08495073 -0.17800128 4291441920
2.9524634 0.088487297 -0.20157392 4291964160
3.2590163 0.097732134 -0.24029493 4292878080
3.3494079 0.10054266 -0.26497164 4293269760
3.3649976 0.1011229 -0.28401193 4293269760
3.36443 0.10122044 -0.3014608 4293269760
3.3193059 0.099982671 -0.31435651 4293139200
3.348259 0.10096388 -0.33384156 4293269760
3.3694139 0.10171267 -0.35243276 4293400320
3.3694758 0.10182852 -0.36853513 4293400320
3.3480623 0.10129775 -0.38178408 4293269760
3.312104 0.10032706 -0.3926909 4293139200
3.3928699 0.10287498 -0.41719556 4293400320
3.3884599 0.10285571 -0.43109983 4293400320
3.3970425 0.10322873 -0.44619372 4293530880
3.4000938 0.10343467 -0.46011019 4293530880
3.3766804 0.10283864 -0.4698526 4293400320
3.3626561 0.10252561 -0.48023248 4293400320
3.3734956 0.10296644 -0.49360842 4293400320
3.3741858 0.10309915 -0.50498164 4293400320
3.3757172 0.10325723 -0.51591539 4293400320
3.3678942 0.10313013 -0.52481461 4293400320
3.3694391 0.10328793 -0.53455627 4293400320
3.3688815 0.10338134 -0.54335654 4293400320
3.3727973 0.10361113 -0.55226409 4293400320
3.3524225 0.10309763 -0.55652428 4293400320
3.3340483 0.10264377 -0.5603922 4293269760
3.3293531 0.10260783 -0.56586641 4293269760
3.3295569 0.10272164 -0.57151157 4293269760
3.3134894 0.10233517 -0.57367975 4293269760
3.3078449 0.10226793 -0.57695705 4293269760
3.2497604 0.10058533 -0.57034975 4293008640
3.2640347 0.10112899 -0.57572818 4293139200
3.258733 0.10106921 -0.57699448 4293139200
3.2683086 0.10146827 -0.58022505 4293139200
3.263237 0.10141474 -0.58018416 4293139200
3.3058906 0.10283762 -0.58795393 4293269760
3.3010523 0.10279151 -0.58659768 4293269760
3.3174615 0.10340369 -0.58832937 4293269760
3.325501 0.10375673 -0.58788276 4293269760
3.3478117 0.10455339 -0.58925402 4293400320
3.3434248 0.10452066 -0.58522981 4293400320
3.3523753 0.1049026 -0.58285487 4293400320
3.3627036 0.10532771 -0.58001947 4293400320
3.3676808 0.10558617 -0.57556796 4293400320
3.359838 0.10544426 -0.56826675 4293400320
3.3592284 0.10552764 -0.56154841 4293400320
3.3612339 0.10569249 -0.55461746 4293400320
3.3552389 0.10560658 -0.545739 4293400320
3.3513491 0.10558598 -0.53660113 4293400320
3.3374615 0.10525113 -0.52529627 4293269760
3.3309429 0.10514659 -0.51460826 4293269760
3.3526058 0.10592739 -0.5076403 4293400320
3.3724856 0.10665307 -0.49969479 4293400320
3.3592951 0.10633798 -0.4862642 4293400320
3.355736 0.10632549 -0.47373649 4293400320
3.331125 0.10564817 -0.45780826 4293269760
3.3250098 0.10555337 -0.44402385 4293269760
3.3423898 0.10620083 -0.43283376 4293269760
3.352474 0.10661817 -0.42010361 4293269760
3.3235674 0.10580081 -0.40210307 4293269760
3.3110244 0.10550034 -0.38581762 4293139200
3.3328242 0.10628876 -0.37306395 4293269760
3.3216534 0.106031 -0.35616124 4293139200
3.2448618 0.10368615 -0.33225414 4292878080
2.9124441 0.093202241 -0.28381804 4291833600
2.8069797 0.089927495 -0.25936759 4291441920
2.7906935 0.089489438 -0.24349341 4291311360
2.7655807 0.088768668 -0.22680064 4291311360
2.7095206 0.08705797 -0.20775463 4291050240
2.7120223 0.0872159 -0.19326255 4291050240
2.7051854 0.087075084 -0.17792155 4291050240
2.6830382 0.086443499 -0.16154367 4291050240
2.6255448 0.084677644 -0.14331065 4290789120
2.6202347 0.084582493 -0.12812997 4290789120
2.608202 0.084271096 -0.11258427 4290789120
2.587218 0.083671287 -0.096723825 4290658560
2.539783 0.082219414 -0.08016929 4290528000
2.538482 0.082250044 -0.065274402 4290528000
2.53882 0.082333378 -0.050360698 4290528000
2.5172052 0.081708699 -0.035084888 4290397440
2.495599 0.081083044 -0.020030146 4290397440
2.5077786 0.081547715 -0.0052868817 4290397440
2.4998932 0.081364237 0.0095276516 4290397440
2.4908593 0.081143148 0.024223883 4290266880
2.5097528 0.081826232 0.039217483 4290397440
2.5434523 0.082990475 0.054704648 4290528000
2.5709081 0.083954051 0.070354164 4290658560
2.5671182 0.083904386 0.085210457 4290528000
2.5766606 0.084287956 0.10044515 4290658560
2.6236753 0.085891359 0.11734942 4290789120
2.6312571 0.086213365 0.13267609 4290789120
2.5859196 0.084811017 0.14497967 4290658560
2.8315113 0.092897072 0.17451355 4291441920
3.2552795 0.10681506 0.21851791 4292878080
3.3603766 0.11034324 0.2438212 4293269760
3.3199971 0.10911921 0.25866559 4293139200
3.413028 0.11226056 0.28387612 4293530880
3.4172063 0.11249603 0.30189908 4293530880
3.4204404 0.11270095 0.31953892 4293530880
3.3917093 0.11185698 0.33371139 4293400320
3.2917218 0.1086705 0.33987734 4293139200
3.4133198 0.11276474 0.36860654 4293530880
3.4098289 0.11274935 0.38398552 4293530880
3.4066401 0.11274392 0.3989341 4293530880
3.3698201 0.11162971 0.40932146 4293400320
3.316489 0.10996871 0.41685486 4293139200
3.4132488 0.11326216 0.44293052 4293530880
3.4119296 0.11331922 0.45617431 4293530880
3.4174662 0.1136033 0.46982792 4293530880
3.4186904 0.11374518 0.48237592 4293530880
3.3834066 0.11267725 0.48910517 4293400320
3.3654361 0.1121819 0.49759051 4293400320
3.4077561 0.11368785 0.51448059 4293530880
3.3844378 0.113015 0.52093738 4293400320
3.408735 0.11392508 0.53411144 4293530880
3.4022844 0.11381311 0.54190135 4293530880
3.3944058 0.11365349 0.54879737 4293530880
3.4070961 0.11417983 0.55838495 4293530880
3.4063787 0.11425962 0.56515092 4293530880
3.3946245 0.11397085 0.56940264 4293530880
3.3888037 0.11388017 0.57395023 4293530880
3.4027786 0.11445223 0.58118451 4293530880
3.3838501 0.11392286 0.58211696 4293530880
3.378341 0.11384279 0.58464211 4293530880
3.3867319 0.11422938 0.58888352 4293530880
3.3863747 0.11432287 0.59091765 4293530880
3.3861344 0.11442062 0.59227502 4293530880
3.3860123 0.11452267 0.59295428 4293530880
3.3820708 0.11449637 0.59226549 4293530880
3.3905606 0.11488948 0.59305149 4293530880
3.390779 0.11500421 0.59169036 4293530880
3.3969381 0.11532006 0.59066343 4293530880
3.4019403 0.11559752 0.58873141 4293530880
3.3916001 0.11535621 0.5834595 4293530880
3.3946946 0.11556987 0.57981712 4293530880
3.3971686 0.11576302 0.57537991 4293530880
3.4018123 0.11603032 0.57062316 4293530880
3.3908644 0.11576838 0.5625965 4293530880
3.391058 0.11588507 0.55577779 4293530880
3.3951125 0.11613358 0.54893231 4293530880
3.3692856 0.1153642 0.536672 4293400320
3.3654692 0.11534436 0.52736145 4293400320
3.3953211 0.11647432 0.52263647 4293530880
3.415143 0.1172637 0.51562166 4293530880
3.4024043 0.11694063 0.50307965 4293530880
3.3807101 0.11631031 0.48874474 4293400320
3.3572586 0.11623114 0.40122664 4293269760
3.4005463 0.11783752 0.39135909 4293400320
3.4006772 0.11795679 0.37589481 4293400320
3.3527765 0.11641609 0.35492551 4293269760
3.3173714 0.11530468 0.33527142 4293139200
3.1207368 0.10860728 0.30009779 4292486400
2.7662194 0.096423462 0.25216568 4291311360
2.6149316 0.091267847 0.22500426 4290789120
2.5826859 0.090236947 0.20876135 4290658560
2.5923941 0.090662643 0.1957878 4290658560
2.5770998 0.090218954 0.18074158 4290658560
2.5622525 0.089789905 0.16568875 4290528000
2.5252557 0.088587537 0.14930767 4290397440
2.5302253 0.088847578 0.13541365 4290528000
2.5275474 0.088840842 0.12094755 4290397440
2.4982481 0.087902941 0.10525811 4290397440
2.4700468 0.087001517 0.089827031 4290266880
2.4854183 0.087625124 0.075948372 4290266880
2.4984264 0.08816693 0.061746705 4290397440
2.4404049 0.086215697 0.045990493 4290136320
2.5233722 0.089215711 0.032676358 4290397440
2.5337923 0.089669205 0.017840009 4290528000
2.5403013 0.089985698 0.0028533698 4290528000
2.5606711 0.090791233 -0.012284745 4290528000
2.5906584 0.091937505 -0.027758194 4290658560
2.6083024 0.092649885 -0.043353949 4290658560
2.6120729 0.092873015 -0.058801692 4290789120
2.6609786 0.094693549 -0.075517863 4290919680
2.6951485 0.095995463 -0.092223555 4291050240
2.7164793 0.096844457 -0.10871664 4291050240
2.6728494 0.095389396 -0.12236547 4290919680
2.7393563 0.097843826 -0.1410619 4291180800
2.7864056 0.099610858 -0.1592523 4291311360
2.7975817 0.1001042 -0.17555061 4291311360
2.7940528 0.10007432 -0.19078165 4291311360
3.0375886 0.10885478 -0.22399627 4292225280
3.2870009 0.11786154 -0.26007318 4293008640
3.3494174 0.12020388 -0.28274089 4293269760
3.3548284 0.12051158 -0.30064803 4293269760
3.3087215 0.11897526 -0.31340426 4293139200
3.3476174 0.12048145 -0.33383182 4293269760
3.3664315 0.12126984 -0.35217851 4293269760
3.3638618 0.12129164 -0.36798191 4293269760
3.347419 0.12081456 -0.38177434 4293269760
3.306505 0.119456 -0.39209282 4293139200
3.3922169 0.1226531 -0.41718569 4293400320
3.3878071 0.12260826 -0.43108997 4293400320
3.3914332 0.12285271 -0.44553298 4293400320
3.3905244 0.12293345 -0.45889395 4293400320
3.3671196 0.12220097 -0.46860301 4293400320
3.3669522 0.12230714 -0.48092923 4293400320
3.3580101 0.12209535 -0.49142805 4293400320
3.3712087 0.12268496 -0.50462407 4293400320
3.3643963 0.12254938 -0.51427525 4293400320
3.3712759 0.12291011 -0.52543372 4293400320
3.3599012 0.12260774 -0.53313702 4293400320
3.3632932 0.12284133 -0.54255098 4293400320
3.3573472 0.12273493 -0.54983181 4293400320
3.362514 0.12303269 -0.55829835 4293400320
3.3565645 0.12292512 -0.5642767 4293400320
3.3237767 0.12183733 -0.56501937 4293269760
3.3200417 0.12180834 -0.56998014 4293269760
3.2980709 0.12111207 -0.57111263 4293269760
3.3121195 0.12173212 -0.57780606 4293269760
3.2451861 0.11938675 -0.56964922 4293008640
3.2535529 0.11979705 -0.57398266 4293008640
3.2531729 0.11988664 -0.5761137 4293008640
3.2578266 0.12016071 -0.57846856 4293139200
3.2478361 0.11989654 -0.57755047 4293008640
3.3140948 0.12243611 -0.58951926 4293269760
3.3004017 0.12203608 -0.58658803 4293269760
3.316807 0.12274385 -0.58831972 4293269760
3.3199239 0.12296227 -0.58700317 4293269760
3.3240142 0.12321647 -0.58517182 4293269760
3.3534918 0.12440836 -0.58709812 4293400320
3.3517113 0.12444612 -0.58284509 4293400320
3.3571131 0.12474917 -0.57916027 4293400320
3.352314 0.12467446 -0.57304579 4293400320
3.3591709 0.12503113 -0.56825697 4293400320
3.3567896 0.1250452 -0.56124246 4293400320
3.3533175 0.12501831 -0.55341166 4293400320
3.3595026 0.1253497 -0.5465315 4293400320
