# .PCD v0.7 - Point Cloud Data file format
VERSION 0.7
FIELDS x y z rgba
SIZE 4 4 4 4
TYPE F F F U
COUNT 1 1 1 1
WIDTH 1127
HEIGHT 1
VIEWPOINT 0 0 0 1 0 0 0
POINTS 1127
DATA ascii
1.7692431 1.2007666 0.17503378 4289222400
1.7973938 1.2199476 0.16630271 4289352960
1.8044536 1.2248267 0.15520583 4289352960
1.7882352 1.2139173 0.14199151 4289222400
1.7804002 1.2086931 0.12944834 4289222400
1.8078599 1.2274121 0.11920486 4289352960
1.6773345 1.1389496 0.099079534 4288830720
1.6140105 1.0960699 0.084164262 4288569600
1.572989 1.0683172 0.071049251 4288308480
2.0191941 1.371191 0.077178769 4290136320
2.6568394 1.8040309 0.082965679 4292747520
2.6658292 1.8102678 0.064342566 4292878080
2.6671524 1.8113021 0.045388829 4292878080
2.6364079 1.7905686 0.026042011 4292747520
2.5970359 1.7639755 0.0070790639 4292486400
2.564311 1.741891 -0.011358194 4292355840
2.5947895 1.7627156 -0.030033391 4292486400
2.6192906 1.7794843 -0.049002286 4292616960
2.6164558 1.777693 -0.067569569 4292616960
2.5979035 1.7652274 -0.085511796 4292486400
2.6230648 1.7824485 -0.10483669 4292616960
2.6303618 1.7875383 -0.1235688 4292616960
2.607681 1.7722663 -0.14066157 4292616960
2.5994174 1.7667854 -0.1581623 4292616960
2.6160309 1.7782041 -0.17705601 4292616960
2.6174853 1.7793251 -0.19486026 4292616960
2.6000593 1.7676176 -0.21094695 4292616960
2.6095498 1.7741983 -0.22892685 4292616960
2.6224229 1.7830786 -0.24709971 4292616960
2.6269317 1.7862753 -0.26432991 4292747520
2.6231534 1.7838399 -0.28044486 4292747520
2.4813931 1.6876153 -0.28064546 4292094720
2.6012332 1.7692034 -0.30988738 4292616960
2.6081312 1.7740235 -0.32613388 4292616960
2.6096578 1.7751919 -0.3413994 4292616960
2.5700297 1.7483788 -0.35070175 4292486400
2.5143814 1.7106681 -0.35690567 4292225280
2.6095593 1.7755157 -0.38426888 4292616960
2.6155295 1.7797054 -0.3986333 4292747520
2.5997715 1.7691178 -0.40919852 4292616960
2.5962734 1.7668672 -0.42113319 4292616960
2.4756722 1.6849605 -0.41306499 4292094720
2.5718877 1.7505341 -0.4404923 4292486400
2.5705659 1.749761 -0.45117077 4292486400
2.5547872 1.7391514 -0.45873418 4292486400
2.5544875 1.739072 -0.46848264 4292486400
2.5357447 1.7264423 -0.47425041 4292355840
2.4991736 1.7016784 -0.47595394 4292225280
2.447732 1.6667902 -0.47399503 4292094720
2.4785607 1.6878902 -0.48731527 4292225280
2.4014554 1.6355273 -0.47877491 4291833600
2.4283245 1.6539319 -0.49022248 4291964160
2.4544272 1.6718169 -0.50107414 4292094720
2.4577677 1.6742076 -0.5067724 4292094720
2.3902373 1.6283463 -0.49718255 4291833600
2.4051466 1.6386106 -0.50402808 4291964160
2.4087272 1.6411617 -0.50794441 4291964160
2.4237862 1.6515292 -0.51370418 4291964160
2.4201992 1.6491994 -0.51493281 4291964160
2.4158833 1.6463723 -0.51539916 4291964160
2.411653 1.6436027 -0.51527703 4291964160
2.4034388 1.6381185 -0.51370043 4291964160
2.3879845 1.6277013 -0.5099805 4291833600
2.3726139 1.617339 -0.50569093 4291833600
2.4355359 1.6603161 -0.51742703 4292094720
2.4244041 1.6528422 -0.51282436 4291964160
2.3929963 1.6315506 -0.50338918 4291833600
2.4653783 1.6809821 -0.51508939 4292094720
2.4422708 1.6653454 -0.50621361 4292094720
2.4971974 1.7028885 -0.51282382 4292225280
2.525888 1.7225544 -0.51329446 4292355840
2.5351772 1.7289981 -0.50915045 4292486400
2.5472934 1.7373693 -0.50492889 4292486400
2.5441093 1.7353107 -0.49707335 4292486400
2.5554409 1.7431476 -0.49144837 4292486400
2.53791 1.7313068 -0.47974002 4292486400
2.5616052 1.7475736 -0.47523153 4292486400
2.5819268 1.7615415 -0.46939442 4292616960
2.594523 1.7702429 -0.46149343 4292616960
2.5916398 1.7683884 -0.45028013 4292616960
2.57038 1.7540004 -0.43547162 4292486400
2.5634418 1.7493782 -0.42271274 4292486400
2.5643001 1.7500731 -0.41078496 4292486400
2.5900617 1.7677552 -0.40224358 4292616960
2.5865183 1.7654477 -0.38860017 4292616960
2.5611575 1.7482556 -0.37140033 4292486400
2.5694094 1.7539936 -0.35873497 4292486400
2.6095908 1.7815177 -0.34984836 4292616960
2.6087513 1.7810545 -0.3348681 4292616960
2.6092002 1.7814702 -0.31968278 4292616960
2.570214 1.7549736 -0.29955444 4292486400
2.576206 1.7591703 -0.28451878 4292486400
2.5917354 1.7698765 -0.27008638 4292616960
2.5735414 1.7575657 -0.25187171 4292486400
2.5671418 1.753304 -0.23468779 4292486400
2.5989108 1.775097 -0.22055787 4292616960
2.6039345 1.7786341 -0.20368378 4292616960
2.5828211 1.7643269 -0.18465921 4292486400
2.4768734 1.6920961 -0.16025528 4292094720
2.6078942 1.7816596 -0.15075964 4292616960
2.592073 1.7709635 -0.13186127 4292486400
2.5419238 1.7368237 -0.11154313 4292355840
2.5926473 1.7715685 -0.095496938 4292486400
2.6316161 1.7982893 -0.078284763 4292747520
2.6613934 1.8187354 -0.060229335 4292878080
2.6260581 1.7947086 -0.040691368 4292616960
2.6051342 1.7805234 -0.021730866 4292616960
1.9487609 1.3322406 -0.0024453166 4289875200
1.5621988 1.0682317 0.009120645 4288308480
-5.0110545 -3.4226408 -0.067566849 4278190335
1.6753608 1.1456783 0.033800319 4288830720
1.8142294 1.2406353 0.049576636 4289352960
1.8092338 1.2372961 0.062277876 4289352960
1.7920899 1.2256547 0.074333705 4289222400
1.8071429 1.2360158 0.087638408 4289352960
1.8117448 1.2392354 0.10047586 4289352960
1.795982 1.2285361 0.11199272 4289352960
1.7543128 1.2001275 0.12137243 4289091840
1.7976185 1.229803 0.1365293 4289352960
1.8024018 1.2331473 0.14892614 4289352960
1.78246 1.2195884 0.15901205 4289222400
1.6972321 1.1613915 0.16240077 4288961280
1.8143828 1.2415637 0.18521929 4289352960
1.8039153 1.2344817 0.1954598 4289352960
1.7458127 1.1948246 0.19989069 4289091840
1.6139861 1.1047448 0.19449344 4288569600
1.4516487 0.99378735 0.18344852 4287916800
1.7681459 1.2103192 0.23368844 4289222400
1.75983 1.2047056 0.24244843 4289222400
1.7642683 1.2078159 0.25267455 4289222400
1.7447094 1.1945107 0.25909725 4289091840
1.7123972 1.1724793 0.26306397 4288961280
1.7984451 1.2314236 0.28519735 4289352960
1.7991713 1.2319974 0.29389346 4289352960
1.7855222 1.222735 0.29984704 4289352960
1.7823299 1.2206274 0.30714098 4289352960
1.7391938 1.1911845 0.30700094 4289091840
1.6172119 1.1077774 0.29191348 4288700160
1.7478721 1.1972752 0.32213953 4289222400
1.7498661 1.1987162 0.32876647 4289222400
1.6888968 1.1570584 0.32297972 4288961280
1.7036638 1.1672415 0.3311553 4288961280
1.6445923 1.126876 0.32446045 4288700160
1.6521182 1.1321014 0.33038506 4288830720
1.6588686 1.1367968 0.33580765 4288830720
1.6705424 1.1448642 0.34187934 4288830720
1.6773781 1.1496201 0.34660146 4288961280
1.6810089 1.152182 0.35027644 4288961280
1.6765621 1.1492122 0.35185787 4288961280
1.6762359 1.1490649 0.35388598 4288961280
1.6800294 1.1517395 0.35637337 4288961280
1.6920049 1.1600195 0.36019257 4288961280
1.6877871 1.1572077 0.36014751 4288961280
1.6917533 1.1600027 0.3614262 4288961280
1.6795306 1.1517065 0.35882163 4288961280
1.6681796 1.1440068 0.35598522 4288830720
1.6641986 1.1413567 0.35430953 4288830720
1.660275 1.1387457 0.35223553 4288830720
1.6604706 1.1389576 0.35062578 4288830720
1.641216 1.1258392 0.34451994 4288700160
1.6301378 1.1183236 0.33976856 4288700160
1.6806548 1.153029 0.34739429 4288961280
1.7236679 1.1825954 0.35289049 4289091840
1.7325362 1.1887578 0.35087669 4289091840
1.7503221 1.2010353 0.35019839 4289222400
1.7623944 1.2093971 0.3478936 4289222400
1.7624 1.2094861 0.34276959 4289222400
1.7621527 1.209402 0.33720031 4289222400
1.7686368 1.2139347 0.33250943 4289222400
1.7850237 1.22526 0.32921809 4289352960
1.8024476 1.2372986 0.32561526 4289352960
1.7887887 1.2280177 0.31600809 4289352960
1.7234311 1.1837375 0.2520909 4289091840
1.7847233 1.2258904 0.25149798 4289352960
1.802507 1.2381865 0.2440576 4289352960
1.7896554 1.2294556 0.23216513 4289352960
1.7539508 1.2050353 0.21732461 4289222400
1.7787308 1.2221361 0.20980857 4289222400
1.7941701 1.2328266 0.20071442 4289352960
1.7690932 1.2156991 0.18691832 4289222400
1.7455349 1.199612 0.1733806 4289091840
1.7746364 1.2196858 0.16485587 4289222400
1.7808397 1.2240366 0.15378931 4289222400
1.777017 1.2215019 0.14167011 4289222400
1.7688733 1.2159991 0.12912966 4289222400
1.7877706 1.2290709 0.11835472 4289222400
1.6176816 1.1123136 0.095928691 4288569600
1.5505228 1.0662559 0.081165239 4288308480
1.6038133 1.1029508 0.072749451 4288569600
2.0601578 1.4166061 0.079080135 4290397440
2.6313679 1.809243 0.082506135 4292747520
2.6354589 1.8121897 0.063870311 4292747520
2.6290057 1.8078899 0.044923346 4292747520
2.610271 1.795148 0.025894223 4292616960
2.592941 1.7833698 0.0071084206 4292616960
2.5607328 1.7613616 -0.011375295 4292486400
2.5773454 1.7729146 -0.029941464 4292486400
2.5833242 1.7771579 -0.048517749 4292486400
2.5610507 1.7619755 -0.066403285 4292486400
2.5408595 1.7482226 -0.083969422 4292355840
2.5906782 1.7826139 -0.10395055 4292616960
2.5934563 1.7846577 -0.12231766 4292616960
2.5544806 1.757983 -0.13834307 4292355840
2.5607591 1.7624327 -0.1564295 4292486400
2.5762901 1.773248 -0.17506018 4292486400
2.5594425 1.7617894 -0.19130322 4292486400
2.4293339 1.6724039 -0.19792008 4291964160
2.5428939 1.7506646 -0.22397663 4292355840
2.5604722 1.7628902 -0.24223101 4292486400
2.5644889 1.7657847 -0.25908285 4292486400
2.5110292 1.7291235 -0.26955131 4292225280
2.4425132 1.6820936 -0.2773515 4291964160
2.5556326 1.7600796 -0.30567223 4292486400
2.5617011 1.7643863 -0.32160923 4292486400
2.5435252 1.7520031 -0.33408552 4292486400
2.5087416 1.7281839 -0.3437137 4292225280
2.4279947 1.6727141 -0.34603786 4291964160
2.5795588 1.7771986 -0.38136554 4292616960
2.5863323 1.7819921 -0.39575487 4292616960
2.5586145 1.7630328 -0.40433073 4292486400
2.545552 1.7541639 -0.4145605 4292486400
2.4658122 1.6993681 -0.41305465 4292094720
2.5308886 1.7443161 -0.43520439 4292355840
2.5263271 1.7412989 -0.44518149 4292355840
2.5137808 1.7327802 -0.45317745 4292355840
2.516628 1.7348652 -0.46338531 4292355840
2.4480205 1.6877168 -0.45969477 4292094720
2.45017 1.6893175 -0.46849319 4292094720
2.3875656 1.6462952 -0.4642041 4291833600
2.4060996 1.6591841 -0.47497639 4291964160
2.4287403 1.6749046 -0.48612651 4291964160
2.3715398 1.6355957 -0.48068434 4291833600
2.3943059 1.6514024 -0.49076706 4291833600
2.4130692 1.6644515 -0.49955145 4291964160
2.3498735 1.6209995 -0.49074629 4291703040
2.3533726 1.6235235 -0.49516031 4291703040
2.3601913 1.6283363 -0.49970829 4291703040
2.3719523 1.6365573 -0.50473875 4291833600
2.371628 1.6364453 -0.50662535 4291833600
2.3746295 1.6386262 -0.50863004 4291833600
2.3671749 1.6335955 -0.50780386 4291833600
2.3549404 1.6252669 -0.50535691 4291703040
2.3395469 1.6147579 -0.50164396 4291703040
2.3988862 1.6557994 -0.51331258 4291964160
2.3714983 1.6370153 -0.50585312 4291833600
2.3604045 1.62947 -0.50129968 4291703040
2.4202373 1.6708598 -0.51113296 4291964160
2.405252 1.6606297 -0.50455111 4291964160
2.3935838 1.6526868 -0.4981159 4291833600
2.4409781 1.6855011 -0.50329548 4292094720
2.4882104 1.7182076 -0.50766432 4292225280
2.5023253 1.7280607 -0.50456476 4292355840
2.4950175 1.7231281 -0.49655446 4292355840
2.5103927 1.7338518 -0.49244994 4292355840
2.5153973 1.7374177 -0.48568702 4292355840
2.5204608 1.7410241 -0.4783434 4292355840
2.5174441 1.7390519 -0.46891299 4292355840
2.5410953 1.7554919 -0.46382377 4292486400
2.5687072 1.7746685 -0.45872793 4292616960
2.5584965 1.7677293 -0.44630134 4292486400
2.5220444 1.7426671 -0.42899907 4292355840
2.5273449 1.7464366 -0.41843012 4292355840
2.5348837 1.751752 -0.40769711 4292486400
2.5471661 1.7603444 -0.39716884 4292486400
2.5455732 1.759353 -0.38398227 4292486400
2.5251417 1.7453477 -0.36764452 4292355840
2.5263941 1.7463202 -0.3541446 4292355840
2.5534453 1.7651166 -0.34369895 4292486400
2.5505893 1.7632514 -0.32872057 4292486400
2.5423338 1.7576549 -0.31274745 4292486400
2.5188146 1.7415099 -0.29474443 4292355840
2.5414279 1.7572427 -0.28180107 4292355840
2.5498898 1.7631972 -0.26679093 4292486400
2.5335534 1.7520134 -0.24895161 4292355840
2.5230653 1.7448703 -0.23158368 4292355840
2.5652034 1.774102 -0.21856707 4292486400
2.5701985 1.7776618 -0.20184776 4292486400
2.5410326 1.7576064 -0.18239911 4292355840
2.4990058 1.728657 -0.16231628 4292225280
2.565486 1.7747238 -0.14890142 4292486400
2.5767033 1.7825861 -0.13159612 4292486400
2.5584009 1.7700374 -0.1126989 4292486400
2.5596011 1.7709731 -0.094653405 4292486400
2.6010613 1.7997507 -0.07768061 4292616960
2.6305161 1.8202287 -0.059763461 4292747520
2.5801921 1.785532 -0.040138904 4292486400
2.5864775 1.7899859 -0.021652972 4292616960
2.0078909 1.3898779 -0.0025004137 4290136320
1.5288072 1.0585535 0.0089577306 4288177920
-4.9910302 -3.4517663 -0.0675878 4278190335
1.6727663 1.1582758 0.033892009 4288830720
1.7965462 1.2439853 0.049295112 4289352960
1.7896618 1.2392962 0.061855633 4289352960
1.7808069 1.2332431 0.074168876 4289222400
1.7834755 1.2351636 0.086841188 4289222400
1.7888844 1.2389807 0.099610135 4289352960
1.7805793 1.2333072 0.1114839 4289222400
1.7357954 1.2023851 0.12057837 4289091840
1.7812587 1.2339256 0.13583589 4289222400
1.7864592 1.2375996 0.14820775 4289352960
1.7705952 1.2266924 0.15859507 4289222400
1.706266 1.1822319 0.16393276 4288961280
1.8020656 1.2486286 0.18470816 4289352960
1.788222 1.2391193 0.19454433 4289352960
1.6610005 1.1511042 0.19093528 4288830720
1.6074538 1.1140954 0.19449227 4288569600
1.4498525 1.0050241 0.18396582 4287916800
1.6699017 1.1574794 0.22158147 4288830720
1.6298114 1.1297843 0.22542351 4288700160
1.7322479 1.2008044 0.24908969 4289091840
1.7222146 1.1939284 0.25679031 4289091840
1.6933016 1.1739738 0.26118228 4288961280
1.7864039 1.2385439 0.28443459 4289352960
1.7878866 1.2396481 0.29323232 4289352960
1.7783648 1.2331282 0.29985452 4289352960
1.7637922 1.2231082 0.3051756 4289222400
1.732221 1.2013083 0.30700824 4289091840
1.5985329 1.1087416 0.28970844 4288569600
1.7364001 1.2043561 0.3213203 4289222400
1.7152349 1.1897635 0.32356107 4289091840
1.6978555 1.1777935 0.32600951 4288961280
1.6578799 1.1501596 0.32355571 4288830720
1.6685741 1.1576465 0.33052838 4288830720
1.6138676 1.1197963 0.32403862 4288700160
1.6133064 1.1194794 0.32790205 4288700160
1.6289968 1.1304307 0.3347227 4288700160
1.6317644 1.1324233 0.33853695 4288700160
1.6313411 1.1322036 0.34129861 4288700160
1.6390666 1.1376352 0.34537819 4288830720
1.6346997 1.1346816 0.34651056 4288700160
1.6384832 1.1373806 0.34896412 4288830720
1.6423217 1.1401184 0.35102731 4288830720
1.634078 1.1344762 0.35009408 4288700160
1.6339848 1.1344873 0.35049307 4288700160
1.6379949 1.1373454 0.35136154 4288830720
1.6226426 1.1267709 0.34766626 4288700160
1.6186754 1.1240944 0.34600946 4288700160
1.6188101 1.1242642 0.34482616 4288700160
1.6036223 1.1138016 0.33998823 4288700160
1.6610937 1.1537615 0.35010836 4288830720
1.6460161 1.1433765 0.34447083 4288830720
1.6936471 1.1765146 0.35150075 4288961280
1.6993058 1.1805238 0.3493109 4289091840
1.7245378 1.198121 0.35067242 4289091840
1.7404585 1.2092568 0.34963629 4289222400
1.7477423 1.2143983 0.34639922 4289222400
1.7472097 1.2141136 0.34119222 4289222400
1.7396578 1.2089552 0.33424395 4289222400
1.7534142 1.2185931 0.33098367 4289222400
1.7656713 1.2271916 0.32696846 4289222400
1.7830195 1.2393272 0.32341093 4289352960
1.7816004 1.2384298 0.3160156 4289352960
1.6615698 1.1555983 0.24402055 4288830720
1.777584 1.2363042 0.25151059 4289352960
1.7940545 1.247841 0.24390112 4289352960
1.7650994 1.2278073 0.22990815 4289222400
1.740238 1.2106162 0.21650214 4289091840
1.7667503 1.2291347 0.20924337 4289222400
1.7745112 1.2346201 0.19932167 4289222400
1.7497081 1.2174668 0.18562141 4289222400
1.7370429 1.2087506 0.17324094 4289091840
1.7511251 1.2186315 0.16333236 4289222400
1.7579045 1.223436 0.1524255 4289222400
1.7643305 1.2279954 0.14123295 4289222400
1.746186 1.2154669 0.12799178 4289091840
1.7670903 1.2300969 0.11746218 4289222400
1.5996919 1.1137463 0.095248543 4288569600
1.5245986 1.0615904 0.080130838 4288177920
1.5735686 1.0957378 0.071665071 4288439040
2.0903015 1.4553374 0.080580026 4290528000
2.6056857 1.8140521 0.082038827 4292616960
2.5977719 1.8086802 0.063216574 4292616960
2.5900853 1.8034657 0.044441905 4292616960
2.540041 1.7687713 0.025296716 4292355840
2.5410078 1.769576 0.0069953436 4292355840
2.5097501 1.7479504 -0.011193025 4292225280
2.5346763 1.7654321 -0.029561955 4292355840
2.5272772 1.7604126 -0.047657657 4292355840
2.4714015 1.7216419 -0.064347766 4292094720
2.5200906 1.7556708 -0.083611913 4292355840
2.5483537 1.7754817 -0.10266337 4292486400
2.5336406 1.765368 -0.11998229 4292355840
2.4889562 1.7343796 -0.13534442 4292225280
2.5197062 1.7559252 -0.15454225 4292355840
2.5299594 1.7631971 -0.17260689 4292355840
2.5149665 1.7528837 -0.18873863 4292355840
2.4626906 1.7165964 -0.20142522 4292094720
2.5275073 1.7618799 -0.22351283 4292355840
2.5415726 1.7718097 -0.24140763 4292486400
2.5304439 1.7641859 -0.25667441 4292355840
2.4853826 1.7329153 -0.26787224 4292225280
2.4089804 1.6797987 -0.27464852 4291833600
2.5298202 1.7641399 -0.30380371 4292355840
2.528527 1.7633675 -0.31872591 4292355840
2.5169604 1.755434 -0.33192918 4292355840
2.4790642 1.7291447 -0.34101874 4292225280
2.3945785 1.6703718 -0.34265533 4291833600
2.5414724 1.7729065 -0.37725464 4292486400
2.5441635 1.7749112 -0.39087865 4292486400
2.5247083 1.7614732 -0.40058565 4292355840
2.5157754 1.7553707 -0.41136646 4292355840
2.4168649 1.6865171 -0.4064993 4291964160
2.486697 1.7353418 -0.42933902 4292225280
2.4740534 1.7266469 -0.43774095 4292225280
2.48417 1.7338266 -0.44964993 4292225280
2.4623051 1.718697 -0.45522583 4292225280
2.4024808 1.6770825 -0.45297474 4291964160
2.4248917 1.6928366 -0.46553391 4292094720
2.3665948 1.6522795 -0.46198559 4291833600
2.3810105 1.6624545 -0.47192425 4291833600
2.4068019 1.6805687 -0.4836821 4291964160
2.3312309 1.6279457 -0.47443205 4291703040
2.3611925 1.6489697 -0.48594087 4291833600
2.3839283 1.6649529 -0.49551684 4291833600
2.3209922 1.6211361 -0.48667783 4291572480
2.331753 1.6287591 -0.49259534 4291703040
2.3433931 1.6369966 -0.49815604 4291703040
2.3462226 1.6390835 -0.50128454 4291703040
2.3499391 1.6417897 -0.50402254 4291703040
2.3496993 1.6417329 -0.50532728 4291703040
2.3422749 1.6366589 -0.50449634 4291703040
2.3260524 1.6254395 -0.50118041 4291703040
2.3066833 1.6120204 -0.49660358 4291572480
2.3730488 1.658481 -0.50983995 4291833600
2.3538446 1.6451765 -0.50411725 4291833600
2.3314877 1.6296678 -0.49716526 4291703040
2.4064221 1.6821235 -0.51026815 4291964160
2.3680682 1.6554382 -0.4987677 4291833600
2.361289 1.6508094 -0.49338824 4291833600
2.4189925 1.6912359 -0.50078058 4292094720
2.4547124 1.7163055 -0.50286078 4292225280
2.4514003 1.7141016 -0.49630788 4292225280
2.4695652 1.7269064 -0.49347895 4292225280
2.4777141 1.7327123 -0.48801029 4292225280
2.475404 1.731208 -0.47990575 4292225280
2.4908376 1.742106 -0.47463685 4292355840
2.4951158 1.7452068 -0.46663436 4292355840
2.5032654 1.7510141 -0.45877317 4292355840
2.527509 1.7680737 -0.45320365 4292486400
2.5205698 1.7633326 -0.44146988 4292486400
2.5067477 1.753778 -0.42811942 4292355840
2.4935765 1.7446769 -0.41451362 4292355840
2.5051348 1.7528678 -0.40454489 4292355840
2.5173573 1.7615241 -0.39411104 4292355840
2.5157604 1.7605157 -0.38102248 4292355840
2.4799416 1.7355709 -0.36253187 4292225280
2.4925678 1.7445091 -0.35081962 4292225280
2.515425 1.7606049 -0.3399553 4292355840
2.527647 1.7692622 -0.32708049 4292355840
2.5188792 1.7632358 -0.31111455 4292355840
2.484971 1.739619 -0.29196277 4292225280
2.4964604 1.7477633 -0.27794024 4292225280
2.5126455 1.7591941 -0.26396018 4292355840
2.4891269 1.7428426 -0.24558026 4292225280
2.4860203 1.7407732 -0.2291085 4292225280
2.5200937 1.7647245 -0.2155959 4292355840
2.51688 1.7625811 -0.19846578 4292355840
2.4560146 1.7200842 -0.17702448 4292094720
2.4043312 1.6840094 -0.15681635 4291833600
2.512784 1.7600299 -0.14643665 4292355840
2.4975665 1.7494817 -0.12808125 4292225280
2.4472592 1.7143652 -0.10825819 4291964160
2.4944155 1.747484 -0.092621833 4292225280
2.5343308 1.7755364 -0.075999051 4292355840
2.600208 1.8217716 -0.059308954 4292616960
2.5582764 1.7925161 -0.03995182 4292486400
2.5734625 1.8032577 -0.021621373 4292486400
1.9366866 1.3573925 -0.0024323866 4289875200
1.5482553 1.0854152 0.009125039 4288308480
-4.9708371 -3.4807746 -0.067608751 4278190335
1.6537033 1.1594089 0.033644967 4288700160
1.7761992 1.2452896 0.048938647 4289222400
1.7783152 1.246846 0.061719868 4289222400
1.7539448 1.2298461 0.073349066 4289222400
1.7606983 1.2346512 0.086084075 4289222400
1.7693614 1.240795 0.098928146 4289222400
1.7660003 1.2385138 0.11102664 4289222400
1.727537 1.2116337 0.12050019 4289091840
1.7697713 1.2413048 0.13551569 4289222400
1.7677203 1.2399417 0.14725485 4289222400
1.7564112 1.2320895 0.15797088 4289222400
1.6847787 1.1819531 0.16253106 4288961280
1.7794647 1.2483981 0.18313846 4289352960
1.7683905 1.24071 0.19317506 4289222400
1.6967136 1.1905344 0.19585158 4288961280
1.530928 1.0743718 0.18597846 4288308480
1.4293927 1.0032449 0.18211123 4287916800
1.7543005 1.2311312 0.23375443 4289222400
1.7431884 1.2234141 0.24211845 4289222400
1.7264898 1.2117785 0.24928063 4289091840
1.7047875 1.1966324 0.25523287 4289091840
1.5702258 1.1023282 0.24317202 4288439040
1.7686743 1.241591 0.28276494 4289352960
1.7680264 1.2412133 0.29116222 4289352960
1.7599082 1.2355955 0.29795757 4289222400
1.7331326 1.2168881 0.30109686 4289222400
1.7014418 1.1947303 0.30278602 4289091840
1.584756 1.1129346 0.28838804 4288569600
1.7429808 1.2240273 0.32386202 4289222400
1.7462176 1.2263758 0.33076081 4289222400
1.7313405 1.2160134 0.33380687 4289222400
1.7436104 1.2247018 0.34169358 4289222400
1.7263489 1.2126648 0.3433826 4289222400
1.7224841 1.2100298 0.34727886 4289091840
1.7142099 1.2042996 0.34985158 4289091840
1.7096263 1.2011597 0.35274035 4289091840
1.7029039 1.1965181 0.35475305 4289091840
1.7097208 1.2013819 0.35917246 4289091840
1.7061056 1.198922 0.36098617 4289091840
1.6913848 1.1886641 0.36000282 4289091840
1.6983668 1.1936451 0.36320814 4289091840
1.6981508 1.1935722 0.36445481 4289091840
1.6907403 1.1884469 0.36372557 4289091840
1.712278 1.2036532 0.36880201 4289091840
1.700958 1.1957824 0.36637101 4289091840
1.6969509 1.1930478 0.36508709 4289091840
1.7113111 1.2032162 0.36732224 4289091840
1.7191155 1.2087805 0.36770588 4289091840
1.7225293 1.211261 0.36670983 4289222400
1.7202891 1.2097694 0.36407948 4289091840
1.720287 1.2098507 0.36149988 4289091840
1.7286627 1.2158197 0.36024457 4289222400
1.7334677 1.2192802 0.35780007 4289222400
1.7430326 1.2260871 0.35589066 4289222400
1.7344728 1.2201555 0.3498641 4289222400
1.7306629 1.2175623 0.34442106 4289222400
1.7312782 1.2180799 0.33946812 4289222400
1.7303075 1.2174827 0.33381233 4289222400
1.7326267 1.2191989 0.32840121 4289222400
1.7506182 1.2319354 0.32551152 4289222400
1.7525609 1.2333884 0.31918913 4289222400
1.753353 1.234033 0.31228024 4289222400
1.7127861 1.2060629 0.25258833 4289091840
1.750851 1.2329329 0.24874465 4289222400
1.7666858 1.2441646 0.24116592 4289222400
1.7458714 1.2296077 0.22833836 4289222400
1.719141 1.2108854 0.21475631 4289091840
1.7415167 1.226722 0.20710179 4289222400
1.7519919 1.2341849 0.19760102 4289222400
1.7415545 1.2269281 0.18551905 4289222400
1.714484 1.2079613 0.171694 4289091840
1.7388874 1.2252306 0.16286038 4289091840
1.7474816 1.2313715 0.15214807 4289222400
1.7457211 1.2302226 0.14031939 4289222400
1.7309108 1.2198843 0.12739632 4289091840
1.747923 1.2319548 0.11666761 4289222400
1.5261467 1.0758536 0.091227561 4288308480
1.4556621 1.0262887 0.076806441 4287916800
1.527941 1.0772767 0.069865555 4288308480
2.0776989 1.4646248 0.080429643 4290528000
2.5778368 1.8170736 0.081501357 4292616960
2.5826979 1.8206331 0.063116834 4292616960
2.5640013 1.8075947 0.044181768 4292486400
2.5110157 1.7703928 0.025116304 4292355840
2.4661996 1.7389425 0.0068124589 4292094720
2.4901457 1.7559472 -0.011142799 4292225280
2.4830179 1.751054 -0.029077698 4292225280
2.4973612 1.7612936 -0.047280684 4292225280
2.4417148 1.7221988 -0.063829914 4291964160
2.4787698 1.7484486 -0.082575388 4292225280
2.5142751 1.7736096 -0.10170085 4292355840
2.5222623 1.7793726 -0.11992209 4292355840
2.4559462 1.7327437 -0.13409236 4292094720
2.4816799 1.7510182 -0.15283069 4292225280
2.4992309 1.7635248 -0.17120403 4292225280
2.4881649 1.7558504 -0.18748638 4292225280
2.4330771 1.7171252 -0.19981395 4291964160
2.4976368 1.7627902 -0.22177142 4292225280
2.5116525 1.7728065 -0.23953834 4292355840
2.5046487 1.7679957 -0.25509289 4292355840
2.4443126 1.7255564 -0.26452485 4292094720
2.379626 1.680041 -0.27241001 4291833600
2.5068994 1.7699716 -0.30227819 4292355840
2.5096807 1.7720634 -0.31763881 4292355840
2.494379 1.7613933 -0.33029282 4292355840
2.4259169 1.7132015 -0.33508039 4291964160
2.358027 1.6654063 -0.33880782 4291703040
2.5083907 1.7716665 -0.37386748 4292355840
2.5102718 1.7731222 -0.38725021 4292355840
2.4917181 1.7601508 -0.39696953 4292355840
2.4820235 1.7534323 -0.40750945 4292225280
2.3956671 1.6925824 -0.40458021 4291964160
2.4652195 1.7418168 -0.42736983 4292225280
2.4639506 1.7410444 -0.43773052 4292225280
2.462713 1.7402939 -0.44758797 4292225280
2.4482107 1.7301741 -0.45446748 4292225280
2.4007406 1.6967658 -0.45448953 4291964160
2.4036906 1.6989688 -0.46335077 4291964160
2.3528945 1.6632034 -0.46118689 4291833600
2.3785393 1.6814371 -0.47335514 4291833600
2.4009984 1.6974223 -0.48448333 4291964160
2.3329842 1.6494819 -0.476722 4291703040
2.3515444 1.662711 -0.48593092 4291833600
2.3661358 1.6731369 -0.49382997 4291833600
2.2994337 1.6261111 -0.48413149 4291572480
2.314981 1.6372106 -0.49105251 4291703040
2.3104837 1.6341434 -0.49317646 4291572480
2.3141096 1.636817 -0.49645281 4291703040
2.3210306 1.6418202 -0.49986416 4291703040
2.3167717 1.6389198 -0.50029159 4291703040
2.3093786 1.6338025 -0.49945343 4291572480
2.3012638 1.6281738 -0.49787205 4291572480
2.2819731 1.6146414 -0.49329805 4291572480
2.3561077 1.6671733 -0.50827187 4291833600
2.3482397 1.6617188 -0.50497031 4291833600
2.3332126 1.6512001 -0.49956134 4291703040
2.3925581 1.6932831 -0.50940341 4291964160
2.3776915 1.6828778 -0.50283289 4291964160
2.35163 1.6645514 -0.49337828 4291833600
2.3938038 1.6944942 -0.49759787 4291964160
2.3904221 1.692211 -0.49171445 4291964160
2.4413712 1.7283674 -0.49629754 4292225280
2.4554331 1.7384278 -0.49266198 4292225280
2.4450107 1.7311634 -0.48354629 4292225280
2.4459257 1.7319207 -0.47613657 4292225280
2.4501209 1.7349992 -0.46879831 4292225280
2.4623125 1.7437371 -0.4623903 4292225280
2.4926221 1.7652997 -0.45868951 4292355840
2.5090761 1.7770569 -0.45173991 4292486400
2.4908617 1.764274 -0.4380565 4292355840
2.481128 1.7574929 -0.42548093 4292355840
2.4669647 1.7475746 -0.41177133 4292225280
2.4831517 1.7591432 -0.40263721 4292355840
2.4916573 1.7652738 -0.39168626 4292355840
2.4819715 1.7585236 -0.3774485 4292225280
2.4688511 1.7493401 -0.36238444 4292225280
2.4741278 1.7531838 -0.34964862 4292225280
2.4966121 1.7692146 -0.33879268 4292355840
2.5091672 1.7782146 -0.3260166 4292355840
2.4850168 1.761216 -0.3081919 4292225280
2.4552972 1.7402703 -0.28965908 4292094720
2.4817574 1.7591196 -0.2774308 4292225280
2.4916885 1.7662611 -0.26282826 4292225280
2.4842665 1.7611088 -0.24609677 4292225280
2.4748952 1.7545744 -0.2290114 4292225280
2.4979711 1.7710303 -0.21457559 4292355840
2.498837 1.7717497 -0.19784552 4292355840
2.481281 1.7594142 -0.1795603 4292225280
2.4395826 1.7299672 -0.15974623 4292094720
2.4859555 1.7629366 -0.14546359 4292225280
2.4908476 1.7665088 -0.12825087 4292225280
2.3940163 1.6979769 -0.10634089 4291833600
2.4801128 1.7591088 -0.092460424 4292225280
2.4938912 1.7689809 -0.075091518 4292225280
2.5537419 1.811517 -0.058486998 4292486400
2.5282104 1.7935226 -0.039638981 4292355840
2.5511684 1.8099067 -0.021514336 4292486400
2.0164106 1.4308279 -0.0025070135 4290266880
1.5206797 1.0793791 0.0089977877 4288177920
-4.9504752 -3.509665 -0.067629695 4278190335
1.5985036 1.1347001 0.032646246 4288569600
1.7573659 1.2474399 0.048623122 4289222400
1.755527 1.2462095 0.061182801 4289222400
1.7394108 1.2348516 0.0730462 4289091840
1.7410698 1.2361017 0.085479014 4289222400
1.746909 1.2403176 0.098078512 4289222400
1.7423608 1.2371646 0.10999487 4289222400
1.7049754 1.2107133 0.11941972 4288961280
1.7381032 1.234291 0.13364054 4289091840
1.7479974 1.2413855 0.14621647 4289222400
1.6773826 1.1913494 0.15147488 4288961280
1.4567441 1.0348403 0.14106452 4288047360
1.7441251 1.2388602 0.18024263 4289222400
1.7530675 1.2452816 0.19229649 4289222400
1.7403893 1.2363576 0.20173992 4289222400
1.7035351 1.2102716 0.20784947 4289091840
1.5557833 1.1054583 0.19907022 4288439040
1.7530967 1.2456033 0.23456602 4289222400
1.7447051 1.2397212 0.24333763 4289222400
1.7241921 1.2252322 0.24998395 4289091840
1.6731244 1.1890463 0.25152853 4288961280
1.4453232 1.0273576 0.22473679 4288047360
1.7063385 1.2127789 0.27392304 4289091840
1.6970912 1.2062863 0.28063104 4289091840
1.6040714 1.1402954 0.27267924 4288700160
1.6226085 1.1535326 0.28305063 4288700160
1.546464 1.0995175 0.27632749 4288439040
1.5303762 1.0881579 0.27964103 4288308480
1.7291282 1.2294211 0.32262057 4289222400
1.732127 1.2316288 0.32945251 4289222400
1.7346411 1.2334929 0.33583239 4289222400
1.7310284 1.231004 0.340635 4289222400
1.7265874 1.2279265 0.34485605 4289222400
1.7241219 1.2262528 0.34905258 4289222400
1.7175392 1.2216531 0.35198683 4289222400
1.7146484 1.219677 0.35524595 4289091840
1.7104495 1.2167712 0.35780525 4289091840
1.7172341 1.2216727 0.36224949 4289222400
1.712105 1.218106 0.36376032 4289091840
1.7117705 1.2179477 0.36585677 4289091840
1.7114937 1.2178307 0.36753663 4289091840
1.707262 1.214902 0.36793274 4289091840
1.7111169 1.2177233 0.36963987 4289091840
1.7110182 1.2177339 0.3700611 4289091840
1.719727 1.2240081 0.37195402 4289222400
1.712526 1.2189685 0.36996987 4289091840
1.7122915 1.2188834 0.3690595 4289091840
1.7187843 1.2235838 0.36916229 4289222400
1.7165873 1.2221036 0.36696255 4289222400
1.7190048 1.2239063 0.36531922 4289222400
1.7150316 1.2211629 0.36189264 4289091840
1.719014 1.2240798 0.35972169 4289222400
1.7267305 1.2296542 0.35789019 4289222400
1.7203138 1.2251729 0.35270968 4289222400
1.7213496 1.2259946 0.34865919 4289222400
1.7002797 1.2110846 0.33977807 4289091840
1.6907781 1.2044064 0.33290097 4289091840
1.6829923 1.1989486 0.32602909 4288961280
1.6366677 1.1660576 0.31149176 4288830720
1.6301053 1.1614678 0.30434901 4288830720
1.6926123 1.2060498 0.30954599 4289091840
1.7032181 1.2136861 0.30460703 4289091840
1.7006571 1.2124212 0.25184387 4289091840
1.7106133 1.2196008 0.24403511 4289091840
1.705331 1.2159258 0.23375121 4289091840
1.6814777 1.1990193 0.22082274 4288961280
1.6668789 1.1887046 0.20908752 4288830720
1.701718 1.2136159 0.20320708 4289091840
1.7316316 1.235021 0.19611773 4289091840
1.7199832 1.2268096 0.18398385 4289091840
1.698198 1.2113725 0.17077228 4288961280
1.7162901 1.2243567 0.16141319 4289091840
1.7240304 1.2299638 0.15073118 4289091840
1.7190208 1.2264829 0.13874787 4289091840
1.7054113 1.2168703 0.12604183 4289091840
1.7173781 1.2254918 0.11510468 4289091840
1.5312353 1.0928565 0.091921046 4288308480
1.461857 1.0434645 0.077463269 4288047360
1.5379082 1.0977762 0.070624642 4288308480
2.1155112 1.5097965 0.082253315 4290658560
2.5452399 1.8164077 0.080810271 4292486400
2.5403001 1.8130182 0.062341824 4292486400
2.5379577 1.8114811 0.0439215 4292486400
2.4811189 1.7710663 0.02492607 4292225280
2.4677289 1.761644 0.0068582301 4292225280
2.4646611 1.7595853 -0.011067737 4292094720
2.4858394 1.7748271 -0.029217519 4292225280
2.4786854 1.7698531 -0.047113203 4292225280
2.4007132 1.7143381 -0.063016281 4291833600
2.4635313 1.7592987 -0.08239878 4292094720
2.4925079 1.7801111 -0.10123079 4292225280
2.4923313 1.7801161 -0.11898501 4292225280
2.4262931 1.7331045 -0.13301785 4291964160
2.4710331 1.765173 -0.15279552 4292225280
2.486392 1.7762686 -0.17102088 4292225280
2.473429 1.7671431 -0.18713962 4292225280
2.3994818 1.7144685 -0.19786932 4291964160
2.463784 1.7605144 -0.21966961 4292225280
2.4931538 1.7816188 -0.23875217 4292355840
2.4851537 1.776035 -0.2541495 4292225280
2.4107091 1.7229894 -0.26196802 4291964160
2.3268554 1.6632146 -0.26747912 4291572480
2.477108 1.7706753 -0.29992107 4292225280
2.4798872 1.7727894 -0.31516618 4292225280
2.4606133 1.7591465 -0.32717124 4292225280
2.4086161 1.722119 -0.33406353 4291964160
2.3248479 1.6623822 -0.3354257 4291703040
2.478641 1.7724105 -0.37096286 4292355840
2.4885964 1.7796528 -0.38549316 4292355840
2.4693179 1.7660009 -0.39502755 4292225280
2.4483802 1.7511606 -0.40365261 4292225280
2.3623924 1.6898164 -0.40061599 4291833600
2.4244196 1.73428 -0.42204303 4292094720
2.4304168 1.7386905 -0.43356436 4292094720
2.3974347 1.7152307 -0.43754438 4291964160
2.4155681 1.7283179 -0.45026842 4292094720
2.3755388 1.699814 -0.4515821 4291964160
2.3128359 1.6550901 -0.447712 4291703040
2.3311155 1.6682793 -0.45881081 4291703040
2.3534472 1.6843681 -0.47030318 4291833600
2.3645828 1.6924502 -0.47911808 4291833600
2.3000677 1.6464155 -0.47194844 4291572480
2.3225679 1.6626257 -0.48193535 4291703040
2.3371043 1.6731396 -0.48979563 4291833600
2.2674763 1.6234347 -0.4793869 4291441920
2.2861693 1.6369209 -0.48695481 4291572480
2.2929108 1.6418561 -0.49145302 4291572480
2.2925172 1.6416851 -0.49385992 4291572480
2.2962067 1.6444361 -0.49657017 4291572480
2.2959709 1.6443775 -0.4978556 4291572480
2.2878077 1.6386441 -0.49684042 4291572480
2.2725191 1.6278088 -0.49369586 4291572480
2.2685225 1.6250554 -0.49242109 4291441920
2.3311381 1.6699914 -0.50497264 4291703040
2.3233008 1.6644896 -0.50168127 4291703040
2.300324 1.6481465 -0.49456787 4291572480
2.3674307 1.6963074 -0.50614578 4291964160
2.3414054 1.6777802 -0.49721956 4291833600
2.3226581 1.6644624 -0.48932484 4291703040
2.3039746 1.6511884 -0.48094121 4291703040
2.3612785 1.6923388 -0.48773783 4291833600
2.4007819 1.7207435 -0.49007863 4292094720
2.3903289 1.7133652 -0.48160666 4291964160
2.4156206 1.7315927 -0.47971871 4292094720
2.4165237 1.7323493 -0.47236755 4292094720
2.4134645 1.7302665 -0.4637062 4292094720
2.4328258 1.7442479 -0.45875117 4292094720
2.454962 1.7602195 -0.4536393 4292225280
2.4793773 1.7778257 -0.44824722 4292355840
2.4652517 1.7678127 -0.43535215 4292225280
2.4515254 1.7580843 -0.42215103 4292225280
2.4263637 1.740158 -0.40668127 4292094720
2.4418316 1.7513523 -0.39758644 4292225280
2.4660118 1.7687931 -0.38926357 4292225280
2.4632192 1.7668992 -0.37614867 4292225280
2.4352136 1.7469289 -0.35893327 4292094720
2.4404564 1.7507941 -0.346324 4292094720
2.4668741 1.7698421 -0.33614728 4292225280
2.4761467 1.7765983 -0.32306311 4292225280
2.4593499 1.7646602 -0.30627355 4292225280
2.4297457 1.7435359 -0.2878333 4292094720
2.4520421 1.7596315 -0.27524662 4292225280
2.4692097 1.77205 -0.26153541 4292225280
2.4401734 1.7513288 -0.24273619 4292094720
2.4451823 1.7550265 -0.22720025 4292094720
2.4681547 1.7716105 -0.2128931 4292225280
2.4653552 1.7697076 -0.19600435 4292225280
2.3968678 1.7206765 -0.17418648 4291964160
2.3228788 1.6676923 -0.15276034 4291572480
2.4663002 1.7707007 -0.14490703 4292225280
2.4867013 1.7854447 -0.12855859 4292225280
2.4582839 1.7651575 -0.10961878 4292094720
2.4576652 1.7648177 -0.091998287 4292094720
2.4704204 1.7740762 -0.074687809 4292225280
2.526897 1.8147167 -0.058106776 4292486400
2.510787 1.8032602 -0.039520957 4292355840
2.5234475 1.8124546 -0.021362705 4292486400
2.1014583 1.5096273 -0.0025866772 4290658560
1.4865078 1.0682346 0.0088277888 4288177920
-4.929945 -3.5384362 -0.067650624 4278190335
1.5057062 1.082145 0.030855473 4288177920
1.7348787 1.2467641 0.048203819 4289222400
1.7409266 1.2511806 0.060932253 4289222400
1.7204992 1.236585 0.072557278 4289091840
1.7224739 1.2380762 0.084922887 4289091840
1.7355937 1.2475723 0.097856037 4289222400
1.7229538 1.2385675 0.10922759 4289091840
1.6905922 1.2153957 0.11891166 4288961280
1.7220869 1.2380917 0.13296673 4289091840
1.5705531 1.1293063 0.13188633 4288439040
1.5525501 1.1164398 0.14076424 4288439040
1.4355145 1.03242 0.13959096 4287916800
1.5747225 1.1325041 0.16338547 4288569600
1.699159 1.2219862 0.18715835 4289091840
1.7258775 1.2412592 0.20089877 4289091840
1.7033137 1.2251186 0.20869885 4289091840
1.5878357 1.1422005 0.20403521 4288569600
1.7367949 1.2493302 0.23336087 4289222400
1.7317216 1.2457594 0.24254172 4289222400
1.7189152 1.2366295 0.25026733 4289091840
1.6713799 1.2025337 0.25232378 4288961280
1.524757 1.0971998 0.23810221 4288308480
1.6326667 1.1748481 0.2631872 4288830720
1.5821499 1.1385993 0.26270688 4288569600
1.6126773 1.1606195 0.2752969 4288700160
1.5448327 1.1119057 0.27060482 4288439040
1.46284 1.0530119 0.26247168 4288047360
1.442842 1.0386956 0.26474169 4288047360
1.7053181 1.2275361 0.31951275 4289091840
1.7168963 1.2359407 0.32792661 4289222400
1.708177 1.2297465 0.33209589 4289091840
1.7122004 1.2327183 0.3383441 4289222400
1.7037294 1.2267023 0.34171835 4289091840
1.7027376 1.2260667 0.34616986 4289091840
1.7047949 1.2276251 0.35084221 4289091840
1.6986358 1.223272 0.35340598 4289091840
1.7030122 1.2264998 0.35774615 4289091840
1.6948853 1.2207305 0.35903558 4289091840
1.7024956 1.2262865 0.36323819 4289091840
1.6941667 1.2203717 0.36361465 4289091840
1.6971709 1.2226137 0.36599153 4289091840
1.696954 1.2225378 0.3672477 4289091840
1.6967962 1.2225045 0.36808592 4289091840
1.7014126 1.2259086 0.36952978 4289091840
1.6933818 1.220208 0.36779335 4289091840
1.7050762 1.2287093 0.36990872 4289091840
1.7011613 1.2259723 0.36820138 4289091840
1.7060378 1.2295661 0.36796439 4289091840
1.7065792 1.2300388 0.36635658 4289091840
1.6998483 1.2252743 0.36276579 4289091840
1.7046856 1.2288414 0.36122176 4289091840
1.7006516 1.2260195 0.35737461 4289091840
1.7123331 1.2345178 0.35639805 4289222400
1.7017637 1.2269883 0.35037282 4289091840
1.6989641 1.2250558 0.34557104 4289091840
1.6771758 1.2094421 0.3365694 4288961280
1.6481053 1.1885793 0.32586023 4288830720
1.6059523 1.158287 0.3124055 4288700160
1.5499163 1.117986 0.29621223 4288439040
1.5577838 1.1237342 0.29206169 4288569600
1.6395645 1.1827557 0.30110088 4288830720
1.685598 1.2160195 0.30272397 4289091840
1.6935614 1.2223202 0.25185108 4289091840
1.6658413 1.202417 0.23864391 4288961280
1.5604557 1.1264967 0.21476962 4288439040
1.5377562 1.1102052 0.20277368 4288439040
1.5772742 1.1387908 0.19866638 4288569600
1.6063008 1.1598126 0.19260503 4288700160
1.7225057 1.2437307 0.19590877 4289091840
1.6996658 1.2273424 0.18257692 4289091840
1.6749442 1.2095941 0.16914327 4288961280
1.6969967 1.2255951 0.16027209 4289091840
1.7055086 1.231827 0.14974146 4289091840
1.7070454 1.2330261 0.13836503 4289091840
1.6829116 1.2156978 0.12490357 4288961280
1.7041196 1.2310947 0.11470061 4289091840
1.4940655 1.0795563 0.090062603 4288177920
1.4168684 1.0239064 0.07538715 4287916800
1.4941996 1.0798116 0.068899281 4288177920
2.1066763 1.5221078 0.082262285 4290658560
2.5155072 1.817423 0.080207855 4292355840
2.5102382 1.8137517 0.061868869 4292355840
2.4990685 1.8058187 0.043434184 4292355840
2.4431937 1.7655973 0.024651946 4292094720
2.4553702 1.7745221 0.0068624686 4292225280
2.4381528 1.7622159 -0.010988266 4292094720
2.4450645 1.7673384 -0.028856073 4292094720
2.4345181 1.7598493 -0.046466216 4292094720
2.3825784 1.7224528 -0.06279473 4291833600
2.4306753 1.7573314 -0.081636749 4292094720
2.4517083 1.7726589 -0.099989489 4292094720
2.4470897 1.7694515 -0.11731476 4292094720
2.3926713 1.730253 -0.13172184 4291964160
2.4262977 1.7546834 -0.15065882 4292094720
2.4477589 1.7703245 -0.16906829 4292094720
2.4469111 1.7698411 -0.18590495 4292094720
2.3740869 1.7173246 -0.19659188 4291833600
2.4381261 1.7637482 -0.21828911 4292094720
2.4633515 1.7821153 -0.23688434 4292225280
2.4513426 1.7735617 -0.25174156 4292225280
2.3812554 1.7230086 -0.25985041 4291833600
2.2904994 1.6575007 -0.26440546 4291572480
2.4473822 1.7710835 -0.29756263 4292225280
2.453383 1.7755517 -0.31310248 4292225280
2.4156814 1.7484087 -0.32254806 4292094720
2.3671398 1.7134202 -0.3296915 4291833600
2.280519 1.6508784 -0.33041587 4291441920
2.4441309 1.7693684 -0.36733311 4292225280
2.4508417 1.7743504 -0.38123944 4292225280
2.446311 1.7711985 -0.3929857 4292225280
2.4280739 1.7581273 -0.40198043 4292094720
2.3179965 1.6785893 -0.39474317 4291703040
2.3900857 1.7308825 -0.41781408 4291964160
2.392061 1.7324342 -0.42851651 4291964160
2.3948648 1.7345855 -0.43889925 4291964160
2.3936958 1.733861 -0.44806153 4291964160
2.3974946 1.7367324 -0.45764831 4292094720
2.3413191 1.6961821 -0.45510483 4291833600
2.3443084 1.6984643 -0.46332759 4291833600
2.3012187 1.6673806 -0.46180803 4291703040
2.3163195 1.6784308 -0.47131899 4291703040
2.3346651 1.6918321 -0.48103258 4291833600
2.2705123 1.6454852 -0.47312412 4291572480
2.2889919 1.6589822 -0.48173723 4291572480
2.2923648 1.6615382 -0.48666203 4291572480
2.314961 1.6780194 -0.49513444 4291703040
2.3224635 1.6835679 -0.49985379 4291703040
2.2446227 1.6272856 -0.48558444 4291441920
2.2483013 1.63006 -0.48826376 4291441920
2.2400947 1.6242223 -0.48779473 4291441920
2.3173604 1.6803201 -0.50534838 4291703040
2.3021338 1.6693969 -0.5022065 4291703040
2.3021407 1.6695119 -0.50179201 4291703040
2.2830896 1.6558136 -0.49665314 4291572480
2.2561409 1.6363888 -0.48924577 4291441920
2.3268631 1.6877605 -0.50235337 4291833600
2.3080478 1.6742302 -0.49553895 4291703040
2.2853136 1.6578568 -0.48736164 4291572480
2.3310332 1.6911114 -0.49313891 4291833600
2.3702059 1.7196226 -0.49680597 4291964160
2.3720162 1.7210451 -0.49199975 4291964160
2.3829803 1.7291056 -0.48848623 4291964160
2.3867228 1.7319292 -0.48289222 4291964160
2.3955498 1.7384405 -0.4777303 4292094720
2.4004426 1.7420987 -0.47119251 4292094720
2.3752246 1.7239163 -0.45828259 4291964160
2.3983898 1.7408279 -0.45416227 4292094720
2.4294424 1.7634629 -0.4508104 4292225280
2.4377427 1.769594 -0.44257849 4292225280
2.4276552 1.7623848 -0.43051919 4292225280
2.4175978 1.7551961 -0.41806155 4292094720
2.3959057 1.7395639 -0.40326592 4291964160
2.4119322 1.7513001 -0.39437017 4292094720
2.421865 1.7586154 -0.38390824 4292094720
2.4223604 1.7590821 -0.3714692 4292094720
2.4086938 1.7492697 -0.35651648 4292094720
2.3916218 1.7369843 -0.34082827 4291964160
2.4259529 1.7620094 -0.33196512 4292094720
2.4383783 1.7711353 -0.31947568 4292225280
2.4256761 1.7620203 -0.30335125 4292094720
2.4002123 1.7436391 -0.28552994 4291964160
2.4296589 1.7651232 -0.27387768 4292094720
2.4347365 1.7689154 -0.25896901 4292094720
2.414602 1.7544004 -0.24120009 4292094720
2.4115148 1.7522627 -0.22501414 4291964160
2.4343812 1.768973 -0.21086247 4292094720
2.4352241 1.7696898 -0.1944211 4292094720
2.417799 1.7571387 -0.17642872 4292094720
2.3090816 1.6782752 -0.15248497 4291572480
2.4153636 1.7555771 -0.14251447 4291964160
2.4312899 1.7672501 -0.12622657 4292094720
2.3392982 1.7005239 -0.10477374 4291703040
2.4125407 1.7538364 -0.090689473 4291964160
2.4342844 1.7697377 -0.073902383 4292094720
2.4968665 1.8153145 -0.057652831 4292355840
2.4808221 1.8037626 -0.039208405 4292225280
2.4950564 1.8142124 -0.021205217 4292355840
2.0732105 1.5077475 -0.0025594214 4290658560
1.5193194 1.105279 0.0090827523 4288308480
-4.9092479 -3.5670872 -0.067671552 4278190335
1.5738456 1.1450421 0.032422505 4288569600
1.7086463 1.2430971 0.047676772 4289091840
1.7223859 1.2531582 0.06054185 4289091840
1.7011374 1.2377844 0.072047375 4289091840
1.711188 1.2451644 0.084728949 4289091840
1.7089021 1.2435757 0.09675996 4289091840
1.7003592 1.2374374 0.10825361 4289091840
1.671368 1.216429 0.11805999 4288961280
1.7050753 1.2410132 0.13221419 4289091840
1.5822576 1.1517674 0.13344251 4288569600
1.5541464 1.1313906 0.14151329 4288439040
1.4134146 1.0290983 0.13802439 4287916800
1.6116574 1.1733575 0.16794217 4288700160
1.672677 1.2178147 0.18502292 4288961280
1.7005472 1.2381622 0.19879031 4289091840
1.6776491 1.2215776 0.20642649 4288961280
1.5162507 1.1042247 0.19565275 4288308480
1.7274898 1.2579885 0.23309883 4289222400
1.7134268 1.2478315 0.24099922 4289091840
1.6948797 1.2344104 0.24781542 4289091840
1.6523042 1.2035018 0.25050363 4288961280
1.3987577 1.0190501 0.21933365 4287786240
1.6950613 1.2347679 0.27441987 4289091840
1.6777374 1.2222339 0.27978137 4288961280
1.6527697 1.2041347 0.28334895 4288961280
1.5928005 1.1605539 0.28020307 4288700160
1.5314307 1.1159486 0.27596003 4288439040
1.4560173 1.0611135 0.26829889 4288047360
1.6916767 1.2327604 0.31830412 4289091840
1.6944849 1.2348821 0.32502064 4289091840
1.6861466 1.2288876 0.32920524 4289091840
1.6896949 1.2315487 0.33531505 4289091840
1.6836816 1.2272471 0.33913207 4289091840
1.6862992 1.2292311 0.34428489 4289091840
1.6820391 1.2262064 0.34762964 4289091840
1.6879562 1.2305946 0.35267732 4289091840
1.6763219 1.2221982 0.35363504 4289091840
1.6722951 1.2193433 0.3557553 4289091840
1.6758945 1.2220443 0.35908157 4289091840
1.6534975 1.2058049 0.35639209 4288961280
1.66119 1.2114885 0.35975334 4288961280
1.6569973 1.2085124 0.36012268 4288961280
1.6608224 1.2113791 0.36181203 4288961280
1.6567464 1.2084882 0.36135599 4288961280
1.6596664 1.2106962 0.36200166 4288961280
1.6636661 1.2136918 0.36245739 4288961280
1.6784747 1.2245669 0.36483547 4289091840
1.6817844 1.2270615 0.36427534 4289091840
1.6795115 1.2254868 0.3620784 4289091840
1.6897302 1.2330195 0.3621411 4289091840
1.6804934 1.226368 0.35760954 4289091840
1.6742345 1.2218872 0.35331911 4289091840
1.6791545 1.2255582 0.35097772 4289091840
1.6824665 1.2280573 0.34787351 4289091840
1.6757399 1.2232355 0.34229699 4289091840
1.6766922 1.2240142 0.33790633 4289091840
1.6717665 1.2205056 0.33195043 4288961280
1.6512984 1.2056592 0.32260224 4288961280
1.6568173 1.209769 0.31800801 4288961280
1.6814107 1.2277961 0.31660241 4289091840
1.6914831 1.235231 0.31196815 4289091840
1.6917989 1.2355481 0.30513498 4289091840
1.6776844 1.2258092 0.25055388 4288961280
1.677026 1.2254162 0.24127594 4288961280
1.6766491 1.2252288 0.23177341 4288961280
1.638052 1.1971343 0.21694592 4288830720
1.6183624 1.1828426 0.20472409 4288700160
1.6644598 1.2165917 0.20044725 4288961280
1.6975929 1.2408776 0.19389805 4289091840
1.6924834 1.2372355 0.18258417 4289091840
1.6646464 1.216992 0.16882315 4288961280
1.6857989 1.232532 0.15989651 4288961280
1.6902457 1.2358701 0.14903653 4289091840
1.6845214 1.2317779 0.1371222 4288961280
1.6725036 1.2230868 0.12466433 4288961280
1.654906 1.2103175 0.11185661 4288830720
1.507102 1.1023974 0.09124691 4288308480
1.4068433 1.0292081 0.075176254 4287786240
1.4765856 1.0802553 0.068378709 4288177920
2.2067051 1.6139896 0.086570613 4291180800
2.4832938 1.8162855 0.079522848 4292355840
2.4842904 1.817147 0.061496537 4292355840
2.46913 1.8061968 0.043102212 4292225280
2.4296343 1.7774527 0.024628846 4292094720
2.3619649 1.7281045 0.0066193533 4291833600
2.3928771 1.7508352 -0.010828561 4291964160
2.4113164 1.7644479 -0.028574336 4291964160
2.3854818 1.7456832 -0.045723677 4291964160
2.3808756 1.7424421 -0.063003913 4291833600
2.4113936 1.7648922 -0.081325375 4291964160
2.4248054 1.7748321 -0.099306665 4292094720
2.4173813 1.7695308 -0.11637809 4292094720
2.3551347 1.7241199 -0.13020436 4291833600
2.3886261 1.7487502 -0.14894788 4291964160
2.4034774 1.7597446 -0.16671519 4291964160
2.3906434 1.7504814 -0.18240581 4291964160
2.3133125 1.6940162 -0.19238003 4291703040
2.3887765 1.7493699 -0.21478212 4291964160
2.4077785 1.763405 -0.23252873 4292094720
2.4059908 1.7622242 -0.24813572 4292094720
2.3754978 1.7400298 -0.26031253 4291964160
2.3124256 1.6939811 -0.26805004 4291703040
2.4032135 1.7605729 -0.2934362 4292094720
2.4019823 1.7597982 -0.30785021 4292094720
2.4000165 1.7584852 -0.32181087 4292094720
2.3502033 1.7221329 -0.3287172 4291833600
2.2011466 1.6130942 -0.32029027 4291180800
2.4237123 1.7762173 -0.365807 4292094720
2.422395 1.7753791 -0.37841362 4292094720
2.4091401 1.7657958 -0.38866055 4292094720
2.3926518 1.7538422 -0.39780065 4292094720
2.3191226 1.7000977 -0.39660081 4291703040
2.3817236 1.7460831 -0.41811287 4291964160
2.3876805 1.7505704 -0.42953923 4292094720
2.3864791 1.7498128 -0.43921265 4292094720
2.3821356 1.746752 -0.44778559 4291964160
2.3774199 1.7434176 -0.45574161 4291964160
