# .PCD v0.7 - Point Cloud Data file format
VERSION 0.7
FIELDS x y z rgba
SIZE 4 4 4 4
TYPE F F F U
COUNT 1 1 1 1
WIDTH 1064
HEIGHT 1
VIEWPOINT 0 0 0 1 0 0 0
POINTS 1064
DATA ascii
3.3421688 -0.041716956 -0.53006768 4293269760
3.3409977 -0.041593287 -0.53869438 4293269760
3.340549 -0.041479032 -0.54681653 4293400320
3.3319204 -0.041262664 -0.55295181 4293269760
3.3200667 -0.041006848 -0.55787194 4293269760
3.2971346 -0.040614083 -0.5602203 4293139200
3.2934101 -0.040461715 -0.56513608 4293139200
3.2714381 -0.040083751 -0.56622881 4293139200
3.2805808 -0.040092055 -0.57203001 4293139200
3.2234676 -0.03928325 -0.56556654 4293008640
3.2131374 -0.03905363 -0.56658328 4292878080
3.2226131 -0.039067864 -0.57043141 4293008640
3.2262921 -0.039010882 -0.57259911 4293008640
3.278698 -0.039548498 -0.58276367 4293139200
3.278667 -0.039444946 -0.58294541 4293139200
3.2689075 -0.0392236 -0.58072126 4293139200
3.295171 -0.039439306 -0.5842129 4293269760
3.2933688 -0.039314739 -0.58204192 4293139200
3.3206122 -0.03954044 -0.58430773 4293269760
3.3269579 -0.039513677 -0.58219147 4293269760
3.3419356 -0.039590258 -0.58088672 4293400320
3.3398809 -0.03946263 -0.57593417 4293400320
3.3405581 -0.039367989 -0.5707882 4293400320
3.332226 -0.039166462 -0.56345743 4293269760
3.3253124 -0.038982555 -0.55574501 4293269760
3.3228178 -0.038851626 -0.54815036 4293269760
3.2954421 -0.038427543 -0.53589153 4293139200
3.2793312 -0.038137965 -0.52495515 4293139200
3.2238698 -0.037387691 -0.50731117 4292878080
3.1081016 -0.035934899 -0.48008528 4292486400
2.9824779 -0.034374226 -0.45151225 4292094720
2.8704369 -0.032979544 -0.42523241 4291703040
2.7716002 -0.03174521 -0.40112799 4291311360
2.7060797 -0.030903082 -0.38196394 4291180800
2.6387362 -0.030043982 -0.36259842 4290919680
2.6274767 -0.029835682 -0.35082781 4290919680
2.6231346 -0.029707771 -0.33964968 4290789120
2.6214154 -0.029610373 -0.32845715 4290789120
2.5930526 -0.029208416 -0.31369075 4290789120
2.5592289 -0.028745968 -0.29818931 4290658560
2.5719008 -0.028814862 -0.28786913 4290658560
2.5732577 -0.028754696 -0.27590096 4290658560
2.5485938 -0.02839995 -0.26095235 4290528000
2.4949918 -0.027719952 -0.24313851 4290397440
2.4858816 -0.027544389 -0.22970699 4290397440
2.4975252 -0.027602645 -0.21793029 4290397440
2.4815943 -0.027351322 -0.20353438 4290266880
2.4316792 -0.026721172 -0.18647981 4290136320
2.4468482 -0.026819581 -0.17440206 4290266880
2.452311 -0.026809268 -0.16133331 4290266880
2.4386396 -0.026586512 -0.14687876 4290136320
2.4090168 -0.026188182 -0.13154903 4290005760
2.3860865 -0.02586546 -0.11674245 4290005760
2.384809 -0.025782369 -0.10301091 4290005760
2.3753281 -0.025609376 -0.088878676 4290005760
2.3323317 -0.025070127 -0.073702417 4289744640
2.3513956 -0.025210885 -0.060553797 4289875200
2.3750002 -0.025400013 -0.047210615 4290005760
2.3937161 -0.025534712 -0.033473734 4290005760
2.3992517 -0.025525605 -0.01937614 4290005760
2.4252253 -0.025736941 -0.0052417587 4290136320
2.4663126 -0.026109599 0.0092571471 4290266880
2.4680243 -0.026056843 0.02385091 4290266880
2.4835296 -0.026151771 0.038648799 4290266880
2.5256529 -0.026530229 0.054151963 4290397440
2.5470068 -0.026684886 0.069521986 4290528000
2.5403492 -0.026540566 0.084137343 4290528000
2.5672953 -0.026752766 0.099884547 4290658560
2.5959549 -0.026981475 0.11590656 4290658560
2.6079869 -0.027033189 0.13129129 4290789120
2.5696573 -0.026554715 0.14385211 4290658560
2.644186 -0.027261555 0.1627571 4290919680
2.6776311 -0.027534483 0.17955583 4290919680
2.6805608 -0.027487243 0.19431163 4291050240
2.6212878 -0.026793044 0.20404798 4290789120
2.7620294 -0.028175833 0.22952504 4291311360
2.8540952 -0.029047091 0.25192276 4291572480
3.0916443 -0.031412657 0.28854269 4292355840
3.2739413 -0.033196222 0.32179794 4293008640
3.2167535 -0.032514099 0.33180606 4292878080
3.379617 -0.034084365 0.36460829 4293400320
3.3862686 -0.0340528 0.38096598 4293400320
3.3668785 -0.033756007 0.39390987 4293400320
3.3571129 -0.033557687 0.40740287 4293269760
3.3205979 -0.033089481 0.41699356 4293269760
3.3749406 -0.033538509 0.437576 4293400320
3.3939073 -0.033628777 0.45337275 4293530880
3.3817601 -0.033406105 0.46452701 4293400320
3.372889 -0.033216637 0.47552034 4293400320
3.365828 -0.033045471 0.48616555 4293400320
3.3422616 -0.032710679 0.49376675 4293269760
3.3744774 -0.032928992 0.50905448 4293400320
3.3703547 -0.032786649 0.51836431 4293400320
3.3720262 -0.032701273 0.52795583 4293400320
3.3758247 -0.032636378 0.5372808 4293400320
3.3778164 -0.032553323 0.54570735 4293400320
3.3643575 -0.032319322 0.550978 4293400320
3.3607845 -0.032181885 0.55718541 4293400320
3.3686666 -0.032155287 0.56464517 4293400320
3.361953 -0.031987045 0.56900185 4293400320
3.3661032 -0.031923439 0.57452255 4293400320
3.370343 -0.031860139 0.57939434 4293400320
3.3515282 -0.031575903 0.57961005 4293400320
3.3510642 -0.031467378 0.58229446 4293400320
3.3507144 -0.031359661 0.58431172 4293400320
3.3406298 -0.031159522 0.58393931 4293400320
3.3503628 -0.03114667 0.58633727 4293400320
3.3636672 -0.031166481 0.58866996 4293400320
3.3549194 -0.030978499 0.58645368 4293400320
3.3640049 -0.030957315 0.58665848 4293400320
3.3701677 -0.03090805 0.58565462 4293400320
3.3663039 -0.030765081 0.58221895 4293400320
3.3668087 -0.03066244 0.5788551 4293400320
3.3602903 -0.030494766 0.57361102 4293400320
3.3607478 -0.030391254 0.5688898 4293400320
3.3650489 -0.030322576 0.56414306 4293400320
3.3730392 -0.030286962 0.5593313 4293400320
3.3642631 -0.030098243 0.55108976 4293400320
3.3614066 -0.029963389 0.54319692 4293400320
3.351846 -0.029767975 0.53361702 4293400320
3.343796 -0.029586483 0.52369958 4293400320
3.3723302 -0.029732807 0.51884025 4293400320
3.3911929 -0.02979072 0.51175803 4293530880
3.3716121 -0.029505448 0.49829257 4293400320
3.3489048 -0.029193524 0.4839257 4293269760
3.0752482 -0.026275668 0.36728844 4292355840
2.8574591 -0.024286726 0.32867539 4291572480
2.7615995 -0.023364134 0.30509698 4291311360
2.683094 -0.022596942 0.28389168 4291050240
2.642127 -0.022156224 0.2668964 4290919680
2.6543753 -0.022171892 0.25510564 4290919680
2.6433055 -0.02198856 0.24078611 4290919680
2.581501 -0.021376645 0.22195345 4290658560
2.5647969 -0.021148806 0.20714758 4290658560
2.5685959 -0.021094058 0.19383058 4290658560
2.5596216 -0.020932192 0.17936324 4290528000
2.548754 -0.020755081 0.16467121 4290528000
2.5063331 -0.020317022 0.148055 4290397440
2.5226965 -0.02036714 0.13488257 4290397440
2.4933999 -0.020040615 0.11919772 4290397440
2.469034 -0.019756399 0.10391998 4290266880
2.4516299 -0.019530561 0.089057654 4290266880
2.438164 -0.019337839 0.074416265 4290136320
2.4152882 -0.019069897 0.059616145 4290136320
2.3723702 -0.018642077 0.044640467 4289875200
2.3771005 -0.018599248 0.030728791 4290005760
2.3666413 -0.018434791 0.01661934 4289875200
2.3752162 -0.018422378 0.0026313814 4290005760
2.3661156 -0.018269436 -0.011377922 4289875200
2.3869708 -0.018353261 -0.025594497 4290005760
2.4097295 -0.018450614 -0.04006514 4290005760
2.42207 -0.01846502 -0.054529089 4290136320
2.4350383 -0.018483492 -0.069100618 4290136320
2.466661 -0.018645626 -0.084392183 4290266880
2.4853525 -0.018705912 -0.099445753 4290266880
2.472702 -0.018524297 -0.11317512 4290266880
2.4947126 -0.018608578 -0.12842666 4290397440
2.517909 -0.018700449 -0.14386038 4290397440
2.5349166 -0.018743919 -0.15901381 4290528000
2.5087357 -0.018460525 -0.1712373 4290397440
2.568047 -0.018820988 -0.18929522 4290658560
2.5959079 -0.018942414 -0.20530361 4290658560
2.6076319 -0.018941963 -0.22002585 4290789120
2.5983913 -0.018785518 -0.23275478 4290789120
2.4362898 -0.01750253 -0.23066017 4290136320
2.6449034 -0.018951941 -0.26363733 4290919680
2.654583 -0.018933782 -0.27758312 4290919680
2.6643171 -0.018915506 -0.29132435 4290919680
2.6287014 -0.018568374 -0.29966691 4290789120
2.5691993 -0.018051622 -0.30452067 4290658560
2.8885431 -0.020256639 -0.35507897 4291703040
3.024914 -0.021134077 -0.38473466 4292225280
3.1731408 -0.022086885 -0.41666123 4292747520
3.273726 -0.022693047 -0.44287655 4293008640
3.2979133 -0.022754872 -0.45875236 4293139200
3.3165953 -0.022776745 -0.47350773 4293269760
3.3274672 -0.022743147 -0.48672086 4293269760
3.3347607 -0.022684235 -0.49892282 4293269760
3.3477366 -0.022664355 -0.51147479 4293400320
3.3496933 -0.022568112 -0.52180898 4293400320
3.3423538 -0.022408385 -0.53008556 4293269760
3.3461185 -0.022325031 -0.53950673 4293400320
3.3387718 -0.022166394 -0.5465107 4293269760
3.3271711 -0.021979813 -0.55214685 4293269760
3.3350413 -0.021924982 -0.56036907 4293269760
3.3197105 -0.021714918 -0.56403512 4293269760
3.2985179 -0.021467155 -0.56598985 4293269760
3.2976987 -0.021355852 -0.57074887 4293269760
3.2906108 -0.021203618 -0.57375199 4293139200
3.2187183 -0.02062746 -0.56470501 4292878080
3.2270992 -0.020579658 -0.56901425 4293008640
3.2267268 -0.020474814 -0.5711267 4293008640
3.2225287 -0.020345584 -0.5718962 4293008640
3.2837985 -0.020637633 -0.58363205 4293139200
3.2739217 -0.020471148 -0.58206141 4293139200
3.2990844 -0.020528562 -0.58603841 4293269760
3.2953491 -0.020401711 -0.58419889 4293269760
3.3159165 -0.020428529 -0.58597797 4293269760
3.3207912 -0.020355977 -0.58428824 4293269760
3.3271372 -0.020292602 -0.58216912 4293269760
3.3371894 -0.020252144 -0.58000541 4293400320
3.3302062 -0.020106131 -0.57420707 4293269760
3.3259523 -0.01997762 -0.56823134 4293269760
3.3377399 -0.019947773 -0.56432533 4293400320
3.3442309 -0.019885261 -0.55883932 4293400320
3.3368092 -0.019738398 -0.55038863 4293269760
3.3242424 -0.019561274 -0.54050255 4293269760
3.3130789 -0.019393599 -0.53028268 4293269760
3.2763972 -0.019074677 -0.51550025 4293139200
3.2564218 -0.018857367 -0.50291544 4293008640
3.210043 -0.01848563 -0.48588124 4292878080
3.0826759 -0.017641205 -0.45659345 4292486400
2.8884685 -0.016414018 -0.41796535 4291703040
2.7830391 -0.01571482 -0.39275113 4291441920
2.6920764 -0.015105784 -0.36985314 4291050240
2.6491632 -0.014778852 -0.35364792 4290919680
2.6470737 -0.014688366 -0.34267208 4290919680
2.6423864 -0.014583379 -0.33100584 4290919680
2.6125486 -0.014336327 -0.31596944 4290789120
2.5738361 -0.014041168 -0.29981101 4290658560
2.5864458 -0.014036212 -0.28941482 4290658560
2.5931904 -0.013997943 -0.27795407 4290658560
2.5836663 -0.013869147 -0.26445854 4290658560
2.5167563 -0.0134243 -0.24517515 4290397440
2.5198638 -0.013367895 -0.23276164 4290528000
2.5125086 -0.013254284 -0.21915074 4290397440
2.5006561 -0.013116778 -0.2050101 4290397440
2.454474 -0.012794578 -0.18814087 4290266880
2.4708316 -0.01281124 -0.17602289 4290266880
2.4588299 -0.012675456 -0.16167226 4290266880
2.4527345 -0.012571845 -0.14763743 4290266880
2.4231141 -0.012344277 -0.13222881 4290136320
2.4061787 -0.012185185 -0.11763564 4290005760
2.4039066 -0.012103808 -0.10374533 4290005760
2.3949299 -0.011987746 -0.089521408 4290005760
2.3614283 -0.011745405 -0.074532591 4289875200
2.3596566 -0.011668217 -0.060675453 4289875200
2.3784666 -0.011696419 -0.047186956 4290005760
2.388828 -0.011680596 -0.033311445 4290005760
2.3993626 -0.011665066 -0.019282809 4290005760
2.4385772 -0.011793138 -0.0051757698 4290136320
2.4664247 -0.011862128 0.0093546882 4290266880
2.473135 -0.011824456 0.023997236 4290266880
2.493639 -0.011854544 0.038903285 4290397440
2.5307631 -0.011965085 0.054360397 4290528000
2.5471184 -0.011972026 0.069624685 4290528000
2.5404596 -0.011866258 0.084239982 4290528000
2.5624096 -0.011898904 0.099794291 4290528000
2.5947113 -0.011979898 0.11595111 4290658560
2.6041019 -0.011949717 0.13119568 4290658560
2.5647726 -0.011688017 0.1436764 4290528000
2.6442955 -0.011988396 0.16286303 4290919680
2.6727521 -0.012045015 0.17932838 4290919680
2.670696 -0.011957928 0.19369555 4290919680
2.6124208 -0.011610923 0.2034532 4290789120
2.7863503 -0.012334104 0.23164229 4291311360
2.9757881 -0.013117859 0.26275381 4291964160
3.2500775 -0.01427537 0.30342299 4292878080
3.3268147 -0.014526319 0.32710102 4293139200
3.2268252 -0.013981245 0.33294991 4292878080
3.3797469 -0.014566977 0.36473075 4293400320
3.3863981 -0.01449714 0.38108638 4293400320
3.3670063 -0.014312396 0.39402708 4293400320
3.3473125 -0.014127277 0.40631324 4293269760
3.3157613 -0.013891761 0.41648123 4293139200
3.3800249 -0.014070034 0.4383274 4293400320
3.3890774 -0.01400843 0.45281759 4293400320
3.3868387 -0.013898162 0.46530965 4293400320
3.3730135 -0.013738985 0.47561926 4293400320
3.3659515 -0.013608675 0.48626056 4293400320
3.3423841 -0.01341 0.49385732 4293269760
3.3809397 -0.013468578 0.51009756 4293400320
3.3655357 -0.013303758 0.51768804 4293400320
3.3721492 -0.013229035 0.52803481 4293400320
3.3660719 -0.01310247 0.53578478 4293400320
3.3641186 -0.012992498 0.5435462 4293400320
3.3694143 -0.012911147 0.55185062 4293400320
3.3654506 -0.012792698 0.5579983 4293400320
3.3531094 -0.012641442 0.56207424 4293400320
3.3670058 -0.012592433 0.56988573 4293400320
3.3573546 -0.012451645 0.57305449 4293400320
3.3655388 -0.012379241 0.57858759 4293400320
3.3516514 -0.012222447 0.5796442 4293400320
3.3511877 -0.012116623 0.58232307 4293400320
3.3508382 -0.012010946 0.58433473 4293400320
3.345679 -0.011887218 0.58481687 4293400320
3.3504875 -0.011800005 0.58634883 4293400320
3.3549273 -0.011710842 0.58712542 4293400320
3.3589854 -0.011619716 0.58714163 4293400320
3.3592055 -0.01151433 0.58579397 4293400320
3.3604422 -0.011412214 0.58393162 4293400320
3.3664315 -0.011326365 0.58220053 4293400320
3.3580666 -0.011189986 0.57730687 4293400320
3.3742189 -0.011138181 0.57593399 4293400320
3.3707361 -0.011018118 0.57052046 4293400320
3.3651779 -0.010890969 0.56409991 4293400320
3.3682361 -0.010792693 0.55846459 4293400320
3.3643925 -0.010671071 0.55103415 4293400320
3.3684435 -0.010575294 0.54425025 4293400320
3.3475327 -0.010397928 0.53284264 4293400320
3.348865 -0.010293134 0.52439862 4293400320
3.3675189 -0.010243083 0.51800013 4293400320
3.3814359 -0.010176629 0.51018018 4293400320
3.3717425 -0.010035429 0.49819973 4293400320
3.358932 -0.0098849963 0.48525611 4293400320
3.2331443 -0.0088049602 0.38612223 4292878080
3.0038323 -0.0080466997 0.34548867 4292094720
2.8128769 -0.0074110734 0.31075215 4291441920
2.6881545 -0.0069714482 0.2844241 4291050240
2.6471882 -0.0067691212 0.26740512 4290919680
2.6544616 -0.0066997265 0.25511253 4290919680
2.6384115 -0.0065674908 0.24034002 4290919680
2.5827038 -0.0063317544 0.22205631 4290658560
2.5648789 -0.0061981697 0.20715424 4290658560
2.5726662 -0.0061314176 0.19413775 4290658560
2.5547144 -0.0059988527 0.17902097 4290528000
2.5398526 -0.0058751325 0.16409864 4290528000
2.5203869 -0.0057409885 0.14888546 4290397440
2.5210185 -0.0056569441 0.13479541 4290397440
2.5024664 -0.0055268053 0.11963297 4290397440
2.4731061 -0.0053723254 0.10409418 4290266880
2.4517047 -0.0052383249 0.089064032 4290266880
2.4382377 -0.0051239431 0.074422605 4290136320
2.415448 -0.0049893605 0.059624564 4290136320
2.3774402 -0.0048224106 0.04474023 4290005760
2.3687685 -0.0047223526 0.030627128 4289875200
2.3807108 -0.0046673678 0.016722575 4290005760
2.3822734 -0.004589505 0.0026447182 4290005760
2.3811061 -0.0045058248 -0.011444714 4290005760
2.4019523 -0.0044674966 -0.025749305 4290005760
2.4247968 -0.0044317995 -0.040309291 4290136320
2.4261384 -0.0043518073 -0.05461308 4290136320
2.4560957 -0.0043276702 -0.069691181 4290266880
2.4826345 -0.0042949598 -0.084930792 4290266880
2.5133998 -0.0042684535 -0.10056023 4290397440
2.4817617 -0.0041243159 -0.11358062 4290266880
2.5157504 -0.0041017062 -0.12950058 4290397440
2.5339489 -0.004048673 -0.14476696 4290528000
2.5477004 -0.0039866883 -0.15980524 4290528000
2.5227714 -0.0038574554 -0.17218463 4290397440
2.5890563 -0.0038834631 -0.19083267 4290658560
2.6119242 -0.0038334932 -0.20655847 4290789120
2.6316161 -0.0037769461 -0.22203751 4290789120
2.6173842 -0.0036655378 -0.23444356 4290789120
2.4652245 -0.0033417768 -0.23338777 4290266880
2.668854 -0.0035669459 -0.26601124 4290919680
2.6889658 -0.0035069189 -0.28116474 4291050240
2.7021604 -0.0034356718 -0.29544812 4291050240
2.6892228 -0.0033267606 -0.30655202 4291050240
2.7348027 -0.0032995942 -0.3241353 4291180800
3.0774355 -0.0036694095 -0.37828234 4292355840
3.2253752 -0.0037609539 -0.41021296 4292878080
3.3021131 -0.0037517441 -0.43357715 4293139200
3.3213732 -0.003666016 -0.44930258 4293269760
3.3451455 -0.0035847095 -0.46530232 4293269760
3.3265755 -0.003452098 -0.47491232 4293269760
3.3364525 -0.0033535846 -0.48801467 4293269760
3.3348403 -0.0032418675 -0.49891412 4293269760
3.3379307 -0.0031355957 -0.50995594 4293269760
3.3497722 -0.0030385577 -0.52180022 4293400320
3.3374937 -0.0029165114 -0.52929372 4293269760
3.3511322 -0.0028210205 -0.54029375 4293400320
3.3477302 -0.002708721 -0.54795563 4293400320
3.3371119 -0.0025902996 -0.55377507 4293269760
3.3252549 -0.0024717562 -0.55870354 4293269760
3.2934456 -0.0023372392 -0.55955189 4293139200
3.2887354 -0.0022273229 -0.56429029 4293139200
3.3066397 -0.0021358531 -0.57227486 4293269760
3.2808313 -0.0020104323 -0.57202595 4293139200
3.2138634 -0.0018571042 -0.5638327 4292878080
3.2232292 -0.0017612816 -0.56831139 4293008640
3.231719 -0.0016645822 -0.57198954 4293008640
3.288939 -0.0015983544 -0.58365953 4293139200
3.2263892 -0.0014571192 -0.57340944 4293008640
3.2690668 -0.00137981 -0.58117777 4293139200
3.2952139 -0.0012912687 -0.58533031 4293269760
3.2954161 -0.0011883072 -0.58419025 4293269760
3.3120444 -0.0010934166 -0.58527333 4293269760
3.3208578 -0.00099434215 -0.58427954 4293269760
3.3321283 -0.0008960389 -0.58302212 4293269760
3.337255 -0.00079500722 -0.57999665 4293400320
3.3401258 -0.00069317507 -0.57589728 4293400320
3.3447452 -0.00059202628 -0.57142192 4293400320
3.3328738 -0.00048613895 -0.56348318 4293269760
3.335417 -0.0003849885 -0.55734736 4293269760
3.3368719 -0.00028372672 -0.55037993 4293269760
3.3282523 -0.00018067917 -0.54113573 4293269760
3.3131399 -7.7353565e-05 -0.53027403 4293269760
3.3015587 2.4300494e-05 -0.51944071 4293139200
3.2851408 0.00012550149 -0.50733274 4293139200
3.291177 0.00022373737 -0.4981437 4293139200
3.2825508 0.00032275889 -0.48617944 4293139200
3.0865271 0.00042411688 -0.44660765 4292486400
2.9022009 0.0005137024 -0.4095524 4291833600
2.7710531 0.00059439027 -0.38068944 4291311360
2.6940708 0.00067102903 -0.35962969 4291050240
2.6807592 0.00074943167 -0.34702003 4291050240
2.6574371 0.0008255521 -0.33287877 4290919680
2.6314538 0.00089969899 -0.31824392 4290919680
2.6016896 0.00097143487 -0.30304405 4290789120
2.6103384 0.0010497182 -0.29207709 4290789120
2.6031744 0.0011244207 -0.27901316 4290789120
2.6075819 0.001201786 -0.26689589 4290789120
2.5352795 0.0012556763 -0.24696955 4290528000
2.5386035 0.001330696 -0.23448285 4290528000
2.5364559 0.0014037907 -0.22123016 4290528000
2.5167634 0.0014697223 -0.20632145 4290397440
2.4784398 0.0015265108 -0.18996945 4290266880
2.4813426 0.001599654 -0.176763 4290266880
2.4828134 0.0016721882 -0.16324137 4290266880
2.4726551 0.0017387883 -0.1488288 4290266880
2.4362297 0.0017905559 -0.13293691 4290136320
2.426312 0.0018552233 -0.118613 4290136320
2.4098468 0.0019153508 -0.10399429 4290005760
2.4089522 0.0019842261 -0.090038881 4290005760
2.3662379 0.0020256233 -0.074677512 4289875200
2.3836794 0.0021056458 -0.061287779 4290005760
2.3898456 0.0021786103 -0.047406647 4290005760
2.393858 0.0022503105 -0.033375256 4290005760
2.3943927 0.0023195483 -0.019235941 4290005760
2.4386072 0.0024236857 -0.0051693651 4290136320
2.4614546 0.0025126862 0.0093426146 4290266880
2.4731648 0.0025934714 0.024003731 4290266880
2.4936683 0.0026827212 0.038909834 4290397440
2.5257938 0.0027837849 0.054260127 4290397440
2.5471475 0.0028765737 0.069631383 4290528000
2.540488 0.0029434264 0.084246658 4290528000
2.5624378 0.0030385391 0.099801019 4290528000
2.5987356 0.0031497227 0.11613609 4290658560
2.6041298 0.0032303799 0.13120252 4290658560
2.5647995 0.0032628332 0.14368315 4290528000
2.6443229 0.00342562 0.16286999 4290919680
2.6727793 0.0035346632 0.17933542 4290919680
2.6806965 0.003621351 0.19442478 4291050240
2.6264043 0.0036338237 0.20454539 4290789120
2.8648217 0.0040035583 0.23816194 4291572480
3.1810195 0.004485263 0.28085756 4292747520
3.3307574 0.0047709164 0.31095245 4293139200
3.3457537 0.0048878263 0.32896698 4293269760
3.2358065 0.0048374222 0.33388117 4292878080
3.3797762 0.005130331 0.36473966 4293400320
3.3864267 0.0052387835 0.38109529 4293400320
3.3759732 0.0053232703 0.39508104 4293400320
3.3473396 0.0053807143 0.40632206 4293269760
3.3157876 0.0054323203 0.41648993 4293139200
3.3750927 0.0056207301 0.43769386 4293400320
3.3891029 0.0057425117 0.4528265 4293400320
3.3918173 0.005847476 0.46599853 4293530880
3.3730378 0.0059181759 0.47562814 4293400320
3.3560779 0.0059909942 0.48484084 4293400320
3.342407 0.0060685542 0.49386612 4293269760
3.371074 0.0062176413 0.50861579 4293400320
3.3754413 0.006326613 0.51921594 4293400320
3.377033 0.0064312285 0.52880448 4293400320
3.3710303 0.0065226015 0.53657895 4293400320
3.3690746 0.0066212751 0.54435194 4293400320
3.3644993 0.0067152628 0.55105197 4293400320
3.3743484 0.0068364451 0.55947816 4293400320
3.3688078 0.0069290577 0.56470942 4293400320
3.3620932 0.0070193489 0.56906086 4293400320
3.3524425 0.0071037291 0.57222277 4293400320
3.3754106 0.007253292 0.58028942 4293530880
3.3516669 0.0073093828 0.57965302 4293400320
3.3512027 0.0074124816 0.5823319 4293400320
3.3508527 0.0075161043 0.58434355 4293400320
3.3506181 0.0076202662 0.58568597 4293400320
3.3455753 0.0077143293 0.58549637 4293400320
3.3549397 0.0078400038 0.58713424 4293400320
3.355057 0.0079460023 0.58646232 4293400320
3.3641427 0.0080725681 0.5866611 4293400320
3.3703055 0.0081933355 0.58565122 4293400320
3.3664415 0.0082915397 0.58220941 4293400320
3.3620181 0.008388496 0.57799292 4293400320
3.3604271 0.0084922342 0.57358921 4293400320
3.3658144 0.0086130435 0.56969559 4293400320
3.3701167 0.0087318476 0.56493479 4293400320
3.3731756 0.0088481475 0.55929071 4293400320
3.3594646 0.0089227948 0.55023551 4293400320
3.356606 0.0090244776 0.54234713 4293400320
3.3470426 0.0091089783 0.53277272 4293400320
3.3439298 0.0092099821 0.52363461 4293400320
3.3625808 0.0093685966 0.51724946 4293400320
3.3881602 0.0095472494 0.51120228 4293530880
3.3667989 0.0096006803 0.4974784 4293400320
3.3638828 0.0097035486 0.48597929 4293400320
3.3006632 0.01023755 0.39418665 4293139200
3.2283521 0.01013176 0.37129244 4292878080
2.9139752 0.0092895031 0.32191557 4291833600
2.708993 0.0087607326 0.28663358 4291050240
2.6419919 0.0086447606 0.26688823 4290919680
2.665205 0.0088062547 0.25615108 4290919680
2.6457324 0.0088346526 0.24101335 4290919680
2.5865607 0.0087351631 0.22239468 4290658560
2.5608087 0.0087395795 0.20683323 4290528000
2.5636859 0.0088356677 0.19346842 4290658560
2.5547085 0.008893013 0.17902774 4290528000
2.5348566 0.0089136641 0.16378357 4290528000
2.5078125 0.0089088818 0.14815117 4290397440
2.5127816 0.0090110181 0.13436298 4290397440
2.4984632 0.0090474281 0.11944903 4290397440
2.4641058 0.0090135327 0.10372321 4290266880
2.4417026 0.0090191569 0.08870852 4290136320
2.4414685 0.0091015808 0.074527629 4290136320
2.4140284 0.0090870354 0.059596289 4290136320
2.3914282 0.009088072 0.045008611 4290005760
2.3901072 0.009164907 0.030907476 4290005760
2.3961105 0.0092685306 0.016835781 4290005760
2.4062622 0.0093879318 0.0026756702 4290005760
2.4050944 0.0094657429 -0.011555672 4290005760
2.4309385 0.0096453028 -0.026055988 4290136320
2.4487808 0.009796178 -0.040703475 4290136320
2.4551179 0.009904095 -0.055261225 4290266880
2.466202 0.010030802 -0.069972448 4290266880
2.4966121 0.010233725 -0.085403681 4290397440
2.5373657 0.010479441 -0.10151432 4290528000
2.5057213 0.010440145 -0.1146725 4290397440
2.5297163 0.010621668 -0.13021427 4290528000
2.548908 0.010785346 -0.14561646 4290528000
2.5716362 0.010964675 -0.16130188 4290658560
2.5427077 0.010933139 -0.17354053 4290528000
2.6140938 0.011315295 -0.19267343 4290789120
2.640815 0.011515577 -0.20883863 4290919680
2.6505294 0.011645934 -0.22362842 4290919680
2.6462483 0.011717414 -0.23702449 4290919680
2.4940763 0.011155567 -0.2361151 4290397440
2.6888576 0.012079871 -0.26800039 4291050240
2.7177866 0.012296202 -0.28417385 4291180800
2.7468836 0.012515072 -0.30033383 4291180800
2.8344662 0.012993914 -0.32310551 4291572480
2.9397209 0.013557067 -0.34841958 4291964160
3.2679722 0.015126371 -0.40169919 4293008640
3.3205781 0.015472997 -0.4223164 4293269760
3.3447163 0.01569345 -0.43916628 4293269760
3.3585017 0.015867859 -0.45432049 4293400320
3.3451135 0.015917564 -0.46529341 4293269760
3.3354526 0.015983466 -0.4761754 4293269760
3.3413668 0.01612138 -0.48872939 4293269760
3.3446965 0.01624725 -0.50038475 4293269760
3.3517356 0.016390683 -0.51206124 4293400320
3.3398564 0.016443903 -0.52025229 4293269760
3.3512852 0.016608223 -0.53147751 4293400320
3.3467121 0.016695494 -0.53957814 4293400320
3.3388116 0.016765956 -0.54649305 4293269760
3.3321421 0.016841657 -0.55294776 4293269760
3.325217 0.016915372 -0.55869472 4293269760
3.3197465 0.016995579 -0.56401765 4293269760
3.2886968 0.016947078 -0.56428152 4293139200
3.3016734 0.017118102 -0.57141352 4293269760
3.2807915 0.017117977 -0.57201719 4293139200
3.2851129 0.017244807 -0.57632947 4293139200
3.2182651 0.017006211 -0.56743473 4292878080
3.2267547 0.017152248 -0.57110965 4293008640
3.2225554 0.017232567 -0.57187921 4293008640
3.2887473 0.017680395 -0.58448952 4293139200
3.2739465 0.017706016 -0.58204412 4293139200
3.299108 0.017941874 -0.58602101 4293269760
3.3080199 0.018092491 -0.58642346 4293269760
3.3159378 0.018238029 -0.58596045 4293269760
3.3158872 0.018340832 -0.58340436 4293269760
3.3360214 0.018552648 -0.58370256 4293400320
3.3283403 0.018613881 -0.57844692 4293269760
3.3302228 0.018726721 -0.57418948 4293269760
3.344696 0.018908728 -0.57141304 4293400320
3.3324194 0.018943142 -0.56340581 4293269760
3.3442438 0.019110743 -0.55882168 4293400320
3.3318877 0.019143352 -0.54955739 4293269760
3.3331361 0.01925152 -0.54192919 4293269760
3.3229623 0.019294815 -0.53184545 4293269760
3.3050523 0.019293187 -0.51998973 4293269760
3.2939827 0.019329341 -0.50869745 4293139200
3.3197968 0.019576686 -0.50247455 4293269760
3.3250325 0.019706348 -0.49247029 4293269760
3.2487137 0.019362159 -0.47007352 4293008640
3.0774131 0.018458413 -0.43427628 4292355840
2.8929493 0.017466981 -0.39743432 4291833600
2.7561326 0.016745517 -0.36791316 4291311360
2.7184753 0.016603736 -0.3519012 4291180800
2.7000566 0.016574195 -0.3382163 4291050240
2.6599796 0.016413694 -0.32169256 4290919680
2.6165423 0.016230449 -0.30477268 4290789120
2.6341422 0.016413599 -0.29473913 4290919680
2.6379237 0.016513666 -0.28273627 4290919680
2.6223781 0.016495803 -0.26840854 4290789120
2.559119 0.016184187 -0.24929014 4290658560
2.5524964 0.016217859 -0.23576404 4290528000
2.5473626 0.016260248 -0.22217916 4290528000
2.5406346 0.016292308 -0.20827632 4290528000
2.4879358 0.016036512 -0.19069465 4290397440
2.505233 0.016217133 -0.17846258 4290397440
2.4976451 0.016241673 -0.16421372 4290397440
2.4875789 0.016249983 -0.14972405 4290397440
2.4651372 0.016178854 -0.13451183 4290266880
2.4352522 0.016058763 -0.11904642 4290136320
2.4347706 0.016125778 -0.1050669 4290136320
2.42767 0.016150001 -0.090735003 4290136320
2.3707461 0.015850849 -0.074815296 4289875200
2.3989253 0.01610242 -0.061675709 4290005760
2.406147 0.016218539 -0.047725774 4290005760
2.4008522 0.016252849 -0.033467598 4290005760
2.4025443 0.016332924 -0.019296072 4290005760
2.4285548 0.016574197 -0.0051408517 4290136320
2.459604 0.016850481 0.0093425242 4290266880
2.4681106 0.016977917 0.023962248 4290266880
2.493613 0.017219912 0.038916506 4290397440
2.5207386 0.017474329 0.05415995 4290397440
2.5470901 0.017725091 0.069638193 4290528000
2.530436 0.017685093 0.08392299 4290528000
2.5673752 0.018009996 0.10000197 4290658560
2.5946796 0.018271031 0.11596487 4290658560
2.6080639 0.018437879 0.13141035 4290789120
2.5597475 0.018179081 0.14341089 4290528000
2.6492507 0.018874172 0.1631839 4290919680
2.6777043 0.019149005 0.17967674 4290919680
2.6806321 0.019246925 0.19443195 4291050240
2.6906152 0.019394696 0.20955054 4291050240
3.0225606 0.021815117 0.25127128 4292094720
3.3104355 0.023942651 0.29228616 4293139200
3.3645272 0.024423758 0.31411839 4293269760
3.364579 0.024522122 0.3308332 4293269760
3.2456722 0.023767374 0.33491513 4292878080
3.3846619 0.024863277 0.36528465 4293400320
3.3773971 0.024909865 0.38009885 4293400320
3.3758867 0.024998007 0.3950901 4293400320
3.3522165 0.024924718 0.40693298 4293269760
3.3206623 0.024792539 0.41712138 4293269760
3.3700459 0.025253544 0.43706045 4293400320
3.3939695 0.025529837 0.45349717 4293530880
3.3966806 0.025650633 0.46668759 4293530880
3.3679965 0.025538318 0.47493961 4293400320
3.3609359 0.02558603 0.48556414 4293400320
3.3423164 0.02554691 0.49387509 4293269760
3.3808699 0.02593733 0.5101155 4293400320
3.3802905 0.026034573 0.51998454 4293400320
3.3680482 0.026043564 0.52742231 4293400320
3.3758743 0.026204986 0.53737336 4293400320
3.3689802 0.026254583 0.544361 4293400320
3.3644044 0.026321858 0.55106097 4293400320
3.3604412 0.026393875 0.557199 4293400320
3.3687115 0.02656064 0.56471848 4293400320
3.3570669 0.026573466 0.56823611 4293400320
3.3572743 0.02667835 0.57307237 4293400320
3.3703847 0.026884617 0.57945198 4293400320
3.3377736 0.026732499 0.57727802 4293400320
3.3461778 0.026902454 0.58148551 4293400320
3.3369615 0.026933603 0.58194929 4293400320
3.3406675 0.027067315 0.58397436 4293400320
3.3504 0.027249712 0.58636665 4293400320
3.3587785 0.027422186 0.58783227 4293400320
3.354955 0.027497275 0.58647132 4293400320
3.3591142 0.027636962 0.58581179 4293400320
3.3564086 0.027721535 0.58326524 4293400320
3.3663373 0.027909171 0.58221847 4293400320
3.3619134 0.027980387 0.57800192 4293400320
3.3701792 0.028155815 0.57527947 4293400320
3.3657084 0.028227117 0.56970459 4293400320
3.3650787 0.028330224 0.56411785 4293400320
3.3681357 0.028464219 0.55848253 4293400320
3.3593569 0.028500026 0.55024457 4293400320
3.3564978 0.028585115 0.54235613 4293400320
3.3469341 0.028613975 0.53278172 4293400320
3.3487604 0.028738586 0.52441651 4293400320
3.372354 0.029047946 0.51877761 4293400320
3.3781605 0.029207909 0.50972068 4293400320
3.3716335 0.029263273 0.4982177 4293400320
3.3588221 0.029264634 0.48527402 4293400320
3.3194163 0.029458649 0.39644638 4293139200
3.3104563 0.029491305 0.38074663 4293139200
3.1434724 0.028133832 0.34725821 4292616960
2.7719209 0.024959402 0.29329878 4291311360
2.6510725 0.023981797 0.26781791 4290919680
2.6551583 0.024107533 0.25519925 4290919680
2.6406605 0.024067743 0.24056314 4290919680
2.5814884 0.023626687 0.22196889 4290658560
2.5647051 0.023563109 0.20715581 4290658560
2.5775547 0.02376611 0.19452043 4290658560
2.5596049 0.023690898 0.17937604 4290528000
2.5347657 0.023551879 0.16378209 4290528000
2.5167062 0.023473175 0.14867856 4290397440
2.5176833 0.023567822 0.13462619 4290397440
2.5023675 0.023512701 0.11963555 4290397440
2.4694388 0.02329395 0.10394605 4290266880
2.4442604 0.023144845 0.088798776 4290136320
2.4373803 0.023164297 0.074399501 4290136320
2.4243455 0.023125855 0.059844889 4290136320
2.3923535 0.022908904 0.045019597 4290005760
2.4023712 0.023084909 0.03105722 4290005760
2.4069324 0.02321011 0.016901802 4290005760
2.4172575 0.023390243 0.0026765449 4290136320
2.4155033 0.023456233 -0.011618252 4290136320
2.4498429 0.023866514 -0.026273275 4290136320
2.4626832 0.024073249 -0.040950157 4290266880
2.4650192 0.024179889 -0.055500649 4290266880
2.4910159 0.024514865 -0.070695415 4290397440
2.5254951 0.024933685 -0.086412281 4290397440
2.5288317 0.025052331 -0.1011925 4290528000
2.5246005 0.025097394 -0.11555874 4290397440
2.554704 0.025477946 -0.1315244 4290528000
2.5728886 0.025743496 -0.14701149 4290658560
2.5865014 0.025965188 -0.16226009 4290658560
2.5615585 0.025806673 -0.17485383 4290528000
2.6279476 0.02655213 -0.19372267 4290789120
2.6496773 0.026857587 -0.20956859 4290919680
2.6693506 0.027143884 -0.22524691 4290919680
2.6516085 0.027056541 -0.23753536 4290919680
2.5228405 0.025851779 -0.23886877 4290528000
2.731406 0.028040666 -0.27227509 4291180800
2.7777925 0.028602224 -0.29048336 4291311360
2.8639085 0.029570162 -0.31316644 4291703040
3.0205452 0.031262148 -0.34435737 4292225280
3.1213119 0.032393437 -0.36998361 4292486400
3.3261468 0.03459844 -0.40889359 4293269760
3.3482077 0.034936596 -0.42587435 4293269760
3.3733211 0.035307512 -0.44296658 4293400320
3.3633082 0.035316162 -0.45501506 4293400320
3.3400133 0.035185933 -0.46462807 4293269760
3.3353043 0.035247602 -0.47619805 4293269760
3.3362706 0.035368033 -0.4880276 4293269760
3.3494911 0.035616782 -0.50114542 4293400320
3.3426886 0.035655499 -0.51072192 4293269760
3.3397055 0.035733804 -0.52027094 4293269760
3.3422449 0.03587009 -0.53008538 4293269760
3.3410716 0.03596684 -0.5387094 4293269760
3.3475409 0.036144625 -0.54796135 4293400320
3.33199 0.036087293 -0.55296087 4293269760
3.3250647 0.036121082 -0.5587061 4293269760
3.3156509 0.036127377 -0.56335741 4293269760
3.2885454 0.035942048 -0.56428939 4293139200
3.29758 0.036145415 -0.57073742 4293269760
3.2855656 0.036120795 -0.57287991 4293139200
3.2898853 0.036272749 -0.57719535 4293139200
3.2795434 0.036264736 -0.57826453 4293139200
3.2266049 0.035789762 -0.57110733 4293008640
3.2224057 0.035845853 -0.57187468 4293008640
3.2885942 0.036675826 -0.58448255 4293139200
3.2737939 0.036616005 -0.58203477 4293139200
3.3038769 0.037051592 -0.58688343 4293269760
3.3029425 0.037144553 -0.58553624 4293269760
3.3118443 0.037346587 -0.58524728 4293269760
3.3157322 0.037492909 -0.58338445 4293269760
3.3270006 0.037721746 -0.58212882 4293269760
3.3370512 0.037937295 -0.57996207 4293400320
3.3349938 0.038016912 -0.57501036 4293269760
3.3356683 0.038126912 -0.56986606 4293269760
3.3326678 0.03819507 -0.56343985 4293269760
3.3440866 0.038426306 -0.55878407 4293400320
3.3366642 0.038443632 -0.5503304 4293269760
3.3240964 0.038401537 -0.54044145 4293269760
3.3267553 0.038532495 -0.53243089 4293269760
3.3147743 0.038495488 -0.52149415 4293269760
3.2987683 0.038411211 -0.50940806 4293139200
3.3245831 0.038807672 -0.50316668 4293269760
3.3347664 0.039024793 -0.49387592 4293269760
3.3158543 0.038905211 -0.47974864 4293269760
3.253509 0.038279802 -0.45908347 4293008640
3.0830123 0.03639115 -0.42350134 4292355840
2.8942215 0.034278616 -0.38630244 4291833600
2.7857442 0.033094618 -0.36056367 4291441920
2.7474282 0.032727193 -0.34410244 4291311360
2.6882021 0.032111391 -0.32505605 4291050240
2.6422265 0.031648181 -0.30771261 4290919680
2.6479261 0.031792939 -0.29622659 4290919680
2.6616566 0.032033034 -0.28522211 4290919680
2.6411493 0.031867083 -0.27026954 4290919680
2.5788972 0.031202704 -0.25115523 4290658560
2.5818021 0.03131235 -0.23840681 4290658560
2.5671587 0.031212062 -0.22383918 4290658560
2.5643477 0.031252734 -0.21015127 4290658560
2.5157266 0.030742327 -0.19275475 4290397440
2.5290439 0.030975534 -0.18008578 4290528000
2.5264535 0.031017229 -0.16603269 4290528000
2.506916 0.030853458 -0.1508107 4290397440
2.4889727 0.030707832 -0.13573371 4290397440
2.4640889 0.030476658 -0.12037629 4290266880
2.4616196 0.030517371 -0.10614359 4290266880
2.4515238 0.030464653 -0.09154278 4290266880
2.3996038 0.029898796 -0.075642474 4290005760
2.4152014 0.03015922 -0.062007379 4290136320
2.4128129 0.030199073 -0.047768805 4290005760
2.4152212 0.030297959 -0.033577457 4290136320
2.3992107 0.030169148 -0.019176416 4290005760
2.4384208 0.030724 -0.0050667943 4290136320
2.4544687 0.030993281 0.0094213868 4290266880
2.4749851 0.031319141 0.024128594 4290266880
2.4834752 0.031496063 0.038861137 4290266880
2.5305932 0.032156799 0.054475904 4290528000
2.5519428 0.032497115 0.069877625 4290528000
2.5302911 0.032298196 0.084025584 4290528000
2.5638268 0.032793324 0.099973887 4290528000
2.5945289 0.033254653 0.1160701 4290658560
2.6079116 0.033498622 0.13151594 4290789120
2.5645885 0.033024166 0.14379355 4290528000
2.6414645 0.034075364 0.16282098 4290789120
2.6865239 0.034725685 0.18038569 4291050240
2.6994202 0.034967955 0.19591142 4291050240
2.7840083 0.036128689 0.21693572 4291311360
3.2372642 0.042023845 0.2692391 4292878080
3.3586385 0.043678269 0.29668486 4293269760
3.3782594 0.044028647 0.31554711 4293400320
3.3643715 0.043947555 0.33095968 4293269760
3.2454715 0.042506479 0.33503523 4292878080
3.3894222 0.044468824 0.36594391 4293400320
3.3771863 0.044408869 0.38021937 4293400320
3.3717027 0.044436395 0.39474344 4293400320
3.3470426 0.044213336 0.40644535 4293269760
3.3244214 0.044015732 0.41773024 4293269760
3.3797488 0.044839755 0.43845496 4293400320
3.3887985 0.04505872 0.45294228 4293400320
3.3865583 0.045129664 0.46543092 4293400320
3.3776832 0.045113083 0.4764342 4293400320
3.3706179 0.045120195 0.48708838 4293400320
3.3421025 0.044842519 0.4939661 4293269760
3.3806534 0.045455329 0.51020354 4293400320
3.3751323 0.045483291 0.51930881 4293400320
3.3767231 0.045606211 0.52889305 4293400320
3.3756576 0.045693953 0.53744841 4293400320
3.3687639 0.045703709 0.54443127 4293400320
3.3740561 0.045877252 0.55274177 4293400320
3.3700902 0.045926616 0.55889422 4293400320
3.3626781 0.045929484 0.56379968 4293400320
3.3716402 0.046153948 0.57078815 4293400320
3.3570595 0.046059735 0.57311767 4293400320
3.3603146 0.046207577 0.57779902 4293400320
3.3464284 0.046122231 0.57884508 4293400320
3.3508904 0.046287078 0.58236992 4293400320
3.3505399 0.046386618 0.58437598 4293400320
3.3503053 0.046488047 0.58571267 4293400320
3.3501875 0.046591397 0.58637857 4293400320
3.358566 0.046812233 0.58783841 4293400320
3.3498182 0.046797208 0.58561122 4293400320
3.368753 0.047165461 0.58752263 4293400320
3.3601382 0.047152705 0.5839377 4293400320
3.3562729 0.047205828 0.58049768 4293400320
3.3666303 0.047457419 0.57882428 4293400320
3.3601117 0.047474053 0.57356793 4293400320
3.3605688 0.047588341 0.56883436 4293400320
3.3648691 0.047756951 0.56407511 4293400320
3.3679261 0.047908649 0.55843353 4293400320
3.3640821 0.047963481 0.55099684 4293400320
3.3612251 0.048032332 0.54309165 4293400320
3.3378394 0.047810305 0.5313009 4293269760
3.3433971 0.047998261 0.52353632 4293269760
3.3721454 0.048517108 0.51869744 4293400320
3.3878388 0.048851792 0.51112467 4293530880
3.3664789 0.048657708 0.49739516 4293400320
3.3635623 0.048726946 0.48589009 4293400320
3.3241491 0.049238186 0.39704803 4293269760
3.3579056 0.049845722 0.38623649 4293269760
3.3200886 0.049401481 0.36678624 4293139200
2.8614194 0.042741746 0.30279049 4291572480
2.6842108 0.040216047 0.27119336 4291050240
2.6599464 0.039946821 0.25569141 4290919680
2.6454513 0.039821304 0.24103209 4290919680
2.5824237 0.038971886 0.22208224 4290658560
2.5685859 0.038852829 0.20750237 4290658560
2.5683961 0.0389372 0.1938647 4290658560
2.5644078 0.038964685 0.17974706 4290658560
2.5390742 0.038671091 0.16409539 4290528000
2.5025499 0.038207233 0.14787956 4290397440
2.5125082 0.038442962 0.1343866 4290397440
2.4981904 0.038311988 0.11947338 4290397440
2.472827 0.038012534 0.10412571 4290266880
2.4440818 0.037659988 0.088829972 4290136320
2.4372015 0.037638724 0.074432313 4290136320
2.4220781 0.037491132 0.059827797 4290136320
2.3876722 0.037047371 0.044970676 4290005760
2.422987 0.037670907 0.031361703 4290136320
2.4327476 0.037903961 0.017121393 4290136320
2.4320772 0.037976958 0.002732822 4290136320
2.4393213 0.038172144 -0.011693014 4290136320
2.4656551 0.038663302 -0.02640143 4290266880
2.4869957 0.039078794 -0.041312788 4290266880
2.4869289 0.039162911 -0.055951711 4290266880
2.5098207 0.039604716 -0.071185872 4290397440
2.5362961 0.040104013 -0.086737357 4290528000
2.5666082 0.040665124 -0.10266043 4290528000
2.5483842 0.040467031 -0.11660304 4290528000
2.5734861 0.040948626 -0.1324462 4290658560
2.6016455 0.041480031 -0.1486094 4290658560
2.6138225 0.041760977 -0.16392857 4290789120
2.5853083 0.041398946 -0.17643006 4290658560
2.6566689 0.042618301 -0.19579409 4290919680
2.6795051 0.043071453 -0.21188192 4291050240
2.7067516 0.043596268 -0.22835721 4291050240
2.6892533 0.043408878 -0.24086279 4291050240
2.5555 0.041361298 -0.24191901 4290528000
2.798538 0.04534205 -0.27892232 4291441920
2.8945124 0.046977643 -0.30264446 4291703040
3.0693979 0.049889307 -0.33559105 4292355840
3.2199984 0.052420985 -0.36704892 4292878080
3.2163966 0.052470982 -0.3812077 4292878080
3.3497128 0.05473746 -0.41174313 4293269760
3.357873 0.054981984 -0.42705795 4293400320
3.373065 0.055341158 -0.44288909 4293400320
3.3585951 0.055217858 -0.45433602 4293400320
3.3546135 0.055264585 -0.46662012 4293400320
3.3350494 0.05505589 -0.47612551 4293269760
3.3360147 0.055182151 -0.48795676 4293269760
3.3442895 0.055428267 -0.50033659 4293269760
3.3374889 0.055426557 -0.50989997 4293269760
3.3394475 0.055568568 -0.52020633 4293269760
3.3419857 0.055720001 -0.53002322 4293269760
3.3506827 0.05597328 -0.54024136 4293400320
3.3334651 0.055796951 -0.54564369 4293269760
3.3317287 0.055876512 -0.55290747 4293269760
3.3198726 0.055787139 -0.55782777 4293269760
3.2929959 0.055446059 -0.5595066 4293139200
3.3107979 0.055849865 -0.56810963 4293269760
3.3012578 0.055796534 -0.5713805 4293269760
3.266587 0.055320527 -0.5695821 4293139200
3.279772 0.055646632 -0.57543677 4293139200
3.2178552 0.054708119 -0.5674085 4292878080
3.2263422 0.054953586 -0.57108557 4293008640
3.2172196 0.054901514 -0.57098383 4292878080
3.2883236 0.056207646 -0.58446956 4293139200
3.2784452 0.056143485 -0.58290178 4293139200
3.3036022 0.056674104 -0.58688027 4293269760
3.3026664 0.056761492 -0.58553827 4293269760
3.3155041 0.057083555 -0.58595055 4293269760
3.3154519 0.057185709 -0.58339721 4293269760
3.3267176 0.057481397 -0.58214712 4293269760
3.3328254 0.057688948 -0.5793013 4293269760
3.3396337 0.057908598 -0.57588965 4293400320
3.3441279 0.0580885 -0.57139635 4293400320
3.3359168 0.058049183 -0.56407976 4293269760
3.3325958 0.058093566 -0.55696052 4293269760
3.3363709 0.058260284 -0.55038428 4293269760
3.332685 0.058297537 -0.54194546 4293269760
3.3175745 0.058135796 -0.53107464 4293269760
3.3109336 0.058120247 -0.52100837 4293269760
3.2984729 0.058002558 -0.50948596 4293139200
3.3282385 0.05862122 -0.50385016 4293269760
3.334465 0.058829639 -0.49396738 4293269760
3.3294072 0.058840431 -0.4818508 4293269760
3.2931614 0.058303259 -0.46482357 4293139200
3.2302351 0.057294596 -0.44387197 4292878080
3.1017566 0.05512752 -0.4141494 4292486400
2.9151709 0.051927593 -0.37745807 4291833600
2.8229489 0.050383873 -0.35370344 4291572480
2.7211471 0.048664983 -0.32918084 4291180800
2.6707826 0.047851864 -0.31118065 4291050240
2.6762781 0.04802759 -0.2995449 4291050240
2.6902394 0.048354059 -0.28843606 4291050240
2.6747212 0.048155975 -0.27385879 4291050240
2.6164718 0.047194291 -0.25496855 4290789120
2.5954998 0.046895403 -0.23982711 4290658560
2.5959284 0.04697831 -0.22650665 4290658560
2.5790558 0.046750877 -0.21151707 4290658560
2.53543 0.046041839 -0.19442506 4290528000
2.5527432 0.046426471 -0.18193781 4290528000
2.537189 0.046219777 -0.1669036 4290528000
2.5206549 0.04599442 -0.1518039 4290397440
2.4987395 0.045670759 -0.13643345 4290397440
2.4737682 0.04529044 -0.12101647 4290266880
2.46838 0.045263737 -0.10660359 4290266880
2.4608479 0.045197736 -0.092060603 4290266880
2.4183693 0.044495542 -0.076402687 4290136320
2.4348817 0.044865672 -0.062683702 4290136320
2.4342947 0.04492468 -0.048366252 4290136320
2.4243371 0.044812366 -0.033875532 4290136320
2.4042909 0.044514786 -0.019387221 4290005760
2.4421973 0.045278557 -0.0052477838 4290136320
2.4642432 0.045753252 0.0092835138 4290266880
2.4677489 0.045888238 0.023883918 4290266880
2.4932473 0.046428535 0.038836829 4290397440
2.5219646 0.047029696 0.054113071 4290397440
2.5428417 0.047487669 0.069450624 4290528000
2.5400567 0.047508989 0.084171332 4290528000
2.5620017 0.047988549 0.099724971 4290528000
2.5942972 0.048661552 0.11588097 4290658560
2.608238 0.048995227 0.13135426 4290789120
2.5743432 0.048439052 0.14416547 4290658560
2.6412301 0.049760498 0.16263029 4290789120
2.6777174 0.050518081 0.17961912 4290919680
2.7420621 0.051798973 0.19882345 4291180800
2.975152 0.056245226 0.23161827 4291964160
3.328578 0.062963113 0.2766161 4293139200
3.3782625 0.063993245 0.29820952 4293400320
3.3838582 0.064196549 0.31586701 4293400320
3.3601115 0.063847207 0.33034497 4293269760
3.2451868 0.061775163 0.3348217 4292878080
3.3807716 0.064433672 0.36482465 4293400320
3.3782916 0.06448549 0.38016364 4293400320
3.3790922 0.064599589 0.39543399 4293400320
3.356674 0.064272851 0.40744784 4293269760
3.3241286 0.063752338 0.41753602 4293269760
3.3883746 0.065074615 0.43941978 4293400320
3.388499 0.065177113 0.45275673 4293400320
3.3860409 0.065230504 0.46522239 4293400320
3.3674824 0.064975746 0.47486812 4293400320
3.3703172 0.065130368 0.48692486 4293400320
3.3418031 0.064683378 0.49381155 4293269760
3.3704627 0.065334678 0.50856477 4293400320
3.3748271 0.065519936 0.51916897 4293400320
3.3764162 0.065652199 0.5287618 4293400320
3.3704123 0.06563811 0.53654081 4293400320
3.37198 0.065770514 0.5448876 4293400320
3.3737442 0.065907128 0.55263805 4293400320
3.3603022 0.065748908 0.55723053 4293400320
3.3623633 0.065891668 0.56371599 4293400320
3.3614643 0.065977223 0.56904691 4293400320
3.3518126 0.065892287 0.57221407 4293400320
3.3466837 0.065895453 0.5754599 4293400320
3.3608837 0.066276893 0.58135784 4293400320
3.3505647 0.066178948 0.58233941 4293400320
3.3600616 0.066469714 0.58607334 4293400320
3.3598237 0.066569991 0.58742535 4293400320
3.3449299 0.066381946 0.58552092 4293400320
3.3582292 0.066749424 0.58785379 4293400320
3.3494794 0.06668245 0.5856384 4293400320
3.3585601 0.066968106 0.58584529 4293400320
3.3597932 0.067099117 0.58398902 4293400320
3.3608515 0.067227073 0.58141261 4293400320
3.3662791 0.067442298 0.57890028 4293400320
3.3597586 0.067420244 0.57365614 4293400320
3.3651421 0.067635559 0.56976885 4293400320
3.3645103 0.067731358 0.5641883 4293400320
3.3675644 0.067901202 0.5585593 4293400320
3.3587852 0.067834347 0.5503273 4293400320
3.3608594 0.067985155 0.5432421 4293400320
3.3463602 0.0678031 0.53287655 4293400320
3.3531232 0.068048686 0.52529061 4293400320
3.3668311 0.068435133 0.51812589 4293400320
3.3825185 0.068862773 0.51058054 4293400320
3.3799493 0.068922184 0.49965268 4293400320
3.3631845 0.068693891 0.48611426 4293400320
3.3277822 0.068509623 0.39753109 4293269760
3.357564 0.069230922 0.38624495 4293269760
3.357513 0.069342799 0.37096187 4293269760
3.0281618 0.062692434 0.32045233 4292225280
2.7357402 0.056779668 0.2764256 4291180800
2.6646502 0.055407468 0.25617298 4290919680
2.6402016 0.054993153 0.24058209 4290919680
2.5871389 0.053985827 0.2225121 4290658560
2.5602713 0.05351739 0.20685428 4290528000
2.572119 0.053850159 0.19416571 4290658560
2.5591562 0.053668447 0.17939772 4290528000
2.5388114 0.053332359 0.16409415 4290528000
2.5162632 0.052949049 0.14870158 4290397440
2.5172391 0.053055353 0.1346501 4290397440
2.4979305 0.052737661 0.11946958 4290397440
2.4739959 0.052321829 0.10418101 4290266880
2.4388309 0.05166883 0.088643506 4290136320
2.437705 0.051728703 0.074449129 4290136320
2.4328644 0.051710363 0.060092337 4290136320
2.393702 0.050968204 0.045080576 4290005760
2.4470258 0.052176215 0.031665146 4290136320
2.4426124 0.052166812 0.017182149 4290136320
2.4648128 0.052720889 0.0027566287 4290266880
2.4580586 0.052662142 -0.011796844 4290266880
2.4843881 0.053306025 -0.026618408 4290266880
2.5007262 0.053739022 -0.041559245 4290397440
2.5016565 0.053844623 -0.056303758 4290397440
2.5285406 0.054504495 -0.071740218 4290397440
2.5600049 0.055264141 -0.087574348 4290528000
2.5853133 0.055894021 -0.10343693 4290658560
2.5720794 0.055698559 -0.11771784 4290658560
2.5930996 0.056238312 -0.13348836 4290658560
2.6353011 0.057235386 -0.15056784 4290789120
2.6374867 0.057372518 -0.16545029 4290789120
2.6089664 0.056846648 -0.17808373 4290789120
2.6703389 0.058262963 -0.19684319 4290919680
2.7081161 0.059172232 -0.21418892 4291050240
2.720403 0.059530918 -0.22955513 4291180800
2.7001944 0.059184186 -0.2418903 4291050240
