# .PCD v0.7 - Point Cloud Data file format
VERSION 0.7
FIELDS x y z rgba
SIZE 4 4 4 4
TYPE F F F U
COUNT 1 1 1 1
WIDTH 1104
HEIGHT 1
VIEWPOINT 0 0 0 1 0 0 0
POINTS 1104
DATA ascii
3.3165317 0.75501776 -0.38654476 4293530880
3.2717209 0.74493742 -0.39650354 4293269760
3.3414686 0.76092404 -0.4200685 4293530880
3.3549681 0.76411289 -0.43644151 4293661440
3.3605559 0.76550138 -0.45137697 4293661440
3.3532968 0.76396525 -0.46406949 4293661440
3.328793 0.75850159 -0.47372058 4293530880
3.3273072 0.75827825 -0.48602277 4293530880
3.3291771 0.75881892 -0.49826866 4293530880
3.3275421 0.75856102 -0.50942481 4293530880
3.3368714 0.76080102 -0.5217104 4293661440
3.3421991 0.76212955 -0.53282076 4293661440
3.341888 0.76217306 -0.54243648 4293661440
3.3432515 0.76259798 -0.55170631 4293661440
3.3269854 0.7590034 -0.55738854 4293530880
3.3248868 0.75863802 -0.56476372 4293530880
3.3107698 0.75553137 -0.56940621 4293530880
3.2974994 0.75261664 -0.57348144 4293530880
3.3024673 0.75386125 -0.58005631 4293530880
3.2857995 0.75016969 -0.5821324 4293400320
3.225153 0.73644131 -0.57561636 4293269760
3.2197351 0.735313 -0.57822782 4293269760
3.2422709 0.74056458 -0.58521396 4293269760
3.2370727 0.73948604 -0.58651733 4293269760
3.2281494 0.7375564 -0.58645302 4293269760
3.2327795 0.73872083 -0.58817065 4293269760
3.2183278 0.73552728 -0.58572274 4293269760
3.2744231 0.74844688 -0.59545392 4293400320
3.2942507 0.75308442 -0.59786379 4293530880
3.302078 0.7549811 -0.59738213 4293530880
3.3060577 0.75599873 -0.5954994 4293530880
3.3147366 0.75809038 -0.59376049 4293530880
3.3302646 0.76174796 -0.59253383 4293661440
3.3319016 0.76223058 -0.5881204 4293661440
3.3299966 0.76190311 -0.58239883 4293661440
3.3258729 0.76106787 -0.57562429 4293661440
3.3288033 0.76184553 -0.56940979 4293661440
3.3290656 0.76201272 -0.56207401 4293661440
3.3154643 0.75900805 -0.55177593 4293530880
3.3093767 0.75772142 -0.54214597 4293530880
3.305012 0.75682849 -0.53220522 4293530880
3.2968159 0.75505805 -0.52107316 4293530880
3.3176286 0.75992715 -0.51390326 4293530880
3.3293016 0.76270497 -0.50462383 4293530880
3.3309102 0.76317888 -0.49319673 4293530880
3.3176067 0.76023775 -0.4790394 4293530880
3.2864039 0.75319606 -0.46191666 4293400320
3.2890096 0.75389647 -0.44915092 4293400320
3.3192992 0.76093912 -0.43953881 4293530880
3.3274462 0.76291007 -0.42633173 4293530880
3.2892809 0.75426841 -0.40682736 4293400320
3.2948914 0.7556572 -0.39244965 4293400320
3.3230512 0.7622149 -0.38017553 4293530880
3.3368371 0.76547891 -0.36563066 4293530880
3.3363574 0.76547277 -0.34904867 4293530880
3.2825432 0.75323617 -0.32675219 4293400320
3.3079014 0.7591539 -0.31216022 4293400320
3.3059912 0.75881827 -0.29451939 4293400320
3.3214364 0.76246387 -0.27804011 4293400320
3.283283 0.75381273 -0.25687066 4293269760
3.3086438 0.75973374 -0.2404933 4293400320
3.3218131 0.76285809 -0.22274935 4293400320
3.305192 0.7591455 -0.20277351 4293400320
3.3039434 0.75896066 -0.18363367 4293400320
3.2931232 0.75657821 -0.163831 4293400320
3.3085766 0.76022792 -0.14514755 4293400320
3.3238058 0.76382709 -0.12611942 4293400320
3.2918169 0.7565819 -0.1052417 4293269760
3.3220992 0.76363927 -0.086288147 4293400320
3.3294406 0.76542789 -0.066410623 4293400320
3.342927 0.76862895 -0.046465248 4293530880
3.3250763 0.76462942 -0.026046984 4293400320
3.3393338 0.76800829 -0.005895487 4293530880
3.3614929 0.77320439 0.014461278 4293530880
3.3367655 0.76762283 0.034608223 4293530880
3.3573914 0.77246773 0.055133477 4293530880
3.3826854 0.77838737 0.07594689 4293661440
3.3766358 0.77709991 0.096105173 4293661440
3.3193605 0.76402915 0.1143493 4293400320
3.372366 0.77632511 0.13617213 4293661440
3.3768957 0.77747107 0.15625633 4293661440
3.370923 0.77620059 0.17567952 4293661440
3.2391889 0.74598664 0.18763287 4293139200
3.3684611 0.77584165 0.2143116 4293661440
3.3738694 0.77719063 0.23371731 4293661440
3.3711376 0.77666587 0.25232059 4293661440
3.2343984 0.74528348 0.25993079 4293139200
3.3903544 0.78130001 0.29067782 4293661440
3.3951559 0.782511 0.30910292 4293661440
3.3950496 0.78259182 0.32676488 4293792000
3.3358922 0.76906794 0.33811364 4293530880
3.2049553 0.73900098 0.34090143 4293139200
3.3789158 0.77919066 0.37572765 4293661440
3.3972857 0.78353012 0.39386261 4293792000
3.3656781 0.77635026 0.40573323 4293661440
3.3274519 0.76764274 0.41603577 4293530880
3.2515714 0.7502507 0.42068496 4293269760
3.3911915 0.78255069 0.45284778 4293792000
3.3884377 0.78202242 0.46614909 4293792000
3.3849316 0.78132051 0.47879109 4293792000
3.3722098 0.77849263 0.48952746 4293661440
3.3720131 0.77855408 0.50146472 4293661440
3.3202477 0.76671541 0.50501585 4293530880
3.3889344 0.7826739 0.52626956 4293792000
3.388315 0.78263903 0.53641742 4293792000
3.3823311 0.78136599 0.54508018 4293792000
3.365442 0.77757472 0.55129898 4293661440
3.3804986 0.78115982 0.56208092 4293792000
3.3711016 0.77909839 0.56817496 4293792000
3.3787363 0.78097069 0.57645983 4293792000
3.364275 0.77773911 0.58030516 4293792000
3.3768053 0.78074348 0.58810276 4293792000
3.3582101 0.77655613 0.58980548 4293661440
3.3587332 0.77678651 0.59413427 4293661440
3.3533325 0.77564794 0.5967167 4293661440
3.3480456 0.77453554 0.59860772 4293661440
3.3524721 0.7756691 0.6015231 4293661440
3.3474157 0.77461022 0.6020363 4293661440
3.3472753 0.7746883 0.60271931 4293661440
3.3652151 0.7789489 0.60593563 4293792000
3.3605103 0.77797222 0.60437781 4293792000
3.3736856 0.78113264 0.6053071 4293792000
3.3692 0.7802071 0.60236472 4293792000
3.3801057 0.78284401 0.60144866 4293792000
3.3754828 0.78188717 0.59706867 4293792000
3.3751042 0.78191304 0.59274071 4293792000
3.3842354 0.78414118 0.58936805 4293792000
3.3761384 0.78238034 0.58231628 4293792000
3.3757446 0.78240347 0.5759207 4293792000
3.3853467 0.78474241 0.57053155 4293792000
3.3741233 0.78225732 0.56098688 4293792000
3.3659384 0.78047574 0.5513376 4293661440
3.359129 0.77901262 0.54131013 4293661440
3.3647871 0.7804392 0.53265744 4293661440
3.3871129 0.78573042 0.52593195 4293792000
3.3806109 0.78433943 0.51409543 4293792000
3.3612757 0.77997226 0.49980959 4293661440
3.3332608 0.77468544 0.41008881 4293530880
3.3780334 0.78520226 0.40024295 4293661440
3.3761272 0.78487766 0.38425076 4293661440
3.3514411 0.77925992 0.36537516 4293530880
3.3306375 0.77454287 0.34673062 4293530880
3.3525984 0.77976435 0.33211368 4293530880
3.3631444 0.78233397 0.315837 4293661440
3.330869 0.77494836 0.29532844 4293530880
3.3133035 0.77098131 0.27604911 4293400320
3.3389533 0.77706373 0.25999025 4293530880
3.3525114 0.78033555 0.24249405 4293530880
3.3496468 0.77978778 0.223492 4293530880
3.3371475 0.7769981 0.20369217 4293530880
3.3607113 0.7826001 0.18578121 4293530880
3.3665068 0.78406823 0.16652349 4293661440
3.3631182 0.78339887 0.14661829 4293530880
3.3406844 0.77829528 0.12588359 4293530880
3.3307254 0.77609497 0.1056632 4293530880
3.3369417 0.77766114 0.08585009 4293530880
3.3194969 0.77371639 0.065413021 4293400320
3.3213446 0.77426493 0.045363989 4293400320
3.3127453 0.77237952 0.025166199 4293400320
3.3185897 0.77385938 0.0050551784 4293400320
3.2803435 0.76506341 -0.014910672 4293269760
3.3076787 0.77155221 -0.035133906 4293400320
3.3187869 0.77425969 -0.055374999 4293400320
3.3169506 0.77394956 -0.07539349 4293400320
3.2973206 0.76948959 -0.094791248 4293400320
3.3243105 0.77590221 -0.11550023 4293400320
3.3407173 0.77984786 -0.13597427 4293530880
3.3362362 0.77892101 -0.15551509 4293530880
3.3045573 0.7716471 -0.17339711 4293400320
3.3189774 0.77512985 -0.1934367 4293400320
3.3269973 0.77711964 -0.21302344 4293530880
3.3182597 0.77519768 -0.23129706 4293400320
3.3153102 0.77462649 -0.24966277 4293400320
3.3397939 0.78046155 -0.26995823 4293530880
3.348475 0.7826072 -0.28885877 4293530880
3.3459232 0.78212935 -0.30650502 4293530880
3.2804389 0.76694775 -0.31766486 4293400320
3.3248694 0.7774455 -0.33906251 4293530880
3.3293538 0.77861053 -0.35624599 4293530880
3.3349462 0.78003472 -0.37320724 4293530880
3.3227088 0.77729094 -0.38772225 4293530880
3.2609761 0.76297349 -0.39566347 4293269760
3.3552465 0.78513247 -0.42230949 4293661440
3.360024 0.78636706 -0.43762574 4293661440
3.3443558 0.78281915 -0.44973564 4293661440
3.3627431 0.78723735 -0.46594647 4293661440
3.3435118 0.78285432 -0.47640362 4293661440
3.3275588 0.77923697 -0.48665726 4293530880
3.3250017 0.77875364 -0.49825725 4293530880
3.3464785 0.78389609 -0.51296985 4293661440
3.3409505 0.78271717 -0.52300346 4293661440
3.3472281 0.78430212 -0.5342961 4293661440
3.3459506 0.78411794 -0.54378486 4293661440
3.3386567 0.78252411 -0.55164701 4293661440
3.3316412 0.78099477 -0.5588848 4293661440
3.3251173 0.77957994 -0.5655297 4293661440
3.3158178 0.77751392 -0.57101452 4293530880
3.306401 0.77541953 -0.57578176 4293530880
3.3027208 0.77466893 -0.58086008 4293530880
3.2764802 0.7686289 -0.58124113 4293400320
3.2805402 0.76969129 -0.5863021 4293400320
3.22489 0.75675166 -0.57992721 4293269760
3.2243812 0.75674051 -0.58275658 4293269760
3.2239838 0.75675517 -0.5849272 4293269760
3.2323265 0.75881994 -0.58801013 4293269760
3.2235289 0.75686336 -0.58728385 4293269760
3.278471 0.76986343 -0.59751546 4293400320
3.2785313 0.76998621 -0.59702712 4293400320
3.2944963 0.77384198 -0.59874064 4293530880
3.2975183 0.77465993 -0.59739119 4293530880
3.3062847 0.77682668 -0.59638089 4293530880
3.3283758 0.78212273 -0.59705722 4293661440
3.3304567 0.78272021 -0.59341669 4293661440
3.3229084 0.78105581 -0.5873754 4293661440
3.3253903 0.78174692 -0.58243704 4293661440
3.3395829 0.78518951 -0.57885075 4293661440
3.3328371 0.78371233 -0.57094455 4293661440
3.324456 0.78185016 -0.56213075 4293661440
3.3256791 0.78224474 -0.55431342 4293661440
3.3182483 0.78060472 -0.54442906 4293530880
3.2961056 0.77550483 -0.53158092 4293530880
3.2975378 0.77594697 -0.52199495 4293530880
3.3139064 0.77990192 -0.51412857 4293530880
3.3302653 0.7838552 -0.5055691 4293530880
3.3397758 0.78619838 -0.49530506 4293661440
3.3130023 0.78000492 -0.47914737 4293530880
3.2905207 0.77481949 -0.46325597 4293400320
3.3027747 0.77780724 -0.45178702 4293530880
3.3146896 0.78071576 -0.43966612 4293530880
3.3202703 0.78213376 -0.42613667 4293530880
3.2895429 0.77500355 -0.40756699 4293400320
3.2903132 0.77528799 -0.39259472 4293400320
3.3087602 0.77973515 -0.37921461 4293400320
3.3234892 0.78330761 -0.36482942 4293530880
3.3365614 0.78649056 -0.34972367 4293530880
3.282824 0.77393419 -0.32740596 4293400320
3.306782 0.77968132 -0.31266615 4293400320
3.3175344 0.78231788 -0.29614896 4293530880
3.3119688 0.78110892 -0.27781776 4293400320
3.2835708 0.77451754 -0.25744367 4293400320
3.3088984 0.78059012 -0.24104606 4293400320
3.3269074 0.78493845 -0.22360951 4293530880
3.3150947 0.78225559 -0.20387876 4293400320
3.304225 0.77979428 -0.18411835 4293400320
3.2982676 0.77849096 -0.16453528 4293400320
3.3039787 0.77993977 -0.14536679 4293400320
3.314111 0.78243202 -0.12614758 4293400320
3.2863467 0.7759825 -0.10543806 4293269760
3.3126194 0.78228384 -0.086389706 4293400320
3.331054 0.78673667 -0.066773929 4293530880
3.33146 0.78693485 -0.046604652 4293530880
3.3240592 0.78529 -0.026317559 4293400320
3.3444302 0.79020202 -0.0061623589 4293530880
3.353055 0.79234147 0.01420029 4293530880
3.332135 0.7875036 0.034361102 4293530880
3.3650424 0.79537904 0.055077743 4293530880
3.3805661 0.79914981 0.075749852 4293661440
3.3807082 0.79928732 0.096095346 4293661440
3.3283749 0.7870248 0.11456005 4293530880
3.3602517 0.79466069 0.13562223 4293530880
3.3637576 0.79559278 0.15561584 4293530880
3.3759706 0.79858357 0.17592683 4293661440
3.2492752 0.76873362 0.18822537 4293269760
3.3725362 0.79797971 0.21461137 4293661440
3.3740506 0.79844201 0.23380065 4293661440
3.3645148 0.79629093 0.25192747 4293661440
3.2532041 0.77006465 0.26155213 4293269760
3.3953576 0.80379611 0.29125911 4293792000
3.4052875 0.80625099 0.3102029 4293792000
3.400038 0.80511451 0.32745329 4293792000
3.3458004 0.79238373 0.33934686 4293530880
3.2092299 0.7601611 0.34160489 4293139200
3.4022956 0.80596679 0.37860665 4293792000
3.3925066 0.8037554 0.39363196 4293792000
3.3658504 0.79754955 0.4060984 4293661440
3.3421648 0.79204565 0.41823393 4293530880
3.255758 0.77168429 0.42160776 4293269760
3.3864946 0.80275726 0.45264897 4293792000
3.398212 0.80564022 0.46793979 4293792000
3.3898821 0.80377382 0.47996467 4293792000
3.38199 0.80201083 0.49144098 4293792000
3.3502765 0.7946015 0.49876639 4293661440
3.3300838 0.7899214 0.50704539 4293530880
3.3890452 0.80400634 0.52685994 4293792000
3.3836145 0.80282694 0.53627169 4293792000
3.3820207 0.80255741 0.54564774 4293792000
3.3886378 0.8042354 0.55572349 4293792000
3.3816514 0.80268723 0.56293237 4293792000
3.3808217 0.80259955 0.57048768 4293792000
3.3778799 0.80201083 0.57701486 4293792000
3.3682334 0.79983127 0.58170319 4293792000
3.3591495 0.79778481 0.58577454 4293792000
3.3535359 0.79656178 0.58973908 4293661440
3.349261 0.7956565 0.59323287 4293661440
3.3486602 0.79562354 0.59667242 4293661440
3.3529642 0.79675567 0.6002844 4293661440
3.347796 0.79563862 0.60150164 4293661440
3.3523283 0.79682583 0.603746 4293661440
3.352185 0.79690278 0.60444289 4293661440
3.3691385 0.80104226 0.60749912 4293792000
3.3606043 0.79912645 0.60526389 4293792000
3.3689663 0.80122596 0.6053459 4293792000
3.3644841 0.8002733 0.60241592 4293792000
3.3705785 0.80183506 0.6006617 4293792000
3.3803411 0.80426967 0.59883732 4293792000
3.3655767 0.80087268 0.59198982 4293792000
3.373482 0.80286664 0.58842695 4293792000
3.3848324 0.80568093 0.58474267 4293792000
3.3806014 0.80478936 0.57768202 4293792000
3.3805895 0.80490166 0.57067257 4293792000
3.3645778 0.80120665 0.56034374 4293792000
3.3573611 0.79960418 0.55087548 4293661440
3.3544018 0.79901493 0.54148829 4293661440
3.3735113 0.80367976 0.53497422 4293792000
3.387152 0.80704397 0.52688193 4293792000
3.3806596 0.80561477 0.51504254 4293792000
3.3652031 0.80205035 0.50132304 4293661440
3.3336248 0.79481298 0.41068834 4293530880
3.3686755 0.80328244 0.39967892 4293661440
3.3899746 0.80847716 0.38633707 4293792000
3.3517869 0.79949367 0.3659026 4293661440
3.3406911 0.79696649 0.34823525 4293530880
3.3585591 0.80134487 0.3331427 4293661440
3.3547611 0.80055779 0.31547159 4293661440
3.3360949 0.79622442 0.29617718 4293530880
3.3234043 0.79331529 0.27724552 4293530880
3.3362184 0.79649037 0.26011509 4293530880
3.3577182 0.80173904 0.24317853 4293661440
3.3588188 0.80212104 0.22438194 4293661440
3.3317752 0.79578549 0.20362112 4293530880
3.3587754 0.80234969 0.1859027 4293530880
3.3658752 0.80416453 0.16669179 4293661440
3.3586042 0.80254817 0.14659406 4293530880
3.3225915 0.79406703 0.12535186 4293400320
3.3359752 0.79738253 0.10593743 4293530880
3.3421836 0.79898489 0.086063601 4293530880
3.3247626 0.79494166 0.065565757 4293400320
3.3032668 0.78992349 0.045150142 4293400320
3.3170469 0.79333514 0.025189776 4293400320
3.3189924 0.79391873 0.0050196135 4293400320
3.286556 0.78628242 -0.01500708 4293269760
3.3044965 0.79068977 -0.03519237 4293400320
3.3054869 0.79104471 -0.055268757 4293400320
3.320823 0.79483104 -0.075636335 4293400320
3.3016334 0.79035902 -0.095098078 4293400320
3.3326695 0.79790264 -0.11600609 4293530880
3.33622 0.79887128 -0.13602844 4293530880
3.331744 0.79791903 -0.15557078 4293530880
3.3001065 0.79046488 -0.17345375 4293400320
3.3170738 0.79464447 -0.19364619 4293400320
3.3186319 0.79513568 -0.21283205 4293400320
3.3137872 0.79409367 -0.23135766 4293400320
3.3222818 0.79624599 -0.25059319 4293530880
3.3352902 0.79948014 -0.27002105 4293530880
3.3443565 0.80177063 -0.28895706 4293530880
3.3414092 0.80118293 -0.30656922 4293530880
3.2760119 0.7856288 -0.31772816 4293400320
3.3252196 0.79753911 -0.33962345 4293530880
3.3314326 0.79914594 -0.35701826 4293530880
3.3352761 0.80018491 -0.37381586 4293530880
3.3182211 0.79621279 -0.38778627 4293530880
3.261399 0.78270203 -0.39631495 4293269760
3.3524473 0.80465561 -0.42259249 4293661440
3.3519151 0.80464554 -0.43722147 4293661440
3.3629739 0.8074162 -0.45292428 4293661440
3.3569822 0.8060959 -0.46583796 4293661440
3.3293746 0.79958707 -0.47508579 4293530880
3.3278718 0.79934227 -0.48742148 4293530880
3.3287685 0.7996732 -0.49955648 4293530880
3.3415568 0.80285919 -0.51296264 4293661440
3.336514 0.80176383 -0.52306795 4293661440
3.3426991 0.80336457 -0.53434515 4293661440
3.3464353 0.80437726 -0.5446493 4293661440
3.3441489 0.80394298 -0.55335146 4293661440
3.3271322 0.79996896 -0.55892539 4293661440
3.325413 0.79966968 -0.56638604 4293661440
3.3113298 0.7963984 -0.5710485 4293530880
3.297133 0.79309851 -0.57497424 4293530880
3.2934589 0.79232728 -0.58004075 4293530880
3.2768354 0.78844184 -0.5821169 4293400320
3.280889 0.78952742 -0.58718002 4293530880
3.2291436 0.77719247 -0.58149743 4293269760
3.2248044 0.77625734 -0.58363521 4293269760
3.2282364 0.77719122 -0.58650208 4293269760
3.232738 0.77838242 -0.58888519 4293269760
3.2277813 0.7772975 -0.58885568 4293269760
3.2788205 0.78968924 -0.59838223 4293530880
3.2788811 0.78981268 -0.59788811 4293530880
3.2948248 0.79375976 -0.59959459 4293530880
3.3026304 0.795748 -0.59910744 4293530880
3.3099568 0.79762113 -0.59782535 4293530880
3.3238733 0.8010816 -0.59702098 4293661440
3.3307407 0.80284476 -0.59423119 4293661440
3.3375747 0.8046 -0.59072727 4293661440
3.3441014 0.80628145 -0.58646351 4293661440
3.3398592 0.80536789 -0.57962435 4293661440
3.3322487 0.80364197 -0.57155204 4293661440
3.336832 0.80485451 -0.56492209 4293661440
3.3246264 0.80201977 -0.55481088 4293661440
3.3233609 0.80182165 -0.5459252 4293661440
3.3046119 0.79740721 -0.53358907 4293530880
3.3065295 0.7979756 -0.52403545 4293530880
3.3180766 0.80086648 -0.51537192 4293530880
3.344995 0.80746597 -0.50838965 4293661440
3.3321788 0.80448025 -0.494728 4293661440
3.309402 0.79909003 -0.4791514 4293530880
3.2865546 0.79368109 -0.46319506 4293400320
3.2954149 0.79592353 -0.45125327 4293400320
3.3188837 0.80169266 -0.44067928 4293530880
3.3206027 0.80221224 -0.42660898 4293530880
3.294744 0.79607284 -0.40861404 4293400320
3.2858627 0.79403144 -0.39243406 4293400320
3.309114 0.79975003 -0.37960336 4293530880
3.3299627 0.8048895 -0.36586562 4293530880
3.3334103 0.80582625 -0.34968624 4293530880
3.2832179 0.79380304 -0.32770714 4293400320
3.2935941 0.79641259 -0.3116464 4293400320
3.3082006 0.80004489 -0.29551673 4293400320
3.3114419 0.8009311 -0.27794972 4293400320
3.2742765 0.79204941 -0.25685513 4293269760
3.312742 0.80145055 -0.24144475 4293400320
3.3206546 0.80346626 -0.22327273 4293530880
3.3251526 0.80465662 -0.20455904 4293530880
3.3084774 0.80072623 -0.18438332 4293400320
3.3000154 0.79878139 -0.1646187 4293400320
3.3144581 0.8023771 -0.14579822 4293400320
3.310154 0.80143785 -0.12592904 4293400320
3.2827775 0.79491508 -0.10522611 4293269760
3.3168619 0.80326504 -0.086375758 4293400320
3.3338997 0.80749106 -0.066674449 4293530880
3.335675 0.80802327 -0.046477392 4293530880
3.3208003 0.80452466 -0.026072122 4293400320
3.3350174 0.80806923 -0.0058909957 4293530880
3.3397408 0.80931556 0.014430272 4293530880
3.3363411 0.80859488 0.034710009 4293530880
3.3481624 0.81156099 0.055149395 4293530880
3.3733857 0.81777453 0.075962931 4293661440
3.3809528 0.8197118 0.096501514 4293661440
3.315089 0.80385566 0.11452994 4293400320
3.3582351 0.81441432 0.13599437 4293530880
3.3737247 0.81827223 0.1565526 4293661440
3.3665028 0.81662554 0.17594624 4293661440
3.2399797 0.78605455 0.18820582 4293139200
3.3727722 0.81835365 0.21518578 4293661440
3.3830078 0.82094014 0.23500192 4293661440
3.3686316 0.81755805 0.25284076 4293661440
3.2400277 0.78646719 0.26110804 4293269760
3.3955474 0.82429677 0.29193392 4293792000
3.4006197 0.82563293 0.31046218 4293792000
3.395376 0.82446623 0.32770884 4293792000
3.3412111 0.81142658 0.33959469 4293530880
3.2048266 0.77842695 0.34183881 4293139200
3.3927953 0.8241576 0.37831458 4293792000
3.3839867 0.8221252 0.39342341 4293792000
3.3747418 0.81998646 0.40795422 4293661440
3.337575 0.81106651 0.41845796 4293530880
3.251286 0.79021358 0.42182037 4293269760
3.3866611 0.8232004 0.45350599 4293792000
3.4022119 0.82708544 0.4693391 4293792000
3.3852243 0.82306558 0.48016638 4293792000
3.382154 0.82242686 0.49233213 4293792000
3.3504815 0.81483674 0.49966499 4293661440
3.3586438 0.81692755 0.51225275 4293661440
3.3747797 0.82095754 0.52554077 4293792000
3.3885694 0.82441837 0.53795183 4293792000
3.3869741 0.82413924 0.54734564 4293792000
3.3743858 0.82118672 0.55429769 4293792000
3.3845961 0.82377905 0.56432712 4293792000
3.376178 0.8218407 0.57061225 4293792000
3.3780339 0.8224017 0.57794607 4293792000
3.3636088 0.81900144 0.58180714 4293792000
3.3545382 0.81690359 0.58586776 4293792000
3.3671317 0.82007843 0.59301406 4293792000
3.3494534 0.81588537 0.5941503 4293661440
3.3584282 0.81818038 0.59928548 4293792000
3.3531523 0.81700641 0.6011883 4293792000
3.3479919 0.81586045 0.60239685 4293661440
3.352519 0.81707394 0.6046316 4293792000
3.3428063 0.81481934 0.60359603 4293661440
3.3597379 0.81905562 0.60664028 4293792000
3.3598309 0.81919038 0.60594136 4293792000
3.3691401 0.82157147 0.60618097 4293792000
3.3732812 0.82269388 0.6047743 4293792000
3.375541 0.82335824 0.60231566 4293792000
3.3757179 0.82351524 0.5987767 4293792000
3.3724799 0.82283992 0.59393501 4293792000
3.368871 0.82207423 0.58834088 4293792000
3.375206 0.82373387 0.58378184 4293792000
3.3807755 0.82520747 0.57838666 4293792000
3.3759725 0.82415122 0.5705477 4293792000
3.3734109 0.8236419 0.56243628 4293792000
3.3479803 0.81755185 0.54994118 4293661440
3.3536627 0.81905395 0.54194397 4293661440
3.3641064 0.82171899 0.53403956 4293792000
3.3969398 0.82985103 0.52892685 4293792000
3.3808525 0.82604074 0.51557076 4293792000
3.3702273 0.82356352 0.50253755 4293792000
3.3332253 0.81551439 0.41122931 4293530880
3.3735337 0.82548863 0.40082839 4293661440
3.3803236 0.8272683 0.3857992 4293792000
3.3532097 0.82075554 0.36658645 4293661440
3.3359363 0.81664842 0.34824699 4293530880
3.3665442 0.8242557 0.33441556 4293661440
3.3683643 0.82482058 0.31720471 4293661440
3.3448932 0.81919575 0.29738808 4293530880
3.3174906 0.81260705 0.27716351 4293530880
3.3490973 0.82046312 0.26149783 4293530880
3.3555017 0.82215071 0.24338144 4293661440
3.3480971 0.8204571 0.22400789 4293530880
3.3366475 0.81777239 0.20422454 4293530880
3.3539882 0.8221395 0.18592453 4293530880
3.3610773 0.82399631 0.16671488 4293661440
3.3538158 0.82233733 0.14661831 4293530880
3.3138871 0.8126722 0.12522951 4293400320
3.336072 0.8182286 0.10611544 4293530880
3.3238235 0.81534564 0.085748628 4293530880
3.3160374 0.8135559 0.065518148 4293400320
3.3121502 0.81272173 0.04535814 4293400320
3.3123143 0.81288081 0.025220746 4293400320
3.3196559 0.81480044 0.0050568557 4293400320
3.2959492 0.80910397 -0.015046551 4293400320
3.3098903 0.81264275 -0.035271715 4293400320
3.3201895 0.8152889 -0.055569515 4293400320
3.3160822 0.81440002 -0.075600058 4293400320
3.2969193 0.80981523 -0.095061071 4293400320
3.3279107 0.81754184 -0.11596784 4293530880
3.3411596 0.82091421 -0.13639061 4293530880
3.3298111 0.81824714 -0.15566447 4293530880
3.3002419 0.811104 -0.17367126 4293400320
3.3194668 0.81594455 -0.19402564 4293530880
3.3226135 0.81683642 -0.21335495 4293530880
3.312928 0.81457525 -0.23158829 4293400320
3.3126922 0.81463563 -0.25018209 4293400320
3.3353643 0.82032627 -0.27037239 4293530880
3.335706 0.82052922 -0.28857628 4293530880
3.336633 0.82087588 -0.30652499 4293530880
3.2896969 0.80945331 -0.31947774 4293400320
3.3179104 0.81650865 -0.33931658 4293530880
3.3363271 0.82115614 -0.35801494 4293530880
3.3313966 0.82006139 -0.37387177 4293530880
3.3177154 0.81681323 -0.38824043 4293530880
3.2567341 0.80192482 -0.39627185 4293269760
3.3611443 0.82773542 -0.42425802 4293661440
3.3606052 0.82772106 -0.43894571 4293661440
3.3630953 0.82845217 -0.4535487 4293661440
3.3521783 0.82588226 -0.46579546 4293661440
3.3390353 0.82276326 -0.47711238 4293661440
3.3318429 0.82110858 -0.48866594 4293661440
3.338414 0.82284337 -0.50168902 4293661440
3.3454146 0.8246842 -0.51425618 4293661440
3.3403742 0.82355851 -0.52439016 4293661440
3.34163 0.82398373 -0.53490543 4293661440
3.3464363 0.82528383 -0.54539752 4293661440
3.3393576 0.82365447 -0.55331749 4293661440
3.3319461 0.82194239 -0.56050915 4293661440
3.3244781 0.82021552 -0.56701046 4293661440
3.3113704 0.81709719 -0.57184839 4293530880
3.2971911 0.81371343 -0.57578498 4293530880
3.2935202 0.81292039 -0.58086139 4293530880
3.2769184 0.80893683 -0.58294672 4293530880
3.2761817 0.80886626 -0.58715874 4293530880
3.2159033 0.79410279 -0.57992262 4293269760
3.2383418 0.79974896 -0.58691913 4293400320
3.2283816 0.79739958 -0.58735937 4293269760
3.228096 0.79743743 -0.58887297 4293269760
3.2231452 0.79632318 -0.58884579 4293269760
3.2836685 0.81137562 -0.60012585 4293530880
3.2693901 0.80795884 -0.59700829 4293400320
3.2939129 0.81412441 -0.60029072 4293530880
3.3026624 0.81639481 -0.59997827 4293530880
3.3099778 0.81831127 -0.59869528 4293661440
3.323874 0.82185394 -0.59788918 4293661440
3.3335171 0.82434618 -0.5955956 4293661440
3.3365986 0.82521707 -0.59141916 4293661440
3.3392885 0.82599097 -0.58647853 4293661440
3.3387611 0.82596946 -0.58028883 4293661440
3.332238 0.8244651 -0.57239759 4293661440
3.341604 0.82688928 -0.56657463 4293661440
3.3294184 0.82398361 -0.55644393 4293661440
3.3272822 0.82356262 -0.54739261 4293661440
3.3046439 0.81806928 -0.53440017 4293530880
3.3017631 0.81746262 -0.52407229 4293530880
3.3152089 0.82089549 -0.51571107 4293530880
3.3404605 0.82725072 -0.50847757 4293661440
3.3382297 0.82680506 -0.49639431 4293661440
3.3180842 0.82192427 -0.48115876 4293530880
3.2818124 0.81304955 -0.46324769 4293400320
3.29547 0.81653517 -0.45197132 4293530880
3.3140934 0.82125121 -0.44073886 4293530880
3.3254406 0.82416618 -0.42791572 4293530880
3.2957656 0.81692028 -0.40940011 4293400320
3.2767808 0.81232065 -0.39198148 4293400320
3.3142719 0.82171243 -0.38082188 4293530880
3.3251531 0.82451254 -0.36594102 4293530880
3.3320611 0.82632846 -0.35013059 4293530880
3.2784748 0.81315053 -0.32778734 4293400320
3.2892325 0.81591946 -0.31176749 4293400320
3.3130898 0.82193661 -0.29647332 4293530880
3.3114939 0.82164377 -0.2784481 4293530880
3.2792222 0.81374377 -0.25771156 4293400320
3.3127952 0.82217199 -0.24189518 4293530880
3.320698 0.82423484 -0.22369863 4293530880
3.3203468 0.82425046 -0.20465873 4293530880
3.3133869 0.82262629 -0.18503112 4293400320
3.2991233 0.81918925 -0.16491799 4293400320
3.3048193 0.82070464 -0.14568776 4293400320
3.3189478 0.82431328 -0.12656188 4293530880
3.2823992 0.81534314 -0.10547746 4293400320
3.3138111 0.8232426 -0.086533703 4293400320
3.3251998 0.82617241 -0.066708051 4293530880
3.32212 0.82550997 -0.04646549 4293530880
3.3111484 0.82288742 -0.02614701 4293400320
3.3301976 0.82772082 -0.0060086292 4293530880
3.3436484 0.83116478 0.014343929 4293530880
3.3276377 0.82728988 0.034552325 4293530880
3.3481758 0.83249557 0.055105664 4293530880
3.3662255 0.83708411 0.07579051 4293661440
3.3803749 0.8407045 0.096498996 4293661440
3.3363373 0.82986236 0.11529347 4293530880
3.3621101 0.83637232 0.13622028 4293661440
3.3724358 0.83904332 0.15659393 4293661440
3.3752074 0.83983666 0.17652525 4293661440
3.2401428 0.80635136 0.18836686 4293269760
3.3775849 0.84063667 0.21567662 4293661440
3.3732784 0.83967 0.23454684 4293661440
3.3753912 0.84030014 0.25358719 4293661440
3.2392161 0.80652225 0.26130342 4293269760
3.3954766 0.84550798 0.29222861 4293792000
3.4089479 0.8489663 0.31154698 4293792000
3.3991656 0.84663755 0.3284283 4293792000
3.3412116 0.83231646 0.33997127 4293530880
3.2098477 0.79971486 0.34275788 4293139200
3.387892 0.84414899 0.37820545 4293792000
3.3829529 0.84302521 0.39376342 4293792000
3.3795018 0.84227186 0.40901086 4293792000
3.3366034 0.83169234 0.41883934 4293661440
3.2562134 0.81176996 0.42297015 4293269760
3.3904247 0.84531307 0.45456633 4293792000
3.3934448 0.84617293 0.4687179 4293792000
3.3851347 0.84420949 0.48075742 4293792000
3.3724573 0.84115714 0.49155039 4293792000
3.340832 0.83338082 0.49887103 4293661440
3.3158956 0.82727039 0.50641572 4293530880
3.3794897 0.84323382 0.52695769 4293792000
3.3740733 0.84199148 0.53636503 4293792000
3.3820696 0.84409446 0.54728144 4293792000
3.3829138 0.84441406 0.55643582 4293792000
3.3816922 0.84421867 0.5646047 4293792000
3.3799036 0.84388196 0.57201499 4293792000
3.3779235 0.84349769 0.57871789 4293792000
3.3635163 0.84001207 0.58259302 4293792000
3.3582828 0.83881563 0.58733338 4293792000
3.3718112 0.84230286 0.59466529 4293792000
3.3541548 0.83800524 0.59581888 4293792000
3.3573771 0.8389203 0.59994835 4293792000
3.3568861 0.83890867 0.60271484 4293792000
3.3526864 0.83797085 0.60410607 4293792000
3.3524261 0.83801711 0.6054908 4293792000
3.3475039 0.83689898 0.6053229 4293792000
3.3596308 0.84004098 0.60751247 4293792000
3.3549435 0.83898205 0.60595894 4293792000
3.3642375 0.84141767 0.60620475 4293792000
3.3731503 0.84375894 0.60565919 4293792000
3.3744497 0.84419763 0.60303277 4293792000
3.3755813 0.84459484 0.59966546 4293792000
3.3838112 0.84676749 0.59683841 4293922560
3.3639603 0.84191769 0.58839631 4293792000
3.3752782 0.84486365 0.58470553 4293792000
3.3710589 0.84392345 0.57763851 4293792000
3.3721228 0.84430522 0.570804 4293792000
3.3684871 0.8435114 0.56251752 4293792000
3.3612952 0.84182745 0.55301064 4293792000
3.3583491 0.84120607 0.54358232 4293792000
3.3774095 0.84609419 0.53702414 4293792000
3.3871799 0.84865773 0.52828956 4293792000
3.375911 0.84595358 0.51568407 4293792000
3.3653002 0.84341377 0.5026567 4293792000
3.3331769 0.83636117 0.4118295 4293661440
3.3686099 0.84536529 0.40083769 4293661440
3.3850303 0.8496033 0.38690516 4293792000
3.3556347 0.84234923 0.36739427 4293661440
3.3310652 0.83630413 0.34825888 4293530880
3.3585351 0.84331572 0.33412287 4293661440
3.368274 0.84587955 0.31767127 4293661440
3.3264775 0.8355087 0.29620701 4293530880
3.3176892 0.83342135 0.27759853 4293530880
3.3467607 0.84083915 0.26171353 4293661440
3.3544676 0.84289426 0.24367867 4293661440
3.3528817 0.84261614 0.22467013 4293661440
3.3308766 0.83720928 0.20419109 4293530880
3.3552344 0.84344792 0.18628432 4293661440
3.3536 0.84315789 0.1666124 4293661440
3.3440654 0.84088254 0.14643347 4293530880
3.3323004 0.83804601 0.12612139 4293530880
3.3350687 0.83886182 0.10626339 4293530880
3.3188758 0.83491111 0.08577428 4293530880
3.3151615 0.83409679 0.065623425 4293400320
3.3037159 0.83133811 0.045341011 4293400320
3.3135767 0.83393723 0.025295015 4293400320
3.3186753 0.83533919 0.0050929212 4293530880
3.2911236 0.82852751 -0.015013372 4293400320
3.3050437 0.83214867 -0.035237338 4293400320
3.3104792 0.83363563 -0.055450086 4293400320
3.3213358 0.83648741 -0.075799942 4293530880
3.3017838 0.83168548 -0.095309064 4293400320
3.3181901 0.83593482 -0.11575771 4293530880
3.3362646 0.84060538 -0.13635117 4293530880
3.3346195 0.84031117 -0.15608296 4293530880
3.304122 0.8327499 -0.17409466 4293400320
3.3194427 0.83672804 -0.19427007 4293530880
3.317744 0.83641928 -0.21331285 4293530880
3.3129091 0.83532012 -0.23188685 4293530880
3.3126714 0.83537906 -0.25050721 4293530880
3.3353078 0.84120309 -0.27072343 4293530880
3.3395114 0.84238213 -0.28928989 4293530880
3.3361559 0.84165555 -0.306889 4293530880
3.2896993 0.8300606 -0.31990558 4293400320
3.321728 0.83825523 -0.3401657 4293530880
3.3413677 0.84332711 -0.35904256 4293661440
3.3351846 0.84188622 -0.37480626 4293661440
3.3176649 0.83758456 -0.38876292 4293530880
3.2101884 0.81058282 -0.39111897 4293139200
3.3622761 0.849078 -0.42498305 4293661440
3.3604825 0.84874409 -0.43953308 4293661440
3.3666916 0.85043013 -0.45466158 4293792000
3.3607087 0.84903818 -0.46763077 4293661440
3.3427613 0.84462452 -0.47830918 4293661440
3.3403878 0.84414238 -0.49060479 4293661440
3.3370595 0.84341872 -0.50218451 4293661440
3.3354177 0.84312057 -0.51343215 4293661440
3.3402593 0.84446007 -0.52510762 4293661440
3.3549216 0.84828115 -0.53779441 4293792000
3.351094 0.84743035 -0.54692894 4293792000
3.3430638 0.84551674 -0.55471647 4293661440
3.3346186 0.84349746 -0.56175524 4293661440
3.3195901 0.83981293 -0.56697941 4293661440
3.3103251 0.83758438 -0.57248223 4293661440
3.3018994 0.83556718 -0.57743335 4293530880
3.2972746 0.83451045 -0.58235854 4293530880
3.2720966 0.82825404 -0.58292323 4293530880
3.2809107 0.83059525 -0.58885562 4293530880
3.219763 0.8152349 -0.58145946 4293269760
3.2288003 0.81763083 -0.58603352 4293269760
3.2236276 0.81643069 -0.58734465 4293269760
3.223341 0.81646675 -0.58886051 4293269760
3.2231688 0.81653136 -0.58971107 4293269760
3.2788296 0.83073211 -0.6001181 4293530880
3.2645714 0.82723105 -0.59700316 4293400320
3.289057 0.83354092 -0.60028821 4293530880
3.2882466 0.83344489 -0.59823751 4293530880
3.3103402 0.83915067 -0.5996505 4293661440
3.3237445 0.84265614 -0.59875715 4293661440
3.328598 0.84399545 -0.59560436 4293661440
3.3364503 0.84609473 -0.59228092 4293661440
3.3343587 0.84567392 -0.58649331 4293661440
3.342433 0.84782958 -0.58180779 4293661440
3.3368771 0.8465299 -0.57406759 4293661440
3.3354232 0.84626973 -0.56638694 4293661440
3.3318648 0.84547549 -0.55770737 4293661440
3.322365 0.84317392 -0.54742306 4293661440
3.309334 0.83997577 -0.53598881 4293530880
3.3064609 0.83935332 -0.52563614 4293530880
3.3237236 0.84383923 -0.5178476 4293661440
3.3355198 0.84693891 -0.50852114 4293661440
3.3332913 0.84647995 -0.49644113 4293661440
3.3275709 0.8451342 -0.48330617 4293661440
3.2901886 0.83575082 -0.46517727 4293530880
3.3012793 0.83867085 -0.45350036 4293530880
3.3109145 0.84122181 -0.44102913 4293530880
3.3174367 0.84298259 -0.42758 4293530880
3.2956965 0.8375659 -0.4100664 4293530880
3.2854059 0.83505583 -0.3936711 4293400320
3.3093631 0.84124488 -0.38089383 4293530880
3.3154092 0.84288478 -0.36548269 4293530880
3.3188431 0.84386116 -0.34933317 4293530880
3.2687943 0.83124614 -0.32738185 4293400320
3.2988348 0.83898318 -0.31323245 4293400320
3.3056271 0.8408125 -0.29632962 4293530880
3.3104498 0.84214145 -0.27886474 4293530880
3.2791939 0.83429748 -0.25818539 4293400320
3.3078852 0.84169489 -0.24198958 4293530880
3.3157759 0.84380424 -0.22379574 4293530880
3.3193703 0.8448211 -0.20500393 4293530880
3.3220084 0.84559488 -0.18589713 4293530880
3.3087523 0.84232527 -0.16575642 4293400320
3.3096025 0.8426438 -0.14622629 4293400320
3.3183281 0.84496635 -0.12683652 4293530880
3.2872198 0.83715177 -0.10590344 4293400320
3.3150034 0.84432489 -0.086808249 4293530880
3.3263977 0.84732765 -0.066948064 4293530880
3.3356063 0.84977454 -0.046848986 4293530880
3.3124526 0.84398198 -0.026315466 4293400320
3.3388281 0.85080063 -0.0061587691 4293530880
3.3435378 0.85210294 0.014242849 4293530880
3.3227055 0.84689975 0.034433041 4293530880
3.3480577 0.85346049 0.055061776 4293530880
3.3732066 0.85997099 0.075931042 4293661440
3.375365 0.86062497 0.096376032 4293661440
3.3313928 0.84952348 0.11517184 4293530880
3.361969 0.85741919 0.136291 4293661440
3.3761506 0.86113787 0.15687059 4293661440
3.371588 0.86007911 0.17647392 4293661440
3.2392111 0.8264327 0.18847205 4293269760
3.3764484 0.8615272 0.21579958 4293661440
3.377948 0.86201423 0.23509279 4293661440
3.365557 0.85895872 0.25310656 4293661440
3.2440765 0.82807571 0.26196304 4293269760
3.3943076 0.86650264 0.29244053 4293792000
3.4038961 0.86905485 0.31142953 4293792000
3.3941281 0.86666846 0.32831284 4293792000
3.3362598 0.85200608 0.3398596 4293530880
3.1954517 0.81617075 0.34162855 4293139200
3.3973207 0.86780214 0.37970233 4293792000
3.3779383 0.8629604 0.393657 4293792000
3.3744919 0.86218667 0.40890709 4293792000
3.3364658 0.85258251 0.41934094 4293661440
3.2609987 0.83341384 0.4241195 4293400320
3.3902013 0.86651903 0.45511287 4293792000
3.3970554 0.86837739 0.46981558 4293792000
3.3801134 0.86415684 0.48066902 4293792000
3.3904798 0.86691332 0.49481115 4293792000
3.3406694 0.85429227 0.49950483 4293661440
3.3196008 0.84901428 0.50765365 4293661440
3.3792634 0.86437172 0.52762967 4293792000
3.3781626 0.86419892 0.53773892 4293792000
3.3866193 0.86647004 0.54876196 4293922560
3.3740616 0.86336833 0.55574852 4293792000
3.3814502 0.86536723 0.5653463 4293792000
3.3748806 0.86379671 0.57196516 4293792000
3.3729022 0.86340058 0.57867306 4293792000
3.3718922 0.86325228 0.58486462 4293792000
3.3580642 0.85982442 0.58813238 4293792000
3.3620195 0.86094695 0.59379625 4293792000
3.3708532 0.86331856 0.59963906 4293792000
3.357152 0.85992271 0.60078144 4293792000
3.3518872 0.85868603 0.60270274 4293792000
3.3429201 0.8565014 0.60324198 4293792000
3.3512478 0.85874522 0.60617822 4293792000
3.3472853 0.85784233 0.60618919 4293792000
3.3775234 0.86569977 0.61165583 4293922560
3.3642533 0.8624137 0.60855603 4293792000
3.3725784 0.86465997 0.60863066 4293792000
3.3776598 0.86607593 0.60739923 4293922560
3.369411 0.86407638 0.60306937 4293792000
3.3705392 0.86447996 0.59970838 4293792000
3.3787553 0.86670083 0.59688789 4293922560
3.3684833 0.86418271 0.59011865 4293792000
3.3797853 0.86719602 0.58641881 4293922560
3.3754988 0.86621273 0.57932794 4293792000
3.3804607 0.86760157 0.57313901 4293792000
3.3643277 0.86357975 0.56274581 4293792000
3.3610466 0.8628543 0.55388325 4293792000
3.36289 0.86344391 0.54522133 4293792000
3.3723507 0.86598855 0.53712499 4293792000
3.3907251 0.87082195 0.52973801 4293922560
3.3722034 0.86618596 0.51600343 4293792000
3.3698421 0.8656978 0.50420398 4293792000
3.3374393 0.85790074 0.41296223 4293661440
3.3733072 0.86723441 0.40198573 4293792000
3.3800809 0.86909485 0.38691193 4293792000
3.3520863 0.86202103 0.36754817 4293661440
3.334866 0.85771465 0.34916615 4293661440
3.3518901 0.86221004 0.3339552 4293661440
3.3607912 0.86461842 0.31743431 4293661440
3.3302951 0.85689729 0.29697764 4293530880
3.3176613 0.85376781 0.27800056 4293530880
3.3431718 0.86044842 0.26181471 4293661440
3.3456933 0.86121726 0.24339825 4293661440
3.3480933 0.86195517 0.22467525 4293661440
3.3356678 0.85887861 0.20477469 4293530880
3.3599923 0.86525869 0.18681096 4293661440
3.3535254 0.86371553 0.16684373 4293661440
3.3427856 0.86107194 0.14658237 4293530880
3.3225799 0.85599071 0.1259321 4293530880
3.3324625 0.85865557 0.10632482 4293530880
3.320786 0.8557691 0.085934468 4293530880
3.3054762 0.85194606 0.065518327 4293400320
3.3182395 0.85535353 0.045582432 4293530880
3.3184023 0.8555156 0.025348859 4293530880
3.3283346 0.85819507 0.0050911768 4293530880
3.2954948 0.84985256 -0.015077341 4293400320
3.3085129 0.85332721 -0.035348654 4293400320
3.3104634 0.85394984 -0.055552844 4293400320
3.3300154 0.85911059 -0.076137163 4293530880
3.3133962 0.85494578 -0.095814727 4293530880
3.3268678 0.85853988 -0.11626023 4293530880
3.3400743 0.86206657 -0.13673499 4293530880
3.3269057 0.85879028 -0.15597282 4293530880
3.2857313 0.84828752 -0.17339692 4293400320
3.3097332 0.85459954 -0.19400896 4293530880
3.3196306 0.85727322 -0.2137772 4293530880
3.3084221 0.85449988 -0.23193969 4293530880
3.3090591 0.85478354 -0.25062943 4293530880
3.3326783 0.8610006 -0.27093643 4293530880
3.3403063 0.86309004 -0.28981513 4293661440
3.3351073 0.86186737 -0.30727395 4293530880
3.2689848 0.84490848 -0.31837875 4293400320
3.3233898 0.85907954 -0.34086841 4293530880
3.3426244 0.86416787 -0.35973796 4293661440
3.3355713 0.86246479 -0.37543273 4293661440
3.3253844 0.85995114 -0.39027575 4293530880
3.2102697 0.83031648 -0.39173448 4293139200
3.3656847 0.87060541 -0.42607263 4293792000
3.3641777 0.87033528 -0.44069648 4293792000
3.3713324 0.87230444 -0.45599094 4293792000
3.3557584 0.86839616 -0.46765664 4293661440
3.3512614 0.86735141 -0.48026431 4293661440
3.3436983 0.86551309 -0.49184373 4293661440
3.3359737 0.8636322 -0.50278711 4293661440
3.3439064 0.86580175 -0.51552713 4293661440
3.3487337 0.86716801 -0.52724439 4293792000
3.3499758 0.86760646 -0.53781456 4293792000
3.341373 0.86549628 -0.54616421 4293661440
3.3429132 0.8660112 -0.55553019 4293661440
3.3316956 0.8632226 -0.56210846 4293661440
3.3194697 0.86017185 -0.56781262 4293661440
3.3102162 0.85788983 -0.57332361 4293661440
3.301801 0.85582399 -0.578282 4293530880
3.2876403 0.85226887 -0.58152157 4293530880
3.2672696 0.84710354 -0.58293021 4293530880
3.2760701 0.84949559 -0.58886057 4293530880
3.2197797 0.83501887 -0.58232665 4293269760
3.2288027 0.8374669 -0.58690274 4293400320
3.2188706 0.83500159 -0.5873431 4293269760
3.2281153 0.83750713 -0.59060472 4293400320
3.2231774 0.83633548 -0.59058011 4293269760
3.282568 0.8518455 -0.60168529 4293530880
3.2692838 0.84850997 -0.59874141 4293530880
3.2842026 0.85248905 -0.60027409 4293530880
3.2929251 0.85486132 -0.59996164 4293530880
3.314517 0.86057299 -0.6012789 4293661440
3.3188386 0.86180425 -0.5987345 4293661440
3.3284531 0.86440903 -0.59643525 4293661440
3.3315253 0.86531615 -0.59225225 4293661440
3.3342071 0.86612171 -0.58730406 4293661440
3.3327272 0.86584669 -0.58093905 4293661440
3.3439693 0.86887473 -0.57610559 4293792000
3.335274 0.8667255 -0.56715995 4293661440
3.3412757 0.86839265 -0.56007165 4293661440
3.3308394 0.86579007 -0.54958951 4293661440
3.3083467 0.86005431 -0.53657269 4293661440
3.3097074 0.86051452 -0.52688044 4293661440
3.3216894 0.86373454 -0.51824033 4293661440
3.3532829 0.87205184 -0.51193488 4293792000
3.3405321 0.86884493 -0.49819705 4293661440
3.3360727 0.86779237 -0.48519683 4293661440
3.2901225 0.85595244 -0.4657889 4293530880
3.3002398 0.85868758 -0.4539572 4293530880
3.3120708 0.86186892 -0.44176248 4293530880
3.3272288 0.86591595 -0.42940378 4293661440
3.2871025 0.85558385 -0.40951848 4293530880
3.2901633 0.8564837 -0.3947441 4293530880
3.3092806 0.861561 -0.38136163 4293530880
3.3249421 0.86574012 -0.36699098 4293530880
3.3187501 0.86423302 -0.34974784 4293530880
3.2687767 0.85133052 -0.32777074 4293400320
3.2891378 0.85673267 -0.31267178 4293400320
3.305558 0.86110991 -0.2966615 4293530880
3.3064332 0.86144078 -0.27883339 4293530880
3.2695172 0.85193115 -0.25769493 4293400320
3.307816 0.8620066 -0.24223433 4293530880
3.3195584 0.86516768 -0.22427347 4293530880
3.3192856 0.86519957 -0.20518859 4293530880
3.3122575 0.86347151 -0.18550515 4293530880
3.3073206 0.86228776 -0.16581167 4293530880
3.3279018 0.86775309 -0.14714201 4293530880
3.3236217 0.86674052 -0.12710764 4293530880
3.2915339 0.85847998 -0.106079 4293400320
3.3136663 0.86435086 -0.086775556 4293530880
3.3214648 0.86648619 -0.066817656 4293530880
3.3230023 0.86698961 -0.046605095 4293530880
3.316246 0.86533034 -0.026256697 4293530880
3.3313138 0.86936224 -0.0060178069 4293530880
3.3443041 0.87285322 0.014400391 4293530880
3.3313174 0.86956871 0.034702528 4293530880
3.3566298 0.87627518 0.05541556 4293661440
3.3633578 0.87813425 0.07596419 4293661440
3.375726 0.88146555 0.096667022 4293661440
3.3091824 0.86420345 0.11472242 4293530880
3.3618042 0.87804049 0.13662456 4293661440
3.3675537 0.87964529 0.15684669 4293661440
3.3748553 0.88165575 0.17704357 4293661440
3.2392209 0.84634596 0.18888487 4293269760
3.3785214 0.88282228 0.21638922 4293661440
3.3742805 0.88181961 0.23532552 4293661440
3.3730779 0.88161033 0.25418043 4293661440
3.2440672 0.84801435 0.26248133 4293269760
3.3940713 0.88730502 0.29298961 4293792000
3.3988235 0.88865256 0.31156433 4293792000
3.3890688 0.88620967 0.32844558 4293792000
3.3447661 0.8747372 0.34135541 4293661440
3.2051227 0.83834177 0.3432864 4293139200
3.3922539 0.88736099 0.37982908 4293792000
3.3921282 0.88743478 0.39601317 4293792000
3.3742619 0.88287008 0.40960819 4293792000
3.3410916 0.87430233 0.42066073 4293661440
3.2599716 0.85319197 0.42472857 4293400320
3.3908145 0.88751996 0.45598477 4293792000
3.3924654 0.8880595 0.46999151 4293922560
3.3884857 0.88712633 0.48267722 4293792000
3.3806276 0.88517827 0.49421638 4293792000
3.353874 0.87828499 0.50231445 4293792000
3.3337848 0.87313461 0.51066524 4293661440
3.3828266 0.88607901 0.52906048 4293792000
3.3826795 0.88614953 0.53934282 4293922560
3.3815615 0.88596612 0.5488435 4293922560
3.3776209 0.8850438 0.55723792 4293792000
3.3802202 0.88583416 0.56605548 4293922560
3.3698401 0.88322544 0.57203221 4293792000
3.3859978 0.88756812 0.58183873 4293922560
3.3763971 0.88516366 0.58657247 4293922560
3.353049 0.87915683 0.58818382 4293792000
3.3617666 0.88155174 0.59468246 4293792000
3.3479753 0.87804818 0.59651279 4293792000
3.361671 0.88174903 0.60251826 4293792000
3.3516476 0.879233 0.60358679 4293792000
3.3512704 0.8792457 0.60566729 4293792000
3.3462443 0.87803972 0.60619575 4293792000
3.3460996 0.87811387 0.60688943 4293792000
3.3591421 0.88164705 0.6092512 4293792000
3.3592317 0.88178378 0.60855544 4293792000
3.3675449 0.88407826 0.60862386 4293792000
3.3726189 0.88552374 0.60738617 4293922560
3.3739142 0.88597828 0.60475188 4293922560
3.3702765 0.88513839 0.60052872 4293792000
3.373714 0.8861559 0.5968557 4293922560
3.372041 0.88583231 0.59158003 4293792000
3.3793037 0.88785505 0.58716303 4293922560
3.3704631 0.88564992 0.57927644 4293792000
3.3620548 0.88355803 0.57082123 4293792000
3.3726768 0.88646448 0.56491154 4293792000
3.3560331 0.88220924 0.55381268 4293792000
3.3518915 0.88123792 0.54417717 4293792000
3.3673205 0.88540912 0.53704143 4293792000
3.3904493 0.8916052 0.53039247 4293922560
3.3757846 0.88786954 0.5172208 4293792000
3.383003 0.88988566 0.50681418 4293792000
3.3276417 0.87585282 0.41237888 4293661440
3.3817079 0.89019442 0.40359017 4293792000
3.3811243 0.89016163 0.38761479 4293792000
3.3518751 0.88258612 0.36807907 4293661440
3.3296607 0.87685996 0.34914914 4293661440
3.3620763 0.88551152 0.33546689 4293661440
3.3644242 0.8862505 0.31825173 4293661440
3.3349407 0.87860912 0.29783392 4293661440
3.31269 0.87287033 0.27800134 4293530880
3.3429832 0.88096768 0.26218954 4293661440
3.3564517 0.88463581 0.24453619 4293661440
3.3478994 0.88250434 0.2249939 4293661440
3.331557 0.87831986 0.20482503 4293530880
3.3597822 0.88587785 0.18707182 4293661440
3.3581553 0.88557088 0.16731292 4293661440
3.346467 0.88261205 0.14695156 4293661440
3.3224275 0.8763966 0.12610401 4293530880
3.3322952 0.8791188 0.10646655 4293530880
3.3341696 0.8797341 0.086388618 4293530880
3.3053493 0.87225503 0.065599345 4293400320
3.3132586 0.87446135 0.045569144 4293530880
3.3221226 0.87692004 0.02539595 4293530880
3.3281717 0.87863678 0.0050802124 4293530880
3.2857113 0.86755431 -0.015068918 4293400320
3.3170793 0.87595171 -0.035518851 4293530880
3.3141911 0.87531006 -0.055722672 4293530880
3.3298452 0.87956285 -0.076270312 4293530880
3.2997186 0.87173033 -0.095578589 4293400320
3.3266988 0.8789742 -0.1164536 4293530880
3.3398836 0.88257688 -0.13695821 4293530880
3.3354249 0.88152057 -0.15663831 4293530880
3.2991354 0.87205571 -0.17440026 4293400320
3.3144073 0.87621003 -0.19460538 4293530880
3.3049874 0.87384123 -0.21317501 4293530880
3.3082666 0.87482744 -0.2323066 4293530880
3.307936 0.87485975 -0.25095025 4293530880
3.3411548 0.88376009 -0.27206886 4293661440
3.3439476 0.88461912 -0.29060024 4293661440
3.3281474 0.88056207 -0.30712166 4293530880
3.2736862 0.86628026 -0.31934968 4293400320
3.3282936 0.8808403 -0.34191906 4293530880
3.3462422 0.8857075 -0.3607029 4293661440
3.3401554 0.88421726 -0.37654856 4293661440
3.3203728 0.87910277 -0.39030331 4293530880
3.2188706 0.85236222 -0.39341018 4293269760
3.3740437 0.89354426 -0.42780951 4293792000
3.377037 0.8944568 -0.44308448 4293792000
3.3662486 0.89172095 -0.45601737 4293792000
3.3641088 0.89127398 -0.46956053 4293792000
3.3423765 0.88563854 -0.47973779 4293661440
3.3386538 0.88477087 -0.49186787 4293661440
3.3387866 0.88492382 -0.50399828 4293661440
3.3436403 0.88632721 -0.51628959 4293661440
3.3432875 0.88635117 -0.5272035 4293661440
3.3496952 0.88816625 -0.53860456 4293792000
3.3411024 0.88600624 -0.54696643 4293792000
3.3330951 0.88400054 -0.55475116 4293661440
3.3380289 0.88542432 -0.56404942 4293792000
3.323993 0.88181913 -0.56946456 4293661440
3.3004513 0.87569225 -0.57250714 4293661440
3.2920499 0.87357831 -0.57745469 4293530880
3.2969646 0.87499517 -0.58406812 4293661440
3.2804303 0.87072271 -0.58617854 4293530880
3.2796912 0.87063909 -0.5904119 4293530880
3.2291958 0.85735381 -0.58492237 4293400320
3.2191656 0.85480225 -0.58603472 4293269760
3.2320905 0.85834181 -0.59065413 4293400320
