# .PCD v0.7 - Point Cloud Data file format
VERSION 0.7
FIELDS x y z rgba
SIZE 4 4 4 4
TYPE F F F U
COUNT 1 1 1 1
WIDTH 1102
HEIGHT 1
VIEWPOINT 0 0 0 1 0 0 0
POINTS 1102
DATA ascii
1.5822885 -1.9075576 0.099732816 4290266880
1.5627896 -1.8839297 0.11255135 4290136320
1.4453808 -1.7422831 0.11697401 4289614080
1.4071009 -1.6960316 0.12628874 4289352960
1.5841975 -1.9093708 0.1560026 4290266880
1.5795071 -1.9035958 0.16914852 4290266880
1.5047386 -1.81337 0.17392834 4289875200
1.4357846 -1.7301625 0.17797643 4289483520
1.600394 -1.9283985 0.21155864 4290397440
1.5892049 -1.9147938 0.22293313 4290397440
1.5720938 -1.894056 0.233004 4290266880
1.5410881 -1.8565816 0.2403806 4290136320
1.4479963 -1.7443203 0.23685786 4289614080
1.5968945 -1.9235668 0.27305183 4290397440
1.5751779 -1.8972864 0.28071448 4290266880
1.5564251 -1.8745791 0.28830245 4290266880
1.5197287 -1.8302643 0.29186127 4290005760
1.4782079 -1.7801456 0.29364097 4289744640
1.5721624 -1.8931701 0.32232592 4290266880
1.5048856 -1.8120408 0.31777599 4290005760
1.5320255 -1.8446021 0.33254975 4290136320
1.4874432 -1.7908094 0.33128491 4289875200
1.4867741 -1.7898893 0.33916685 4289875200
1.4981328 -1.8034486 0.34945959 4289875200
1.3522006 -1.6276718 0.32200879 4289091840
1.360495 -1.6375511 0.33024198 4289222400
1.3599714 -1.6368164 0.3359904 4289222400
1.3626323 -1.6399142 0.34214628 4289222400
1.3653228 -1.6430471 0.34793475 4289222400
1.3068267 -1.5725516 0.3375358 4288961280
1.3550423 -1.6304669 0.35425732 4289222400
1.3370423 -1.6087055 0.35335645 4289091840
1.3216109 -1.5900372 0.35263258 4288961280
1.3118968 -1.5782491 0.35296223 4288961280
1.3028578 -1.5672748 0.35302258 4288961280
1.3026813 -1.5669624 0.3550542 4288961280
1.293103 -1.5553414 0.35409552 4288830720
1.2930157 -1.555137 0.3553091 4288830720
1.2961218 -1.5587733 0.35698605 4288830720
1.3024217 -1.5662496 0.35912848 4288961280
1.3081381 -1.5730234 0.36069125 4288961280
1.3176796 -1.5843959 0.36288303 4288961280
1.3360865 -1.6064259 0.36707607 4289091840
1.3387972 -1.6095821 0.36651239 4289091840
1.3516346 -1.6249123 0.36827305 4289222400
1.3670431 -1.6433311 0.37026224 4289222400
1.3642249 -1.6398386 0.36686301 4289222400
1.3646011 -1.6401858 0.36389953 4289222400
1.3587128 -1.633004 0.35885593 4289222400
1.356015 -1.6296575 0.35426044 4289222400
1.4305763 -1.7191553 0.36920938 4289614080
1.4462878 -1.7379252 0.36825165 4289614080
1.4093953 -1.6934854 0.35355839 4289483520
1.5018668 -1.8044809 0.37067336 4290005760
1.5177307 -1.8234247 0.36801085 4290005760
1.5032796 -1.8059474 0.35757288 4290005760
1.580941 -1.8991238 0.36832252 4290397440
1.5922374 -1.9125714 0.36275211 4290397440
1.5784366 -1.8952125 0.29775256 4290266880
1.5874777 -1.9059461 0.2884866 4290397440
1.5851703 -1.9030544 0.27679047 4290397440
1.5810382 -1.8979725 0.26451451 4290266880
1.5723315 -1.8873998 0.25127533 4290266880
1.5610492 -1.873737 0.23749846 4290136320
1.570032 -1.8843987 0.22655909 4290266880
1.509385 -1.8114927 0.20573749 4289875200
1.4703047 -1.7644776 0.18843335 4289744640
1.5633348 -1.876001 0.18740189 4290136320
1.5782056 -1.8937249 0.17590088 4290266880
1.5646566 -1.8773474 0.16103156 4290136320
1.5570507 -1.8681021 0.14678071 4290136320
1.4552194 -1.7458163 0.12444559 4289614080
1.3678451 -1.6408893 0.10487642 4289091840
1.3463157 -1.6149591 0.091207802 4289091840
1.3308338 -1.5962859 0.078182474 4288961280
1.3407025 -1.6080204 0.066612616 4288961280
1.3299186 -1.5949845 0.053954419 4288961280
1.3173425 -1.5798008 0.041379631 4288830720
1.3240792 -1.5877783 0.029421005 4288961280
1.3267049 -1.5908253 0.017254105 4288961280
1.3235946 -1.5869944 0.0049994332 4288961280
1.3112524 -1.5720956 -0.0071519376 4288830720
1.3115995 -1.5724115 -0.019253166 4288830720
1.3182729 -1.5803111 -0.031490244 4288830720
1.3236022 -1.5865983 -0.043770719 4288961280
1.3202916 -1.5825288 -0.055735987 4288830720
1.3298361 -1.5938672 -0.068239391 4288961280
1.3419683 -1.6083055 -0.08099746 4288961280
1.3408964 -1.6069182 -0.092970088 4288961280
1.3214209 -1.5834779 -0.10338207 4288961280
1.3322701 -1.5963767 -0.11597572 4288961280
1.3360447 -1.6007972 -0.12795509 4288961280
1.3458214 -1.6124083 -0.14048623 4289091840
1.3276299 -1.5905118 -0.14987327 4288961280
1.3443593 -1.6104509 -0.1630232 4289091840
1.3517337 -1.6191815 -0.17506014 4289091840
1.3576515 -1.6261663 -0.18682402 4289091840
1.3444916 -1.6103009 -0.19569947 4289091840
1.3400813 -1.6049161 -0.20549268 4288961280
1.348405 -1.6147817 -0.21703942 4289091840
1.3486145 -1.6149294 -0.22710344 4289091840
1.3521495 -1.6190592 -0.23750117 4289091840
1.3263861 -1.5881088 -0.24233092 4288961280
1.3426849 -1.6075209 -0.25450349 4289091840
1.3573049 -1.624921 -0.26628017 4289091840
1.3665692 -1.6359073 -0.27686229 4289222400
1.3613448 -1.6295493 -0.28422311 4289222400
1.3555379 -1.6224947 -0.29107317 4289091840
1.3351216 -1.5979557 -0.29430434 4288961280
1.3335629 -1.595988 -0.30123189 4288961280
1.3424895 -1.6065687 -0.31022167 4289091840
1.3450874 -1.609575 -0.31745288 4289091840
1.3468857 -1.6116239 -0.32415199 4289091840
1.3483224 -1.6132401 -0.3304058 4289091840
1.3410608 -1.6044493 -0.33412352 4289091840
1.3412577 -1.6045823 -0.33928433 4289091840
1.3413579 -1.6046 -0.34402895 4289091840
1.3424228 -1.6057712 -0.34862557 4289091840
1.3357847 -1.5977288 -0.35080063 4289091840
1.3357145 -1.5975429 -0.35427272 4289091840
1.3253934 -1.5850976 -0.35458907 4288961280
1.3229419 -1.5820645 -0.35656828 4288961280
1.3195904 -1.577956 -0.35787791 4288961280
1.3226033 -1.5814579 -0.3604936 4288961280
1.325029 -1.5842571 -0.36253402 4288961280
1.3224454 -1.5810671 -0.36278009 4288961280
1.3224357 -1.5809546 -0.36330551 4288961280
1.327848 -1.5873234 -0.36489534 4288961280
1.3279319 -1.5873225 -0.36459395 4288961280
1.334941 -1.5955988 -0.36576292 4289091840
1.3317093 -1.5916345 -0.36369672 4289091840
1.3476899 -1.6106315 -0.36643565 4289091840
1.342985 -1.6049061 -0.36310968 4289091840
1.3431218 -1.6049671 -0.36067563 4289091840
1.3415555 -1.6029931 -0.35736662 4289091840
1.3499769 -1.6129528 -0.35628444 4289091840
1.3438022 -1.6054728 -0.35093194 4289091840
1.3402598 -1.6011384 -0.34588721 4289091840
1.3334275 -1.5928745 -0.3396264 4289091840
1.3381535 -1.598418 -0.33592221 4289091840
1.330175 -1.5887865 -0.32865515 4288961280
1.326157 -1.583886 -0.3220365 4288961280
1.3277327 -1.5856668 -0.316416 4288961280
1.3396231 -1.5997649 -0.31282666 4289091840
1.3544327 -1.6173472 -0.30942923 4289091840
1.3441818 -1.605004 -0.29993317 4289091840
1.3317996 -1.5901178 -0.28974396 4288961280
1.3245122 -1.581316 -0.28044593 4288961280
1.3336023 -1.592067 -0.2742857 4288961280
1.3428088 -1.6029555 -0.26772696 4289091840
1.3488806 -1.6101007 -0.26014459 4289091840
1.3274488 -1.5844173 -0.24707098 4288961280
1.3339252 -1.5920459 -0.23901494 4288961280
1.3500975 -1.6112448 -0.23226935 4289091840
1.3465105 -1.6068615 -0.22177705 4289091840
1.3439398 -1.6036913 -0.21125205 4288961280
1.3169018 -1.5713272 -0.19687492 4288830720
1.3401012 -1.5989069 -0.18981706 4288961280
1.3414301 -1.6003901 -0.17925996 4288961280
1.3352741 -1.5929441 -0.16754587 4288961280
1.3201445 -1.5747944 -0.15469846 4288830720
1.3425651 -1.6014376 -0.14601941 4288961280
1.3437825 -1.6027875 -0.13467641 4288961280
1.3415488 -1.6000212 -0.12285049 4288961280
1.3232629 -1.5781115 -0.10960105 4288830720
1.3316852 -1.5880545 -0.098531097 4288961280
1.3332721 -1.5898455 -0.086760834 4288961280
1.3294706 -1.5852113 -0.074566863 4288961280
1.3178412 -1.5712445 -0.061993439 4288830720
1.3278275 -1.58305 -0.050385125 4288961280
1.293686 -1.5422479 -0.037269961 4288700160
1.2496083 -1.4896061 -0.024545198 4288439040
1.303616 -1.5538874 -0.013629319 4288830720
1.3431638 -1.6009257 -0.0016885262 4288961280
1.3495744 -1.6084638 0.010717545 4288961280
1.3119694 -1.5635452 0.022474989 4288830720
1.3750409 -1.6386063 0.036164772 4289091840
1.4006915 -1.6690671 0.049643248 4289222400
1.4842653 -1.7685411 0.066115275 4289744640
1.4394318 -1.7150112 0.077149875 4289483520
1.4739537 -1.7560306 0.092257954 4289614080
1.5198871 -1.8106388 0.10869994 4289875200
1.4700428 -1.7511476 0.11814219 4289614080
1.4364464 -1.7110176 0.12802564 4289483520
1.5064716 -1.7943134 0.14731662 4289875200
1.5489687 -1.8448129 0.16472434 4290136320
1.5460608 -1.8412321 0.17746167 4290005760
1.4887922 -1.7729167 0.1832636 4289744640
1.5904341 -1.8938353 0.20877987 4290266880
1.5652002 -1.8636688 0.21803884 4290136320
1.5467998 -1.8416421 0.22766094 4290136320
1.5081266 -1.7954828 0.23360354 4289875200
1.4856421 -1.7686013 0.24132618 4289744640
1.6038784 -1.9092352 0.27233931 4290397440
1.6015439 -1.9063349 0.28342903 4290397440
1.5279074 -1.8185685 0.28105262 4290005760
1.5482445 -1.8426569 0.29527086 4290136320
1.5070621 -1.7935288 0.29729193 4289875200
1.5529433 -1.8480135 0.31617278 4290136320
1.5281692 -1.818416 0.32044998 4290005760
1.5484821 -1.8424695 0.3337861 4290136320
1.4914817 -1.774534 0.32987604 4289875200
1.5035442 -1.7887717 0.34060922 4289875200
1.5117968 -1.7984751 0.35019672 4290005760
1.3705671 -1.6303605 0.32411495 4289222400
1.3579304 -1.6152253 0.32732958 4289091840
1.3694848 -1.6288651 0.3359904 4289222400
1.3689865 -1.6281687 0.34135407 4289222400
1.3805892 -1.6418633 0.34938151 4289222400
1.3649132 -1.6231171 0.35009027 4289222400
1.352457 -1.608202 0.35112584 4289091840
1.3368723 -1.589569 0.35085797 4289091840
1.3213347 -1.5709941 0.35011071 4288961280
1.3153602 -1.563791 0.35143676 4288961280
1.3087956 -1.5558873 0.35216922 4288830720
1.299739 -1.5450225 0.35179278 4288830720
1.3021427 -1.5477811 0.35409552 4288830720
1.299518 -1.5445627 0.35461697 4288830720
1.2931343 -1.5368773 0.35369095 4288830720
1.3020139 -1.5473318 0.35652411 4288830720
1.3115739 -1.5585936 0.35912862 4288961280
1.3173763 -1.5653892 0.36028162 4288961280
1.3327391 -1.5835433 0.36361545 4288961280
1.3513237 -1.6055228 0.3673746 4289091840
1.3610787 -1.6170098 0.36827305 4289222400
1.3639035 -1.6202623 0.3668488 4289222400
1.3737558 -1.6318624 0.36686301 4289222400
1.3709596 -1.628437 0.36305889 4289222400
1.359313 -1.6145002 0.35652399 4289091840
1.3534164 -1.6073941 0.35112897 4289091840
1.431671 -1.7002252 0.36692908 4289483520
1.4474882 -1.7188997 0.3660011 4289614080
1.4786185 -1.7557552 0.36835113 4289744640
1.5098095 -1.792678 0.37004954 4289875200
1.5283287 -1.8145511 0.36801085 4290005760
1.5233294 -1.8085003 0.35982952 4290005760
1.6008998 -1.900471 0.37038648 4290397440
1.6215277 -1.9248362 0.36686397 4290528000
1.5984088 -1.8966122 0.29943049 4290397440
1.5992941 -1.8975415 0.28861994 4290397440
1.6026359 -1.9013854 0.27790111 4290397440
1.5946327 -1.8917698 0.26494041 4290266880
1.573382 -1.8664403 0.2497011 4290266880
1.5742038 -1.8672961 0.23784059 4290266880
1.5596006 -1.849856 0.22349475 4290136320
1.5571588 -1.8468422 0.21077907 4290136320
1.5203929 -1.8031216 0.19350295 4289875200
1.5030884 -1.7824855 0.178932 4289875200
1.5374221 -1.8230848 0.17016853 4290005760
1.5133642 -1.7944427 0.15467401 4289875200
1.4952844 -1.7728919 0.13998199 4289744640
1.3973222 -1.6566367 0.11866698 4289222400
1.3719712 -1.6264776 0.10446443 4289091840
1.3495438 -1.5997877 0.090793498 4288961280
1.3503996 -1.6007001 0.078782685 4288961280
1.3603333 -1.6123724 0.067120083 4289091840
1.3462148 -1.5955362 0.054237485 4288961280
1.3329817 -1.5797517 0.041581061 4288961280
1.2629305 -1.4966367 0.027868055 4288569600
1.3381038 -1.5856199 0.01728191 4288961280
1.3397154 -1.5874283 0.0050253044 4288961280
1.320066 -1.5640461 -0.0071501858 4288830720
1.3373694 -1.5844467 -0.019495605 4288961280
1.3395168 -1.5868896 -0.031776309 4288961280
1.3398902 -1.5872309 -0.044002794 4288961280
1.3336753 -1.5797679 -0.05591147 4288961280
1.3496168 -1.5985491 -0.068775326 4288961280
1.35215 -1.6014475 -0.08104746 4288961280
1.3597218 -1.6103127 -0.093623228 4289091840
1.3434134 -1.5908973 -0.10437572 4288961280
1.3490497 -1.5974702 -0.11662421 4288961280
1.3516905 -1.6004953 -0.12855828 4288961280
1.3521148 -1.6008956 -0.14016716 4288961280
1.3467171 -1.5944031 -0.15097675 4288961280
1.3563379 -1.6056911 -0.16333856 4289091840
1.3665487 -1.6176759 -0.17575519 4289091840
1.3664622 -1.6174705 -0.18673648 4289091840
1.3589352 -1.6084584 -0.19643442 4289091840
1.351491 -1.5995452 -0.20580971 4289091840
1.359871 -1.6093609 -0.21737204 4289091840
1.3686816 -1.6196846 -0.22888966 4289091840
1.3647666 -1.6149487 -0.23806059 4289091840
1.3445917 -1.5909742 -0.24395941 4288961280
1.3584359 -1.6072526 -0.25570971 4289091840
1.368825 -1.6194414 -0.26668465 4289091840
1.3703154 -1.6211015 -0.27570307 4289091840
1.3731825 -1.6243899 -0.2847138 4289222400
1.3646472 -1.6141902 -0.29100478 4289091840
1.3432603 -1.5887913 -0.29405287 4288961280
1.3492286 -1.5957488 -0.30266532 4289091840
1.3571941 -1.6050674 -0.31145337 4289091840
1.3633804 -1.6122808 -0.31954777 4289091840
1.361131 -1.6095182 -0.32531801 4289091840
1.3657994 -1.6149356 -0.3323772 4289091840
1.3580403 -1.6056588 -0.33601743 4289091840
1.3633329 -1.6118137 -0.34248713 4289091840
1.359249 -1.6068832 -0.34621051 4289091840
1.354941 -1.6016881 -0.3494471 4289091840
1.3514397 -1.5974475 -0.3524617 4289091840
1.3539139 -1.6002702 -0.35662079 4289091840
1.3466921 -1.591633 -0.35780019 4289091840
1.3439164 -1.5882512 -0.3597213 4289091840
1.3319435 -1.5740012 -0.35873494 4288961280
1.3343402 -1.576733 -0.3611826 4288961280
1.3405997 -1.5840286 -0.36426294 4289091840
1.3341796 -1.5763423 -0.36347345 4288961280
1.3341693 -1.5762297 -0.36399987 4288961280
1.3434362 -1.5870769 -0.36663178 4289091840
1.3492378 -1.593829 -0.36788779 4289091840
1.349942 -1.5945593 -0.36732134 4289091840
1.3505068 -1.5951248 -0.36628607 4289091840
1.353868 -1.5989931 -0.36557618 4289091840
1.3612264 -1.6075814 -0.36550313 4289091840
1.3588183 -1.6046351 -0.36237401 4289091840
1.3629754 -1.6094416 -0.36056849 4289091840
1.3617083 -1.607843 -0.35690215 4289091840
1.3595074 -1.6051421 -0.35258505 4289091840
1.3584926 -1.6038418 -0.34817517 4289091840
1.3579944 -1.6031516 -0.3434988 4289091840
1.3506342 -1.5943609 -0.33671767 4289091840
1.3394091 -1.5810096 -0.32865515 4288961280
1.3376551 -1.5788386 -0.3225894 4288961280
1.3490899 -1.5922337 -0.31928948 4289091840
1.3585107 -1.6032504 -0.31505063 4289091840
1.3702292 -1.616977 -0.31088048 4289222400
1.3599099 -1.6046971 -0.30135137 4289091840
1.3466114 -1.5889037 -0.29094741 4288961280
1.3337028 -1.5735723 -0.28044593 4288961280
1.3471179 -1.5892988 -0.27515632 4288961280
1.358539 -1.6026711 -0.26899692 4289091840
1.3636312 -1.6085759 -0.26117748 4289091840
1.3389621 -1.579375 -0.24749698 4288961280
1.3486964 -1.5907557 -0.2399969 4288961280
1.3647596 -1.6095994 -0.23317443 4289091840
1.3648989 -1.6096612 -0.22325726 4289091840
1.3602408 -1.6040657 -0.21234171 4289091840
1.3402566 -1.5803986 -0.19898649 4288961280
1.3532929 -1.5956692 -0.19036551 4288961280
1.3554435 -1.598103 -0.1798853 4289091840
1.3506875 -1.5923942 -0.16831289 4288961280
1.3428216 -1.5830199 -0.15627238 4288961280
1.3546436 -1.5968548 -0.14631872 4288961280
1.3612756 -1.6045704 -0.13549036 4289091840
1.3538048 -1.5956628 -0.12311938 4288961280
1.3520943 -1.5935453 -0.11121817 4288961280
1.3495519 -1.5904475 -0.099165738 4288961280
1.3473152 -1.5877105 -0.087071232 4288961280
1.3518873 -1.592997 -0.075302318 4288961280
1.3464051 -1.586436 -0.062901258 4288961280
1.3449154 -1.5845798 -0.050682351 4288961280
1.3452953 -1.5849265 -0.038490094 4288961280
1.3416125 -1.5804869 -0.026171055 4288961280
1.3584689 -1.6002429 -0.014105091 4288961280
1.3611838 -1.6033386 -0.0016994071 4289091840
1.3569537 -1.5982543 0.010702014 4288961280
1.3448198 -1.5838618 0.022879269 4288961280
1.4156188 -1.6671393 0.036975913 4289352960
1.5318527 -1.8039103 0.053918444 4289875200
1.5197788 -1.7895781 0.067231603 4289875200
1.4338725 -1.6883136 0.076323397 4289352960
1.6141207 -1.9004259 0.10033655 4290397440
1.5871224 -1.8685198 0.112728 4290266880
1.561077 -1.8377396 0.12459567 4290136320
1.466843 -1.7266949 0.12983593 4289614080
1.6186159 -1.9052331 0.15719494 4290397440
1.6170843 -1.9033092 0.17078587 4290397440
1.5901452 -1.8714828 0.18126717 4290266880
1.4558473 -1.713315 0.17797643 4289483520
1.6501832 -1.9418957 0.21513441 4290528000
1.6448487 -1.935495 0.22755945 4290528000
1.5940571 -1.8756089 0.233004 4290266880
1.560039 -1.8354656 0.23998405 4290136320
1.4740204 -1.7341498 0.23779309 4289614080
1.6555716 -1.9476166 0.27918532 4290658560
1.6379248 -1.9267341 0.28787589 4290528000
1.6247184 -1.9110776 0.29680744 4290397440
1.5467384 -1.8192376 0.29295719 4290005760
1.5710555 -1.8477212 0.30778679 4290136320
1.6095306 -1.8928512 0.32544285 4290397440
1.5841252 -1.8628552 0.32990214 4290266880
1.5502067 -1.8228526 0.3318629 4290136320
1.5526981 -1.8256661 0.34105712 4290136320
1.4985538 -1.7618909 0.3371475 4289875200
1.4978979 -1.7610075 0.3445946 4289875200
1.4276762 -1.6783445 0.33530208 4289483520
1.4270979 -1.6775578 0.34164059 4289483520
1.3667907 -1.6065642 0.3330273 4289091840
1.3630936 -1.6021167 0.33755144 4289091840
1.3658267 -1.6052269 0.34327298 4289091840
1.3621981 -1.6008602 0.34699562 4289091840
1.3407097 -1.5755068 0.34568697 4288961280
1.3371642 -1.5712402 0.34852606 4288961280
1.3119371 -1.541499 0.34523505 4288830720
1.3059245 -1.5343366 0.34652141 4288830720
1.3025104 -1.5302279 0.3480731 4288830720
1.2959471 -1.5224203 0.3483597 4288830720
1.295814 -1.5221671 0.34995693 4288830720
1.2989179 -1.5257159 0.35202149 4288830720
1.3020666 -1.5293171 0.35369095 4288830720
1.2988764 -1.5254731 0.35322526 4288830720
1.3021166 -1.5291812 0.35409355 4288830720
1.3085958 -1.5366925 0.35542569 4288830720
1.3208693 -1.5510067 0.35790539 4288961280
1.3363853 -1.569126 0.36082184 4288961280
1.3551458 -1.5910527 0.36415336 4289091840
1.3554305 -1.5912856 0.36206996 4289091840
1.3647069 -1.6020741 0.36194763 4289091840
1.3586894 -1.5949086 0.35734257 4289091840
1.3623018 -1.5990473 0.35485834 4289091840
1.4256772 -1.6733297 0.36734062 4289483520
1.4319541 -1.6805902 0.36448592 4289483520
1.4446753 -1.6954123 0.36278605 4289483520
1.4760145 -1.7320805 0.36518225 4289744640
1.510618 -1.7725742 0.3677102 4289875200
1.5331057 -1.7988472 0.36663127 4290005760
1.5338402 -1.7995944 0.35982952 4290005760
1.6266032 -1.9083081 0.37375456 4290528000
1.6474695 -1.9326652 0.37017933 4290528000
1.6323411 -1.9141315 0.3036927 4290528000
1.6419504 -1.9252771 0.29428867 4290528000
1.6518707 -1.9367861 0.284477 4290528000
1.6437427 -1.9271333 0.27122968 4290528000
1.6300886 -1.9110037 0.25692925 4290397440
1.6212503 -1.9005213 0.24327154 4290397440
1.6372565 -1.9191625 0.23301673 4290528000
1.6138214 -1.8915721 0.2169535 4290397440
1.5436126 -1.8091648 0.19511332 4290005760
1.5709947 -1.8411404 0.18573564 4290136320
1.6215212 -1.9002343 0.17824855 4290397440
1.6199245 -1.8982424 0.1644319 4290397440
1.5968561 -1.8710916 0.14846762 4290266880
1.5277853 -1.7900449 0.1288586 4289875200
1.4131219 -1.6555933 0.10686145 4289222400
1.3765483 -1.6126415 0.091976605 4289091840
1.3718984 -1.6070919 0.079489321 4289091840
1.3794385 -1.6158218 0.067597099 4289091840
1.3897016 -1.6277399 0.055606488 4289091840
1.3915695 -1.6298242 0.043111704 4289222400
1.3687055 -1.6029435 0.029995514 4289091840
1.3642368 -1.5976084 0.01749891 4288961280
1.3609608 -1.5936707 0.0050700819 4288961280
1.3395193 -1.5684631 -0.0072059343 4288830720
1.3487883 -1.5792158 -0.019527605 4288961280
1.3578311 -1.5897025 -0.031990506 4288961280
1.3582059 -1.5900401 -0.044299304 4288961280
1.3519466 -1.5826117 -0.056289941 4288961280
1.3653992 -1.5982579 -0.069103889 4289091840
1.3614573 -1.5935425 -0.08104746 4288961280
1.3694061 -1.6027442 -0.093645483 4289091840
1.3526595 -1.5830433 -0.10437572 4288961280
1.3648204 -1.5971738 -0.11718111 4289091840
1.3642347 -1.5963869 -0.12886454 4289091840
1.3708175 -1.6039879 -0.1411348 4289091840
1.3614291 -1.5929012 -0.15158306 4288961280
1.3814471 -1.6162199 -0.16522555 4289091840
1.3838769 -1.6189598 -0.17676768 4289091840
1.3834205 -1.6183227 -0.18776225 4289091840
1.3760556 -1.609605 -0.19755022 4289091840
1.3666078 -1.598452 -0.20669001 4289091840
1.3782744 -1.6119953 -0.21880879 4289091840
1.3748643 -1.6079047 -0.22835308 4289091840
1.3806107 -1.6145223 -0.23917943 4289091840
1.3602934 -1.5906616 -0.24512263 4289091840
1.3768098 -1.6098728 -0.25739843 4289091840
1.3879104 -1.6227491 -0.26855642 4289222400
1.390955 -1.6262054 -0.27794465 4289222400
1.3890661 -1.6238939 -0.28604054 4289222400
1.3798244 -1.6129872 -0.29223225 4289222400
1.3589309 -1.5884621 -0.29545233 4289091840
1.3639095 -1.5941801 -0.30386984 4289091840
1.369095 -1.6001394 -0.31203964 4289091840
1.3749385 -1.6068668 -0.32005703 4289091840
1.3811835 -1.6140627 -0.32785749 4289222400
1.3751853 -1.6069508 -0.3323772 4289091840
1.3764169 -1.6082878 -0.33824012 4289222400
1.3721088 -1.6031519 -0.34233952 4289091840
1.368588 -1.5989367 -0.34621051 4289091840
1.3741461 -1.6053282 -0.35198203 4289222400
1.3715695 -1.6022161 -0.35527101 4289091840
1.3600088 -1.5886104 -0.35578218 4289091840
1.3623524 -1.5912466 -0.35949159 4289091840
1.3557106 -1.5833883 -0.36040276 4289091840
1.3651251 -1.5942824 -0.3651638 4289091840
1.349911 -1.5764142 -0.36290506 4289091840
1.3466026 -1.5724505 -0.36339849 4288961280
1.3465443 -1.5722826 -0.36434013 4288961280
1.355186 -1.5822724 -0.36721247 4289091840
1.3552227 -1.5822146 -0.36732635 4289091840
1.3617042 -1.5896808 -0.36875531 4289091840
1.365364 -1.5938519 -0.36898464 4289091840
1.3706155 -1.5998805 -0.36920553 4289091840
1.3698449 -1.5988793 -0.36736867 4289091840
1.3769801 -1.6071053 -0.36721271 4289222400
1.3739651 -1.6034845 -0.36391577 4289222400
1.3781574 -1.6082748 -0.3620998 4289222400
1.3736191 -1.6028768 -0.3575702 4289091840
1.3737456 -1.6029224 -0.35384959 4289091840
1.379629 -1.6096851 -0.3511827 4289222400
1.3673117 -1.5952125 -0.3434988 4289091840
1.3588744 -1.585268 -0.33646366 4289091840
1.3570846 -1.5830795 -0.33072343 4289091840
1.3500464 -1.574769 -0.32335955 4288961280
1.3615606 -1.5880988 -0.32004565 4289091840
1.3704034 -1.5983113 -0.3156437 4289091840
1.3839798 -1.6140429 -0.31186137 4289222400
1.3696206 -1.5971951 -0.30143598 4289091840
1.3534611 -1.5782504 -0.2904357 4288961280
1.3518791 -1.5763053 -0.282332 4288961280
1.364326 -1.5907173 -0.27677342 4289091840
1.3743112 -1.6022577 -0.27026689 4289091840
1.3787951 -1.6073831 -0.26228368 4289091840
1.357192 -1.5820979 -0.24915859 4288961280
1.360334 -1.5856599 -0.24041973 4288961280
1.3799391 -1.6084099 -0.23416287 4289091840
1.3807296 -1.609229 -0.22430925 4289091840
1.3753945 -1.602909 -0.21324579 4289091840
1.3558675 -1.5800517 -0.19993405 4288961280
1.3606856 -1.5855656 -0.1901027 4288961280
1.3699167 -1.5962207 -0.18056878 4289091840
1.3623922 -1.5873523 -0.1686161 4288961280
1.3486428 -1.5712328 -0.15588182 4288961280
1.3661853 -1.5915694 -0.14656129 4288961280
1.3778452 -1.6050507 -0.13620646 4289091840
1.371731 -1.5978268 -0.12390091 4289091840
1.3473808 -1.5693632 -0.11007646 4288961280
1.3786634 -1.6056978 -0.10061573 4289091840
1.3795631 -1.6066434 -0.088548817 4289091840
1.3528324 -1.5754128 -0.074842416 4288961280
1.3556876 -1.5786372 -0.062904157 4288961280
1.3645133 -1.5888134 -0.051071178 4288961280
1.3577638 -1.5808539 -0.038582649 4288961280
1.3266217 -1.5444967 -0.02570265 4288830720
1.3678733 -1.592422 -0.014106164 4288961280
1.3691931 -1.5938572 -0.0016977839 4288961280
1.3741406 -1.599515 0.010763883 4289091840
1.3481603 -1.5691737 0.022780173 4288961280
1.4344302 -1.6694804 0.037212569 4289352960
1.5488522 -1.8025373 0.054146219 4290005760
1.5918723 -1.852486 0.069942206 4290136320
1.5127829 -1.7603366 0.079976425 4289744640
1.6413715 -1.9098461 0.10133709 4290397440
1.5470097 -1.7999355 0.10913222 4290005760
1.4754143 -1.7165257 0.11695839 4289614080
1.5211842 -1.7696627 0.13373098 4289875200
1.6615654 -1.9328518 0.16026968 4290528000
1.6633121 -1.9347606 0.17447466 4290528000
1.629225 -1.8949902 0.18446031 4290397440
1.5217501 -1.7698711 0.18476927 4289875200
1.687124 -1.9620845 0.21845631 4290658560
1.6822089 -1.956244 0.23114735 4290658560
1.6644788 -1.9355026 0.24164514 4290528000
1.5642179 -1.8188009 0.23899271 4290005760
1.5340887 -1.7836547 0.24580283 4289875200
1.6788294 -1.9518179 0.28118494 4290658560
1.6758329 -1.9482102 0.29253852 4290658560
1.6523205 -1.9207542 0.29980037 4290528000
1.6037223 -1.8641424 0.3016879 4290266880
1.5720891 -1.8272563 0.30589837 4290136320
1.6402363 -1.9063435 0.32940006 4290528000
1.6014155 -1.8611063 0.33123913 4290266880
1.5543398 -1.8062818 0.33048916 4290005760
1.5658916 -1.8195903 0.34162065 4290136320
1.57164 -1.8261541 0.35119089 4290136320
1.5016804 -1.7447542 0.34312034 4289744640
1.4374304 -1.669998 0.33530208 4289483520
1.4368474 -1.6692147 0.34164059 4289483520
1.3638835 -1.5843505 0.33006418 4289091840
1.3666071 -1.5874133 0.33612546 4289091840
1.3661404 -1.5867704 0.34102246 4289091840
1.3560516 -1.5749521 0.3430866 4289091840
1.3402125 -1.5564574 0.34321475 4288961280
1.3212028 -1.5342829 0.34203002 4288830720
1.308674 -1.519637 0.34204066 4288830720
1.3051947 -1.5155005 0.34397897 4288830720
1.3049734 -1.5151473 0.34636638 4288830720
1.3022232 -1.5118582 0.34767309 4288700160
1.3020891 -1.5116063 0.34926715 4288700160
1.3019996 -1.5114064 0.3504642 4288700160
1.2987413 -1.5075283 0.35039586 4288700160
1.3019568 -1.5111648 0.35166267 4288700160
1.3020042 -1.5111239 0.35166281 4288700160
1.3078835 -1.517851 0.3528243 4288830720
1.3144528 -1.5253779 0.35375261 4288830720
1.3300718 -1.5434052 0.35668325 4288961280
1.3489571 -1.5652201 0.36003363 4288961280
1.351813 -1.5684342 0.35865653 4288961280
1.3617923 -1.5799124 0.35872719 4289091840
1.362166 -1.5802456 0.35582945 4289091840
1.4317027 -1.6608094 0.37040934 4289483520
1.4257417 -1.6537894 0.36486837 4289352960
1.4385 -1.6684824 0.36367154 4289483520
1.4519507 -1.6839765 0.36214304 4289483520
1.4835018 -1.7204604 0.36454847 4289744640
1.5151142 -1.7570106 0.3663066 4289875200
1.5403334 -1.7861427 0.36586481 4290005760
1.60867 -1.8652661 0.37482831 4290397440
1.6376939 -1.8987988 0.37375456 4290528000
1.6625142 -1.927454 0.37103018 4290658560
1.6522161 -1.9147296 0.30530971 4290528000
1.6755214 -1.9416143 0.29827303 4290658560
1.6815782 -1.9485092 0.28763309 4290658560
1.6652616 -1.9294802 0.27292088 4290528000
1.6525645 -1.9146469 0.25870916 4290528000
1.663766 -1.9275024 0.24796179 4290528000
1.6636469 -1.9272419 0.23517057 4290528000
1.6406928 -1.9005302 0.21907362 4290397440
1.4849045 -1.7199605 0.18642277 4289614080
1.5660467 -1.813832 0.18389811 4290005760
1.6459314 -1.9062351 0.17970794 4290397440
1.6430258 -1.9027492 0.1656487 4290397440
1.6167632 -1.8722163 0.14930177 4290266880
1.5528772 -1.7981218 0.13008912 4290005760
1.4227438 -1.647332 0.10686145 4289222400
1.3713585 -1.5877343 0.091010198 4288961280
1.3710079 -1.5872277 0.078900561 4288961280
1.3776842 -1.5948557 0.067054644 4289091840
1.3755702 -1.5923072 0.054668903 4289091840
1.369302 -1.5849508 0.042135045 4288961280
1.3646184 -1.5794293 0.029703772 4288961280
1.3717639 -1.5875988 0.017476516 4288961280
1.3684498 -1.5836625 0.0050635212 4288961280
1.3501875 -1.5624291 -0.0072142314 4288961280
1.3594775 -1.5730795 -0.019549338 4288961280
1.362697 -1.5767046 -0.031888176 4288961280
1.3691965 -1.5841243 -0.044355985 4288961280
1.3596046 -1.5729268 -0.056226265 4288961280
1.3648837 -1.578934 -0.068611048 4288961280
1.3766001 -1.5923867 -0.081395224 4289091840
1.3813343 -1.5977615 -0.093823001 4289091840
1.3683919 -1.5826907 -0.10487635 4288961280
1.3687208 -1.5829707 -0.11672215 4288961280
1.3815788 -1.5977399 -0.12962134 4289091840
1.3830774 -1.5993714 -0.14143524 4289091840
1.3798206 -1.5955039 -0.15259318 4289091840
1.3873473 -1.6041054 -0.16481063 4289091840
1.3944325 -1.6121953 -0.17691316 4289091840
1.39434 -1.6119859 -0.18796638 4289091840
1.3899617 -1.6068221 -0.19819924 4289091840
1.3813378 -1.5967515 -0.20750727 4289091840
1.3865726 -1.6027007 -0.21864001 4289091840
1.3877566 -1.6039675 -0.22893834 4289091840
1.3876683 -1.6037635 -0.23877926 4289091840
1.3657042 -1.5782788 -0.24443646 4288961280
1.386166 -1.6018238 -0.25739843 4289091840
1.3978339 -1.6152046 -0.2686511 4289222400
1.3997228 -1.6172844 -0.27780905 4289222400
1.3996141 -1.6170563 -0.28626767 4289222400
1.3984585 -1.6156185 -0.29418015 4289222400
1.3719192 -1.5848575 -0.29626355 4289091840
1.3783222 -1.5921532 -0.30500904 4289091840
1.3874248 -1.6025662 -0.31408393 4289222400
1.3835958 -1.598042 -0.3198995 4289091840
1.3915362 -1.6071111 -0.32808673 4289222400
1.3927448 -1.6084048 -0.33435065 4289222400
1.3877249 -1.6025058 -0.33871877 4289222400
1.3849304 -1.5991774 -0.34320801 4289222400
1.3864715 -1.6008552 -0.34836912 4289222400
1.3844826 -1.5984573 -0.35223818 4289222400
1.3760271 -1.5885942 -0.3540222 4289091840
1.3744704 -1.5866961 -0.3571409 4289091840
1.3716099 -1.5832936 -0.35949415 4289091840
1.3561978 -1.5654036 -0.35810161 4288961280
1.3656769 -1.5762447 -0.36284867 4289091840
1.3534498 -1.5620332 -0.36140361 4288961280
1.3507637 -1.5588342 -0.36206433 4288961280
1.3532846 -1.5616443 -0.36369589 4288961280
1.3653446 -1.5754613 -0.36747167 4289091840
1.362156 -1.5716821 -0.36671743 4289091840
1.3741779 -1.5854526 -0.36962542 4289091840
1.3736565 -1.5847503 -0.36872414 4289091840
1.3812602 -1.5934213 -0.36956587 4289091840
1.3801432 -1.5920317 -0.36763668 4289091840
1.3834542 -1.5957497 -0.36645359 4289222400
1.3803295 -1.5920446 -0.3631385 4289091840
1.3861543 -1.5986613 -0.36174753 4289222400
1.3879158 -1.6005913 -0.35885817 4289222400
1.3854557 -1.5976529 -0.35446224 4289222400
1.3850716 -1.5971086 -0.35019353 4289222400
1.3840811 -1.5958651 -0.34536994 4289091840
1.3764628 -1.5869803 -0.33852345 4289091840
1.3732723 -1.5832013 -0.33241478 4289091840
1.3659389 -1.5746469 -0.32496312 4289091840
1.3654765 -1.5740139 -0.31880507 4289091840
1.3796923 -1.5903 -0.3156437 4289091840
1.3980553 -1.6113636 -0.31291226 4289222400
1.3875983 -1.5992097 -0.30333683 4289091840
1.371525 -1.580585 -0.29233089 4289091840
1.3642873 -1.5721442 -0.2830056 4288961280
1.3703216 -1.5789977 -0.27611876 4289091840
1.3862237 -1.5972199 -0.27077487 4289091840
1.3822821 -1.5925775 -0.26117748 4289091840
1.3598779 -1.5666653 -0.24797173 4288961280
1.3695494 -1.5777073 -0.24041973 4288961280
1.3919388 -1.6033978 -0.23460989 4289091840
1.3870538 -1.5976695 -0.22382064 4289091840
1.3805676 -1.5900973 -0.21260786 4289091840
1.3677175 -1.5751971 -0.20032471 4288961280
1.3717942 -1.5797919 -0.19036551 4288961280
1.3772392 -1.5859619 -0.18031295 4289091840
1.3734967 -1.5815518 -0.16884714 4288961280
1.3569844 -1.5624392 -0.15579113 4288961280
1.3790919 -1.5877931 -0.14695096 4289091840
1.3816719 -1.5906626 -0.13566631 4289091840
1.3757716 -1.5837694 -0.12343032 4288961280
1.3614024 -1.5671283 -0.11047417 4288961280
1.365605 -1.5718662 -0.098992668 4288961280
1.3631029 -1.5688866 -0.086904116 4288961280
1.3677077 -1.5740868 -0.075156718 4288961280
1.3526647 -1.556675 -0.062341999 4288830720
1.3640366 -1.5696625 -0.050710183 4288961280
1.3667881 -1.572729 -0.038578048 4288961280
1.3602856 -1.5651474 -0.026177753 4288961280
1.3726643 -1.5792902 -0.014060443 4288961280
1.3782573 -1.5856245 -0.0016975394 4288961280
1.3794188 -1.5868599 0.010732624 4288961280
1.3482809 -1.550941 0.02262914 4288830720
1.4598769 -1.6792045 0.037618268 4289483520
1.6112851 -1.8532422 0.055950385 4290266880
1.6343688 -1.8796729 0.071326986 4290397440
1.5039957 -1.7296222 0.078977764 4289614080
1.6685548 -1.9187465 0.10232343 4290528000
1.5574702 -1.7908918 0.10913222 4290005760
1.4565538 -1.6747445 0.11468785 4289483520
1.5216409 -1.7494705 0.13287279 4289744640
1.6851945 -1.9373895 0.16145734 4290658560
1.6837132 -1.9355637 0.17542875 4290658560
1.6500564 -1.8967521 0.18556449 4290397440
1.5294186 -1.7579666 0.18445362 4289875200
1.7004319 -1.9544113 0.21870133 4290658560
1.7001157 -1.9539238 0.23203968 4290658560
1.6848763 -1.9362866 0.24296449 4290658560
1.5813204 -1.8171631 0.23998405 4290136320
1.5444547 -1.7746866 0.24580283 4289875200
1.6980612 -1.9510674 0.28249732 4290658560
1.6838936 -1.934666 0.29197299 4290658560
1.6602231 -1.9073496 0.29921281 4290528000
1.6178144 -1.8585104 0.30229673 4290266880
1.5859653 -1.8218071 0.30652785 4290136320
1.6513152 -1.8967547 0.32940006 4290528000
1.6057241 -1.8442702 0.32990214 4290266880
1.5648372 -1.7971952 0.33048916 4290005760
1.5738658 -1.8074497 0.34105712 4290136320
1.5790037 -1.8132352 0.35046971 4290136320
1.5783112 -1.812325 0.35821104 4290136320
1.4373963 -1.6504122 0.33304548 4289352960
1.4368129 -1.6496376 0.33934134 4289352960
1.4395014 -1.6526196 0.34602791 4289352960
1.3693471 -1.5719792 0.33454102 4289091840
1.3598025 -1.5609231 0.33716443 4288961280
1.3528904 -1.5528902 0.33999196 4288961280
1.3304682 -1.5270565 0.33843514 4288830720
1.3210509 -1.5161514 0.33969811 4288830720
1.3142675 -1.5082706 0.34120005 4288830720
1.3017002 -1.4937536 0.34075856 4288700160
1.3742181 -1.5768707 0.36230066 4289091840
1.3740296 -1.5765544 0.36438569 4289091840
1.3738874 -1.5762913 0.36605638 4289091840
1.3737924 -1.5760823 0.36731097 4289091840
1.3737452 -1.5759281 0.36814815 4289091840
1.3042676 -1.4961303 0.34992641 4288700160
1.313375 -1.5064818 0.3523573 4288830720
1.3108798 -1.5035243 0.35126346 4288700160
1.3200812 -1.5139819 0.35288745 4288830720
1.3293308 -1.5244936 0.35409662 4288830720
1.3451039 -1.5424844 0.35660055 4288961280
1.3550996 -1.5538483 0.35712045 4288961280
1.3644964 -1.5645242 0.35703224 4289091840
1.3745896 -1.575997 0.35667008 4289091840
1.4348732 -1.6450092 0.36874369 4289352960
1.4353528 -1.6454548 0.36486837 4289352960
1.4423591 -1.6533817 0.36220565 4289483520
1.4617372 -1.6754886 0.36214304 4289483520
1.4935005 -1.7117881 0.36454847 4289744640
1.5253252 -1.7481533 0.3663066 4289875200
1.5572108 -1.7845838 0.3673977 4290005760
1.6162601 -1.8521377 0.3740761 4290266880
1.6487288 -1.8892251 0.37375456 4290528000
1.6802225 -1.9251906 0.37247258 4290658560
1.6724851 -1.9155408 0.30698764 4290528000
1.6900717 -1.9355605 0.29885066 4290658560
1.6975349 -1.9439845 0.28842023 4290658560
1.6797451 -1.9234899 0.27345324 4290528000
1.6643559 -1.9057468 0.25881246 4290528000
1.681515 -1.9252726 0.24893104 4290528000
1.6872932 -1.9317658 0.23691815 4290658560
1.6576363 -1.8976916 0.21985595 4290397440
1.49902 -1.715996 0.18693653 4289614080
1.5956215 -1.8264642 0.18611823 4290136320
1.6713901 -1.9130732 0.18126756 4290528000
1.6658914 -1.9066585 0.16683118 4290528000
1.6517589 -1.8903637 0.15151381 4290397440
1.5948542 -1.8251231 0.13271259 4290136320
1.4376417 -1.6451075 0.10725868 4289352960
1.3811496 -1.5803629 0.091047376 4288961280
1.3775346 -1.5761266 0.078746356 4288961280
1.3886865 -1.5887854 0.067138463 4289091840
1.3787788 -1.57735 0.054430261 4288961280
1.3672909 -1.5641084 0.041792028 4288961280
1.3749846 -1.5728101 0.029729443 4288961280
1.3671629 -1.5637639 0.01730153 4288961280
1.3695358 -1.5663786 0.0050336858 4288961280
1.3472005 -1.5407354 -0.0071501858 4288830720
1.3580819 -1.5530815 -0.019398818 4288830720
1.3639557 -1.5596999 -0.031704441 4288961280
1.3694293 -1.5658597 -0.04406723 4288961280
1.3648974 -1.5605787 -0.056068182 4288961280
1.3746715 -1.5716544 -0.068641596 4288961280
1.3781903 -1.5755776 -0.080945089 4288961280
1.3845557 -1.5827544 -0.093413867 4289091840
1.3760439 -1.5729244 -0.10475868 4288961280
1.3767639 -1.5736477 -0.11662421 4288961280
1.389316 -1.587894 -0.12947705 4289091840
1.3797444 -1.5768545 -0.14015253 4288961280
1.3798975 -1.5769295 -0.15158306 4288961280
1.3933867 -1.5922438 -0.16442324 4289091840
1.4005202 -1.6002939 -0.17649959 4289091840
1.4004278 -1.6000869 -0.18752714 4289091840
1.3882089 -1.5860254 -0.19662832 4289091840
1.388418 -1.5861636 -0.20717907 4289091840
1.3969642 -1.5958259 -0.21880879 4289091840
1.4000555 -1.5992559 -0.22942625 4289091840
1.3933873 -1.5915382 -0.23816374 4289091840
1.3787358 -1.5747032 -0.24512263 4289091840
1.3954749 -1.5937206 -0.25739843 4289091840
1.4034566 -1.6027344 -0.2679325 4289222400
1.407586 -1.6073483 -0.27750629 4289222400
1.4087435 -1.6085682 -0.28621316 4289222400
1.3988529 -1.5971733 -0.29230064 4289222400
1.3832194 -1.5792233 -0.2967118 4289091840
1.3834338 -1.579368 -0.30409873 4289091840
1.3909062 -1.5877981 -0.31277251 4289091840
1.3880937 -1.5844871 -0.31879959 4289091840
1.401428 -1.5996065 -0.32821602 4289222400
1.4003265 -1.598248 -0.33392963 4289222400
1.3956578 -1.5928185 -0.33838418 4289222400
1.3938978 -1.590709 -0.3431277 4289222400
1.3939935 -1.5907173 -0.3479245 4289222400
1.3950807 -1.5918571 -0.35256886 4289222400
1.3850029 -1.5802577 -0.35395667 4289091840
1.3816763 -1.5763623 -0.35662079 4289091840
1.3775531 -1.5715584 -0.35864589 4289091840
1.3805641 -1.5748936 -0.36210647 4289091840
1.3683426 -1.5608529 -0.36113462 4289091840
1.3681881 -1.5605778 -0.36290506 4289091840
1.3745736 -1.5677618 -0.36599183 4289091840
1.3745129 -1.5675933 -0.3669402 4289091840
1.371254 -1.5637774 -0.36660373 4289091840
1.3768135 -1.5700181 -0.36819458 4289091840
1.3768884 -1.5700039 -0.36788779 4289091840
1.3873465 -1.5818286 -0.36991873 4289091840
1.3872728 -1.5816443 -0.36870277 4289091840
1.3881042 -1.5824919 -0.36729509 4289091840
1.3988616 -1.5946547 -0.3680675 4289222400
1.3990042 -1.5947161 -0.36560088 4289222400
1.3908967 -1.585374 -0.36056849 4289091840
1.3954542 -1.5904679 -0.35840526 4289222400
1.3964608 -1.5915142 -0.35489941 4289222400
1.3928237 -1.5872687 -0.34980941 4289091840
1.3923161 -1.5865897 -0.34511229 4289091840
1.38155 -1.5742215 -0.33751312 4289091840
1.3792155 -1.5714619 -0.33163154 4289091840
1.3724828 -1.5636916 -0.32434699 4289091840
1.3804927 -1.5727178 -0.32016617 4289091840
1.3921964 -1.5859506 -0.31638503 4289091840
1.4048086 -1.6002169 -0.31233174 4289222400
1.3936266 -1.5873787 -0.30262771 4289091840
1.3833244 -1.5755444 -0.29288429 4289091840
1.3674828 -1.5574028 -0.28178141 4288961280
1.3827688 -1.5747119 -0.27677342 4289091840
1.3896153 -1.5824085 -0.26963189 4289091840
1.3915373 -1.584497 -0.26117748 4289091840
1.373183 -1.5634984 -0.24873258 4288961280
1.3739401 -1.5642613 -0.23958655 4288961280
1.3905573 -1.5830801 -0.23281847 4289091840
1.3901525 -1.5825188 -0.22282906 4289091840
1.3901386 -1.5824028 -0.21265838 4289091840
1.363097 -1.5515229 -0.19832058 4288961280
1.3811741 -1.5719993 -0.19039293 4288961280
1.3761213 -1.5661491 -0.17896888 4288961280
1.3779533 -1.5681348 -0.16826899 4288961280
1.3630142 -1.5510356 -0.15544328 4288961280
1.3869965 -1.5782261 -0.14681093 4289091840
1.3844541 -1.5752335 -0.13503604 4288961280
1.3764902 -1.5660728 -0.12267409 4288961280
1.3629844 -1.5506086 -0.10986757 4288961280
1.377663 -1.5672085 -0.099203169 4288961280
1.3756242 -1.5647901 -0.087119676 4288961280
1.3761193 -1.5652541 -0.07511653 4288961280
1.3659474 -1.5535858 -0.062535942 4288961280
1.3778201 -1.5669901 -0.050882328 4288961280
1.3809623 -1.5704641 -0.0387192 4288961280
1.369031 -1.556797 -0.026171055 4288961280
1.3887782 -1.5791526 -0.014131017 4288961280
1.3909742 -1.5815493 -0.001701824 4289091840
1.3901783 -1.5805444 0.010744507 4289091840
1.3511417 -1.5360649 0.022526564 4288830720
1.4673296 -1.6680491 0.037559245 4289483520
1.6139933 -1.8346591 0.055672307 4290136320
1.6417412 -1.8660824 0.071173035 4290266880
1.5556377 -1.768101 0.081147261 4289875200
1.6847022 -1.9146713 0.10262782 4290528000
1.6328377 -1.8556095 0.11365374 4290266880
1.5364196 -1.7459264 0.12017341 4289744640
1.4967978 -1.700794 0.12983593 4289614080
1.6934661 -1.9241439 0.16117302 4290528000
1.6949716 -1.9257326 0.17542978 4290658560
1.6703042 -1.8975867 0.18659504 4290528000
1.5422697 -1.7520192 0.18476927 4289875200
1.7098721 -1.9422926 0.21845631 4290658560
1.7114708 -1.9439855 0.23203968 4290658560
1.696129 -1.9264373 0.24296449 4290658560
1.5977989 -1.8146406 0.24087627 4290136320
1.5679139 -1.780587 0.24788111 4290005760
1.6998042 -1.9302447 0.28091154 4290658560
1.6829838 -1.9110229 0.28987977 4290528000
1.6745894 -1.9013706 0.29980037 4290528000
1.6345193 -1.8557566 0.30339268 4290397440
1.5932739 -1.8088139 0.30589837 4290136320
1.6656151 -1.8908217 0.33004943 4290528000
1.6164418 -1.8348836 0.32990214 4290266880
1.5752815 -1.7880477 0.33048916 4290005760
1.5810972 -1.7945353 0.34035268 4290136320
1.5928121 -1.8077171 0.35119089 4290136320
1.5219086 -1.7271378 0.34312034 4289744640
1.4502558 -1.6457182 0.33379769 4289352960
1.4463996 -1.6412385 0.33934134 4289352960
1.4458399 -1.6404995 0.34524813 4289352960
1.366078 -1.5499008 0.33153063 4288961280
1.3623472 -1.54557 0.33555692 4288961280
1.3462564 -1.5272185 0.33608294 4288830720
1.3302112 -1.5089208 0.33612773 4288830720
1.390741 -1.5774827 0.35524902 4289091840
1.3871572 -1.5733181 0.35773727 4289091840
1.3868767 -1.5729003 0.36065093 4289091840
1.3866403 -1.5725327 0.36315402 4289091840
1.392314 -1.5788668 0.36678886 4289091840
1.3830479 -1.56826 0.36605638 4289091840
1.386209 -1.5717449 0.36817613 4289091840
1.3829035 -1.5678977 0.36814815 4289091840
1.3861612 -1.5714916 0.36943516 4289091840
1.389468 -1.5751407 0.37030345 4289091840
1.3895664 -1.5751526 0.36988291 4289091840
1.3923202 -1.5781741 0.36973426 4289091840
1.3258083 -1.5026888 0.35082024 4288830720
1.3384247 -1.5168923 0.35248086 4288830720
1.3576102 -1.5385387 0.35541373 4288961280
1.3735884 -1.5565478 0.35703224 4289091840
1.4348618 -1.6258795 0.36984488 4289352960
1.4411707 -1.6329249 0.36791086 4289352960
1.4449153 -1.6370641 0.36486837 4289352960
1.4519676 -1.6449502 0.36220565 4289483520
1.4714741 -1.6669437 0.36214304 4289483520
1.5034482 -1.7030575 0.36454847 4289744640
1.5354844 -1.7392368 0.3663066 4289875200
1.5643115 -1.771777 0.36663127 4290005760
1.5650589 -1.7725112 0.35982952 4290005760
1.6662545 -1.8870012 0.37522882 4290528000
1.6842717 -1.9072845 0.37090051 4290658560
1.6777014 -1.8990678 0.30590898 4290528000
1.6982912 -1.9222527 0.29831859 4290658560
1.6992214 -1.9231837 0.28679809 4290658560
1.6863811 -1.9085302 0.27271867 4290528000
1.6754309 -1.8960176 0.25881246 4290528000
1.6822249 -1.9035856 0.24739003 4290528000
1.6869677 -1.9088316 0.23530687 4290528000
1.6680814 -1.8873419 0.21977912 4290397440
1.6206423 -1.833551 0.20076792 4290266880
1.6541064 -1.8712929 0.19166511 4290397440
1.6795896 -1.9000019 0.18095317 4290528000
1.6722076 -1.8915313 0.16635723 4290528000
1.6550999 -1.8720614 0.15081722 4290397440
1.6124108 -1.8236607 0.1332871 4290136320
1.4630907 -1.6546727 0.10843626 4289352960
1.4009805 -1.5843294 0.091744594 4289091840
1.3932623 -1.5755012 0.079119347 4289091840
1.3946089 -1.5769242 0.06697946 4289091840
1.3972173 -1.5797735 0.054793872 4289091840
1.3830043 -1.5636046 0.041993156 4288961280
1.3874372 -1.5685171 0.02980059 4288961280
1.3861887 -1.5670065 0.017426468 4288961280
1.3786386 -1.5583727 0.0050336858 4288961280
1.3631127 -1.5407252 -0.0071868734 4288830720
1.3775747 -1.5569731 -0.019547345 4288961280
1.3750725 -1.5540466 -0.031751841 4288961280
1.3879917 -1.5685481 -0.044369716 4288961280
1.3790177 -1.5583081 -0.056274313 4288961280
1.3919889 -1.5728661 -0.069047548 4288961280
1.3969187 -1.5783365 -0.081503578 4289091840
1.3926272 -1.5733881 -0.09333837 4289091840
1.3830692 -1.5624906 -0.10459869 4288961280
1.3890235 -1.569118 -0.11688629 4288961280
1.4024236 -1.5841552 -0.12983626 4289091840
1.3943969 -1.5749887 -0.14070639 4289091840
1.3925676 -1.5728229 -0.15196566 4289091840
1.4011121 -1.5823733 -0.16424415 4289091840
1.4139842 -1.5968095 -0.17702091 4289091840
1.4090941 -1.5911865 -0.18744302 4289091840
1.3931321 -1.5730622 -0.19602416 4289091840
1.3998498 -1.5805473 -0.20750727 4289091840
1.4084512 -1.5901585 -0.21915314 4289091840
1.4087906 -1.5904409 -0.22933528 4289091840
1.4062614 -1.5874852 -0.23877926 4289091840
1.3774257 -1.5548351 -0.243275 4288961280
1.4057877 -1.5867496 -0.25759104 4289091840
1.4198496 -1.6025202 -0.26927504 4289222400
1.421761 -1.6045759 -0.27845308 4289222400
1.415732 -1.5976706 -0.28573698 4289222400
1.4116434 -1.5929557 -0.29302901 4289222400
1.3878641 -1.5660231 -0.29574594 4289091840
1.3934987 -1.5722814 -0.30429232 4289091840
1.4027234 -1.5825895 -0.31335109 4289091840
1.4080253 -1.5884707 -0.32124624 4289222400
1.4068902 -1.5870897 -0.32732409 4289222400
1.4015617 -1.5809786 -0.33202198 4289091840
1.4036831 -1.5832714 -0.33808765 4289222400
1.4066011 -1.5864623 -0.34397361 4289222400
1.4050308 -1.584591 -0.34836912 4289222400
1.3945637 -1.5726866 -0.35011658 4289091840
1.3977157 -1.5761415 -0.35485274 4289091840
1.3811015 -1.5573077 -0.35412449 4289091840
1.3745928 -1.5498706 -0.35551819 4288961280
1.3808848 -1.5568664 -0.35980532 4289091840
1.3717146 -1.5464296 -0.35964051 4288961280
1.371559 -1.5461565 -0.36140361 4288961280
1.363054 -1.5364715 -0.360535 4288961280
1.3713893 -1.5457695 -0.36369589 4288961280
1.3713763 -1.545657 -0.36422262 4288961280
1.3836453 -1.5593865 -0.36758563 4289091840
1.3771932 -1.5520167 -0.365547 4289091840
1.3828869 -1.5583345 -0.36630252 4289091840
1.3901842 -1.5664585 -0.36704466 4289091840
1.3986001 -1.5758419 -0.36763668 4289091840
1.407016 -1.585224 -0.36777666 4289222400
1.4051852 -1.5830611 -0.36479962 4289222400
1.4021518 -1.5795438 -0.36109436 4289222400
1.3999264 -1.576937 -0.35718808 4289091840
1.4084283 -1.5864136 -0.35558584 4289222400
1.4035875 -1.580861 -0.35019353 4289222400
1.4008465 -1.5776739 -0.34494245 4289091840
1.3981388 -1.5745249 -0.3393189 4289091840
1.3800199 -1.5540217 -0.32964227 4289091840
1.3788884 -1.5526494 -0.32371747 4288961280
1.3872043 -1.5619143 -0.31960681 4289091840
1.4024614 -1.5789931 -0.31662175 4289091840
1.4119784 -1.5896074 -0.31186137 4289222400
1.403901 -1.5804138 -0.30285415 4289091840
1.3874165 -1.5617578 -0.29181919 4289091840
1.3778473 -1.5508882 -0.2820504 4288961280
1.3961048 -1.5713391 -0.27760556 4289091840
1.400363 -1.576032 -0.26993105 4289091840
1.4059842 -1.5822583 -0.26215428 4289091840
1.3795733 -1.552438 -0.24824752 4288961280
1.3849508 -1.5583906 -0.23991919 4288961280
1.408306 -1.5845704 -0.2342404 4289091840
1.4075116 -1.5835763 -0.22412886 4289091840
1.4034995 -1.5789626 -0.21329136 4289091840
1.3760297 -1.5479605 -0.19888665 4288961280
1.3956678 -1.569953 -0.19112672 4289091840
1.3960465 -1.5702798 -0.18036732 4289091840
1.3972727 -1.5715595 -0.16950718 4289091840
1.3756731 -1.5471678 -0.15585628 4288961280
1.4033251 -1.5781671 -0.14756353 4289091840
1.4017986 -1.5763507 -0.13582964 4289091840
1.3896538 -1.5625948 -0.12303378 4288961280
1.3819499 -1.5538338 -0.11066471 4288961280
1.3894259 -1.5621408 -0.099393122 4288961280
1.3873738 -1.5597349 -0.087286793 4288961280
1.3852154 -1.55721 -0.07511653 4288961280
1.380955 -1.5523223 -0.062807888 4288961280
1.3902488 -1.5626706 -0.05100422 4288961280
1.3900887 -1.5623918 -0.0387192 4288961280
1.3847247 -1.5562645 -0.026297282 4288961280
1.3988202 -1.5720066 -0.014139761 4289091840
1.4034889 -1.5771536 -0.001705864 4289091840
1.4020225 -1.5754061 0.010764925 4289091840
1.3660513 -1.5348893 0.022625662 4288830720
1.4896535 -1.6736623 0.037880421 4289483520
1.6430784 -1.8459224 0.056303624 4290266880
1.633976 -1.83558 0.070371561 4290266880
1.539996 -1.7298951 0.079804242 4289744640
1.6968284 -1.9059461 0.10268831 4290528000
1.6895015 -1.8975962 0.1168263 4290528000
1.6227368 -1.8224928 0.12609217 4290136320
1.5518817 -1.7428054 0.13373098 4289875200
1.6950938 -1.9035159 0.16026968 4290528000
1.6902382 -1.8979435 0.17379242 4290528000
1.6620965 -1.8662254 0.18446031 4290397440
1.5464839 -1.736304 0.18405905 4289744640
1.7081653 -1.9177096 0.21680707 4290658560
1.7101903 -1.9198616 0.23034561 4290658560
1.6862352 -1.8928497 0.2399634 4290528000
1.6050347 -1.8015858 0.2403806 4290136320
1.5782614 -1.7714217 0.24788111 4290005760
1.700507 -1.9085082 0.27918532 4290658560
1.6790733 -1.8843336 0.28731036 4290528000
1.674757 -1.8793707 0.297865 4290528000
1.58541 -1.7789952 0.29234836 4290005760
1.6103859 -1.8069065 0.30715734 4290136320
1.6505634 -1.8518698 0.32492334 4290397440
1.6271049 -1.8254348 0.32990214 4290266880
1.5797403 -1.7721848 0.32925281 4290005760
1.5948198 -1.788988 0.34105712 4290136320
