# .PCD v0.7 - Point Cloud Data file format
VERSION 0.7
FIELDS x y z rgba
SIZE 4 4 4 4
TYPE F F F U
COUNT 1 1 1 1
WIDTH 1087
HEIGHT 1
VIEWPOINT 0 0 0 1 0 0 0
POINTS 1087
DATA ascii
3.3310602 -1.0455321 -0.047541942 4293661440
3.3192997 -1.0417199 -0.026813611 4293661440
3.3355665 -1.0466968 -0.0062749493 4293661440
3.3436663 -1.049112 0.014437041 4293792000
3.3180313 -1.0409509 0.034894124 4293661440
3.3511682 -1.0512141 0.055939358 4293792000
3.3643446 -1.0552188 0.076884009 4293792000
3.3727262 -1.0577202 0.097766988 4293922560
3.2945559 -1.0331007 0.11565594 4293530880
3.3562107 -1.0522947 0.1381371 4293792000
3.3587914 -1.0529783 0.1584571 4293792000
3.3552399 -1.051741 0.17830965 4293792000
3.1636147 -0.99160129 0.18693016 4293139200
3.362087 -1.0536361 0.21816994 4293792000
3.3603904 -1.0529802 0.23744914 4293792000
3.3460937 -1.0483798 0.25549105 4293792000
3.2359397 -1.0137731 0.26529095 4293400320
3.3728647 -1.0565118 0.29503012 4293922560
3.3899148 -1.0617234 0.31487668 4293922560
3.3848023 -1.0599985 0.33239233 4293922560
3.3268955 -1.0417551 0.34405687 4293792000
3.1929889 -0.99973905 0.34654334 4293269760
3.3776305 -1.0573817 0.3832348 4293922560
3.3633995 -1.0528066 0.39790568 4293922560
3.3779838 -1.0572448 0.41551816 4293922560
3.323504 -1.040085 0.42403039 4293792000
3.2482574 -1.016436 0.42884538 4293530880
3.3717866 -1.0549377 0.45947638 4293922560
3.3785822 -1.0569396 0.47430915 4293922560
3.3799033 -1.05723 0.48786893 4294053120
3.3627417 -1.0517442 0.49815521 4293922560
3.3401718 -1.0445698 0.50692594 4293922560
3.3071764 -1.0341399 0.51334339 4293792000
3.3650539 -1.0521032 0.53328812 4293922560
3.3696744 -1.0534259 0.54441613 4293922560
3.3723905 -1.0541537 0.55462974 4294053120
3.3647776 -1.0516557 0.56249571 4293922560
3.3626785 -1.0508803 0.57060009 4293922560
3.366617 -1.0519906 0.57906431 4293922560
3.3684814 -1.0524534 0.58651084 4294053120
3.3637667 -1.0508627 0.59212613 4293922560
3.3454843 -1.0450374 0.59462935 4293922560
3.3531966 -1.0473268 0.60101861 4293922560
3.3358755 -1.041804 0.6022225 4293922560
3.3400381 -1.0429862 0.606565 4293922560
3.3302023 -1.039801 0.60765821 4293922560
3.3392916 -1.0425206 0.61147416 4293922560
3.334388 -1.0408753 0.61202192 4293922560
3.3343031 -1.0407335 0.61272824 4293922560
3.3509958 -1.0458242 0.61578465 4293922560
3.3464425 -1.0442891 0.61422771 4293922560
3.3509464 -1.0455787 0.613603 4293922560
3.3419216 -1.0426505 0.60979229 4293922560
3.362062 -1.0488148 0.61055452 4293922560
3.3670044 -1.0502409 0.60782719 4294053120
3.3610537 -1.0482721 0.60242963 4293922560
3.3604105 -1.047958 0.59728187 4293922560
3.3582311 -1.0471656 0.59116715 4293922560
3.3589897 -1.047289 0.58487844 4293922560
3.3592393 -1.0472541 0.57781649 4293922560
3.3481193 -1.0436779 0.56815809 4293922560
3.3440135 -1.0422875 0.55906004 4293922560
3.3352799 -1.0394564 0.54857606 4293922560
3.3611693 -1.0474072 0.5430758 4293922560
3.3819859 -1.0537772 0.53599203 4294053120
3.3766389 -1.0520009 0.52411401 4294053120
3.3549349 -1.0451334 0.50919688 4293922560
3.3314488 -1.0372552 0.41810662 4293792000
3.3586323 -1.0456035 0.40594903 4293922560
3.365912 -1.0477591 0.39078054 4293922560
3.3332245 -1.0374838 0.37068352 4293792000
3.3104935 -1.0303072 0.35154551 4293661440
3.3438084 -1.04056 0.33787224 4293792000
3.3472004 -1.0415071 0.32062823 4293792000
3.3186848 -1.0325344 0.3001256 4293661440
3.2990966 -1.0263388 0.28035045 4293661440
3.3355165 -1.0375534 0.26489252 4293792000
3.3403676 -1.0389545 0.24642399 4293792000
3.3393955 -1.0385456 0.22723474 4293792000
3.3217642 -1.0329604 0.20677845 4293661440
3.3400478 -1.0385352 0.18830206 4293792000
3.3508561 -1.0417866 0.16902925 4293792000
3.3469207 -1.0404575 0.14879407 4293792000
3.3252718 -1.0336267 0.12777129 4293661440
3.3242762 -1.0332118 0.10752462 4293661440
3.3330724 -1.0358377 0.087421373 4293661440
3.314203 -1.0298727 0.066572875 4293661440
3.3182733 -1.0310311 0.046187151 4293661440
3.3184948 -1.0309947 0.025670277 4293661440
3.3278155 -1.0337825 0.0051282812 4293661440
3.2869482 -1.0209923 -0.015276203 4293530880
3.3089149 -1.0277054 -0.035878602 4293661440
3.314796 -1.0294254 -0.05643459 4293661440
3.327615 -1.0332977 -0.077170528 4293661440
3.3072042 -1.0268594 -0.096991479 4293661440
3.3272278 -1.032966 -0.11791634 4293661440
3.3394318 -1.0366458 -0.13863218 4293792000
3.3387272 -1.036321 -0.15872854 4293792000
3.3062615 -1.0261462 -0.17693137 4293661440
3.3286304 -1.0329773 -0.1978478 4293661440
3.3279481 -1.0326596 -0.21729878 4293661440
3.3212328 -1.0304714 -0.23607674 4293661440
3.3294156 -1.0329019 -0.2556752 4293661440
3.3466434 -1.0381355 -0.2758404 4293792000
3.352942 -1.0399805 -0.29493231 4293792000
3.3611772 -1.042425 -0.31395477 4293792000
3.2984691 -1.0228856 -0.32568341 4293661440
3.332855 -1.0334337 -0.34653682 4293792000
3.3587873 -1.0413603 -0.36643952 4293922560
3.3615086 -1.0420949 -0.38354188 4293922560
3.3400581 -1.0353421 -0.39736053 4293792000
3.2961674 -1.0216404 -0.40774643 4293661440
3.3614671 -1.0417554 -0.43133223 4293922560
3.3627679 -1.0420491 -0.44650149 4293922560
3.3690953 -1.0438986 -0.46187472 4293922560
3.3621249 -1.0416306 -0.47489944 4293922560
3.3488114 -1.0373995 -0.48640934 4293922560
3.327976 -1.0308409 -0.49614167 4293792000
3.3251035 -1.0298426 -0.50790894 4293792000
3.3402476 -1.0344194 -0.52190292 4293922560
3.3446634 -1.0356755 -0.53368992 4293922560
3.3444333 -1.0354937 -0.54413909 4293922560
3.3373969 -1.033206 -0.55283445 4293922560
3.3406215 -1.0340925 -0.56258899 4293922560
3.3330491 -1.0316391 -0.56986392 4293922560
3.3313684 -1.031008 -0.57746965 4293792000
3.3341408 -1.0317537 -0.58518547 4293922560
3.3157253 -1.0259479 -0.58846706 4293792000
3.2981474 -1.020402 -0.59114963 4293792000
3.289031 -1.0174726 -0.59462237 4293661440
3.2643766 -1.0097409 -0.59454179 4293661440
3.2779229 -1.0138166 -0.60072726 4293661440
3.277462 -1.0135626 -0.6036557 4293661440
3.2855814 -1.0159594 -0.60747099 4293661440
3.2674742 -1.0102527 -0.60571504 4293661440
3.2767646 -1.0130105 -0.60833806 4293661440
3.2626541 -1.0085393 -0.60589904 4293661440
3.2914345 -1.0173154 -0.61073267 4293792000
3.2952869 -1.0183911 -0.61021221 4293792000
3.3076029 -1.0220796 -0.61054325 4293792000
3.3207664 -1.0260285 -0.61030239 4293792000
3.3227651 -1.0265297 -0.60728216 4293792000
3.3280959 -1.0280589 -0.60415798 4293922560
3.3356125 -1.0302621 -0.60071284 4293922560
3.3268383 -1.0274371 -0.59363383 4293792000
3.3296912 -1.0282001 -0.58795661 4293792000
3.3380313 -1.0306556 -0.58254874 4293922560
3.3474324 -1.0334376 -0.57661593 4293922560
3.32637 -1.0268219 -0.5647887 4293792000
3.3119962 -1.0222702 -0.5535413 4293792000
3.298362 -1.0179474 -0.54186016 4293661440
3.3084254 -1.0209326 -0.53347141 4293792000
3.336961 -1.0296119 -0.52733874 4293792000
3.3630683 -1.0375404 -0.52004069 4293922560
3.3437512 -1.0314651 -0.50508815 4293922560
3.3214517 -1.0244715 -0.48926479 4293792000
3.2943487 -1.0159992 -0.47236913 4293661440
3.3154662 -1.0223869 -0.46189901 4293792000
3.3310499 -1.027068 -0.44998553 4293792000
3.3478127 -1.0321109 -0.43758959 4293792000
3.3151338 -1.0219232 -0.41829461 4293661440
3.2993402 -1.016938 -0.40089509 4293661440
3.3398626 -1.0292965 -0.38980106 4293792000
3.344646 -1.0306473 -0.37387037 4293792000
3.3391483 -1.0288321 -0.35637832 4293792000
3.2869089 -1.0126281 -0.33378163 4293530880
3.3120711 -1.0202526 -0.31885612 4293661440
3.3150463 -1.0210464 -0.30128726 4293661440
3.3178937 -1.0218006 -0.28334799 4293661440
3.2881892 -1.0125384 -0.26245546 4293530880
3.3165641 -1.021147 -0.24595059 4293661440
3.3261385 -1.0239699 -0.22756182 4293661440
3.3294051 -1.0248517 -0.20842044 4293661440
3.2958975 -1.0144234 -0.18691327 4293530880
3.3091328 -1.0183715 -0.16800147 4293661440
3.3109133 -1.0187964 -0.14823475 4293661440
3.3228223 -1.0223351 -0.12868813 4293661440
3.2976544 -1.0144752 -0.10763168 4293530880
3.3255179 -1.0229173 -0.088205971 4293661440
3.3336782 -1.0253018 -0.067935407 4293661440
3.3174605 -1.0201946 -0.047135461 4293661440
3.3179381 -1.0202183 -0.026632594 4293661440
3.3445315 -1.0282652 -0.0061623147 4293792000
3.3537765 -1.0309809 0.014573624 4293792000
3.3022857 -1.0150416 0.034799006 4293530880
3.3528497 -1.0304476 0.055992357 4293792000
3.3634286 -1.0335717 0.076853037 4293792000
3.3669007 -1.0345131 0.097554356 4293792000
3.3052542 -1.0154634 0.11594294 4293661440
3.3458076 -1.0277891 0.13759573 4293792000
3.3656969 -1.0337696 0.15862238 4293792000
3.3564916 -1.0308203 0.17818342 4293792000
3.1692953 -0.97325587 0.18704702 4293139200
3.3633511 -1.0326768 0.21798722 4293792000
3.3655503 -1.0332273 0.23751098 4293792000
3.3558285 -1.0301213 0.25589454 4293792000
3.236979 -0.99354684 0.26502004 4293400320
3.37415 -1.0354929 0.29473677 4293922560
3.3817077 -1.0376862 0.3136794 4293922560
3.381351 -1.0374528 0.33158186 4293922560
3.3328588 -1.0224636 0.34417006 4293792000
3.1987114 -0.98122346 0.34665003 4293269760
3.3836825 -1.0377963 0.38334543 4293922560
3.3750517 -1.035028 0.39867443 4293922560
3.3754876 -1.0350386 0.41457954 4293922560
3.3294566 -1.0208133 0.42413154 4293792000
3.2493308 -0.99614739 0.42831931 4293530880
3.3692071 -1.0327474 0.45840618 4293922560
3.3704145 -1.0329953 0.47241923 4293922560
3.3717444 -1.0332808 0.48592043 4293922560
3.3687608 -1.032246 0.49824095 4293922560
3.3423645 -1.0240436 0.50643629 4293792000
3.3083656 -1.0135161 0.51269031 4293792000
3.3758037 -1.0340391 0.53410673 4293922560
3.3709788 -1.032442 0.54372662 4293922560
3.3689775 -1.0317096 0.55315012 4293922560
3.3660765 -1.0307021 0.56177121 4293922560
3.3601992 -1.0287846 0.56922209 4293922560
3.3632038 -1.0295849 0.57750094 4293922560
3.3565836 -1.0274413 0.583453 4293922560
3.3556383 -1.027034 0.58969009 4293922560
3.3420415 -1.0227584 0.59299761 4293922560
3.3507125 -1.0252928 0.59953588 4293922560
3.3324199 -1.0195831 0.60055435 4293922560
3.3460155 -1.023623 0.60658318 4293922560
3.3408735 -1.0219351 0.60852545 4293922560
3.3358464 -1.020283 0.60976517 4293922560
3.3356457 -1.0201064 0.61116278 4293922560
3.335561 -1.0199655 0.61186212 4293922560
3.3522837 -1.02496 0.61491233 4293922560
3.3486645 -1.0237396 0.61352217 4293922560
3.3569455 -1.0261546 0.61357903 4293922560
3.352602 -1.0247136 0.61061436 4293922560
3.3680818 -1.0293269 0.61051774 4293922560
3.3636072 -1.0278465 0.60609186 4293922560
3.363301 -1.0276393 0.60170788 4293922560
3.3532255 -1.0244499 0.5948925 4293922560
3.3595285 -1.0262612 0.59027904 4293922560
3.3555694 -1.0249401 0.58317584 4293922560
3.3605363 -1.0263437 0.57693374 4293922560
3.357893 -1.0254251 0.56871325 4293922560
3.3552549 -1.0245084 0.55984437 4293922560
3.3374741 -1.0189724 0.5478636 4293792000
3.3575287 -1.0249795 0.54142267 4293922560
3.3757448 -1.0304248 0.53394616 4293922560
3.3660429 -1.0273547 0.52143186 4293922560
3.3514769 -1.0228022 0.50764865 4293922560
3.3241374 -1.0137653 0.41644099 4293792000
3.3599153 -1.0245596 0.4053703 4293922560
3.376713 -1.0295689 0.39131987 4293922560
3.3439689 -1.0194846 0.3712 4293792000
3.3297646 -1.0150503 0.35294089 4293792000
3.3450525 -1.0195997 0.33738655 4293792000
3.3532112 -1.0219769 0.32061973 4293792000
3.3227408 -1.0125909 0.29994661 4293661440
3.3050199 -1.0070888 0.28034204 4293661440
3.3376887 -1.0169293 0.26458395 4293792000
3.3425465 -1.0183015 0.24613677 4293792000
3.3358424 -1.0161542 0.22658367 4293661440
3.3181756 -1.0106709 0.20618246 4293661440
3.3460414 -1.0190456 0.18829358 4293792000
3.3556249 -1.0218554 0.16895889 4293792000
3.3385878 -1.016565 0.14815788 4293661440
3.3129971 -1.0086735 0.12707415 4293661440
3.3350205 -1.0152678 0.10766772 4293661440
3.3361778 -1.0155141 0.087339401 4293661440
3.3067691 -1.0064641 0.066304095 4293530880
3.3073134 -1.0065248 0.04595362 4293530880
3.3248379 -1.0117487 0.025664669 4293661440
3.3295336 -1.0130709 0.0051157367 4293661440
3.2830632 -0.99883819 -0.015233564 4293530880
3.3170693 -1.0090711 -0.035912309 4293661440
3.3273473 -1.0120898 -0.056559034 4293661440
3.3223975 -1.0104802 -0.07691393 4293661440
3.3012207 -1.0039395 -0.096644618 4293530880
3.3313708 -1.0129958 -0.11785945 4293661440
3.343416 -1.0165497 -0.13855675 4293792000
3.3371451 -1.0145385 -0.15837404 4293661440
3.3140085 -1.0074046 -0.17703819 4293661440
3.3267558 -1.0111709 -0.19738714 4293661440
3.3310397 -1.0123659 -0.21711875 4293661440
3.3291726 -1.0116928 -0.23622757 4293661440
3.3314767 -1.0122862 -0.25538266 4293661440
3.3543489 -1.0191237 -0.27599078 4293792000
3.3688705 -1.0234246 -0.29581738 4293792000
3.356461 -1.0195502 -0.31295726 4293792000
3.3016615 -1.0028111 -0.32542318 4293661440
3.3388193 -1.0139812 -0.34654525 4293792000
3.3514731 -1.0177134 -0.36499047 4293792000
3.3542054 -1.0184345 -0.38202715 4293792000
3.3460333 -1.0158472 -0.39736897 4293792000
3.297312 -1.0009601 -0.40716574 4293661440
3.3579814 -1.0192547 -0.43011966 4293922560
3.3704877 -1.0229386 -0.44673687 4293922560
3.3751199 -1.0242337 -0.46188325 4293922560
3.3681364 -1.0220064 -0.47490796 4293922560
3.3595378 -1.0192896 -0.48710713 4293922560
3.3386621 -1.0128515 -0.49685723 4293792000
3.3392839 -1.0129306 -0.50917709 4293792000
3.3376992 -1.0123407 -0.52057886 4293792000
3.3459103 -1.0147191 -0.53294283 4293922560
3.3371708 -1.0119605 -0.54199147 4293792000
3.3480856 -1.0151571 -0.55362648 4293922560
3.3422816 -1.0132878 -0.56187129 4293922560
3.3390028 -1.0121835 -0.56987232 4293922560
3.3463876 -1.0143089 -0.57905132 4293922560
3.330657 -1.0094333 -0.58353615 4293792000
3.3122108 -1.003736 -0.58679962 4293792000
3.3040364 -1.0011498 -0.59115797 4293792000
3.294903 -0.99827349 -0.59463066 4293661440
3.303648 -1.0008094 -0.60064536 4293792000
3.2837737 -0.99468219 -0.60073549 4293661440
3.2691729 -0.99015188 -0.60105819 4293661440
3.2829623 -0.99421352 -0.60591006 4293661440
3.2733045 -0.99117929 -0.60572326 4293661440
3.2826109 -0.99388283 -0.60834628 4293661440
3.2971888 -0.99818015 -0.61124301 4293792000
3.2888241 -0.99553668 -0.60916626 4293661440
3.2870271 -0.99487978 -0.60760105 4293661440
3.3135016 -1.0027721 -0.6105516 4293792000
3.3361146 -1.0094948 -0.61204439 4293922560
3.3286893 -1.0071338 -0.60729051 4293792000
3.3293135 -1.0072066 -0.60330981 4293792000
3.3415585 -1.0107914 -0.60072124 4293922560
3.3366158 -1.0091805 -0.5943293 4293922560
3.3356249 -1.008764 -0.58796495 4293792000
3.3439794 -1.011171 -0.58255714 4293922560
3.3345068 -1.0081911 -0.57336783 4293792000
3.3285162 -1.0062636 -0.5641548 4293792000
3.3178959 -1.0029377 -0.55354965 4293792000
3.308965 -1.0001224 -0.54264599 4293792000
3.3143172 -1.001621 -0.53347975 4293792000
3.3381703 -1.008705 -0.52659839 4293792000
3.3557982 -1.0139077 -0.51799667 4293922560
3.3497038 -1.0119478 -0.50509655 4293922560
3.3245168 -1.004225 -0.48885316 4293792000
3.3049543 -0.99820143 -0.4730584 4293661440
3.3166218 -1.0016031 -0.4612453 4293661440
3.3386831 -1.00814 -0.45022479 4293792000
3.341706 -1.0089312 -0.43601835 4293792000
3.307725 -0.99855953 -0.41662055 4293661440
3.3052089 -0.99768066 -0.40090337 4293661440
3.3388684 -1.0077116 -0.38899821 4293792000
3.3475447 -1.0102065 -0.37353703 4293792000
3.3452036 -1.0093787 -0.35639936 4293792000
3.2837567 -0.99073178 -0.33287343 4293530880
3.3159661 -1.0003209 -0.31867191 4293661440
3.3181708 -1.0008641 -0.30104309 4293661440
3.3162003 -1.0001488 -0.2827054 4293661440
3.2897935 -0.99206996 -0.26212376 4293530880
3.319901 -1.0010204 -0.24576838 4293661440
3.3203075 -1.0010209 -0.22676224 4293661440
3.3303308 -1.0039182 -0.20811446 4293661440
3.3065319 -0.99662775 -0.18719472 4293661440
3.3063192 -0.99644196 -0.16756468 4293530880
3.3167927 -0.99947381 -0.14824307 4293661440
3.3191533 -1.0000623 -0.12832133 4293661440
3.2891526 -0.99090868 -0.10716429 4293530880
3.3262417 -1.0019511 -0.088074319 4293661440
3.3299026 -1.0029302 -0.067741223 4293661440
3.325166 -1.001382 -0.047170591 4293661440
3.3056319 -0.99538165 -0.02648483 4293530880
3.322695 -1.0003932 -0.0061038993 4293661440
3.3367436 -1.0044965 0.014478603 4293661440
3.2937796 -0.99145079 0.034647997 4293530880
3.3393574 -1.0050364 0.055671141 4293661440
3.3680422 -1.0135388 0.076814592 4293792000
3.3613951 -1.011416 0.097220719 4293792000
3.296757 -0.99185997 0.11544054 4293530880
3.3548038 -1.009187 0.13771136 4293792000
3.366962 -1.0127176 0.15839563 4293792000
3.3624401 -1.0112349 0.17817502 4293792000
3.2472942 -0.9765119 0.19125691 4293400320
3.3549716 -1.0087438 0.21705987 4293792000
3.3667347 -1.0121543 0.23716891 4293792000
3.3617728 -1.0105405 0.25588614 4293792000
3.2427123 -0.97465914 0.26501194 4293400320
3.3823738 -1.0164807 0.29492298 4293922560
3.380455 -1.0157809 0.31300503 4293922560
3.3861353 -1.017363 0.33145645 4293922560
3.333993 -1.0015868 0.3436735 4293792000
3.2043736 -0.96255976 0.34664205 4293269760
3.3775783 -1.0144249 0.38197711 4293922560
3.3715062 -1.0124801 0.39754981 4293922560
3.358628 -1.0084939 0.41178659 4293792000
3.3353472 -1.001388 0.42412323 4293792000
3.2465255 -0.97462338 0.4271915 4293400320
3.3751667 -1.0130905 0.45839778 4293922560
3.3763754 -1.0133314 0.4724108 4293922560
3.3777068 -1.0136094 0.48591202 4293922560
3.3699749 -1.01117 0.49753553 4293922560
3.338793 -1.0017014 0.50500035 4293792000
3.3047376 -0.99137378 0.5112226 4293661440
3.3817706 -1.0143445 0.53409833 4293922560
3.3627343 -1.0085193 0.54144114 4293922560
3.3664134 -1.0095024 0.55175143 4293922560
3.3625636 -1.0082299 0.56019318 4293922560
3.3661356 -1.0091813 0.56921375 4293922560
3.364418 -1.0085481 0.57668555 4293922560
3.3625124 -1.0078591 0.5834446 4293922560
3.3483372 -1.0034962 0.58737046 4293922560
3.3384974 -1.0004326 0.59132278 4293792000
3.3566289 -1.0057449 0.59952754 4293922560
3.3559752 -1.0054324 0.60371286 4293922560
3.3377616 -0.99986398 0.60402215 4293922560
3.3335557 -0.99848968 0.60612357 4293792000
3.3332393 -0.99827993 0.60821283 4293792000
3.3368132 -0.99923456 0.6102947 4293922560
3.3329527 -0.99796498 0.61030447 4293792000
3.354423 -1.0042739 0.61421537 4293922560
3.345134 -1.0013807 0.61179429 4293922560
3.3534281 -1.0037476 0.61185509 4293922560
3.3537951 -1.0037434 0.60975116 4293922560
3.3693006 -1.0082663 0.60965848 4293922560
3.3563182 -1.0042708 0.60371476 4293922560
3.3616869 -1.0057628 0.60035741 4293922560
3.3496897 -1.0020635 0.59321767 4293922560
3.3656576 -1.0067239 0.59030688 4293922560
3.3614836 -1.0053639 0.58316749 4293922560
3.3579483 -1.0041955 0.57547277 4293922560
3.3552969 -1.0032915 0.56727141 4293922560
3.347389 -1.0008177 0.55755067 4293922560
3.3471406 -1.0006325 0.54847318 4293922560
3.3587077 -1.0039771 0.54065526 4293922560
3.3769531 -1.0093156 0.53319293 4293922560
3.3624916 -1.004886 0.51996404 4293922560
3.3573787 -1.0032492 0.50764036 4293922560
3.3249831 -0.99301553 0.41581503 4293661440
3.3536999 -1.0014771 0.40391302 4293792000
3.3753343 -1.0078239 0.39047217 4293922560
3.3498137 -1.0001017 0.37118909 4293792000
3.3270032 -0.99318975 0.35202667 4293661440
3.3375435 -0.99622691 0.33603761 4293792000
3.3590705 -1.0025401 0.32060575 4293792000
3.3237724 -0.9919067 0.29950452 4293661440
3.3054836 -0.98634732 0.27987984 4293661440
3.3422759 -0.99721104 0.26446909 4293792000
3.3371072 -0.99556375 0.24529636 4293661440
3.3407869 -0.99655437 0.22650489 4293661440
3.3153601 -0.98886985 0.20563309 4293661440
3.3423142 -0.99679714 0.18773982 4293661440
3.3528683 -0.99983597 0.16850775 4293792000
3.3396285 -0.99578482 0.14792427 4293661440
3.322686 -0.99063152 0.12719591 4293661440
3.3257091 -0.99142677 0.10716227 4293661440
3.3218832 -0.99018192 0.08679758 4293661440
3.3277597 -0.99182695 0.066570736 4293661440
3.3035839 -0.98452228 0.045797329 4293530880
3.3254528 -0.99092937 0.025596289 4293661440
3.3219233 -0.98977339 0.0050702933 4293661440
3.2893257 -0.97996414 -0.01526962 4293530880
3.3036861 -0.98413467 -0.035728857 4293530880
3.3197324 -0.98880607 -0.056359597 4293661440
3.3238091 -0.98991418 -0.076847002 4293661440
3.3064947 -0.98465681 -0.096667796 4293530880
3.3237665 -0.98969102 -0.11741713 4293661440
3.3406231 -0.99460065 -0.1382352 4293661440
3.3343425 -0.99262643 -0.15800159 4293661440
3.312243 -0.98594731 -0.17667302 4293661440
3.3217487 -0.98866928 -0.19678335 4293661440
3.3331335 -0.99194932 -0.21691804 4293661440
3.3257844 -0.98965812 -0.23561512 4293661440
3.3248472 -0.98927349 -0.25446847 4293661440
3.3432765 -0.99464631 -0.27463725 4293792000
3.3574591 -0.99875534 -0.29433906 4293792000
3.3523469 -0.99712867 -0.31207046 4293792000
3.2978642 -0.98082989 -0.32452378 4293530880
3.3411007 -0.99357218 -0.346223 4293792000
3.3537776 -0.99723154 -0.36465061 4293792000
3.3476961 -0.99531704 -0.3806628 4293792000
3.3481266 -0.99533719 -0.39697036 4293792000
3.2788005 -0.97463757 -0.40420899 4293530880
3.3698156 -1.0015626 -0.43093374 4293922560
3.3680756 -1.0009369 -0.4456827 4293922560
3.3675981 -1.0006859 -0.46009159 4293922560
3.3652327 -0.99987423 -0.4737142 4293922560
3.3562562 -0.99709994 -0.48582506 4293792000
3.3368688 -0.99123561 -0.49576649 4293792000
3.341578 -0.99252427 -0.50868171 4293792000
3.3485246 -0.99447626 -0.52140313 4293792000
3.3483214 -0.99430609 -0.5324387 4293792000
3.3448591 -0.99316859 -0.54233599 4293792000
3.3406453 -0.99180818 -0.55146807 4293792000
3.3391511 -0.99125457 -0.5604021 4293792000
3.3495321 -0.99422288 -0.57071328 4293922560
3.3298731 -0.98828137 -0.57521611 4293792000
3.3279455 -0.98759884 -0.58207601 4293792000
3.3226876 -0.98592877 -0.58766508 4293792000
3.3003235 -0.97918725 -0.58949155 4293661440
3.3053467 -0.98056555 -0.59550732 4293792000
3.2673805 -0.96920115 -0.59302479 4293661440
3.2753088 -0.97144061 -0.59816158 4293661440
3.2748475 -0.97119308 -0.60107523 4293661440
3.2792196 -0.97237748 -0.60418117 4293661440
3.2884262 -0.97499359 -0.6074838 4293661440
3.2835882 -0.97344828 -0.60748094 4293661440
3.274147 -0.97053963 -0.60591465 4293661440
3.2898114 -0.9750666 -0.60829622 4293661440
3.3068931 -0.98001194 -0.6102227 4293792000
3.3239727 -0.98495513 -0.61142147 4293792000
3.3145323 -0.98204541 -0.60701615 4293792000
3.3301153 -0.98654366 -0.60649008 4293792000
3.3350904 -0.98790061 -0.60330057 4293792000
3.3384356 -0.9887746 -0.59910411 4293792000
3.3432763 -0.99009055 -0.59446919 4293922560
3.3432999 -0.98998064 -0.58827943 4293922560
3.3416572 -0.98937744 -0.58111906 4293792000
3.336792 -0.98782086 -0.57274079 4293792000
3.3261607 -0.98455882 -0.56274772 4293792000
3.3113387 -0.98005784 -0.55146235 4293792000
3.3057067 -0.97827524 -0.5411346 4293661440
3.3166764 -0.9814015 -0.53289592 4293792000
3.3328891 -0.98607677 -0.52480882 4293792000
3.3550708 -0.99251509 -0.51694006 4293922560
3.3434603 -0.98896372 -0.50322896 4293792000
3.3313489 -0.98526484 -0.48895931 4293792000
3.3057261 -0.97757411 -0.47229365 4293661440
3.3158324 -0.98044157 -0.46027702 4293661440
3.3409531 -0.98774362 -0.44968852 4293792000
3.3440828 -0.9885478 -0.43550748 4293792000
3.309175 -0.97811711 -0.41601309 4293661440
3.3059652 -0.97704965 -0.40022901 4293661440
3.327415 -0.98326379 -0.38691139 4293661440
3.3364668 -0.9858157 -0.37157199 4293792000
3.3432913 -0.98770934 -0.35549584 4293792000
3.2748771 -0.96739399 -0.33131066 4293530880
3.3121583 -0.97827786 -0.31766576 4293661440
3.3200943 -0.98049915 -0.30060685 4293661440
3.3076029 -0.97669232 -0.28138727 4293661440
3.2773178 -0.96763676 -0.26057673 4293530880
3.320863 -0.98036247 -0.24531618 4293661440
3.3256595 -0.98165578 -0.22663635 4293661440
3.3226883 -0.98065788 -0.20717007 4293661440
3.2978847 -0.9732222 -0.18627243 4293530880
3.3111618 -0.97701597 -0.16741459 4293530880
3.3081524 -0.97600746 -0.14748663 4293530880
3.3162637 -0.97827709 -0.12787412 4293661440
3.2991493 -0.97311121 -0.10719606 4293530880
3.3176048 -0.9784289 -0.087572984 4293661440
3.3337393 -0.98306131 -0.067585871 4293661440
3.3165209 -0.97786599 -0.046842534 4293661440
3.3104627 -0.97595954 -0.026359923 4293530880
3.3398468 -0.98449302 -0.0060116649 4293661440
3.3379152 -0.98380142 0.014581986 4293661440
3.3126192 -0.97622985 0.034899142 4293530880
3.3433931 -0.98516929 0.055765945 4293661440
3.3591745 -0.98969263 0.076612614 4293792000
3.3676 -0.99204957 0.097356759 4293792000
3.3182299 -0.977395 0.11610597 4293661440
3.358326 -0.98907328 0.13774462 4293792000
3.3765948 -0.994326 0.15869845 4293792000
3.3623977 -0.99002528 0.1779943 4293792000
3.2442641 -0.95514935 0.19087498 4293400320
3.3607461 -0.98929352 0.21718313 4293792000
3.3686991 -0.9915098 0.23702475 4293792000
3.3532033 -0.98682988 0.25492564 4293792000
3.2301164 -0.95051551 0.26365668 4293269760
3.3748045 -0.99293631 0.29388577 4293792000
3.3862667 -0.99618298 0.31312355 4293922560
3.3776267 -0.99352038 0.33018178 4293922560
3.3301742 -0.97945195 0.34281009 4293661440
3.1965182 -0.94005573 0.34531465 4293269760
3.3738415 -0.99204105 0.38101652 4293922560
3.37253 -0.99153376 0.39709952 4293922560
3.3643961 -0.98902279 0.41189155 4293792000
3.3267868 -0.97785532 0.42241997 4293661440
3.2473395 -0.95440394 0.42666522 4293400320
3.3715279 -0.99075401 0.45722136 4293922560
3.3736112 -0.99124479 0.47131392 4293922560
3.3753555 -0.99163622 0.48483682 4293922560
3.3624561 -0.98772937 0.49566948 4293922560
3.3528006 -0.98477572 0.50632632 4293792000
3.3393323 -0.98070407 0.51574689 4293792000
3.3589902 -0.9863537 0.5296846 4293922560
3.3642344 -0.98777336 0.54082721 4293922560
3.3716581 -0.98983234 0.5517301 4293922560
3.3649473 -0.98774505 0.55969286 4293922560
3.3604596 -0.98631054 0.56734407 4293922560
3.3569314 -0.98515803 0.57447654 4293922560
3.3682806 -0.98836827 0.58349031 4293922560
3.3493493 -0.98270035 0.58658528 4293922560
3.3579512 -0.98510528 0.59377545 4293922560
3.3481977 -0.98212981 0.59703678 4293922560
3.3570039 -0.98459464 0.60289097 4293922560
3.3349774 -0.97802395 0.6025089 4293792000
3.3392756 -0.9791683 0.60613626 4293792000
3.3295045 -0.97619087 0.60650408 4293792000
3.3387575 -0.97878718 0.60960788 4293792000
3.360148 -0.9849382 0.61421007 4293922560
3.3459992 -0.98067987 0.61162198 4293922560
3.3414211 -0.97922534 0.61005747 4293792000
3.3506746 -0.98182136 0.61028749 4293922560
3.36428 -0.98569107 0.61057603 4293922560
3.3608987 -0.98458767 0.60706943 4293922560
3.3620801 -0.98482031 0.60367203 4293922560
3.3674586 -0.98628139 0.60030818 4293922560
3.3519025 -0.98161638 0.59253907 4293922560
3.3619707 -0.98445028 0.5885939 4293922560
3.3578608 -0.98313582 0.58147836 4293922560
3.3673859 -0.98581058 0.57602316 4293922560
3.3507099 -0.98082113 0.56545049 4293922560
3.3483982 -0.98003417 0.55667812 4293792000
3.336067 -0.97631752 0.5456391 4293792000
3.351402 -0.98069173 0.53846264 4293792000
3.3770614 -0.98808354 0.53219187 4293922560
3.3716748 -0.98639816 0.52037394 4293922560
3.3526976 -0.98074085 0.50595087 4293792000
3.3166976 -0.96924812 0.41405734 4293661440
3.3668942 -0.98379755 0.40478438 4293792000
3.3630948 -0.98258007 0.38838542 4293792000
3.3461113 -0.97751433 0.37013632 4293792000
3.3184798 -0.96934193 0.35052165 4293661440
3.3471868 -0.97761381 0.33642036 4293792000
3.3515439 -0.97877836 0.31934208 4293792000
3.3266952 -0.97142082 0.2992532 4293661440
3.302213 -0.96417201 0.27912942 4293530880
3.3349886 -0.97362822 0.26345116 4293661440
3.347712 -0.97723347 0.24565686 4293661440
3.3340802 -0.97315121 0.225679 4293661440
3.3213475 -0.96933222 0.20566268 4293661440
3.3464155 -0.97653657 0.18766353 4293661440
3.3491204 -0.97721922 0.1680541 4293661440
3.3368137 -0.97352535 0.14757177 4293661440
3.319839 -0.96847165 0.12689744 4293661440
3.333226 -0.97226852 0.10724559 4293661440
3.3247862 -0.96970344 0.086755283 4293661440
3.3134942 -0.96630788 0.066215254 4293530880
3.3093367 -0.96499181 0.045833074 4293530880
3.3216426 -0.96847248 0.025566209 4293661440
3.3181064 -0.96733743 0.0051015294 4293530880
3.2897148 -0.9589628 -0.015199607 4293530880
3.3047209 -0.96322936 -0.035630722 4293530880
3.3283951 -0.97001928 -0.056363121 4293661440
3.3161569 -0.96635056 -0.076480657 4293530880
3.2978544 -0.96091694 -0.09618932 4293530880
3.3295519 -0.9700405 -0.11736443 4293661440
3.3416409 -0.97345418 -0.13797985 4293661440
3.3353503 -0.9715175 -0.15771602 4293661440
3.3025467 -0.96186513 -0.17578442 4293530880
3.3165917 -0.96584749 -0.196072 4293661440
3.3245602 -0.96806079 -0.21591656 4293661440
3.317203 -0.96581489 -0.23453031 4293661440
3.3210573 -0.96683061 -0.25366974 4293661440
3.3347363 -0.97070378 -0.27338925 4293661440
3.3508596 -0.97528678 -0.29317966 4293792000
3.3495727 -0.97480571 -0.31120142 4293792000
3.2988229 -0.95994204 -0.32398757 4293530880
3.3396626 -0.97171038 -0.34540397 4293661440
3.3514094 -0.97501838 -0.36369067 4293792000
3.3535204 -0.97552449 -0.38059726 4293792000
3.3405941 -0.97165984 -0.395318 4293792000
3.2711539 -0.95137215 -0.40249634 4293530880
3.3613806 -0.97748488 -0.42903766 4293792000
3.3644075 -0.97825581 -0.44435641 4293792000
3.3801162 -0.98271066 -0.46094048 4293922560
3.3663266 -0.97859544 -0.47298211 4293922560
3.3573365 -0.9758749 -0.48507598 4293792000
3.329361 -0.96764106 -0.49372882 4293792000
3.3392253 -0.970397 -0.5073818 4293792000
3.3457971 -0.97219598 -0.52001649 4293792000
3.3446476 -0.9717527 -0.53087562 4293792000
3.345927 -0.97201431 -0.54151642 4293792000
3.3421826 -0.97081745 -0.55071622 4293792000
3.3449519 -0.97151095 -0.56035805 4293792000
3.3306963 -0.96726352 -0.56646812 4293792000
3.3356557 -0.96859217 -0.57517833 4293792000
3.3289881 -0.96654695 -0.58121276 4293792000
3.3237214 -0.9649083 -0.58679646 4293792000
3.3060513 -0.95967209 -0.58946472 4293661440
3.3110821 -0.96102053 -0.59548438 4293792000
3.2768333 -0.95097768 -0.59369349 4293661440
3.2904494 -0.95481551 -0.59987587 4293661440
3.2947135 -0.95594084 -0.60367095 4293661440
3.2801754 -0.9516151 -0.60330385 4293661440
3.2893968 -0.95417678 -0.60660893 4293661440
3.2798209 -0.95128965 -0.60573441 4293661440
3.2750902 -0.94980705 -0.60504818 4293661440
3.2955084 -0.95561141 -0.60831064 4293661440
3.3126178 -0.96045554 -0.61024255 4293792000
3.3164835 -0.96146166 -0.60900956 4293792000
3.320267 -0.96244341 -0.6070472 4293792000
3.3311448 -0.9654792 -0.60566491 4293792000
3.3304358 -0.9651587 -0.60145682 4293792000
3.3347414 -0.96628988 -0.59745312 4293792000
3.3400607 -0.96771407 -0.592924 4293792000
3.3396051 -0.96746582 -0.58667296 4293792000
3.347429 -0.96961379 -0.58118689 4293792000
3.338763 -0.96698862 -0.57216346 4293792000
3.3366435 -0.96625817 -0.56363088 4293792000
3.3217962 -0.96184504 -0.55233943 4293792000
3.3066659 -0.95735085 -0.54044968 4293661440
3.3176508 -0.96041167 -0.53223181 4293661440
3.3386369 -0.96636409 -0.52491546 4293792000
3.3475521 -0.96882391 -0.5150013 4293792000
3.3530266 -0.9702881 -0.50392246 4293792000
3.3180659 -0.96006078 -0.4862887 4293661440
3.3028567 -0.95554566 -0.4711996 4293661440
3.3129749 -0.95835239 -0.45922393 4293661440
3.3299501 -0.96313995 -0.4475747 4293661440
3.3316476 -0.96351117 -0.43328577 4293661440
3.3005672 -0.95441103 -0.414368 4293661440
3.311657 -0.95749629 -0.40039304 4293661440
3.3274977 -0.96195298 -0.38642439 4293661440
3.3409667 -0.9657234 -0.37161112 4293792000
3.3386073 -0.96492136 -0.35456657 4293661440
3.2864997 -0.94975388 -0.33210513 4293530880
3.307338 -0.95565152 -0.31684706 4293530880
3.3114507 -0.95671898 -0.29950163 4293661440
3.3094642 -0.95602542 -0.28126508 4293530880
3.2829571 -0.94825476 -0.26078543 4293530880
3.3218687 -0.95936471 -0.24518289 4293661440
3.3170011 -0.95783937 -0.22587159 4293661440
3.3284059 -0.96100897 -0.2073967 4293661440
3.298763 -0.95233649 -0.1862286 4293530880
3.308223 -0.95494485 -0.16720825 4293530880
3.3234453 -0.95921433 -0.14815854 4293661440
3.3219714 -0.95866805 -0.12811747 4293661440
3.2913828 -0.94972724 -0.10699735 4293530880
3.314671 -0.95632082 -0.087590404 4293530880
3.33179 -0.96113437 -0.067680508 4293661440
3.3183882 -0.95714998 -0.047042605 4293530880
3.3209677 -0.95777214 -0.026660105 4293530880
3.3341622 -0.96145266 -0.0062473598 4293661440
3.3434539 -0.96400785 0.014315645 4293661440
3.301302 -0.95174289 0.034465957 4293530880
3.3422325 -0.96341175 0.055385947 4293661440
3.3614092 -0.96881258 0.076262273 4293792000
3.3643467 -0.96953577 0.096828043 4293792000
3.2994866 -0.95073801 0.11499814 4293530880
3.3567743 -0.96711022 0.13717566 4293661440
3.365052 -0.96937066 0.15762076 4293792000
3.3510029 -0.96520448 0.17682439 4293661440
3.2402637 -0.93321371 0.19005552 4293269760
3.365242 -0.96905768 0.2168292 4293792000
3.369715 -0.97022229 0.23642127 4293792000
3.3637798 -0.96839255 0.2550191 4293792000
3.2356884 -0.93142682 0.26340172 4293269760
3.3735819 -0.97096759 0.2930145 4293792000
3.3907585 -0.97578478 0.31273821 4293922560
3.3748419 -0.97108567 0.32908976 4293792000
3.3320942 -0.95867419 0.34216937 4293661440
3.1924732 -0.91841924 0.34405437 4293139200
3.3831968 -0.97312188 0.38116741 4293922560
3.3774679 -0.97135383 0.39675653 4293922560
3.355881 -0.96502954 0.40991741 4293792000
3.3239384 -0.95573175 0.42111143 4293661440
3.2434042 -0.93247718 0.4252063 4293400320
3.3759983 -0.9704476 0.45682317 4293922560
3.3785505 -0.97106016 0.47098142 4293922560
3.3859365 -0.97306091 0.48531234 4293922560
3.3634937 -0.96649647 0.49477693 4293792000
3.3369682 -0.95876175 0.50289649 4293792000
3.3412828 -0.9598822 0.51498437 4293792000
3.3742816 -0.96923566 0.53100234 4293922560
3.3652782 -0.96653283 0.53990501 4293922560
3.3774636 -0.9699111 0.55157542 4293922560
3.3754859 -0.96922511 0.56033242 4293922560
3.3624463 -0.96536595 0.56657159 4293922560
3.3532197 -0.96260178 0.57273728 4293792000
3.3513126 -0.9619379 0.57945484 4293792000
3.3551064 -0.96290934 0.58648044 4293922560
3.3495035 -0.96118629 0.5911814 4293792000
3.3539486 -0.96234483 0.59695333 4293922560
3.3580301 -0.96339911 0.60197246 4293922560
3.3359642 -0.95695835 0.60159713 4293792000
3.3307962 -0.95536256 0.60352236 4293792000
3.3446836 -0.95922822 0.60818172 4293792000
3.3255394 -0.95362824 0.60614288 4293792000
3.3349216 -0.95620298 0.60856384 4293792000
3.3517282 -0.96090412 0.61162001 4293922560
3.3433514 -0.95839095 0.60938001 4293792000
3.346935 -0.95930427 0.60859472 4293792000
3.3605597 -0.96309298 0.60890192 4293922560
3.3581159 -0.96228009 0.60558605 4293922560
3.3630853 -0.96359009 0.60288709 4293922560
3.3646781 -0.96393347 0.59887004 4293922560
3.3718417 -0.96587151 0.59512556 4293922560
3.3639123 -0.96348977 0.58803332 4293922560
3.3635857 -0.96328449 0.58159107 4293922560
3.3636365 -0.96318746 0.57453501 4293922560
3.3440046 -0.95745945 0.56350559 4293792000
3.3408067 -0.95643425 0.55463147 4293792000
3.3417454 -0.95659274 0.54580253 4293792000
3.3523531 -0.95951688 0.53788042 4293792000
3.3732982 -0.9653967 0.53089315 4293922560
3.3640914 -0.96265388 0.51853383 4293922560
3.3536389 -0.95955557 0.50545186 4293792000
3.3183959 -0.94906223 0.41357613 4293661440
3.3591211 -0.96059275 0.40317836 4293792000
3.3616583 -0.96120989 0.38756818 4293792000
3.342114 -0.95551854 0.36907342 4293661440
3.3201716 -0.94914371 0.35010567 4293661440
3.3476782 -0.95689416 0.33589739 4293792000
3.3452847 -0.95610374 0.31820497 4293661440
3.3303132 -0.95172191 0.29906145 4293661440
3.3033323 -0.94391215 0.2787402 4293530880
3.3271079 -0.95059496 0.26237521 4293661440
3.3398466 -0.95412576 0.2446533 4293661440
3.3482575 -0.95642054 0.22622687 4293661440
3.3266563 -0.95014948 0.20561719 4293661440
3.3440986 -0.95502162 0.1871921 4293661440
3.3412368 -0.9540993 0.16735093 4293661440
3.3375525 -0.95294255 0.14732258 4293661440
3.315743 -0.9466154 0.12649433 4293530880
3.3243434 -0.94896388 0.10674635 4293661440
3.3255 -0.94918883 0.086585857 4293661440
3.314188 -0.94585794 0.066072926 4293530880
3.3109004 -0.94481593 0.045729514 4293530880
3.3102407 -0.94452351 0.025392165 4293530880
3.3139958 -0.94548965 0.0050361655 4293530880
3.2817099 -0.9361819 -0.01518753 4293400320
3.3102033 -0.94419968 -0.035691064 4293530880
3.310838 -0.94427615 -0.056022562 4293530880
3.3216562 -0.94725448 -0.076545268 4293530880
3.3033977 -0.94194728 -0.096257702 4293530880
3.3203647 -0.94667685 -0.11690721 4293530880
3.3270028 -0.9484629 -0.13720745 4293661440
3.3274274 -0.94847876 -0.15714569 4293661440
3.2974567 -0.93983787 -0.17529018 4293530880
3.3208365 -0.94639134 -0.19607213 4293661440
3.3289874 -0.94860709 -0.21592203 4293661440
3.3184795 -0.94550991 -0.23430736 4293661440
3.3064163 -0.94197059 -0.2522012 4293530880
3.3390088 -0.95114279 -0.27336571 4293661440
3.3544917 -0.95544326 -0.29309183 4293792000
3.341156 -0.95154136 -0.30998021 4293661440
3.2956626 -0.93848991 -0.32321808 4293530880
3.3356159 -0.94975203 -0.34449205 4293661440
3.3435595 -0.95190525 -0.36231446 4293661440
3.340899 -0.9510414 -0.37861121 4293661440
3.3321593 -0.9484486 -0.39374289 4293661440
3.2622337 -0.92845571 -0.4008078 4293400320
3.3730562 -0.95986366 -0.42990085 4293792000
3.3613796 -0.95643508 -0.44329938 4293792000
3.3675811 -0.95808965 -0.4585436 4293792000
3.3676553 -0.95800185 -0.47246364 4293792000
3.3447807 -0.95139116 -0.48253185 4293792000
3.3348598 -0.94846314 -0.49380225 4293792000
3.3399811 -0.94980991 -0.50672942 4293792000
3.3479073 -0.95195311 -0.51955503 4293792000
3.3462839 -0.95138252 -0.53032571 4293792000
3.3477674 -0.95169431 -0.54098487 4293792000
3.3381996 -0.94886696 -0.54921156 4293792000
3.3350313 -0.94785738 -0.55782813 4293792000
3.3447382 -0.95050383 -0.56797951 4293792000
3.3260739 -0.94509393 -0.57262766 4293792000
3.3212013 -0.94360048 -0.57894182 4293792000
3.2991276 -0.93722421 -0.58152747 4293661440
3.2993288 -0.93717152 -0.58733374 4293661440
3.2791333 -0.93132997 -0.58878845 4293661440
3.2869804 -0.93344706 -0.59458703 4293661440
3.2225614 -0.91505909 -0.58652824 4293400320
3.2363172 -0.91885328 -0.59199125 4293400320
3.2359717 -0.91864622 -0.59419167 4293400320
3.2262671 -0.91578442 -0.59397227 4293400320
3.2852349 -0.9323982 -0.60574591 4293661440
3.2804966 -0.93094307 -0.60505462 4293661440
3.305685 -0.93797302 -0.60918677 4293661440
3.2917087 -0.93389797 -0.60537559 4293661440
3.2957003 -0.93491685 -0.60417449 4293661440
3.3172214 -0.94090348 -0.60547161 4293792000
3.3366451 -0.94629401 -0.60564375 4293792000
3.3311958 -0.94463491 -0.60057324 4293792000
3.3390529 -0.94674593 -0.5972057 4293792000
3.3503187 -0.94982177 -0.59372717 4293792000
3.3414438 -0.94719166 -0.58598101 4293792000
3.3357935 -0.94547522 -0.57815248 4293792000
3.3361235 -0.94545233 -0.57070678 4293792000
3.3279092 -0.94300997 -0.56115788 4293792000
3.3102994 -0.93790787 -0.54944211 4293661440
3.3121278 -0.93830931 -0.54037279 4293661440
3.3278856 -0.94265294 -0.53291166 4293792000
3.3298814 -0.94310051 -0.5225786 4293792000
3.3483224 -0.9482013 -0.51417071 4293792000
3.341815 -0.94624162 -0.50129765 4293792000
3.3196609 -0.93985575 -0.48560855 4293661440
3.2993126 -0.93398201 -0.46979797 4293661440
3.3089087 -0.93657881 -0.45777708 4293661440
3.3197887 -0.93953776 -0.44533652 4293661440
3.3276844 -0.94165182 -0.43191627 4293661440
3.2926426 -0.93162572 -0.41254428 4293530880
3.3029966 -0.93443483 -0.3985332 4293530880
3.3316414 -0.94241297 -0.38611209 4293661440
3.3235176 -0.93999743 -0.36888894 4293661440
3.334425 -0.9429602 -0.35336664 4293661440
3.2731886 -0.92553818 -0.33003545 4293400320
3.2993786 -0.93281913 -0.3153798 4293530880
3.31183 -0.93621737 -0.29885641 4293530880
3.3044457 -0.93401217 -0.28018212 4293530880
3.2839942 -0.92811716 -0.26024327 4293530880
3.3129447 -0.93617296 -0.24391465 4293530880
3.3224666 -0.93874133 -0.22566624 4293661440
3.3158467 -0.9367522 -0.20605516 4293530880
3.2907417 -0.92954588 -0.18525046 4293530880
3.2992501 -0.93182778 -0.16625533 4293530880
3.3010304 -0.93221039 -0.14668064 4293530880
3.3082013 -0.9341138 -0.1271401 4293530880
3.291986 -0.92941898 -0.1066097 4293530880
3.3153095 -0.93587834 -0.08722686 4293530880
3.3189824 -0.93679368 -0.067062177 4293530880
3.3190274 -0.93668574 -0.046731424 4293530880
3.326421 -0.93864977 -0.026416514 4293530880
3.3287578 -0.93918759 -0.00597471 4293661440
3.3308635 -0.93966013 0.014497055 4293661440
3.3141437 -0.93482643 0.034788016 4293530880
3.3459828 -0.9436788 0.055611182 4293661440
3.3621066 -0.94810063 0.076411337 4293661440
3.3602364 -0.94745153 0.096813172 4293661440
3.2856493 -0.92631745 0.114591 4293400320
3.351347 -0.94470358 0.1369926 4293661440
3.3683236 -0.94936323 0.15777484 4293792000
3.3640907 -0.94804907 0.177477 4293792000
3.2321064 -0.91076481 0.18952166 4293269760
3.3659379 -0.94832546 0.2167777 4293792000
3.3752203 -0.95081651 0.23667504 4293792000
3.3558321 -0.94523758 0.25426045 4293661440
3.2409713 -0.91279203 0.26364142 4293269760
3.3886809 -0.95423847 0.29408842 4293792000
3.381907 -0.95221049 0.31166717 4293792000
3.3815548 -0.95198971 0.32944778 4293792000
3.3327372 -0.93813682 0.34191534 4293661440
3.1890595 -0.89760888 0.34335294 4293139200
3.3839252 -0.95229197 0.38086122 4293922560
3.3743615 -0.94948173 0.39597586 4293792000
3.3689139 -0.94782954 0.41105321 4293792000
3.324574 -0.93524545 0.42071992 4293661440
3.2439103 -0.91245532 0.42478341 4293400320
3.3732948 -0.94870049 0.45592135 4293792000
3.3935938 -0.95428455 0.47249851 4293922560
3.3723729 -0.94820207 0.48278224 4293922560
3.368969 -0.94712651 0.49495652 4293792000
3.3497531 -0.94161004 0.50416887 4293792000
3.3419595 -0.93930304 0.51441747 4293792000
3.3579957 -0.94368869 0.52775055 4293792000
3.3707561 -0.94715369 0.54005224 4293922560
3.3696444 -0.94672346 0.54955137 4293922560
3.3667183 -0.94578427 0.55810726 4293922560
3.3679206 -0.94600427 0.5666911 4293922560
3.3634305 -0.94462693 0.5736537 4293922560
3.3700683 -0.94637275 0.58184099 4293922560
3.355823 -0.94225907 0.58574402 4293792000
3.3549597 -0.94190091 0.59125978 4293792000
3.3461249 -0.93930703 0.59466869 4293792000
3.3635023 -0.94406575 0.6020292 4293922560
3.3366575 -0.93642211 0.60079139 4293792000
3.3362265 -0.93618697 0.60355604 4293792000
3.3359089 -0.93598402 0.60563064 4293792000
3.3357065 -0.93581355 0.60701293 4293792000
3.3356199 -0.93567604 0.60770154 4293792000
3.3439186 -0.93788868 0.60919625 4293792000
3.3440659 -0.93781692 0.60849428 4293792000
3.3476565 -0.93871021 0.6076985 4293792000
3.3575094 -0.94135797 0.60731208 4293922560
3.3636017 -0.94295192 0.60552216 4293922560
3.3638351 -0.94290477 0.60196441 4293922560
3.3701775 -0.94456863 0.59878033 4293922560
3.3678589 -0.94380713 0.59335649 4293922560
3.3599155 -0.9414711 0.58626711 4293922560
3.364337 -0.94259757 0.58064604 4293922560
3.3569024 -0.94040513 0.57231569 4293792000
3.3580327 -0.94061077 0.56478536 4293792000
3.3500783 -0.93827409 0.55509305 4293792000
3.3519726 -0.93869412 0.54639572 4293792000
3.3673596 -0.94288963 0.53920579 4293922560
3.3702507 -0.94358832 0.52934641 4293922560
3.3648362 -0.94196379 0.51758581 4293792000
3.3543646 -0.93892539 0.50450796 4293792000
3.3239045 -0.92957377 0.41356841 4293661440
3.3599124 -0.93952841 0.40260121 4293792000
3.3720238 -0.94280457 0.38810989 4293792000
3.3476598 -0.93589044 0.36906829 4293661440
3.3256803 -0.92964417 0.35010153 4293661440
3.3436444 -0.93455535 0.33493996 4293661440
3.3652217 -0.94047445 0.31956005 4293792000
3.3263237 -0.92950606 0.29821357 4293661440
3.3040102 -0.92317057 0.27833891 4293530880
3.3440559 -0.93424505 0.26326925 4293661440
3.3431206 -0.933878 0.24449153 4293661440
3.3394651 -0.93275189 0.22527169 4293661440
3.3227661 -0.92798603 0.20504731 4293530880
3.3440652 -0.9338243 0.18688978 4293661440
3.3498559 -0.93533427 0.16751032 4293661440
3.3442965 -0.93367755 0.14738366 4293661440
3.3153417 -0.92549545 0.12628281 4293530880
3.3220019 -0.92724848 0.10651006 4293530880
3.328207 -0.92887425 0.08652658 4293530880
3.3118756 -0.92421544 0.065935224 4293530880
3.3045139 -0.92205858 0.045586891 4293530880
3.3191805 -0.92604327 0.025432019 4293530880
3.3150916 -0.92479903 0.0050484841 4293530880
3.2823274 -0.91556257 -0.015145125 4293400320
3.3060517 -0.92207092 -0.035563372 4293530880
3.3115034 -0.92348599 -0.055918872 4293530880
3.3223398 -0.92640102 -0.076411121 4293530880
3.2992365 -0.91985989 -0.095950767 4293530880
3.3210466 -0.92583144 -0.11671282 4293530880
3.332509 -0.92891937 -0.13718395 4293661440
3.3309252 -0.9283731 -0.15702561 4293661440
3.2932928 -0.91778845 -0.17474969 4293530880
3.3176754 -0.92447346 -0.1955317 4293530880
3.3258424 -0.9266423 -0.21533085 4293661440
3.319164 -0.92467803 -0.23393928 4293530880
3.3206165 -0.92497718 -0.25284317 4293530880
3.3437669 -0.93131495 -0.27327478 4293661440
3.3505242 -0.9330892 -0.29222858 4293661440
3.3514798 -0.9332487 -0.31039831 4293661440
3.3038425 -0.91988856 -0.32345822 4293530880
3.3299043 -0.92703331 -0.34330004 4293661440
3.3525276 -0.93321985 -0.36265919 4293792000
3.3455398 -0.93116933 -0.37848198 4293661440
3.3334618 -0.92770344 -0.39321592 4293661440
3.2929518 -0.91633254 -0.40389848 4293530880
3.3638954 -0.93595093 -0.42799047 4293792000
3.3673279 -0.93679696 -0.44332325 4293792000
3.3683703 -0.93697828 -0.45786461 4293792000
3.3636725 -0.93556398 -0.47109511 4293792000
3.3455358 -0.93041509 -0.48181647 4293792000
3.3319035 -0.92651874 -0.49252176 4293661440
3.3282554 -0.9253971 -0.50408566 4293661440
3.3391438 -0.92831361 -0.5173108 4293792000
3.3480005 -0.9306649 -0.52969903 4293792000
3.3532953 -0.93202609 -0.54096383 4293792000
3.3437111 -0.92925483 -0.54919189 4293792000
3.345293 -0.92958432 -0.55860621 4293792000
3.334177 -0.92638814 -0.56522918 4293792000
3.3268104 -0.9242332 -0.57179356 4293792000
3.3171792 -0.92145008 -0.57727051 4293661440
3.3045704 -0.91784084 -0.58151585 4293661440
3.2914753 -0.91409719 -0.58495516 4293661440
3.279794 -0.91074646 -0.58792758 4293530880
3.2876542 -0.91281778 -0.59372199 4293661440
3.2278743 -0.89612472 -0.58652472 4293400320
3.232162 -0.89720589 -0.59025258 4293400320
3.2318161 -0.89700133 -0.59244877 4293400320
3.2268393 -0.8955124 -0.59310132 4293400320
3.290647 -0.91309541 -0.60575157 4293661440
3.2906437 -0.91298312 -0.60593843 4293661440
3.2679865 -0.90659094 -0.60124123 4293530880
3.297128 -0.9145568 -0.60538906 4293661440
3.2916355 -0.91292226 -0.60244966 4293661440
3.3264768 -0.92246425 -0.60618424 4293792000
3.3175502 -0.91987711 -0.60119987 4293661440
3.3319283 -0.92374635 -0.5997417 4293792000
3.3312488 -0.92344344 -0.59485382 4293792000
3.3377786 -0.92513704 -0.59055704 4293792000
3.3421857 -0.92624211 -0.58518136 4293792000
3.3365235 -0.92455852 -0.57736534 4293792000
3.3273423 -0.92190075 -0.56830484 4293792000
3.3294892 -0.92237926 -0.56054527 4293792000
3.3062208 -0.91582268 -0.54790735 4293661440
3.3040299 -0.91510087 -0.53821135 4293661440
3.3104906 -0.9167729 -0.52929974 4293661440
3.3267715 -0.92116141 -0.52128756 4293661440
3.3395174 -0.92457062 -0.51203179 4293792000
3.3325994 -0.92253935 -0.49915269 4293661440
3.3251822 -0.92037034 -0.48568586 4293661440
3.290823 -0.91075099 -0.46788403 4293530880
3.3094409 -0.91578245 -0.45717123 4293661440
3.3201659 -0.91863024 -0.44473153 4293661440
3.3305473 -0.92138207 -0.43165845 4293661440
3.2927766 -0.9108237 -0.41196498 4293530880
3.290221 -0.91000009 -0.39641798 4293530880
3.3236918 -0.91913164 -0.38464275 4293661440
3.3368261 -0.92264175 -0.36985615 4293661440
3.325506 -0.91939515 -0.35193273 4293661440
3.2919829 -0.91001618 -0.33149111 4293530880
3.2895107 -0.90921533 -0.31401417 4293530880
3.3107288 -0.91495663 -0.29836822 4293530880
3.3183858 -0.91695184 -0.28101438 4293530880
3.2797623 -0.90616935 -0.25958538 4293400320
3.3131685 -0.91527277 -0.24364072 4293530880
3.3228087 -0.9178142 -0.22543178 4293530880
3.3212769 -0.91727161 -0.20617148 4293530880
3.2865052 -0.90755707 -0.18482172 4293400320
3.2998385 -0.91111702 -0.16613057 4293530880
3.3055565 -0.91257519 -0.14676346 4293530880
3.3157964 -0.91528004 -0.12734951 4293530880
3.2877409 -0.90742284 -0.1064183 4293400320
3.3059921 -0.91233671 -0.08695925 4293530880
3.322576 -0.91678959 -0.067154109 4293530880
3.3154061 -0.91469276 -0.046730336 4293530880
3.3121915 -0.91368663 -0.026381917 4293530880
3.3372962 -0.92048579 -0.0061166608 4293661440
3.3454745 -0.92261875 0.014395572 4293661440
3.310894 -0.91296953 0.03456657 4293530880
3.3540106 -0.92472833 0.055513963 4293661440
3.3567185 -0.92535293 0.076031715 4293661440
