# .PCD v0.7 - Point Cloud Data file format
VERSION 0.7
FIELDS x y z rgba
SIZE 4 4 4 4
TYPE F F F U
COUNT 1 1 1 1
WIDTH 1103
HEIGHT 1
VIEWPOINT 0 0 0 1 0 0 0
POINTS 1103
DATA ascii
3.1531167 -1.5328447 -0.54459018 4294053120
3.1318171 -1.5223836 -0.55070925 4293922560
3.1397064 -1.5261 -0.56129986 4293922560
3.1089578 -1.5110512 -0.56425935 4293922560
3.0693789 -1.491716 -0.5647791 4293661440
3.0976646 -1.5053365 -0.57713246 4293792000
3.0384886 -1.4764888 -0.57242423 4293661440
3.0589633 -1.4863153 -0.58201134 4293661440
3.0706577 -1.4918771 -0.58930635 4293792000
3.0824451 -1.4974827 -0.59597105 4293792000
3.0907853 -1.5014137 -0.60130161 4293792000
3.0947974 -1.5032431 -0.60510248 4293792000
3.0900567 -1.5008237 -0.60648358 4293792000
3.089854 -1.5006064 -0.60804713 4293792000
3.0809028 -1.4961437 -0.60717356 4293792000
3.0853488 -1.4981813 -0.60823613 4293792000
3.0810468 -1.4959739 -0.60686195 4293792000
3.056478 -1.4839346 -0.60078949 4293661440
3.0523903 -1.4818318 -0.59806472 4293661440
3.0315716 -1.4716135 -0.59137768 4293661440
3.0823712 -1.4961311 -0.59796971 4293792000
3.1214874 -1.5149779 -0.60148823 4293922560
3.1324294 -1.5201594 -0.59879833 4293922560
3.1435575 -1.5254296 -0.59541333 4294053120
3.1440911 -1.5255617 -0.58930659 4294053120
3.1539252 -1.5302023 -0.58424342 4294053120
3.160054 -1.5330453 -0.57778162 4294053120
3.1549945 -1.5304643 -0.56860197 4294053120
3.1483071 -1.5270942 -0.55850673 4294053120
3.1506505 -1.528101 -0.54938912 4294053120
3.1604476 -1.532719 -0.54090744 4294053120
3.1580415 -1.5314227 -0.52969092 4294053120
3.1666393 -1.5354577 -0.51969963 4294053120
3.1833944 -1.5434437 -0.51036644 4294053120
3.1743379 -1.5389237 -0.4962776 4294053120
3.1559341 -1.5298767 -0.48027539 4294053120
3.1531599 -1.5284009 -0.46620733 4293922560
3.1704955 -1.536664 -0.45453361 4294053120
3.1788568 -1.5405796 -0.44094396 4294053120
3.1614196 -1.532002 -0.42331648 4294053120
3.1457644 -1.5242883 -0.40561941 4293922560
3.1728628 -1.537274 -0.39294687 4294053120
3.1820889 -1.5416054 -0.37743172 4294053120
3.1914105 -1.5459819 -0.3614144 4294053120
3.1620893 -1.5316541 -0.34071577 4293922560
3.1597056 -1.5303651 -0.32273534 4293922560
3.1704929 -1.5354499 -0.30570713 4293922560
3.176429 -1.5381861 -0.28778037 4294053120
3.1428511 -1.5218035 -0.26610547 4293922560
3.1724567 -1.535991 -0.24954803 4293922560
3.1860063 -1.5424088 -0.23119013 4294053120
3.1856546 -1.5421011 -0.21148786 4294053120
3.1904008 -1.544259 -0.19187352 4294053120
3.1836131 -1.5408382 -0.1713683 4294053120
3.1820428 -1.5399412 -0.15101813 4294053120
3.1975789 -1.5473154 -0.13124053 4294053120
3.1766789 -1.5370718 -0.10984474 4293922560
3.2012193 -1.548798 -0.089907408 4294053120
3.209805 -1.5528092 -0.069204912 4294053120
3.2028856 -1.5493253 -0.048078306 4294053120
3.1900067 -1.5429618 -0.026941121 4294053120
3.2105987 -1.5527747 -0.0060308944 4294053120
3.221724 -1.5580113 0.015112979 4294183680
3.2023089 -1.5484904 0.036056552 4294053120
3.2353587 -1.564319 0.057605088 4294183680
3.2452004 -1.5689331 0.078968227 4294183680
3.2595432 -1.5757207 0.10050587 4294314240
3.1560636 -1.5255978 0.11779282 4293922560
3.2391624 -1.565595 0.14165933 4294183680
3.2510374 -1.5711895 0.16290638 4294314240
3.2527175 -1.5718602 0.18355404 4294314240
3.1701603 -1.5318582 0.19879104 4293922560
3.2617807 -1.575955 0.22466776 4294314240
3.2651799 -1.5774555 0.24486174 4294314240
3.2611134 -1.5753521 0.26422501 4294314240
3.1612775 -1.5270249 0.27497932 4293922560
3.2784932 -1.58346 0.30425546 4294444800
3.2851822 -1.5865476 0.32372954 4294444800
3.2858779 -1.5867429 0.34229806 4294444800
3.2569942 -1.5726666 0.35726669 4294314240
3.0548699 -1.4750131 0.35169873 4293530880
3.2791467 -1.5830762 0.39461458 4294444800
3.2849925 -1.5857571 0.41215491 4294444800
3.2642198 -1.5755991 0.42583519 4294314240
3.2254598 -1.5567683 0.43640912 4294183680
3.1263747 -1.50885 0.43771696 4293922560
3.2820714 -1.5837953 0.47425824 4294444800
3.3000891 -1.5923454 0.49124163 4294575360
3.2990065 -1.5916859 0.50490832 4294575360
3.269594 -1.5773697 0.51355833 4294444800
3.2553036 -1.5703458 0.52381152 4294314240
3.1343415 -1.5119089 0.51587659 4293922560
3.2844119 -1.584106 0.55183643 4294444800
3.2928977 -1.5880606 0.56401622 4294575360
3.2874718 -1.5853113 0.57318115 4294575360
3.2765329 -1.5799067 0.5806762 4294444800
3.2713485 -1.5772759 0.58846706 4294444800
3.2678394 -1.575453 0.59585065 4294444800
3.2589707 -1.5710493 0.60153753 4294444800
3.2713861 -1.5768986 0.61044031 4294444800
3.2559342 -1.5693256 0.61344612 4294444800
3.2507756 -1.5667115 0.61762923 4294444800
3.2634811 -1.5727009 0.62447828 4294444800
3.2798395 -1.5804486 0.63132656 4294575360
3.2625692 -1.5720043 0.63098681 4294444800
3.2658291 -1.5734458 0.63384748 4294444800
3.2532241 -1.5672505 0.6328913 4294444800
3.2620354 -1.5713654 0.63533747 4294444800
3.2620847 -1.5712628 0.63533771 4294444800
3.2533717 -1.5669438 0.63289195 4294444800
3.2762582 -1.5778326 0.63581729 4294444800
3.2642198 -1.5719144 0.63123977 4294444800
3.2716868 -1.5753831 0.62967962 4294444800
3.2554233 -1.5674343 0.62284136 4294444800
3.26388 -1.5713799 0.61999089 4294444800
3.2846835 -1.5812645 0.61870545 4294575360
3.2864063 -1.5819702 0.61307895 4294575360
3.2879648 -1.5825974 0.60669881 4294575360
3.282774 -1.5799788 0.5983783 4294575360
3.2839711 -1.5804331 0.59052891 4294575360
3.2826574 -1.5796806 0.58154345 4294444800
3.2799101 -1.5782392 0.57164121 4294444800
3.2724237 -1.57452 0.56028485 4294444800
3.3046782 -1.5899072 0.55497462 4294575360
3.2896714 -1.5825734 0.54106665 4294444800
3.2739348 -1.5748904 0.52652591 4294444800
3.260741 -1.5676792 0.43373162 4294314240
3.2876523 -1.5804917 0.42116562 4294444800
3.2940373 -1.5834432 0.40534538 4294444800
3.2644231 -1.5691038 0.38478515 4294314240
3.2478123 -1.5610121 0.36555964 4294314240
3.2727897 -1.572894 0.35053113 4294314240
3.2745521 -1.5736264 0.33249468 4294314240
3.2536838 -1.5634927 0.31191358 4294314240
3.2323487 -1.5531362 0.2911832 4294183680
3.2526481 -1.5627704 0.27385738 4294314240
3.2550547 -1.5638136 0.25459963 4294314240
3.2478673 -1.5602512 0.23434521 4294183680
3.2418957 -1.5572734 0.21399914 4294183680
3.2538085 -1.5628797 0.19454874 4294314240
3.2628853 -1.5671244 0.1745849 4294314240
3.2577641 -1.5645552 0.15365294 4294314240
3.2238805 -1.5481845 0.13146134 4294183680
3.2356744 -1.5537333 0.1110993 4294183680
3.2345054 -1.5530621 0.090108484 4294183680
3.221122 -1.5465311 0.068778872 4294053120
3.2148018 -1.5433893 0.047646698 4294053120
3.2237413 -1.5475678 0.026659716 4294183680
3.2289438 -1.5499535 0.0055194977 4294183680
3.1946869 -1.5334132 -0.015483617 4294053120
3.2064302 -1.5389363 -0.036575556 4294053120
3.2193387 -1.5450172 -0.057806615 4294053120
3.2215154 -1.5459512 -0.078878313 4294053120
3.2129276 -1.5417236 -0.099556789 4294053120
3.231236 -1.550392 -0.12104216 4294183680
3.2333581 -1.551299 -0.14191654 4294183680
3.2219353 -1.5457125 -0.16197933 4294183680
3.2056339 -1.5377882 -0.18144582 4294053120
3.2143283 -1.5418458 -0.20209847 4294053120
3.2248805 -1.5467927 -0.2227723 4294183680
3.2013388 -1.5353998 -0.24075454 4294053120
3.2229462 -1.545644 -0.26188323 4294183680
3.2404807 -1.5539349 -0.28263068 4294183680
3.2418995 -1.5545028 -0.30177042 4294183680
3.2388191 -1.5529147 -0.32015142 4294183680
3.153044 -1.5117102 -0.32946402 4293922560
3.2345457 -1.5506426 -0.35594872 4294183680
3.2290077 -1.5478772 -0.37284184 4294183680
3.2411366 -1.5535737 -0.39140737 4294314240
3.2234688 -1.5449984 -0.40590063 4294183680
3.1453402 -1.5074698 -0.411818 4293922560
3.2524681 -1.5586581 -0.44175625 4294314240
3.2468331 -1.555845 -0.45632741 4294314240
3.2472439 -1.5559266 -0.47121626 4294314240
3.239852 -1.5522722 -0.48441005 4294314240
3.1988728 -1.5325391 -0.49181521 4294183680
3.2177558 -1.5414635 -0.50780094 4294183680
3.212867 -1.5390079 -0.51950717 4294183680
3.2158191 -1.540305 -0.53188747 4294183680
3.2168 -1.5406581 -0.54335016 4294183680
3.2256956 -1.544798 -0.55556661 4294314240
3.2131941 -1.5386984 -0.56344324 4294183680
3.215584 -1.5397243 -0.57326019 4294183680
3.1990485 -1.5316951 -0.57899809 4294183680
3.1989589 -1.5315342 -0.58700836 4294183680
3.184164 -1.5243386 -0.59160233 4294183680
3.1357529 -1.5010644 -0.58911681 4293922560
3.1518157 -1.5086298 -0.59802097 4294053120
3.0917883 -1.479804 -0.59169114 4293792000
3.1000504 -1.4836386 -0.59768802 4293792000
3.0995257 -1.4832705 -0.6013031 4293792000
3.0991058 -1.4829521 -0.60423797 4293792000
3.1156723 -1.4907544 -0.60980093 4293922560
3.1030304 -1.4845916 -0.60892916 4293792000
3.1109304 -1.4882487 -0.61138397 4293922560
3.1029518 -1.484315 -0.60999984 4293792000
3.0897534 -1.4778868 -0.60687786 4293792000
3.0819938 -1.4740583 -0.60412449 4293792000
3.1415992 -1.5024208 -0.61386883 4293922560
3.1841617 -1.5226349 -0.61948681 4294183680
3.194932 -1.5276552 -0.61813653 4294183680
3.1901453 -1.5252422 -0.61304539 4294183680
3.2151401 -1.5370556 -0.61294693 4294314240
3.2115738 -1.5352241 -0.60664797 4294183680
3.2245021 -1.5412705 -0.60275054 4294314240
3.2197523 -1.5388726 -0.59482872 4294314240
3.2175977 -1.537714 -0.58671671 4294314240
3.2147934 -1.5362448 -0.57782274 4294183680
3.2121699 -1.5348618 -0.56831199 4294183680
3.2031534 -1.5304263 -0.55705017 4294183680
3.1983638 -1.5280089 -0.54593074 4294183680
3.2190163 -1.5377361 -0.53848803 4294183680
3.234616 -1.5450494 -0.52945846 4294314240
3.2409134 -1.5479214 -0.51822114 4294314240
3.2294898 -1.5423359 -0.50357699 4294314240
3.206423 -1.5311949 -0.48668438 4294183680
3.2144086 -1.5348717 -0.47403347 4294183680
3.2305772 -1.5424515 -0.46195483 4294183680
3.2369993 -1.54538 -0.4478592 4294314240
3.2166545 -1.5355396 -0.42961586 4294183680
3.2150686 -1.5346479 -0.41351506 4294183680
3.2234592 -1.5385141 -0.39820972 4294183680
3.2439325 -1.5481412 -0.38381398 4294314240
3.2490051 -1.5504228 -0.36703226 4294314240
3.2082953 -1.5308748 -0.34484887 4294053120
3.2084711 -1.5308223 -0.32692575 4294053120
3.224313 -1.5382377 -0.31015956 4294183680
3.2336874 -1.5425687 -0.2922864 4294183680
3.2106714 -1.5314606 -0.2712338 4294053120
3.2268083 -1.539014 -0.25325596 4294183680
3.242861 -1.5465256 -0.23480499 4294183680
3.2484107 -1.5490309 -0.21520467 4294183680
3.2457986 -1.547647 -0.1948117 4294183680
3.2283745 -1.5392064 -0.1734404 4294183680
3.2384975 -1.5438899 -0.15342578 4294183680
3.241698 -1.5452751 -0.132833 4294183680
3.2162347 -1.5330077 -0.11105409 4294053120
3.2406099 -1.5444776 -0.090914689 4294183680
3.2492239 -1.54844 -0.070016772 4294183680
3.2560327 -1.5515418 -0.04890747 4294183680
3.2490413 -1.5480727 -0.027536109 4294183680
3.2676322 -1.5567831 -0.0062951534 4294314240
3.2765598 -1.560892 0.015152398 4294314240
3.2605865 -1.5531477 0.036432322 4294183680
3.2805068 -1.562488 0.058073904 4294314240
3.2887819 -1.5662847 0.079632871 4294314240
3.3083663 -1.5754622 0.10154918 4294444800
3.2658904 -1.5551095 0.12133626 4294314240
3.2917337 -1.5672643 0.14337613 4294314240
3.3073113 -1.5745335 0.16507977 4294444800
3.3011324 -1.5714523 0.18558724 4294444800
3.2627993 -1.5530782 0.20382266 4294314240
3.3035109 -1.5723004 0.22673228 4294444800
3.3160312 -1.5781131 0.24780041 4294444800
3.3095007 -1.5748663 0.26721874 4294444800
3.2537749 -1.5482293 0.2820299 4294314240
3.3247213 -1.5818204 0.30750862 4294575360
3.3359118 -1.5869986 0.32763305 4294575360
3.3280494 -1.5831198 0.3455528 4294575360
3.3228483 -1.5805068 0.36328831 4294575360
3.2234402 -1.5331223 0.36981571 4294183680
3.317209 -1.5775462 0.39791867 4294575360
3.3214738 -1.5794332 0.41540995 4294575360
3.3248987 -1.5809209 0.43236735 4294575360
3.28234 -1.5605627 0.44269884 4294444800
3.2633982 -1.5514275 0.45540476 4294314240
3.3189344 -1.5776713 0.47809833 4294575360
3.3300896 -1.5828316 0.49418351 4294575360
3.3211846 -1.5784646 0.50675279 4294575360
3.3156471 -1.5756977 0.5191946 4294575360
3.310082 -1.5729187 0.5309934 4294575360
3.2937763 -1.5650409 0.54038572 4294444800
3.3223546 -1.5784738 0.5565275 4294575360
3.3169863 -1.5757899 0.56644487 4294575360
3.3052154 -1.5700678 0.5745644 4294575360
3.3324909 -1.5828798 0.58881998 4294705920
3.3156693 -1.5747619 0.59466386 4294575360
3.3173244 -1.5754139 0.60307574 4294575360
3.3082931 -1.5709956 0.60883301 4294575360
3.2988937 -1.5664039 0.61377251 4294575360
3.3069725 -1.5701056 0.62122917 4294575360
3.2904627 -1.5621424 0.62334496 4294575360
3.2942917 -1.5638289 0.62854731 4294575360
3.2973361 -1.5651435 0.63287139 4294575360
3.2933679 -1.5631324 0.63511074 4294575360
3.2930727 -1.5628641 0.63730532 4294575360
3.2964513 -1.5643384 0.63945997 4294575360
3.3008347 -1.5662893 0.6410588 4294575360
3.2884216 -1.560277 0.63865423 4294575360
3.3043547 -1.5677046 0.64097929 4294575360
3.2957313 -1.5634905 0.63780451 4294575360
3.3125997 -1.5713609 0.63878703 4294575360
3.3006396 -1.5655668 0.63347936 4294575360
3.313709 -1.5716363 0.6322096 4294575360
3.3113198 -1.5703797 0.62724799 4294575360
3.3067245 -1.5680784 0.62114525 4294575360
3.3142848 -1.5715374 0.6165837 4294575360
3.3164363 -1.5724337 0.61028081 4294575360
3.3125982 -1.5704931 0.60217184 4294575360
3.3062744 -1.5673754 0.59293491 4294575360
3.2971275 -1.5629216 0.58254373 4294575360
3.3047242 -1.5663995 0.5744254 4294575360
3.3128021 -1.5701048 0.5656783 4294575360
3.3285277 -1.5774319 0.55750191 4294575360
3.3162994 -1.5715214 0.5440107 4294575360
3.3102331 -1.5685298 0.53096431 4294575360
3.282968 -1.5549866 0.43545973 4294444800
3.3198142 -1.5723093 0.42408139 4294575360
3.325211 -1.574747 0.40802148 4294575360
3.296313 -1.5609566 0.38743976 4294444800
3.2841051 -1.5550656 0.36858863 4294314240
3.3112507 -1.5677948 0.35363367 4294444800
3.3102145 -1.5671899 0.33515111 4294444800
3.2936919 -1.5592594 0.31483662 4294444800
3.276757 -1.5511353 0.29432428 4294314240
3.2938113 -1.5590891 0.2765142 4294444800
3.3069394 -1.5651847 0.25789252 4294444800
3.3038964 -1.5636324 0.23767486 4294444800
3.2773588 -1.5509701 0.21569999 4294314240
3.3112688 -1.5668924 0.19737993 4294444800
3.3122575 -1.5672468 0.17668355 4294444800
3.3060985 -1.564222 0.15544792 4294444800
3.2735741 -1.5487337 0.13306302 4294314240
3.2847998 -1.5539289 0.1124178 4294314240
3.2881196 -1.5553863 0.091288477 4294314240
3.2864304 -1.5544763 0.069910698 4294314240
3.2672312 -1.5452909 0.048227984 4294314240
3.2711513 -1.5470326 0.026916996 4294314240
3.2798629 -1.551038 0.0055277906 4294314240
3.2400858 -1.5321318 -0.015721172 4294183680
3.2585092 -1.5407263 -0.037132889 4294183680
3.2627366 -1.5426129 -0.058485929 4294183680
3.2634325 -1.5428308 -0.079745971 4294183680
3.2486541 -1.5357391 -0.10044515 4294183680
3.2776275 -1.5493138 -0.12250741 4294314240
3.2738452 -1.547416 -0.14336079 4294314240
3.2749953 -1.5478476 -0.16426407 4294314240
3.2505422 -1.5361882 -0.18354759 4294183680
3.2698584 -1.5451984 -0.20509677 4294314240
3.2702045 -1.5452501 -0.22534914 4294314240
3.2628615 -1.5416713 -0.24478273 4294314240
3.2597344 -1.5400831 -0.26420727 4294314240
3.2822926 -1.55062 -0.28555652 4294314240
3.2953846 -1.556687 -0.30597827 4294444800
3.2904723 -1.5542548 -0.32443467 4294444800
3.2498446 -1.5349663 -0.33874047 4294183680
3.2774882 -1.5478996 -0.35974988 4294314240
3.2804093 -1.5491642 -0.37780693 4294314240
3.270493 -1.5443709 -0.39392668 4294314240
3.2660551 -1.5421629 -0.41019878 4294314240
3.214535 -1.517742 -0.4197996 4294183680
3.2898743 -1.5531708 -0.44567168 4294444800
3.2881925 -1.5522616 -0.46093446 4294444800
3.2843153 -1.5503168 -0.47534758 4294444800
3.2895088 -1.55265 -0.49054983 4294444800
3.2776353 -1.5469334 -0.50261992 4294444800
3.262377 -1.5396211 -0.51349044 4294314240
3.2640042 -1.5402718 -0.52639019 4294314240
3.2669442 -1.5415407 -0.53892213 4294314240
3.2698596 -1.5427976 -0.55085802 4294444800
3.268681 -1.5421238 -0.56148034 4294444800
3.2529039 -1.534568 -0.56889343 4294314240
3.2677529 -1.5414486 -0.58101851 4294444800
3.2571533 -1.5363333 -0.58795446 4294314240
3.2359445 -1.5262184 -0.59221196 4294314240
3.2360449 -1.5261464 -0.59964293 4294314240
3.2316618 -1.5239613 -0.6055392 4294314240
3.2205782 -1.5186191 -0.60944629 4294183680
3.1686778 -1.4940467 -0.60479891 4294053120
3.1760573 -1.4974045 -0.61071628 4294053120
3.1844299 -1.501229 -0.61613566 4294053120
3.1839981 -1.5009054 -0.61914033 4294053120
3.1881304 -1.502731 -0.6223163 4294183680
3.1196001 -1.4703354 -0.61051869 4293922560
3.1833689 -1.5002455 -0.62394452 4294053120
3.1664608 -1.4921618 -0.62081128 4294053120
3.1746068 -1.4958752 -0.62187535 4294053120
3.2179472 -1.5161569 -0.62910587 4294183680
3.205833 -1.510329 -0.62472785 4294183680
3.2245431 -1.5190111 -0.62563443 4294314240
3.239887 -1.526107 -0.62512589 4294314240
3.2570651 -1.5340642 -0.62420648 4294444800
3.2586699 -1.534691 -0.619546 4294444800
3.2689688 -1.5394082 -0.61580336 4294444800
3.2589934 -1.5345845 -0.60752106 4294444800
3.2682662 -1.5388172 -0.6021325 4294444800
3.2641711 -1.5367597 -0.59356987 4294444800
3.2608693 -1.5350754 -0.58448666 4294314240
3.2587581 -1.5339508 -0.57496017 4294314240
3.2433796 -1.5265863 -0.56247979 4294314240
3.2538056 -1.5313576 -0.55385566 4294314240
3.2636013 -1.5358315 -0.54442531 4294314240
3.280829 -1.5437986 -0.53552347 4294444800
3.2896559 -1.547814 -0.52454358 4294444800
3.2761207 -1.5413157 -0.50941443 4294444800
3.262002 -1.5345438 -0.49373129 4294314240
3.2547727 -1.5310109 -0.47862807 4294314240
3.2723866 -1.5391543 -0.4666056 4294314240
3.2813437 -1.5432277 -0.45270291 4294444800
3.2634594 -1.534687 -0.43462381 4294314240
3.257812 -1.5318972 -0.41781071 4294314240
3.2722852 -1.5385606 -0.40307963 4294314240
3.283047 -1.5434791 -0.38731536 4294314240
3.2918661 -1.5474837 -0.37079176 4294444800
3.2555916 -1.5303071 -0.34891093 4294314240
3.253279 -1.5290835 -0.3305164 4294183680
3.2769558 -1.5400649 -0.31429368 4294314240
3.2657449 -1.5346618 -0.29429618 4294314240
3.2530239 -1.5285504 -0.27398303 4294183680
3.2631476 -1.5331652 -0.25532466 4294314240
3.2870452 -1.544245 -0.2372714 4294314240
3.2990081 -1.5497204 -0.21787794 4294314240
3.297581 -1.54891 -0.19729602 4294314240
3.2749262 -1.5381371 -0.17537393 4294314240
3.2913008 -1.5456814 -0.15541567 4294314240
3.2916298 -1.5456951 -0.13442156 4294314240
3.2659059 -1.5334848 -0.11237154 4294183680
3.2934434 -1.5462642 -0.092054121 4294314240
3.2975605 -1.5480546 -0.070769802 4294314240
3.3138201 -1.5555402 -0.049548592 4294444800
3.2764471 -1.5378697 -0.027584553 4294314240
3.3049693 -1.5511055 -0.0062452862 4294314240
3.3182478 -1.5571907 0.015406554 4294444800
3.304291 -1.5505044 0.036921971 4294314240
3.3117261 -1.5538487 0.058576915 4294444800
3.3261664 -1.5604768 0.080425978 4294444800
3.3317831 -1.5629674 0.10210541 4294444800
3.2943592 -1.5452837 0.12217198 4294314240
3.3212373 -1.5577401 0.14437895 4294444800
3.3328898 -1.5630591 0.16601776 4294444800
3.3249648 -1.5592034 0.18653262 4294444800
3.3002763 -1.5474939 0.20570673 4294314240
3.3129036 -1.5532695 0.22687948 4294444800
3.3334763 -1.5627662 0.24854231 4294444800
3.3297184 -1.5608646 0.26823267 4294444800
3.2911818 -1.5426737 0.2845951 4294314240
3.3263154 -1.5589888 0.30694091 4294444800
3.349896 -1.569891 0.32822463 4294575360
3.3409085 -1.5655414 0.34605601 4294575360
3.3327391 -1.5615758 0.36348978 4294575360
3.2758451 -1.5347998 0.37488416 4294314240
3.3404043 -1.5648844 0.39970937 4294575360
3.3291681 -1.5594853 0.41534516 4294575360
3.331692 -1.5605277 0.4321757 4294575360
3.3113 -1.5508456 0.44547495 4294444800
3.2736449 -1.5330871 0.45568541 4294314240
3.3333621 -1.5608944 0.47895965 4294575360
3.3345234 -1.5613002 0.49358788 4294575360
3.3335874 -1.560725 0.50734502 4294575360
3.3296494 -1.558746 0.52004731 4294575360
3.3231719 -1.5555799 0.53171796 4294575360
3.2972658 -1.5433277 0.53956336 4294444800
3.327601 -1.5573806 0.55596191 4294575360
3.3266437 -1.5567981 0.56661308 4294575360
3.3242104 -1.5555259 0.57634753 4294575360
3.3178389 -1.5524131 0.58470792 4294575360
3.3225121 -1.5544648 0.59432185 4294575360
3.3232663 -1.5546845 0.60255969 4294575360
3.3225937 -1.5542378 0.60983747 4294575360
3.3244321 -1.5549653 0.61686414 4294575360
3.3111043 -1.548605 0.62034535 4294575360
3.3193033 -1.5523062 0.62710685 4294575360
3.3222463 -1.5535512 0.63216037 4294575360
3.3141305 -1.5496294 0.63437009 4294575360
3.309258 -1.547224 0.63643926 4294575360
3.3134243 -1.5490422 0.63949043 4294575360
3.3043168 -1.5446599 0.63923556 4294575360
3.3131747 -1.5486703 0.64168894 4294575360
3.3208158 -1.5521121 0.64315426 4294575360
3.3174105 -1.5503951 0.64173174 4294575360
3.3087642 -1.5462316 0.63854873 4294575360
3.3127151 -1.5479513 0.63703799 4294575360
3.322953 -1.5526065 0.63597083 4294575360
3.3107169 -1.5467694 0.62987578 4294575360
3.3185089 -1.5502832 0.62684101 4294575360
3.3179467 -1.5498973 0.62148947 4294575360
3.3159301 -1.5488333 0.61514336 4294575360
3.3216243 -1.5513682 0.60949498 4294575360
3.3133552 -1.5473872 0.60058969 4294575360
3.3105376 -1.5459511 0.59199405 4294575360
3.2987053 -1.5403095 0.58114219 4294444800
3.2989352 -1.540297 0.57176286 4294444800
3.3144274 -1.547405 0.56430757 4294575360
3.33725 -1.5579319 0.55732131 4294575360
3.3189838 -1.5492917 0.54284722 4294575360
3.3189051 -1.5491363 0.53077376 4294575360
3.2871192 -1.5336816 0.43481413 4294444800
3.3312812 -1.5541544 0.42437267 4294575360
3.3311212 -1.5539639 0.40762168 4294575360
3.298954 -1.5388544 0.38668364 4294444800
3.2846773 -1.5320859 0.36763871 4294314240
3.3082638 -1.5429647 0.35234341 4294444800
3.3160753 -1.5464909 0.33481419 4294444800
3.2999265 -1.5388517 0.3145563 4294444800
3.2691596 -1.5244027 0.29283276 4294314240
3.2995164 -1.5384341 0.27621946 4294314240
3.3053653 -1.5410463 0.25705174 4294444800
3.3036029 -1.5401124 0.2369884 4294314240
3.2923577 -1.5347614 0.21606809 4294314240
3.3088672 -1.5423391 0.19668004 4294444800
3.3065052 -1.5411265 0.17587747 4294314240
3.3166394 -1.5457338 0.1554886 4294444800
3.2868407 -1.5317448 0.13320538 4294314240
3.3024304 -1.5388926 0.11267628 4294314240
3.2943223 -1.5350055 0.091180056 4294314240
3.2995596 -1.5373323 0.069961779 4294314240
3.2815335 -1.5288289 0.048268259 4294314240
3.2900047 -1.5326612 0.026955437 4294314240
3.2939661 -1.5343939 0.0054949224 4294314240
3.2631459 -1.5199376 -0.015837653 4294183680
3.280952 -1.5281143 -0.037335522 4294314240
3.2987788 -1.5362993 -0.059028763 4294314240
3.2974284 -1.5355593 -0.080414988 4294314240
3.2700028 -1.5226866 -0.10088134 4294183680
3.3041105 -1.538445 -0.12321667 4294314240
3.3140519 -1.5429581 -0.14479062 4294444800
3.315186 -1.5433732 -0.16589241 4294444800
3.2816131 -1.5276437 -0.18485838 4294314240
3.2901466 -1.5315012 -0.20586342 4294314240
3.2930903 -1.5327584 -0.22636659 4294314240
3.2984543 -1.5351405 -0.24684496 4294314240
3.2862759 -1.5293646 -0.26569486 4294314240
3.3161538 -1.5431453 -0.28778327 4294444800
3.3179424 -1.5438632 -0.30729508 4294444800
3.3208289 -1.5450913 -0.32660189 4294444800
3.2953014 -1.5331094 -0.34261674 4294314240
3.3073845 -1.5386127 -0.36210889 4294444800
3.3139102 -1.5415316 -0.38069412 4294444800
3.3173478 -1.5430144 -0.39855716 4294444800
3.297847 -1.5338361 -0.41313112 4294444800
3.2667847 -1.5192859 -0.42553839 4294314240
3.3281434 -1.5476842 -0.44969884 4294575360
3.321943 -1.5446866 -0.46446571 4294575360
3.3323941 -1.5494256 -0.48106757 4294575360
3.3131409 -1.5403634 -0.49279115 4294444800
3.3120542 -1.5397414 -0.50658202 4294444800
3.2851181 -1.5271118 -0.51572251 4294444800
3.2892537 -1.5289158 -0.5290789 4294444800
3.2957811 -1.5318297 -0.54226077 4294444800
3.2954485 -1.5315572 -0.55371678 4294444800
3.2933969 -1.5304859 -0.56424367 4294444800
3.2934046 -1.5303705 -0.57447231 4294444800
3.2924006 -1.5297849 -0.58386266 4294444800
3.2959108 -1.5312947 -0.59339136 4294444800
3.2871373 -1.5271015 -0.60000747 4294444800
3.2682898 -1.5182322 -0.60402328 4294444800
3.2563956 -1.5125912 -0.60856146 4294314240
3.2510617 -1.5099953 -0.61358958 4294314240
3.224097 -1.4973612 -0.61376023 4294183680
3.2368484 -1.5031581 -0.62077063 4294314240
3.1841409 -1.4785808 -0.61443174 4294053120
3.1881754 -1.4803332 -0.618294 4294053120
3.1923194 -1.4821353 -0.62146443 4294053120
3.1921082 -1.4819165 -0.62306392 4294053120
3.1830788 -1.4776069 -0.62220919 4294053120
3.2432747 -1.5054048 -0.63419282 4294314240
3.2309017 -1.4995424 -0.63122052 4294314240
3.2458606 -1.5063548 -0.63286036 4294314240
3.2532315 -1.5096474 -0.6322695 4294314240
3.2614963 -1.5133531 -0.63110471 4294314240
3.2777169 -1.5207464 -0.63072401 4294444800
3.2842324 -1.5236386 -0.62771237 4294444800
3.2898288 -1.5261039 -0.62377864 4294444800
3.2835178 -1.5230492 -0.61686105 4294444800
3.2886243 -1.5252862 -0.61138004 4294444800
3.2905982 -1.5260704 -0.60459411 4294444800
3.2893701 -1.5253704 -0.59651941 4294444800
3.2951324 -1.5279088 -0.58901644 4294444800
3.2887044 -1.5247986 -0.57865512 4294444800
3.2725012 -1.5171601 -0.56597239 4294314240
3.2615535 -1.5119568 -0.55363721 4294314240
3.2863998 -1.5233331 -0.54671329 4294444800
3.2998056 -1.5294085 -0.53712642 4294444800
3.3140464 -1.5358688 -0.52696466 4294444800
3.3015203 -1.5299332 -0.51193398 4294444800
3.274262 -1.5171767 -0.49419606 4294314240
3.2760091 -1.5178511 -0.48039845 4294314240
3.2987008 -1.528221 -0.4690347 4294444800
3.3078709 -1.5323294 -0.45507413 4294444800
3.2911975 -1.5244753 -0.437076 4294444800
3.2663379 -1.5128335 -0.41770276 4294314240
3.2910388 -1.5241283 -0.40422615 4294314240
3.3104372 -1.5329673 -0.38942394 4294444800
3.3092556 -1.5322824 -0.37166792 4294444800
3.2735908 -1.5156437 -0.34981489 4294314240
3.2733488 -1.5153946 -0.33157793 4294314240
3.2953207 -1.5254204 -0.31511787 4294314240
3.2848821 -1.5204538 -0.29513562 4294314240
3.2665594 -1.5118415 -0.27428937 4294183680
3.2837141 -1.5196366 -0.25614989 4294314240
3.2934906 -1.5240185 -0.23699433 4294314240
3.2889173 -1.5217646 -0.2165136 4294314240
3.2938199 -1.5238919 -0.19642824 4294314240
3.2747252 -1.5149256 -0.17477922 4294183680
3.2866058 -1.5202781 -0.15465951 4294314240
3.3046181 -1.5284635 -0.13447909 4294314240
3.2571042 -1.5063653 -0.11164532 4294183680
3.2887409 -1.520846 -0.09155304 4294314240
3.2970312 -1.5245366 -0.070446216 4294314240
3.2985106 -1.5250798 -0.049055409 4294314240
3.2762287 -1.5146461 -0.02738487 4294183680
3.3057337 -1.5281358 -0.0061046244 4294314240
3.3081555 -1.5291138 0.015450999 4294314240
3.3005116 -1.5254427 0.036910169 4294314240
3.3070579 -1.5283256 0.058468148 4294314240
3.326983 -1.5373855 0.080358624 4294444800
3.3317778 -1.5394578 0.10196099 4294444800
3.3073456 -1.5280368 0.12244566 4294314240
3.3117869 -1.5299467 0.14371663 4294314240
3.3275592 -1.5370865 0.16544025 4294444800
3.3212442 -1.534031 0.18595523 4294444800
3.2874255 -1.5182831 0.20449115 4294314240
3.3082488 -1.5277532 0.22608308 4294314240
3.3288798 -1.5371331 0.24766384 4294444800
3.3296437 -1.5373451 0.26763341 4294444800
3.2996118 -1.5233504 0.28467727 4294314240
3.3217111 -1.5334059 0.30582017 4294444800
3.3372188 -1.5404193 0.32623586 4294444800
3.3454649 -1.5440826 0.34571654 4294575360
3.3287134 -1.5362177 0.36219797 4294444800
3.2950351 -1.5205491 0.37617144 4294314240
3.3355906 -1.5391113 0.39818028 4294575360
3.3318243 -1.5372362 0.41467166 4294575360
3.3246672 -1.5337987 0.43022126 4294444800
3.3156986 -1.5295273 0.44497317 4294444800
3.2859282 -1.5156689 0.45626202 4294314240
3.3289082 -1.535342 0.47713977 4294575360
3.3298886 -1.5356573 0.49167961 4294575360
3.3339629 -1.5373985 0.50613421 4294575360
3.3376372 -1.5389555 0.51998085 4294575360
3.3276112 -1.5342007 0.53108263 4294575360
3.3184681 -1.5298538 0.5416429 4294575360
3.3194952 -1.5301929 0.55320257 4294575360
3.3261719 -1.5331342 0.56508607 4294575360
3.3295698 -1.5345657 0.57579267 4294575360
3.3097265 -1.5252944 0.58178234 4294444800
3.318902 -1.5293875 0.59214437 4294575360
3.3322117 -1.5353839 0.60260814 4294575360
3.322576 -1.5308158 0.60824639 4294575360
3.3118794 -1.5257605 0.61293775 4294575360
3.3155251 -1.5273086 0.61954129 4294575360
3.3148062 -1.5268478 0.62461179 4294575360
3.3097022 -1.5243695 0.62811846 4294575360
3.3181345 -1.5281216 0.63344961 4294575360
3.3011603 -1.5201824 0.63319814 4294444800
3.3008649 -1.5199193 0.63537389 4294444800
3.3297744 -1.5330931 0.64241564 4294575360
3.3171785 -1.5271711 0.64073306 4294575360
3.3172274 -1.5270673 0.64072692 4294575360
3.304863 -1.5212543 0.63758051 4294575360
3.3176591 -1.5270149 0.63851696 4294575360
3.3135781 -1.5250132 0.63546288 4294575360
3.3068323 -1.521787 0.63116145 4294575360
3.3115726 -1.5238432 0.62830335 4294575360
3.3149059 -1.5252527 0.62443197 4294575360
3.3143394 -1.5248696 0.61909288 4294575360
3.3203793 -1.5275239 0.61424816 4294575360
3.3130884 -1.5240506 0.60623229 4294575360
3.3177948 -1.5260926 0.59969956 4294575360
3.3068948 -1.5209621 0.58967388 4294444800
3.2995129 -1.5174496 0.57963306 4294444800
3.3033309 -1.5190849 0.57088751 4294444800
3.3143723 -1.5240393 0.56267911 4294444800
3.3236628 -1.5281887 0.5534603 4294575360
3.3234274 -1.5279617 0.54199392 4294575360
3.3062575 -1.5199559 0.52721667 4294444800
3.2915323 -1.5123231 0.4342089 4294314240
3.3186562 -1.5246607 0.42162174 4294444800
3.3155904 -1.5231382 0.40462756 4294444800
3.3044057 -1.5178895 0.38626611 4294444800
3.2854545 -1.5090773 0.3667264 4294314240
3.3036718 -1.5173248 0.35090256 4294314240
3.3040724 -1.5173951 0.33270577 4294314240
3.2889559 -1.5103453 0.31266889 4294314240
3.2744062 -1.5035568 0.29250655 4294314240
3.2924273 -1.5117133 0.2748867 4294314240
3.3016388 -1.5158269 0.25607276 4294314240
3.295331 -1.512821 0.23576497 4294314240
3.2831409 -1.5071174 0.21489164 4294314240
3.3096728 -1.5191754 0.19620208 4294314240
3.3027618 -1.5158936 0.17521346 4294314240
3.3129194 -1.5204401 0.15490562 4294314240
3.2738814 -1.5024266 0.1323396 4294183680
3.2866693 -1.5081797 0.11185631 4294314240
3.2959816 -1.5123384 0.090991199 4294314240
3.2870514 -1.5081331 0.069529518 4294314240
3.2704298 -1.5004025 0.047996566 4294183680
3.2898333 -1.5091867 0.026897674 4294314240
3.2938046 -1.5108962 0.0054974579 4294314240
3.254719 -1.492871 -0.015730688 4294183680
3.2771184 -1.503027 -0.03716924 4294183680
3.2904491 -1.5090256 -0.058695115 4294314240
3.2924948 -1.5098521 -0.080053113 4294314240
3.2624364 -1.4959682 -0.10034908 4294183680
3.3051608 -1.5154328 -0.12289955 4294314240
3.3102355 -1.5176461 -0.14420635 4294314240
3.3132591 -1.5189192 -0.16532145 4294314240
3.2822542 -1.5046051 -0.18436919 4294314240
3.3006918 -1.5129387 -0.20594394 4294314240
3.3065491 -1.5155094 -0.22665718 4294314240
3.2964935 -1.510792 -0.24600272 4294314240
3.2914724 -1.5083805 -0.26537031 4294314240
3.3251367 -1.5236828 -0.28775874 4294444800
3.3269296 -1.5243902 -0.30727017 4294444800
3.3207674 -1.5214552 -0.32568395 4294444800
3.283663 -1.5043554 -0.34044918 4294314240
3.3163419 -1.5192014 -0.36208344 4294444800
3.3147454 -1.5183566 -0.37973219 4294444800
3.3218114 -1.521476 -0.39798796 4294444800
3.3194251 -1.5202689 -0.4146921 4294444800
3.2711151 -1.4980463 -0.42492497 4294314240
3.339541 -1.5292429 -0.44999671 4294575360
3.333322 -1.5262809 -0.46477509 4294575360
3.3344622 -1.5266858 -0.48003945 4294575360
3.3343439 -1.5265146 -0.49458846 4294575360
3.3210189 -1.5203018 -0.50655967 4294444800
3.3045211 -1.5126382 -0.51735163 4294444800
3.3010378 -1.5109279 -0.52952206 4294444800
3.303983 -1.5121576 -0.54212338 4294444800
3.3076909 -1.5137351 -0.55425715 4294444800
3.3086789 -1.5140685 -0.56531811 4294444800
3.3019342 -1.5108657 -0.57439029 4294444800
3.3008046 -1.5102301 -0.58375937 4294444800
3.3021448 -1.5107231 -0.5928961 4294444800
3.296571 -1.5080552 -0.60009563 4294444800
3.2986407 -1.508881 -0.60798866 4294444800
3.2896111 -1.5046332 -0.61311448 4294444800
3.2802155 -1.5002183 -0.61742622 4294444800
3.2680485 -1.4945371 -0.62046218 4294314240
3.2639399 -1.4925387 -0.6242857 4294314240
3.236088 -1.4796917 -0.62279308 4294183680
3.2526672 -1.4871452 -0.62912935 4294314240
3.2397978 -1.4811441 -0.6290307 4294314240
3.252121 -1.4866512 -0.63309842 4294314240
3.2394822 -1.4807553 -0.63156068 4294314240
3.2667856 -1.4931021 -0.63708931 4294314240
3.2669172 -1.4930377 -0.63656592 4294314240
3.2706096 -1.4945987 -0.63599449 4294314240
3.2778857 -1.4977953 -0.63537455 4294444800
3.2779224 -1.4976857 -0.6326037 4294444800
3.2882657 -1.5022807 -0.63107926 4294444800
3.2957065 -1.5055496 -0.62824219 4294444800
3.2962506 -1.5056692 -0.62334746 4294444800
3.3008947 -1.5076598 -0.61849815 4294444800
3.2964878 -1.505519 -0.61123335 4294444800
3.2982082 -1.5061741 -0.60440558 4294444800
3.3056049 -1.5094186 -0.59790188 4294444800
3.2988124 -1.5061883 -0.58813679 4294444800
3.2928092 -1.5033182 -0.57787126 4294444800
3.2750354 -1.4950787 -0.564942 4294314240
3.2838328 -1.49896 -0.5559873 4294314240
3.2988558 -1.5056797 -0.54737622 4294444800
3.3086984 -1.5100352 -0.53719443 4294444800
3.3184738 -1.5143589 -0.52632028 4294444800
3.3104155 -1.5105498 -0.51200891 4294444800
3.2830827 -1.4979534 -0.49427378 4294314240
3.2811553 -1.4969409 -0.47993991 4294314240
3.3042476 -1.5073329 -0.46864489 4294444800
3.3093727 -1.5095333 -0.45414305 4294444800
3.2918513 -1.5014117 -0.43607634 4294314240
3.2704153 -1.4915072 -0.41719297 4294314240
3.2881398 -1.4994487 -0.4028779 4294314240
3.3074028 -1.5080894 -0.38811833 4294444800
3.3115659 -1.5098488 -0.37103069 4294444800
3.2645433 -1.4882898 -0.34800929 4294183680
3.2658894 -1.4887671 -0.33003578 4294183680
3.294678 -1.5017431 -0.31431955 4294314240
3.2871118 -1.4981596 -0.29465613 4294314240
3.2575102 -1.4845419 -0.27290413 4294183680
3.2807903 -1.4950058 -0.25535041 4294314240
3.2944529 -1.5010887 -0.23654786 4294314240
3.2995801 -1.5032846 -0.21676095 4294314240
3.2890501 -1.4983524 -0.19573957 4294314240
3.2708085 -1.4899108 -0.17422582 4294183680
3.2736242 -1.4910544 -0.15375668 4294183680
3.2875876 -1.4972711 -0.13354886 4294314240
3.2485812 -1.4793826 -0.11118094 4294053120
3.2893198 -1.4977816 -0.091458529 4294314240
3.2898932 -1.4979036 -0.070237517 4294314240
3.2925837 -1.4989887 -0.048970565 4294314240
3.2682037 -1.4877596 -0.027378209 4294183680
3.2848613 -1.495198 -0.0061781248 4294183680
3.3015761 -1.502661 0.015240675 4294314240
3.2920945 -1.4982097 0.03657968 4294314240
3.2941084 -1.4989865 0.057947222 4294314240
3.3222799 -1.511656 0.07988736 4294314240
3.3233781 -1.5120151 0.10129045 4294314240
3.3071427 -1.5044947 0.12196471 4294314240
3.3045943 -1.5031968 0.14287907 4294314240
3.3199537 -1.5100385 0.16447827 4294314240
3.3210845 -1.5104128 0.18530218 4294444800
3.2962675 -1.4989959 0.20434184 4294314240
3.3101504 -1.5051656 0.22546129 4294314240
3.316031 -1.5076985 0.2459109 4294314240
3.3168044 -1.507911 0.26575211 4294444800
3.2916863 -1.4963624 0.28309688 4294314240
3.3270144 -1.5122714 0.30534345 4294444800
3.3416581 -1.5187832 0.32565176 4294444800
3.3371651 -1.5166038 0.34380212 4294444800
3.325335 -1.5110935 0.36072758 4294444800
3.2912142 -1.4954635 0.3745991 4294314240
3.3231039 -1.5098052 0.39550409 4294444800
3.3281136 -1.5119421 0.41297394 4294444800
3.325465 -1.5106028 0.42904535 4294444800
3.3155718 -1.5059761 0.44364178 4294444800
3.2786362 -1.4890776 0.45391697 4294314240
3.321521 -1.5084045 0.47469437 4294444800
3.3308256 -1.512491 0.49038684 4294444800
3.3253825 -1.509886 0.50337607 4294444800
3.325943 -1.5100055 0.5166738 4294444800
3.3239458 -1.5089651 0.52897817 4294444800
3.2934017 -1.4949768 0.53603321 4294444800
3.3149028 -1.5045962 0.55086881 4294444800
3.3184526 -1.5060734 0.56218261 4294444800
3.3124161 -1.5032035 0.57122153 4294444800
3.3357019 -1.5136303 0.58468187 4294575360
3.3233154 -1.5078822 0.59126824 4294575360
3.3150892 -1.5040216 0.59785104 4294444800
3.3314922 -1.5113268 0.6081773 4294575360
3.3081892 -1.5006335 0.61056209 4294444800
3.3118598 -1.5021679 0.61715174 4294444800
3.3156159 -1.5037413 0.6230467 4294575360
3.3275545 -1.5090227 0.62976462 4294575360
3.31042 -1.5011302 0.63025814 4294444800
3.3100095 -1.5008168 0.63316363 4294444800
3.3097117 -1.500555 0.63534546 4294444800
3.3095279 -1.5003453 0.6368013 4294444800
3.3004861 -1.496124 0.63580757 4294444800
3.3050196 -1.4980524 0.63666892 4294444800
3.3047397 -1.4978008 0.63585705 4294444800
3.3050172 -1.4978024 0.63440377 4294444800
3.3179607 -1.5035397 0.63461751 4294575360
3.3156829 -1.5023845 0.63117784 4294575360
3.3204339 -1.5044124 0.62832642 4294575360
3.3192842 -1.5037692 0.62362134 4294575360
3.3187132 -1.5033885 0.61829579 4294575360
3.3157814 -1.5019397 0.6118142 4294444800
3.3134098 -1.5007452 0.60473019 4294444800
3.3311598 -1.5086575 0.60056376 4294575360
3.3067396 -1.4974859 0.58814389 4294444800
3.2993329 -1.494015 0.57813269 4294444800
3.2995555 -1.493997 0.56880063 4294444800
3.3151221 -1.5009212 0.56139594 4294444800
3.3290489 -1.5071028 0.55297327 4294575360
3.3151777 -1.5007098 0.53931689 4294444800
3.3105776 -1.4985117 0.52660578 4294444800
3.2921898 -1.4893277 0.43313017 4294314240
3.3103285 -1.4974123 0.41944167 4294444800
3.3199253 -1.5016354 0.4040682 4294444800
3.2960205 -1.4907175 0.38426 4294314240
3.2806361 -1.4836518 0.36521226 4294314240
3.3043373 -1.4942492 0.35003498 4294314240
3.3092721 -1.4963658 0.33233657 4294314240
3.2806058 -1.4833013 0.31104913 4294183680
3.2700381 -1.4784154 0.29134169 4294183680
3.302506 -1.4929709 0.27498916 4294314240
3.2968225 -1.4902916 0.25502419 4294314240
3.30459 -1.4936881 0.23579617 4294314240
3.2746248 -1.4800431 0.21377417 4294183680
3.2969451 -1.4900122 0.19494158 4294314240
3.3070312 -1.4944552 0.17497812 4294314240
3.2987645 -1.4906112 0.15385078 4294314240
3.2826953 -1.4832449 0.13234763 4294183680
3.3000004 -1.490947 0.11201469 4294314240
3.2911146 -1.4868248 0.090630718 4294183680
3.2821581 -1.4826711 0.069258146 4294183680
3.260025 -1.4725709 0.047737818 4294183680
3.2767413 -1.4800059 0.026743324 4294183680
3.2766743 -1.4798657 0.0054817083 4294183680
3.2420413 -1.4641271 -0.015601869 4294053120
3.2702885 -1.4767642 -0.036969446 4294183680
3.2756453 -1.4790713 -0.058246434 4294183680
3.2872224 -1.4841844 -0.079687424 4294183680
3.2670438 -1.4749708 -0.10020324 4294183680
3.3016007 -1.4904493 -0.12241472 4294314240
3.3046052 -1.4916934 -0.14355026 4294314240
3.3021457 -1.4904729 -0.16429707 4294314240
3.2728429 -1.4771461 -0.1833203 4294183680
3.2900445 -1.4847928 -0.20470098 4294314240
3.2885711 -1.4840173 -0.22478822 4294314240
3.2975407 -1.4879502 -0.24539863 4294314240
3.2939985 -1.4862413 -0.26484019 4294314240
3.3153839 -1.4957707 -0.28611743 4294314240
3.3258417 -1.5003721 -0.30632252 4294444800
3.3235507 -1.4992261 -0.32506153 4294444800
3.2762239 -1.4777813 -0.33874109 4294183680
3.3095026 -1.4926674 -0.36034241 4294314240
3.3132708 -1.4942521 -0.37852314 4294444800
3.3193834 -1.4968927 -0.39660838 4294444800
3.3111327 -1.4930605 -0.41252249 4294444800
3.2487674 -1.4648473 -0.42086008 4294183680
3.3352811 -1.5037105 -0.44819653 4294444800
3.3380964 -1.5048628 -0.46417677 4294444800
3.3375878 -1.5045174 -0.47918531 4294575360
3.3307667 -1.5013283 -0.49271533 4294444800
3.3263373 -1.4992167 -0.50599796 4294444800
3.3019643 -1.4881235 -0.51555055 4294444800
3.3069448 -1.4902498 -0.52903783 4294444800
3.3180149 -1.4951171 -0.5429616 4294444800
3.3086634 -1.4907888 -0.55292481 4294444800
3.313812 -1.4929887 -0.56467175 4294444800
3.3106604 -1.4914514 -0.57436222 4294444800
3.3055997 -1.4890546 -0.58303815 4294444800
3.31094 -1.491339 -0.59288329 4294444800
3.2922115 -1.4827902 -0.59769326 4294444800
3.2984319 -1.4854699 -0.60632217 4294444800
3.2727416 -1.4737895 -0.60833174 4294314240
3.2685306 -1.4717751 -0.61357874 4294314240
3.2562194 -1.466116 -0.61656243 4294314240
3.2600501 -1.4677192 -0.62187952 4294314240
3.2675796 -1.4709855 -0.62719548 4294314240
3.2532399 -1.464414 -0.62756962 4294314240
3.2484183 -1.4621241 -0.62903619 4294314240
3.2356296 -1.456251 -0.62821358 4294183680
3.2436097 -1.4597178 -0.63069624 4294183680
3.2754743 -1.4739232 -0.6371026 4294314240
3.2630332 -1.4682053 -0.63413322 4294314240
3.2748158 -1.4733783 -0.63514048 4294314240
3.2910912 -1.4805695 -0.63626641 4294444800
3.2821445 -1.4764218 -0.63176185 4294444800
3.3005993 -1.4845902 -0.63179654 4294444800
3.2928612 -1.4809849 -0.6260618 4294444800
3.3038759 -1.4858069 -0.62316728 4294444800
3.3011241 -1.4844419 -0.61693561 4294444800
3.3017588 -1.484598 -0.61062759 4294444800
3.3082376 -1.4873793 -0.60468197 4294444800
3.2955716 -1.4815593 -0.59454691 4294444800
3.3001859 -1.4835019 -0.58687055 4294444800
3.294987 -1.4810361 -0.57677293 4294444800
3.2820358 -1.4750887 -0.56470674 4294314240
3.2798567 -1.4739794 -0.55389851 4294314240
3.2977195 -1.481869 -0.54579878 4294444800
3.3092339 -1.4869065 -0.5359233 4294444800
3.3231738 -1.4930316 -0.52574044 4294444800
3.3134391 -1.4885275 -0.5111925 4294444800
3.296495 -1.4807879 -0.49505991 4294314240
3.2720275 -1.4696726 -0.47741079 4294314240
3.3033478 -1.4835956 -0.46735814 4294314240
3.2987983 -1.4814192 -0.45157343 4294314240
3.2861261 -1.4755985 -0.43425065 4294314240
3.2693882 -1.4679542 -0.41604811 4294183680
3.2860179 -1.4752803 -0.40164548 4294314240
3.2976859 -1.4803791 -0.38604692 4294314240
3.304831 -1.483448 -0.369394 4294314240
3.2543962 -1.4606917 -0.34610689 4294183680
3.2657154 -1.4656333 -0.32925057 4294183680
3.2733328 -1.4689136 -0.31155497 4294183680
3.272095 -1.4682227 -0.29263791 4294183680
3.2522571 -1.4591928 -0.27185404 4294053120
3.2676382 -1.4659525 -0.25376379 4294183680
3.2826126 -1.4725285 -0.23518778 4294183680
3.2738214 -1.4684513 -0.21460816 4294183680
3.2951095 -1.4778551 -0.19570965 4294314240
3.2540653 -1.4593245 -0.17299198 4294053120
3.2740905 -1.4681611 -0.15350048 4294183680
3.278969 -1.4702098 -0.1329723 4294183680
3.243906 -1.4543642 -0.1108556 4294053120
3.2679262 -1.4649881 -0.090745121 4294183680
3.2721462 -1.4667412 -0.069799304 4294183680
3.2851167 -1.4724131 -0.048863411 4294183680
3.2636256 -1.4626509 -0.027402606 4294183680
3.2807844 -1.4701973 -0.0062913545 4294183680
3.2966304 -1.4771546 0.015039203 4294183680
3.3008139 -1.4788892 0.036432236 4294314240
3.2954528 -1.4763509 0.05767408 4294183680
3.3228664 -1.4884834 0.079545379 4294314240
3.3239684 -1.4888374 0.10089534 4294314240
3.2898958 -1.4734495 0.12087463 4294183680
3.3087859 -1.4817649 0.14253512 4294314240
3.3205392 -1.4868855 0.16392721 4294314240
3.3216751 -1.487255 0.18470027 4294314240
3.270622 -1.4642768 0.20209014 4294183680
3.3086197 -1.4811378 0.22461949 4294314240
3.3211694 -1.4866132 0.24549526 4294314240
3.3173935 -1.4847863 0.2649551 4294314240
3.286751 -1.4709451 0.28178975 4294183680
3.3255429 -1.488155 0.30426371 4294444800
3.3332283 -1.4914535 0.32383946 4294444800
3.3415272 -1.495026 0.34320277 4294444800
3.3250539 -1.487524 0.35961056 4294444800
3.2722569 -1.4637871 0.37134048 4294183680
3.3270895 -1.4881603 0.39480048 4294444800
3.3323874 -1.4903916 0.41228226 4294444800
3.3342676 -1.4910954 0.42891473 4294444800
3.3071268 -1.4788319 0.44122833 4294314240
3.2782545 -1.4657974 0.45254961 4294314240
3.3212566 -1.4848754 0.47328886 4294444800
3.3305893 -1.4889098 0.48894617 4294444800
3.3341811 -1.4903797 0.50326169 4294444800
3.3302214 -1.4884769 0.51586604 4294444800
3.3237014 -1.4854314 0.52744371 4294444800
3.2984996 -1.4740444 0.53534782 4294314240
3.319155 -1.4831356 0.550026 4294444800
3.3182023 -1.4825782 0.56057072 4294444800
3.3216786 -1.4839984 0.57121938 4294444800
3.318367 -1.4823889 0.58004415 4294444800
3.3239858 -1.484766 0.58975524 4294444800
3.3106878 -1.4787004 0.59541917 4294444800
3.317863 -1.481773 0.60404021 4294444800
3.3169289 -1.4812268 0.61049896 4294444800
3.3071012 -1.4767128 0.61459351 4294444800
3.2987092 -1.4728408 0.61820334 4294444800
3.3106823 -1.478055 0.62489325 4294444800
3.3065603 -1.476089 0.62783444 4294444800
3.3097479 -1.4773842 0.63141894 4294444800
3.3094482 -1.4771245 0.63360095 4294444800
3.3182597 -1.4809283 0.63677913 4294444800
3.3055937 -1.4751548 0.63510287 4294444800
3.3011408 -1.4730446 0.63424832 4294444800
3.3134537 -1.4784105 0.63585389 4294444800
3.3137302 -1.4784099 0.6344071 4294444800
3.3141074 -1.4784546 0.6322329 4294444800
3.3154199 -1.4789168 0.62949187 4294444800
3.3201802 -1.4809159 0.62665695 4294444800
3.3199241 -1.4806796 0.62213832 4294444800
3.3184474 -1.4798999 0.61666512 4294444800
3.3073957 -1.474854 0.60871929 4294444800
3.3131213 -1.4772849 0.60314596 4294444800
3.3101799 -1.4758544 0.59529185 4294444800
3.3028171 -1.4724548 0.58597618 4294444800
3.299895 -1.4710344 0.57678914 4294444800
3.2956011 -1.4690036 0.56671333 4294314240
3.3148134 -1.4774426 0.5599606 4294444800
3.3367889 -1.4871112 0.55289638 4294575360
3.3067245 -1.4736052 0.53663898 4294444800
3.3192821 -1.4790798 0.52670902 4294444800
3.2871125 -1.4642589 0.43134132 4294314240
3.3177238 -1.4777701 0.41927895 4294444800
3.3314347 -1.483758 0.4044033 4294444800
3.2908177 -1.4655683 0.38265333 4294314240
3.2764077 -1.4590434 0.3637878 4294183680
3.3083489 -1.4731436 0.34953541 4294314240
3.3025599 -1.4704551 0.33079132 4294314240
3.2798862 -1.4602557 0.31015727 4294183680
3.2698007 -1.4556577 0.29054517 4294183680
3.2879062 -1.4636005 0.27305004 4294183680
3.2925987 -1.4655764 0.25401428 4294183680
3.3003809 -1.4689262 0.2348597 4294314240
3.2748938 -1.4574805 0.21320669 4294183680
3.3088551 -1.4724721 0.19509757 4294314240
3.3064644 -1.4712979 0.17445853 4294314240
3.307303 -1.4715595 0.15380478 4294314240
3.2692754 -1.4545424 0.13143161 4294183680
3.2902734 -1.4637672 0.11135635 4294183680
3.2868419 -1.4621316 0.090233818 4294183680
3.2869961 -1.46209 0.069127709 4294183680
3.2676253 -1.4533708 0.047668356 4294183680
3.2757046 -1.456852 0.026611123 4294183680
3.2894082 -1.4628319 0.0054234634 4294183680
3.2546847 -1.4472928 -0.015689265 4294053120
3.2711427 -1.4544963 -0.036946423 4294183680
3.2812641 -1.4588834 -0.058263645 4294183680
3.2787535 -1.4576583 -0.079339109 4294183680
3.2622426 -1.4502141 -0.099863634 4294053120
3.2869258 -1.4610685 -0.12161922 4294183680
3.2856376 -1.460386 -0.14242074 4294183680
3.2969849 -1.4653152 -0.1636893 4294183680
3.2676802 -1.452191 -0.18263213 4294183680
3.2849371 -1.4597439 -0.20393121 4294183680
3.2874875 -1.4607656 -0.22421338 4294183680
3.288733 -1.4612076 -0.24418813 4294183680
3.2806296 -1.4574991 -0.2631599 4294183680
3.3111894 -1.4709538 -0.28509995 4294314240
3.3216782 -1.4754972 -0.30523276 4294314240
3.3130019 -1.4715335 -0.32327422 4294314240
3.2801313 -1.4568328 -0.33835751 4294183680
3.301594 -1.4662454 -0.35863647 4294314240
3.3145456 -1.4718797 -0.3777796 4294314240
3.309577 -1.4695615 -0.39449885 4294314240
3.3018706 -1.4660287 -0.41038966 4294314240
3.2616875 -1.4480885 -0.42153552 4294183680
3.3323841 -1.4793367 -0.44673762 4294444800
3.3352115 -1.4804755 -0.46266431 4294444800
3.3362646 -1.4808269 -0.47784466 4294444800
3.3332858 -1.4793895 -0.49190161 4294444800
3.3127279 -1.4701566 -0.5027042 4294444800
3.3040617 -1.4661977 -0.51462919 4294314240
3.3088787 -1.4682174 -0.52806199 4294444800
3.3118427 -1.4694147 -0.54062843 4294444800
3.3102558 -1.468594 -0.55184019 4294444800
3.307107 -1.4670806 -0.56214571 4294444800
3.3115206 -1.468919 -0.57310057 4294444800
3.3039565 -1.4654481 -0.58131212 4294444800
3.3005154 -1.4638046 -0.58955216 4294444800
3.2863572 -1.4574116 -0.59515011 4294314240
3.2898157 -1.4588252 -0.60323256 4294314240
3.2652068 -1.4478025 -0.6054163 4294314240
3.2724488 -1.450892 -0.61278164 4294314240
3.2646112 -1.4473003 -0.61660683 4294314240
3.2455101 -1.4387194 -0.61754423 4294183680
3.2575657 -1.4439396 -0.62369359 4294314240
3.2481172 -1.4396344 -0.62499583 4294183680
3.2477865 -1.4393673 -0.62731946 4294183680
3.2520711 -1.4411435 -0.62980759 4294183680
3.2519693 -1.4409767 -0.63071245 4294183680
3.2393794 -1.4352806 -0.62845367 4294183680
3.2669415 -1.44736 -0.63326424 4294314240
3.2536829 -1.4413673 -0.62940663 4294314240
3.2665112 -1.4469217 -0.62987083 4294314240
3.282943 -1.4540695 -0.63027602 4294314240
3.2911825 -1.4575902 -0.62834889 4294444800
3.2971995 -1.4601263 -0.62524933 4294444800
3.3075006 -1.4645569 -0.62221467 4294444800
