# .PCD v0.7 - Point Cloud Data file format
VERSION 0.7
FIELDS x y z rgba
SIZE 4 4 4 4
TYPE F F F U
COUNT 1 1 1 1
WIDTH 1078
HEIGHT 1
VIEWPOINT 0 0 0 1 0 0 0
POINTS 1078
DATA ascii
3.2163765 -0.72833341 0.3427633 4293269760
3.3534617 -0.75923622 0.37368801 4293661440
3.332525 -0.75439811 0.38713413 4293661440
3.3271534 -0.75308019 0.40183151 4293661440
3.2926171 -0.7451694 0.41237193 4293530880
3.2845864 -0.74325162 0.42558026 4293530880
3.3367524 -0.75493848 0.44629595 4293661440
3.3443682 -0.75655502 0.46079069 4293792000
3.3493545 -0.7575767 0.47444853 4293792000
3.3355293 -0.75434834 0.48486665 4293661440
3.3189776 -0.75050467 0.49422368 4293661440
3.3008106 -0.746297 0.50265348 4293661440
3.3209639 -0.75074339 0.51634759 4293661440
3.3312061 -0.75295049 0.5280003 4293661440
3.3215597 -0.75066692 0.53589278 4293661440
3.3232188 -0.75093555 0.54496711 4293661440
3.3350558 -0.7535007 0.55511284 4293792000
3.3147254 -0.74880624 0.5592398 4293661440
3.3236704 -0.75071788 0.56762969 4293661440
3.3256872 -0.75106573 0.57419628 4293661440
3.3152015 -0.74859327 0.57791901 4293661440
3.3240664 -0.75048506 0.58433616 4293661440
3.3017712 -0.74534976 0.58457398 4293661440
3.3050678 -0.74598545 0.58863509 4293661440
3.3142405 -0.74794525 0.59306371 4293661440
3.3139157 -0.74776351 0.59510338 4293661440
3.3137059 -0.74760741 0.59646446 4293661440
3.3001616 -0.74444634 0.59472054 4293661440
3.3001847 -0.74434257 0.59472084 4293661440
3.3133023 -0.74718815 0.59638011 4293661440
3.3087542 -0.74605376 0.59415668 4293661440
3.3091109 -0.74602383 0.59211826 4293661440
3.3056536 -0.74513489 0.58870476 4293661440
3.3106761 -0.7461549 0.58610916 4293661440
3.3122704 -0.74640262 0.58221221 4293661440
3.3147054 -0.74683917 0.5777759 4293661440
3.3210633 -0.74815792 0.57333398 4293661440
3.3196244 -0.74772185 0.56686819 4293661440
3.3275557 -0.74939346 0.56132865 4293661440
3.3200855 -0.74760002 0.55253708 4293661440
3.3097148 -0.74515462 0.54266328 4293661440
3.3038821 -0.74373001 0.53294569 4293661440
3.3053 -0.74393559 0.52379334 4293661440
3.3216918 -0.74750674 0.516357 4293661440
3.3324828 -0.74981773 0.50737095 4293661440
3.3292584 -0.74897826 0.49564332 4293661440
3.2739296 -0.73581052 0.40330517 4293400320
3.3108549 -0.74398422 0.39285403 4293530880
3.3272536 -0.7475484 0.37927991 4293661440
3.3170779 -0.7451483 0.36222076 4293530880
3.2846184 -0.73774928 0.34252894 4293530880
3.2906549 -0.7389878 0.32660335 4293530880
3.3153901 -0.74441946 0.31201512 4293530880
3.3040485 -0.74175912 0.29361323 4293530880
3.2761879 -0.73539567 0.27362436 4293400320
3.2817163 -0.7365191 0.25624487 4293400320
3.3114011 -0.74305648 0.24027826 4293530880
3.3084743 -0.74228317 0.22152872 4293530880
3.2773249 -0.7351861 0.20083494 4293400320
3.3058538 -0.74146122 0.18359929 4293530880
3.3022542 -0.74053741 0.16423012 4293530880
3.3032982 -0.74065381 0.14492719 4293530880
3.2722623 -0.73358643 0.12422995 4293400320
3.2883778 -0.73707807 0.10528138 4293400320
3.2889493 -0.73708886 0.085617632 4293400320
3.2929933 -0.73787689 0.06592273 4293400320
3.2655756 -0.73162389 0.045660615 4293400320
3.2899964 -0.73697162 0.02609892 4293400320
3.2879751 -0.73640209 0.0061572446 4293400320
3.2414968 -0.72588867 -0.013590484 4293269760
3.2680621 -0.73171431 -0.03349727 4293400320
3.2735467 -0.73282427 -0.05335182 4293400320
3.2935691 -0.73718405 -0.073538728 4293400320
3.2541316 -0.72825104 -0.092216164 4293269760
3.2770889 -0.73326612 -0.11245186 4293400320
3.2998316 -0.73823166 -0.1328328 4293530880
3.3115151 -0.74072474 -0.15283294 4293530880
3.2550828 -0.72800034 -0.16927901 4293269760
3.29006 -0.73569721 -0.19014986 4293400320
3.2912931 -0.73585576 -0.20908259 4293400320
3.2958162 -0.73674893 -0.22803052 4293530880
3.267292 -0.73026413 -0.24431887 4293400320
3.3038228 -0.73830271 -0.26523346 4293530880
3.3218977 -0.74221992 -0.28468087 4293530880
3.3244619 -0.74267477 -0.30260345 4293530880
3.309612 -0.73924434 -0.31854999 4293530880
3.288934 -0.73451495 -0.33340394 4293530880
3.3060801 -0.73822349 -0.35169598 4293530880
3.3274541 -0.74287385 -0.37023875 4293661440
3.3145978 -0.73989064 -0.38461459 4293530880
3.2951984 -0.73544973 -0.39765447 4293530880
3.3201151 -0.74088848 -0.41561031 4293661440
3.3291149 -0.7427783 -0.43126488 4293661440
3.339941 -0.74507475 -0.44675726 4293661440
3.3352075 -0.74390399 -0.45969677 4293661440
3.3414936 -0.74518859 -0.47363949 4293661440
3.2941864 -0.73453629 -0.47931159 4293530880
3.3027217 -0.73632324 -0.49240372 4293530880
3.3133688 -0.73857993 -0.50531745 4293661440
3.3118513 -0.73812807 -0.51583493 4293661440
3.3213439 -0.74012738 -0.52749914 4293661440
3.319468 -0.73959613 -0.53678048 4293661440
3.3075662 -0.73683429 -0.54378963 4293661440
3.3211741 -0.73974913 -0.55436194 4293661440
3.3181493 -0.73896331 -0.56155062 4293661440
3.3050838 -0.73594475 -0.56635946 4293661440
3.3055193 -0.73592979 -0.57279557 4293661440
3.3085711 -0.73649687 -0.57902646 4293661440
3.2991333 -0.73428726 -0.58239377 4293661440
3.294111 -0.73306018 -0.58584124 4293661440
3.2764947 -0.72903466 -0.5863446 4293530880
3.261606 -0.72561675 -0.58661932 4293530880
3.2804825 -0.72970223 -0.59227258 4293530880
3.2754357 -0.72847217 -0.59293324 4293530880
3.2753112 -0.7283361 -0.59378904 4293530880
3.2656891 -0.72609109 -0.59223199 4293530880
3.2789826 -0.72893542 -0.59412992 4293530880
3.2969983 -0.73282754 -0.59617984 4293661440
3.2963617 -0.73257834 -0.5941605 4293661440
3.3078783 -0.73502684 -0.5936265 4293661440
3.3131826 -0.73609632 -0.59127337 4293661440
3.3154855 -0.73649979 -0.5876888 4293661440
3.3164232 -0.73660046 -0.58317506 4293661440
3.304759 -0.73390603 -0.57578909 4293661440
3.298403 -0.73238993 -0.56868881 4293661440
3.3137803 -0.73569405 -0.56465143 4293661440
3.3110991 -0.73499352 -0.5568642 4293661440
3.2978983 -0.73196119 -0.54670596 4293661440
3.2887688 -0.72983253 -0.5366475 4293530880
3.2811208 -0.72803295 -0.52625871 4293530880
3.28548 -0.72889501 -0.51719755 4293530880
3.2962494 -0.73117733 -0.50850546 4293530880
3.3126018 -0.73469609 -0.50000489 4293661440
3.3190668 -0.73602384 -0.4893688 4293661440
3.2944453 -0.73046672 -0.4736701 4293530880
3.2733498 -0.72569209 -0.45811248 4293530880
3.2830429 -0.727736 -0.44638085 4293530880
3.2978373 -0.73090881 -0.43473962 4293530880
3.2995756 -0.73119104 -0.42082459 4293530880
3.2636306 -0.72313327 -0.40179437 4293400320
3.2538195 -0.72086108 -0.38573086 4293400320
3.2924848 -0.7293154 -0.37483624 4293530880
3.3049018 -0.73196071 -0.36030325 4293530880
3.3047159 -0.73181772 -0.34394252 4293530880
3.2467277 -0.71889108 -0.3214955 4293269760
3.2643528 -0.72268885 -0.30636641 4293400320
3.2743154 -0.72479153 -0.29004118 4293400320
3.2790718 -0.72574276 -0.27286148 4293400320
3.2389441 -0.71677244 -0.25185376 4293269760
3.2748506 -0.72460926 -0.2364873 4293400320
3.2812386 -0.72592098 -0.21850529 4293400320
3.2864103 -0.72696364 -0.20014152 4293400320
3.278959 -0.72521734 -0.18080993 4293400320
3.2623212 -0.72144246 -0.16091944 4293400320
3.2752376 -0.72419596 -0.14232932 4293400320
3.2832859 -0.72587365 -0.12325366 4293400320
3.2438884 -0.71707505 -0.10246274 4293269760
3.2775002 -0.724397 -0.083888054 4293400320
3.2962048 -0.7284264 -0.064533062 4293400320
3.2981155 -0.72874808 -0.044661433 4293400320
3.2733183 -0.72317588 -0.024525978 4293400320
3.2955842 -0.72798955 -0.0047254995 4293400320
3.3060441 -0.73019725 0.015290461 4293530880
3.2871339 -0.72592568 0.035095286 4293400320
3.3147292 -0.73191226 0.055416677 4293530880
3.3280399 -0.73474705 0.075681202 4293530880
3.3268545 -0.73438472 0.095602445 4293530880
3.2833426 -0.72469085 0.1139282 4293400320
3.310921 -0.73067033 0.13451046 4293530880
3.3244781 -0.73355776 0.15461577 4293530880
3.3144777 -0.73125279 0.17347313 4293530880
3.2563148 -0.71833605 0.18921787 4293269760
3.3208282 -0.73245001 0.21193355 4293530880
3.3314142 -0.73468059 0.2313942 4293530880
3.3100078 -0.72986412 0.24831378 4293530880
3.2369919 -0.71368325 0.26056165 4293269760
3.3390603 -0.73605871 0.28678849 4293661440
3.3567672 -0.73985469 0.30608454 4293661440
3.3419406 -0.73648793 0.32208696 4293661440
3.3002632 -0.72721207 0.33485115 4293530880
3.2157052 -0.70850194 0.34225395 4293269760
3.3393776 -0.73561537 0.37164143 4293661440
3.3368604 -0.73495835 0.3871426 4293661440
3.3314812 -0.73367178 0.40183994 4293661440
3.292052 -0.72489625 0.4117735 4293530880
3.2791681 -0.72196066 0.42433375 4293530880
3.3441927 -0.73615634 0.44671911 4293661440
3.3371034 -0.73449343 0.45920017 4293661440
3.3391955 -0.73484898 0.4724026 4293661440
3.330194 -0.73276591 0.48347035 4293661440
3.3232901 -0.73114413 0.49423212 4293661440
3.3050988 -0.72704244 0.50266182 4293661440
3.3292243 -0.73223835 0.5169692 4293661440
3.3307064 -0.73245859 0.52724439 4293661440
3.3306973 -0.73235095 0.53667897 4293661440
3.3200696 -0.72991127 0.54375249 4293661440
3.3258879 -0.73108292 0.55287647 4293661440
3.3238468 -0.73052853 0.56006056 4293661440
3.3279839 -0.73133016 0.56763816 4293661440
3.3165181 -0.72870678 0.57187849 4293661440
3.3243175 -0.73031139 0.57876605 4293661440
3.3197143 -0.72919405 0.5828228 4293661440
3.3060536 -0.72608972 0.58458239 4293661440
3.3055046 -0.72586191 0.58795846 4293661440
3.3050668 -0.72565818 0.59066361 4293661440
3.3085907 -0.72632295 0.59338558 4293661440
3.3045325 -0.72532481 0.59405065 4293661440
3.3044388 -0.72519571 0.59472889 4293661440
3.3044615 -0.72509181 0.59472924 4293661440
3.3079746 -0.72575253 0.59465832 4293661440
3.3168747 -0.72759312 0.59485298 4293661440
3.3133972 -0.72672105 0.59212667 4293661440
3.3099346 -0.72585225 0.58871317 4293661440
3.3111126 -0.72599971 0.58543652 4293661440
3.3261867 -0.72918969 0.58391148 4293661440
3.3238113 -0.72855794 0.57862294 4293661440
3.3157289 -0.7266767 0.57168084 4293661440
3.3239205 -0.72835773 0.56687665 4293661440
3.3318615 -0.72998309 0.56133711 4293661440
3.3195596 -0.72717828 0.55174381 4293661440
3.3043501 -0.7237379 0.54109132 4293661440
3.3081553 -0.72445756 0.5329541 4293661440
3.3047473 -0.7235992 0.52303731 4293661440
3.3259866 -0.72813046 0.51636547 4293661440
3.3222964 -0.72720945 0.50517416 4293661440
3.3200271 -0.72659904 0.49363813 4293661440
3.2781575 -0.71671253 0.40331349 4293400320
3.3063955 -0.72276378 0.39182642 4293530880
3.3266943 -0.72707957 0.3787351 4293661440
3.3213596 -0.72579867 0.3622292 4293530880
3.292625 -0.71941108 0.34293011 4293530880
3.2900391 -0.71873116 0.32612914 4293530880
3.3099387 -0.72295696 0.31110787 4293530880
3.3044174 -0.721636 0.29327556 4293530880
3.2667806 -0.7133109 0.27249369 4293400320
3.2810776 -0.71631324 0.25587267 4293400320
3.2922809 -0.71863991 0.23858836 4293400320
3.2942157 -0.71894521 0.22029573 4293400320
3.2678952 -0.71309185 0.20000559 4293400320
3.2964561 -0.71920013 0.18284804 4293400320
3.3113894 -0.72233707 0.16448162 4293530880
3.3075547 -0.72138417 0.14493559 4293530880
3.2667141 -0.71237087 0.12386648 4293400320
3.2773817 -0.71457809 0.10480018 4293400320
3.2931852 -0.71790278 0.085625999 4293400320
3.2923493 -0.71760374 0.065832607 4293400320
3.255125 -0.70938385 0.045461666 4293269760
3.2668734 -0.71182495 0.025885614 4293400320
3.2873218 -0.71615839 0.0061555747 4293400320
3.2447679 -0.70678306 -0.013578637 4293269760
3.2585881 -0.70967406 -0.033351552 4293269760
3.2679882 -0.71160269 -0.053186368 4293400320
3.284044 -0.71497798 -0.073226199 4293400320
3.2436652 -0.70608187 -0.091796197 4293269760
3.2926807 -0.71662211 -0.11283107 4293400320
3.2991927 -0.7179206 -0.13262914 4293400320
3.298322 -0.71761423 -0.15202385 4293400320
3.2543874 -0.70795095 -0.16901834 4293269760
3.2855079 -0.71459651 -0.18963656 4293400320
3.2818677 -0.71368945 -0.20821093 4293400320
3.2991521 -0.71732706 -0.22796023 4293530880
3.2714896 -0.71120369 -0.24431056 4293400320
3.2977426 -0.71678787 -0.26439968 4293530880
3.3197401 -0.72144657 -0.28412408 4293530880
3.3141296 -0.72011185 -0.30127111 4293530880
3.3138616 -0.71993703 -0.31854156 4293530880
3.2996182 -0.71673024 -0.33404821 4293530880
3.3039112 -0.71754569 -0.35100788 4293530880
3.3171506 -0.72030145 -0.36861441 4293530880
3.3052557 -0.71760583 -0.38303405 4293530880
3.3100047 -0.71852005 -0.39891833 4293530880
3.3195236 -0.72046822 -0.41499668 4293661440
3.334933 -0.72369272 -0.4314563 4293661440
3.3393786 -0.72454029 -0.44610271 4293661440
3.3297977 -0.72234839 -0.45835748 4293661440
3.3322237 -0.72275865 -0.47171584 4293661440
3.2935708 -0.71427059 -0.47860143 4293530880
3.3117909 -0.71810323 -0.49311405 4293661440
3.3176148 -0.71925044 -0.50530899 4293661440
3.3209262 -0.71985352 -0.51657671 4293661440
3.3176758 -0.71903616 -0.52623618 4293661440
3.3092382 -0.71709645 -0.53443724 4293661440
3.3118021 -0.71753854 -0.54378116 4293661440
3.3203921 -0.71928459 -0.55351555 4293661440
3.3088965 -0.71668494 -0.55926406 4293661440
3.3006384 -0.71478665 -0.56486863 4293661440
3.314569 -0.71768814 -0.57361972 4293661440
3.2993312 -0.71428144 -0.57666683 4293661440
3.2855277 -0.71118629 -0.57924753 4293530880
3.2983255 -0.71384281 -0.58583283 4293661440
3.2710571 -0.70783877 -0.58461815 4293530880
3.2850327 -0.71075016 -0.59006405 4293530880
3.2846775 -0.71056437 -0.59226424 4293530880
3.2796237 -0.7093637 -0.59292489 4293530880
3.2794983 -0.70922834 -0.5937807 4293530880
3.2612007 -0.70516843 -0.59065723 4293530880
3.2918365 -0.71167701 -0.59568667 4293530880
3.2963982 -0.71255416 -0.5953036 4293661440
3.3102009 -0.71542627 -0.59588242 4293661440
3.312104 -0.71572924 -0.59361809 4293661440
3.2991168 -0.71281892 -0.588009 4293661440
3.3158667 -0.71632642 -0.58699942 4293661440
3.3158405 -0.71621376 -0.582322 4293661440
3.3137968 -0.71566612 -0.57661772 4293661440
3.3125439 -0.71528947 -0.57038748 4293661440
3.301959 -0.71290076 -0.56191611 4293661440
3.3105011 -0.71463716 -0.55604702 4293661440
3.3021061 -0.71272188 -0.54669756 4293661440
3.285532 -0.70904428 -0.53542995 4293530880
3.280477 -0.70785069 -0.52547818 4293530880
3.2867682 -0.70910275 -0.51673377 4293530880
3.3052862 -0.71298915 -0.50924045 4293530880
3.3119895 -0.71432936 -0.49926877 4293661440
3.3062196 -0.71298259 -0.48685011 4293530880
3.2986443 -0.71124768 -0.47366172 4293530880
3.2678351 -0.70451021 -0.45675287 4293400320
3.278796 -0.70676839 -0.44523001 4293530880
3.2923422 -0.70958269 -0.43345717 4293530880
3.2989278 -0.7108981 -0.42019957 4293530880
3.2717543 -0.70494777 -0.40227279 4293400320
3.266583 -0.70373392 -0.38674092 4293400320
3.2856476 -0.707735 -0.37357661 4293400320
3.307399 -0.71231312 -0.36010909 4293530880
3.2943323 -0.70940089 -0.34242117 4293530880
3.2460699 -0.69892049 -0.32101473 4293269760
3.2636385 -0.70259881 -0.30590299 4293400320
3.2638705 -0.70254892 -0.28874376 4293400320
3.281975 -0.70634115 -0.27274802 4293400320
3.2430634 -0.69787741 -0.25184551 4293269760
3.2669652 -0.70291531 -0.23561266 4293400320
3.2887311 -0.70749289 -0.21871701 4293400320
3.2759488 -0.70464665 -0.19924597 4293400320
3.2831268 -0.70608914 -0.18080157 4293400320
3.2713501 -0.7034601 -0.16115062 4293400320
3.2770987 -0.70459539 -0.1422216 4293400320
3.2914417 -0.70757598 -0.12339385 4293400320
3.2538693 -0.69940966 -0.10263813 4293269760
3.2741861 -0.70367247 -0.08369007 4293400320
3.2874839 -0.70642763 -0.064274825 4293400320
3.2978334 -0.70854926 -0.044593435 4293400320
3.2702823 -0.70253778 -0.024465185 4293400320
3.2958562 -0.70792568 -0.0047122207 4293400320
3.3044584 -0.70967132 0.015271137 4293400320
3.2913051 -0.70675021 0.035103668 4293400320
3.3091583 -0.71047944 0.055260196 4293530880
3.3322616 -0.71533322 0.075689688 4293530880
3.3310742 -0.7149778 0.095610932 4293530880
3.2728481 -0.70239544 0.11342619 4293400320
3.315119 -0.7113564 0.13451891 4293530880
3.3286929 -0.71416485 0.15462425 4293530880
3.3186791 -0.71191818 0.17348158 4293530880
3.2409172 -0.69515759 0.18809013 4293269760
3.3201568 -0.71203321 0.2116303 4293530880
3.3294349 -0.7139194 0.23097171 4293530880
3.3142009 -0.71055573 0.24832222 4293530880
3.2707949 -0.70116055 0.26296192 4293400320
3.3384168 -0.71553797 0.28637844 4293661440
3.3473818 -0.71735495 0.30484959 4293661440
3.3374097 -0.71511823 0.32125103 4293661440
3.3224494 -0.71181446 0.33668667 4293530880
3.2149119 -0.68870294 0.34174463 4293269760
3.347492 -0.71696788 0.37208262 4293661440
3.3265076 -0.71237606 0.38546062 4293661440
3.3269553 -0.71236914 0.40079457 4293661440
3.3141799 -0.70953435 0.41402796 4293530880
3.2833152 -0.7028324 0.42434213 4293530880
3.3338761 -0.71353954 0.44478568 4293661440
3.3325999 -0.71316302 0.45800906 4293661440
3.3385732 -0.71433574 0.4717263 4293661440
3.3392441 -0.71437478 0.48418126 4293661440
3.3187799 -0.70989788 0.49294609 4293661440
3.3005691 -0.70590335 0.50134712 4293530880
3.3285959 -0.71178585 0.51622754 4293661440
3.325129 -0.71094048 0.5257051 4293661440
3.3300734 -0.71189111 0.53590971 4293661440
3.3194337 -0.70951396 0.54297078 4293661440
3.3349135 -0.71271288 0.55368668 4293661440
3.3269932 -0.71091616 0.55989236 4293661440
3.3177142 -0.70882958 0.56518054 4293661440
3.3207035 -0.70936108 0.57188696 4293661440
3.3198347 -0.70906907 0.57726502 4293661440
3.3190827 -0.70880169 0.58198583 4293661440
3.3136034 -0.70752585 0.58518791 4293661440
3.3096735 -0.70658046 0.58796692 4293661440
3.3044174 -0.70535225 0.58981186 4293661440
3.3040922 -0.70517522 0.59184033 4293661440
3.3086982 -0.70604903 0.59405905 4293661440
3.3086038 -0.70592052 0.59473735 4293661440
3.3168201 -0.70756251 0.59621119 4293661440
3.3073263 -0.70543057 0.59380162 4293661440
3.3172002 -0.70742458 0.59417099 4293661440
3.3232543 -0.7086041 0.59314996 4293661440
3.3006127 -0.70367217 0.5863241 4293661440
3.3229084 -0.70830929 0.58679223 4293661440
3.3303747 -0.70978767 0.58392 4293661440
3.3193176 -0.70732266 0.57712191 4293661440
3.3150799 -0.70630932 0.57085848 4293661440
3.3194206 -0.70712131 0.56540543 4293661440
3.3225424 -0.70767337 0.559071 4293661440
3.323736 -0.70781481 0.55175227 4293661440
3.3036776 -0.70343608 0.54030955 4293661440
3.3021693 -0.70300293 0.53132904 4293530880
3.30407 -0.70329446 0.52228135 4293530880
3.3253334 -0.70770162 0.51562375 4293661440
3.322603 -0.70700741 0.50459456 4293661440
3.3306322 -0.70859963 0.49460232 4293661440
3.2677062 -0.69449764 0.40153021 4293400320
3.3008299 -0.70141441 0.39068368 4293530880
3.3269815 -0.70684898 0.37830096 4293661440
3.3060746 -0.70229667 0.36011639 4293530880
3.2832532 -0.69733948 0.3415322 4293400320
3.2902727 -0.69871336 0.32575148 4293400320
3.3140914 -0.70364922 0.31111634 4293530880
3.2988169 -0.7002939 0.29241884 4293530880
3.2611279 -0.69218761 0.27168843 4293400320
3.2851923 -0.69717366 0.25588107 4293400320
3.2964089 -0.699435 0.23859677 4293400320
3.2960508 -0.69924277 0.22015056 4293400320
3.2671089 -0.69299453 0.19971475 4293400320
3.3005874 -0.69997078 0.18285646 4293400320
3.3106532 -0.70198584 0.16424696 4293530880
3.3068118 -0.70105517 0.14472941 4293530880
3.2620077 -0.69145191 0.12354018 4293269760
3.2814867 -0.69545978 0.10480855 4293400320
3.2836173 -0.69579434 0.085276537 4293400320
3.2866905 -0.69632816 0.065643989 4293400320
3.2627118 -0.69113809 0.045519587 4293269760
3.2709627 -0.69276774 0.025893962 4293400320
3.2742274 -0.69334221 0.0061286278 4293400320
3.2409251 -0.68618339 -0.013538814 4293269760
3.2626653 -0.69066507 -0.033343226 4293269760
3.2746685 -0.6930868 -0.053219639 4293400320
3.2784553 -0.693771 -0.073003791 4293400320
3.2575023 -0.68922669 -0.092062339 4293269760
3.2831082 -0.69452161 -0.11235694 4293400320
3.2961311 -0.69715649 -0.13233368 4293400320
3.3062334 -0.69917363 -0.15218902 4293530880
3.2565041 -0.68855423 -0.16890925 4293269760
3.279845 -0.69336754 -0.18906717 4293400320
3.2859685 -0.69454443 -0.20820254 4293400320
3.2886302 -0.69499028 -0.22694455 4293400320
3.2667933 -0.69026554 -0.24364915 4293400320
3.3018613 -0.69755024 -0.26439127 4293530880
3.3141348 -0.70002341 -0.2832844 4293530880
3.3319972 -0.70367485 -0.30250591 4293530880
3.3131273 -0.69957799 -0.31806663 4293530880
3.2901044 -0.69460684 -0.3326647 4293400320
3.3080344 -0.69827193 -0.35099944 4293530880
3.3125346 -0.69910485 -0.36763641 4293530880
3.3093793 -0.6983242 -0.38302559 4293530880
3.3005283 -0.6963436 -0.39727566 4293530880
3.3236639 -0.70110333 -0.41498822 4293661440
3.3196754 -0.70014763 -0.42894393 4293530880
3.3361247 -0.70349723 -0.44510642 4293661440
3.338798 -0.70394474 -0.45901436 4293661440
3.3363771 -0.70331967 -0.47170734 4293661440
3.2898405 -0.69340742 -0.47745803 4293530880
3.3062336 -0.69674492 -0.49166811 4293530880
3.3072293 -0.69684088 -0.50309587 4293530880
3.307992 -0.69688815 -0.51392084 4293530880
3.3179398 -0.69886804 -0.52561593 4293661440
3.3278589 -0.70084149 -0.53676355 4293661440
3.3159258 -0.69821846 -0.5437727 4293661440
3.3148668 -0.69788325 -0.55190164 4293661440
3.3077741 -0.69627982 -0.55837232 4293661440
3.310622 -0.69676685 -0.56586283 4293661440
3.2994919 -0.69431597 -0.5702979 4293530880
3.303436 -0.69503403 -0.57665837 4293661440
3.2896149 -0.69201934 -0.57923913 4293530880
3.2976067 -0.69358838 -0.58497053 4293530880
3.284766 -0.6907813 -0.58632785 4293530880
3.2794778 -0.68956161 -0.58832914 4293530880
3.2619221 -0.68576652 -0.58743036 4293530880
3.2616823 -0.68560839 -0.5889473 4293530880
3.2787557 -0.68908501 -0.59290236 4293530880
3.273927 -0.68796378 -0.59221536 4293530880
3.2872527 -0.69065303 -0.59411317 4293530880
3.3004932 -0.69332385 -0.59529519 4293661440
3.2998533 -0.69308209 -0.59327853 4293661440
3.292496 -0.69143164 -0.58937031 4293530880
3.3099506 -0.69498575 -0.58919787 4293661440
3.3199832 -0.69698262 -0.58699095 4293661440
3.3107936 -0.69494903 -0.58070904 4293661440
3.3005378 -0.69269282 -0.57359523 4293661440
3.3118284 -0.69495356 -0.56955045 4293661440
3.3060558 -0.69363809 -0.56190765 4293661440
3.3049493 -0.69330096 -0.55442101 4293661440
3.2988157 -0.69191092 -0.54546988 4293530880
3.2799404 -0.68785268 -0.53385097 4293530880
3.2758415 -0.68689054 -0.52407986 4293530880
3.2627869 -0.68405366 -0.51232779 4293400320
3.3006723 -0.69188333 -0.50789398 4293530880
3.3025372 -0.6921702 -0.49722287 4293530880
3.3041637 -0.69240737 -0.48593846 4293530880
3.2891607 -0.6891644 -0.47171071 4293530880
3.2669139 -0.68440688 -0.45605212 4293400320
3.2777131 -0.6865648 -0.44452533 4293400320
3.2997236 -0.69106746 -0.43388233 4293530880
3.3030126 -0.69165337 -0.42019111 4293530880
3.2660861 -0.68382907 -0.40107349 4293400320
3.2609029 -0.68264467 -0.38558528 4293400320
3.292001 -0.68904591 -0.37382731 4293530880
3.288131 -0.68813592 -0.35756606 4293400320
3.2984083 -0.6901831 -0.34241274 4293530880
3.2403421 -0.677948 -0.32004648 4293269760
3.2676752 -0.68356007 -0.30589461 4293400320
3.2776594 -0.68554622 -0.28959477 4293400320
3.2811546 -0.68617654 -0.27233586 4293400320
3.2373884 -0.67693609 -0.25108832 4293269760
3.2661211 -0.68283772 -0.23525374 4293400320
3.2781429 -0.68524867 -0.21773863 4293400320
3.2839904 -0.68637002 -0.1994793 4293400320
3.2851427 -0.6865111 -0.18068138 4293400320
3.2665913 -0.68254006 -0.16071118 4293269760
3.2687793 -0.68289787 -0.14167979 4293269760
3.2876039 -0.68672669 -0.12309116 4293400320
3.2441885 -0.67757058 -0.10220105 4293269760
3.2720134 -0.68327636 -0.083524279 4293400320
3.2858682 -0.68606704 -0.064156733 4293400320
3.2930937 -0.68747467 -0.04446771 4293400320
3.2678132 -0.68210465 -0.024409449 4293269760
3.290133 -0.68665892 -0.0046916162 4293400320
3.3094285 -0.69058144 0.015283887 4293400320
3.2806809 -0.6844908 0.034953061 4293400320
3.2995355 -0.68832052 0.055037733 4293400320
3.3226681 -0.69304043 0.075385056 4293530880
3.3307755 -0.69462901 0.095492452 4293530880
3.2866666 -0.68534166 0.11377485 4293400320
3.3094225 -0.68998122 0.13412939 4293530880
3.3256056 -0.69325083 0.15429814 4293530880
3.3227677 -0.69255948 0.17349009 4293530880
3.2746921 -0.68245167 0.18982929 4293400320
3.3203375 -0.69185245 0.21138941 4293530880
3.3335347 -0.69449812 0.23098023 4293530880
3.3280456 -0.69325483 0.24906275 4293530880
3.2699413 -0.68106592 0.26257777 4293400320
3.3425946 -0.69607866 0.2863929 4293661440
3.3492091 -0.69735241 0.30464935 4293661440
3.3546739 -0.69838661 0.32252616 4293661440
3.3177686 -0.690611 0.33580664 4293530880
3.2101023 -0.66812754 0.3408213 4293139200
3.3477159 -0.69663233 0.37165853 4293661440
3.334574 -0.69379836 0.38592973 4293661440
3.3266003 -0.69203889 0.40026772 4293661440
3.3095074 -0.68838513 0.41294414 4293530880
3.2776372 -0.6816625 0.42309564 4293400320
3.3428276 -0.69510096 0.44544154 4293661440
3.3318427 -0.69271606 0.45735112 4293661440
3.3285534 -0.69192952 0.46974066 4293661440
3.3346212 -0.69308549 0.48292544 4293661440
3.3228559 -0.69053918 0.49295461 4293661440
3.2949371 -0.68464082 0.49988535 4293530880
3.3181617 -0.68935674 0.51398551 4293661440
3.3292108 -0.69154483 0.52571362 4293661440
3.3293245 -0.69146341 0.53514051 4293661440
3.3235071 -0.69015151 0.5429793 4293661440
3.334173 -0.69225806 0.55289352 4293661440
3.3214133 -0.68950629 0.55827618 4293661440
3.3169544 -0.68847603 0.56436694 4293661440
3.3102925 -0.68698907 0.56940305 4293661440
3.3239055 -0.68970436 0.57727355 4293661440
3.3096406 -0.68664151 0.57962704 4293661440
3.32249 -0.68919712 0.58604777 4293661440
3.31373 -0.68727505 0.58797538 4293661440
3.3084667 -0.68607748 0.58982038 4293661440
3.3168211 -0.68770009 0.5934025 4293661440
3.3079293 -0.68575084 0.59320241 4293661440
3.3078341 -0.68562299 0.5938797 4293661440
3.3160601 -0.6872173 0.5953536 4293661440
3.3113761 -0.68613887 0.59381014 4293661440
3.3212614 -0.6880753 0.59417945 4293661440
3.322499 -0.68822157 0.59229833 4293661440
3.3274269 -0.68913084 0.59037507 4293661440
3.32215 -0.6879288 0.58594936 4293661440
3.3247976 -0.68836564 0.5822376 4293661440
3.3185513 -0.68696296 0.5762918 4293661440
3.3186505 -0.6868723 0.57078367 4293661440
3.3234801 -0.68775904 0.56541389 4293661440
3.3266051 -0.68829292 0.55907953 4293661440
3.3132999 -0.68543136 0.54935551 4293661440
3.3077161 -0.68416554 0.54031801 4293661440
3.3013682 -0.68274206 0.53055978 4293530880
3.3081076 -0.68402165 0.52228981 4293530880
3.3188295 -0.68612289 0.51399487 4293661440
3.3305368 -0.68842649 0.50519115 4293661440
3.3347003 -0.68917191 0.49461088 4293661440
3.2756591 -0.67625433 0.4020257 4293400320
3.3128378 -0.68380558 0.39163649 4293530880
3.3350019 -0.68825907 0.37875992 4293661440
3.3101068 -0.68301189 0.36012486 4293530880
3.2784874 -0.67638063 0.34062845 4293400320
3.2881417 -0.67825502 0.32515171 4293400320
3.3221014 -0.68513536 0.31149754 4293530880
3.3028376 -0.68105131 0.2924273 4293530880
3.2699833 -0.67416984 0.27210361 4293400320
3.2891953 -0.6780104 0.25588948 4293400320
3.2965169 -0.67940187 0.23832215 4293400320
3.2974765 -0.67948323 0.21998589 4293400320
3.2622886 -0.67212588 0.19918458 4293269760
3.2909143 -0.67790043 0.1821052 4293400320
3.3049009 -0.68066144 0.16376917 4293400320
3.3108375 -0.68176568 0.14473788 4293530880
3.2561898 -0.67041075 0.12317669 4293269760
3.2772532 -0.67462635 0.10455316 4293400320
3.2876129 -0.67664003 0.085284963 4293400320
3.2855778 -0.67610532 0.065549575 4293400320
3.2663856 -0.67204493 0.045523796 4293269760
3.2733769 -0.67336577 0.025889706 4293269760
3.2817252 -0.67496473 0.0061442521 4293400320
3.2448657 -0.66727775 -0.013530497 4293269760
3.2617342 -0.67062694 -0.033285804 4293269760
3.272136 -0.67264718 -0.053106792 4293269760
3.2784371 -0.67382485 -0.072907157 4293400320
3.2379594 -0.66540056 -0.0913954 4293269760
3.2822018 -0.67436534 -0.1121822 4293400320
3.3001349 -0.67792886 -0.13232522 4293400320
3.3064561 -0.67910892 -0.15200694 4293400320
3.2653506 -0.67056084 -0.16915324 4293269760
3.2822657 -0.67391449 -0.18896918 4293400320
3.2827706 -0.67390227 -0.20774089 4293400320
3.2975092 -0.67680806 -0.22727185 4293400320
3.2698658 -0.67102581 -0.24357451 4293400320
3.3058679 -0.67828894 -0.26438278 4293530880
3.3197143 -0.68100995 -0.28340861 4293530880
3.3135102 -0.67962241 -0.3004598 4293530880
3.3083673 -0.67845285 -0.31721851 4293530880
3.2918024 -0.67494464 -0.33242539 4293400320
3.3120453 -0.67897451 -0.35099095 4293530880
3.3116803 -0.67878419 -0.3670893 4293530880
3.3036556 -0.67702621 -0.38189423 4293530880
3.2841935 -0.67292821 -0.39482775 4293400320
3.3189387 -0.67992377 -0.41389042 4293530880
3.3236971 -0.6807822 -0.42893541 4293530880
3.3427348 -0.68456137 -0.44543955 4293661440
3.3340182 -0.68266326 -0.45779654 4293661440
3.3264027 -0.68099099 -0.46972346 4293661440
3.2929378 -0.67403477 -0.47732142 4293530880
3.310236 -0.67745775 -0.49165964 4293530880
3.3112321 -0.67754793 -0.50308734 4293530880
3.3097136 -0.67712444 -0.51355892 4293530880
3.3171134 -0.67852342 -0.5248428 4293661440
3.309541 -0.67686373 -0.53316158 4293530880
3.3150997 -0.67788672 -0.54297328 4293661440
3.3101721 -0.67676824 -0.55044824 4293661440
3.3117738 -0.67698354 -0.55836385 4293661440
3.3194568 -0.67844039 -0.56667787 4293661440
3.3034806 -0.67506796 -0.57028943 4293530880
3.2977703 -0.67379194 -0.5749687 4293530880
3.2935903 -0.67282891 -0.57923073 4293530880
3.2748325 -0.66889238 -0.58022887 4293530880
3.2839079 -0.67063469 -0.58546042 4293530880
3.266216 -0.66691768 -0.58523971 4293530880
3.2793717 -0.66949236 -0.58984804 4293530880
3.2607961 -0.66559714 -0.58807021 4293400320
3.2778897 -0.6689744 -0.59202397 4293530880
3.2730546 -0.66788155 -0.59133673 4293530880
3.2912202 -0.67147636 -0.59410471 4293530880
3.2900012 -0.67112076 -0.59268332 4293530880
3.3086603 -0.674815 -0.59413517 4293661440
3.3012941 -0.6732074 -0.59022331 4293530880
3.3052545 -0.67390734 -0.58764714 4293661440
3.3191593 -0.67663211 -0.58613122 4293661440
3.3060935 -0.6738655 -0.57918024 4293661440
3.3035543 -0.67324275 -0.57341993 4293530880
3.3071232 -0.67386359 -0.56805056 4293661440
3.3100402 -0.67435187 -0.56189913 4293661440
3.3040967 -0.67303747 -0.55360377 4293530880
3.2966421 -0.67141628 -0.54444772 4293530880
3.2838917 -0.66871876 -0.53384256 4293530880
3.2749462 -0.66679609 -0.52329928 4293530880
3.2889977 -0.6695503 -0.51580757 4293530880
3.2998011 -0.67164356 -0.50714213 4293530880
3.3152387 -0.67467833 -0.49852413 4293530880
3.3032908 -0.67214662 -0.48521885 4293530880
3.2918563 -0.66972023 -0.47152171 4293530880
3.2708449 -0.66534901 -0.45604375 4293400320
3.2670841 -0.66448373 -0.44254687 4293400320
3.2949448 -0.67004156 -0.43272725 4293530880
3.2966797 -0.67029232 -0.4188759 4293530880
3.2700138 -0.66477621 -0.40106511 4293400320
3.2599559 -0.66263378 -0.38500327 4293400320
3.2800324 -0.66660917 -0.37201655 4293400320
3.3018286 -0.67093253 -0.35861367 4293530880
3.302372 -0.67094189 -0.34240428 4293530880
3.2491133 -0.66003501 -0.32051811 4293269760
3.2618413 -0.66251814 -0.30497608 4293269760
3.2815964 -0.66642606 -0.28958634 4293400320
3.2714195 -0.66426247 -0.27119693 4293400320
3.2372904 -0.65724266 -0.25077221 4293269760
3.2749307 -0.66477603 -0.23559588 4293400320
3.2869682 -0.66711718 -0.2180535 4293400320
3.2888253 -0.66739422 -0.19952485 4293400320
3.2911277 -0.66776156 -0.18078472 4293400320
3.263027 -0.66196829 -0.16033666 4293269760
3.2824929 -0.66581362 -0.14209321 4293400320
3.2759526 -0.66438997 -0.12250277 4293400320
3.241225 -0.65725774 -0.10197846 4293269760
3.2710376 -0.66319746 -0.083391942 4293269760
3.2898073 -0.6668995 -0.064148277 4293400320
3.2872407 -0.66628098 -0.04432895 4293400320
3.2717295 -0.66304243 -0.024401044 4293269760
3.2842743 -0.665483 -0.0046710153 4293400320
3.2996716 -0.66850001 0.01522662 4293400320
3.2806904 -0.66456044 0.034919079 4293400320
3.2936871 -0.66709101 0.054881237 4293400320
3.3135128 -0.67100203 0.075093746 4293400320
3.3303559 -0.67430866 0.095374078 4293530880
3.2670908 -0.66141582 0.11296656 4293269760
3.304569 -0.66889465 0.13377967 4293400320
3.3220956 -0.67233801 0.15395844 4293530880
3.3179336 -0.67139661 0.17303786 4293530880
3.2536845 -0.65831274 0.18839081 4293269760
3.3233995 -0.6723007 0.21134 4293530880
3.3375216 -0.67505324 0.23098882 4293530880
3.3222494 -0.67186731 0.24833925 4293530880
3.269942 -0.66120243 0.26227215 4293400320
3.3417063 -0.67559481 0.28598291 4293661440
3.3532119 -0.67781633 0.304658 4293661440
3.3450201 -0.67606056 0.32122111 4293661440
3.3217325 -0.67125821 0.33581516 4293530880
3.2041876 -0.64743483 0.33979443 4293139200
3.3452859 -0.67580789 0.37095356 4293661440
3.3385563 -0.67434776 0.38593832 4293661440
3.3218107 -0.67086738 0.39922234 4293530880
3.2988632 -0.66613692 0.41113213 4293530880
3.2776594 -0.66175944 0.42260212 4293400320
3.3332088 -0.67285848 0.44363758 4293661440
3.3358185 -0.67328149 0.4573597 4293661440
3.3373799 -0.67349279 0.47043407 4293661440
3.333746 -0.67265671 0.48223162 4293661440
3.3171179 -0.66920227 0.49152479 4293530880
3.2988663 -0.66542149 0.49989384 4293530880
3.3269639 -0.67097825 0.51474422 4293661440
3.3283355 -0.67115015 0.52495778 4293661440
3.3332927 -0.67204368 0.5351491 4293661440
3.3226278 -0.66979116 0.54219764 4293661440
3.3284693 -0.67086208 0.55129856 4293661440
3.3302066 -0.67110628 0.55909711 4293661440
3.3257403 -0.67010152 0.56519759 4293661440
3.3296046 -0.67077309 0.57205343 4293661440
3.3278635 -0.67031634 0.57728207 4293661440
3.317446 -0.66811407 0.58031189 4293661440
3.3264449 -0.66981733 0.58605635 4293661440
3.2983561 -0.66406167 0.58455884 4293530880
3.307575 -0.66580856 0.58896869 4293661440
3.3072481 -0.66563565 0.59099418 4293661440
3.3166926 -0.66742635 0.59407604 4293661440
3.2972851 -0.66341799 0.59128988 4293530880
3.3200035 -0.66787499 0.59536213 4293661440
3.3066227 -0.66507798 0.59226137 4293661440
3.3203814 -0.66773283 0.59332484 4293661440
3.3167903 -0.66690212 0.59058642 4293661440
3.3226879 -0.66797668 0.58884233 4293661440
3.3212669 -0.6675812 0.58510655 4293661440
3.3190846 -0.66703266 0.5805552 4293661440
3.3224933 -0.66760612 0.57630032 4293661440
3.3138907 -0.6657688 0.56929672 4293661440
3.3080845 -0.66449279 0.56213415 4293661440
3.3160431 -0.66597813 0.55665088 4293661440
3.3085232 -0.66435814 0.54792088 4293530880
3.3058364 -0.66370761 0.53937882 4293530880
3.3014119 -0.66270858 0.52994603 4293530880
3.3023431 -0.66278321 0.52076948 4293530880
3.322767 -0.66676432 0.51400346 4293661440
3.3331728 -0.66873628 0.50500047 4293661440
3.3153677 -0.66505486 0.49116731 4293530880
3.2707782 -0.65539372 0.40095907 4293400320
3.311892 -0.66350722 0.39106941 4293530880
3.3292065 -0.66685623 0.37766191 4293530880
3.3101265 -0.66292375 0.35970911 4293530880
3.2900527 -0.65879363 0.34143516 4293400320
3.3056984 -0.66180742 0.3265115 4293530880
3.3123629 -0.66302425 0.31022406 4293530880
3.2930696 -0.65905172 0.29122454 4293400320
3.2650564 -0.6533376 0.27137977 4293269760
3.2962186 -0.65944999 0.25614175 4293400320
3.2906346 -0.65821868 0.23762295 4293400320
3.2876768 -0.65751213 0.21907955 4293400320
3.2519541 -0.65026194 0.19832535 4293269760
3.2824237 -0.6562317 0.18142748 4293400320
3.2968175 -0.65898973 0.16318239 4293400320
3.2975175 -0.65901315 0.14399122 4293400320
3.2502382 -0.64946085 0.12281321 4293269760
3.2772048 -0.6547271 0.10443603 4293400320
3.2777719 -0.65472448 0.084935494 4293400320
3.2806342 -0.65517962 0.06538067 4293400320
3.2617133 -0.65129012 0.045411956 4293269760
3.2739048 -0.65360582 0.025871173 4293269760
3.2757926 -0.65386647 0.0061325645 4293269760
3.2379849 -0.64621443 -0.013479558 4293139200
3.254015 -0.64929467 -0.033161707 4293269760
3.2710943 -0.65258288 -0.053019837 4293269760
3.2832825 -0.65489542 -0.072920211 4293400320
3.2368774 -0.64553607 -0.091249861 4293139200
3.2746542 -0.65294516 -0.11178627 4293269760
3.2926104 -0.65640497 -0.13186187 4293400320
3.3103547 -0.65982133 -0.15199843 4293400320
3.255487 -0.64878333 -0.16843827 4293269760
3.2812383 -0.65379351 -0.18868025 4293400320
3.2938349 -0.65618443 -0.20818563 4293400320
3.2828021 -0.65387362 -0.22598761 4293400320
3.2723384 -0.65167695 -0.24346374 4293400320
3.3080423 -0.65866262 -0.26423728 4293530880
3.3083799 -0.65861374 -0.28210372 4293530880
3.3253129 -0.66186416 -0.30116495 4293530880
3.3210514 -0.66090077 -0.31804958 4293530880
3.2907972 -0.65477228 -0.33192584 4293400320
3.3120413 -0.65887862 -0.35057029 4293530880
3.3107021 -0.65849721 -0.36654216 4293530880
3.3115177 -0.65854406 -0.38234362 4293530880
3.2947779 -0.6551047 -0.39562455 4293530880
3.3108175 -0.65817529 -0.41238716 4293530880
3.3270254 -0.66127837 -0.42885214 4293530880
3.3379118 -0.6633243 -0.44426811 4293661440
3.3321898 -0.66207367 -0.45700109 4293661440
3.3346274 -0.66244274 -0.47032228 4293661440
3.2919524 -0.65386212 -0.4766112 4293530880
3.3053896 -0.65641469 -0.49035743 4293530880
3.3112416 -0.65746224 -0.50249094 4293530880
3.3136017 -0.6578173 -0.5135504 4293530880
3.306469 -0.65629047 -0.52254033 4293530880
3.3134277 -0.65755755 -0.53315306 4293530880
3.3053565 -0.65584582 -0.54073781 4293530880
3.3092172 -0.65649915 -0.54963702 4293530880
3.3059826 -0.65574682 -0.55672812 4293530880
3.3136771 -0.65715986 -0.56502229 4293661440
3.2976844 -0.65388143 -0.56861585 4293530880
3.2968042 -0.65359694 -0.57411963 4293530880
3.2781188 -0.6497876 -0.57583141 4293530880
3.260309 -0.64615321 -0.57697582 4293400320
3.2829268 -0.65052152 -0.58459294 4293530880
3.2603831 -0.64595199 -0.58350486 4293400320
3.2561641 -0.64500976 -0.58498752 4293400320
3.2791092 -0.6494416 -0.59066784 4293530880
3.2644916 -0.64644295 -0.58891058 4293400320
3.2730255 -0.64802384 -0.59063208 4293530880
3.2902455 -0.65132183 -0.59322673 4293530880
3.2808056 -0.64934874 -0.5903306 4293530880
3.2990081 -0.6528402 -0.59170437 4293530880
3.2916307 -0.65127563 -0.58780277 4293530880
3.3042915 -0.65367121 -0.58678186 4293530880
3.3046768 -0.65364116 -0.58288819 4293530880
3.3099627 -0.6545794 -0.57917172 4293661440
3.299679 -0.65244263 -0.57207155 4293530880
3.3061552 -0.65361631 -0.56721348 4293530880
3.3042343 -0.65313202 -0.56025237 4293530880
3.3079612 -0.653763 -0.55359524 4293530880
3.3004971 -0.65218532 -0.5444392 4293530880
3.2864704 -0.64931339 -0.53362972 4293530880
3.2690816 -0.64577919 -0.52174652 4293400320
3.273447 -0.6465379 -0.51276642 4293400320
3.2891047 -0.64952379 -0.50490361 4293530880
3.3185334 -0.6552248 -0.49842873 4293530880
3.3055995 -0.65257126 -0.48498327 4293530880
3.2908435 -0.64955956 -0.47081947 4293530880
3.2746649 -0.64626867 -0.45603529 4293400320
3.2806253 -0.64734215 -0.44385177 4293400320
3.2987916 -0.65082073 -0.43271875 4293530880
3.3092909 -0.65278786 -0.41997719 4293530880
3.2650628 -0.64397365 -0.39998487 4293400320
3.2598612 -0.64284909 -0.38453597 4293400320
3.28776 -0.64824355 -0.37244898 4293400320
3.2920208 -0.64898211 -0.35712671 4293400320
3.300565 -0.6505639 -0.34181112 4293400320
3.2431359 -0.63915914 -0.31954983 4293269760
3.2617359 -0.64272135 -0.30460358 4293269760
3.2805343 -0.64632154 -0.28914821 4293400320
3.2813952 -0.64639157 -0.27169728 4293400320
3.2410631 -0.63835824 -0.25076386 4293269760
3.2712643 -0.64420056 -0.2350515 4293269760
3.2688613 -0.64362925 -0.21659642 4293269760
3.2691483 -0.64358717 -0.19809707 4293269760
3.2802634 -0.64567399 -0.17997302 4293400320
3.2547171 -0.64055371 -0.1597365 4293269760
3.275182 -0.64447802 -0.14160575 4293269760
3.2758436 -0.64450961 -0.12234862 4293269760
3.2420516 -0.6377719 -0.10187813 4293269760
3.2673404 -0.64264256 -0.083193935 4293269760
3.2855871 -0.64612854 -0.063984625 4293400320
3.2857387 -0.64605981 -0.044249751 4293400320
3.2576733 -0.64045048 -0.024262937 4293269760
3.2841685 -0.64555454 -0.0046576872 4293400320
3.2848642 -0.64559269 0.015145823 4293400320
3.2845042 -0.64542359 0.034927554 4293400320
3.2941763 -0.64722317 0.054833587 4293400320
3.2984352 -0.64796007 0.07467062 4293400320
3.2965968 -0.6475004 0.094300099 4293400320
3.1574211 -0.62010241 0.10903753 4292878080
3.2750695 -0.64308059 0.13243483 4293269760
3.3148267 -0.65077811 0.15345024 4293400320
3.3212376 -0.6519354 0.17301777 4293530880
3.2638011 -0.64057624 0.18876679 4293269760
3.32236 -0.65195543 0.21103682 4293530880
3.3218133 -0.65174806 0.22964102 4293530880
3.317296 -0.65076268 0.24768895 4293530880
3.2688441 -0.64117038 0.26188806 4293269760
3.3358035 -0.65418726 0.28515434 4293530880
3.347326 -0.65634286 0.30377835 4293661440
3.3440137 -0.65559268 0.32076058 4293661440
3.3158181 -0.64997071 0.33483642 4293530880
3.2127824 -0.62969995 0.34032029 4293139200
3.3540411 -0.65724987 0.37150308 4293661440
3.3336489 -0.65315676 0.38493261 4293530880
3.3295581 -0.65225434 0.39969936 4293530880
3.3026848 -0.64689487 0.41114065 4293530880
3.2814558 -0.64264095 0.42261058 4293400320
3.3419344 -0.65436786 0.44429356 4293661440
3.3445442 -0.65477508 0.45803481 4293661440
3.3363826 -0.65307593 0.46975783 4293661440
3.3327463 -0.65226173 0.48153779 4293661440
3.3258128 -0.65080303 0.49225256 4293661440
3.3026834 -0.64617956 0.49990237 4293530880
3.3259614 -0.65062463 0.51400262 4293661440
3.3321855 -0.65173644 0.52496636 4293661440
3.318727 -0.64900315 0.53220212 4293661440
3.3313155 -0.65135711 0.54299647 4293661440
3.3235986 -0.64974523 0.54986399 4293661440
3.3243721 -0.64979112 0.55748093 4293661440
3.3301704 -0.65081751 0.56530571 4293661440
3.328613 -0.65040767 0.57123119 4293661440
3.3171947 -0.64807338 0.57477474 4293661440
3.3174088 -0.64800906 0.57964408 4293661440
3.3167465 -0.6477735 0.58368111 4293661440
3.3070002 -0.6457659 0.58542365 4293530880
3.3017251 -0.64463061 0.58725679 4293530880
3.3110662 -0.64634502 0.5910027 4293661440
3.30602 -0.6452539 0.5914892 4293530880
3.2972233 -0.64343184 0.5906055 4293530880
3.319001 -0.64756817 0.59450459 4293661440
3.30077 -0.64390743 0.59053963 4293530880
3.3242114 -0.64836568 0.59333342 4293661440
3.3206155 -0.64755595 0.59059501 4293661440
3.3265193 -0.64859611 0.58885092 4293661440
3.3202598 -0.64726722 0.5842638 4293661440
3.3242922 -0.64794207 0.58080524 4293661440
3.3263226 -0.64822668 0.57630891 4293661440
3.3177094 -0.64643949 0.56930524 4293661440
3.3215783 -0.64708126 0.56378692 4293661440
3.3247058 -0.64757836 0.55747187 4293661440
3.3123338 -0.64506006 0.54792947 4293530880
3.3115785 -0.64480156 0.53970289 4293530880
3.3003647 -0.64250922 0.52917677 4293530880
3.306145 -0.64352113 0.520778 4293530880
3.3265915 -0.64738315 0.51401204 4293661440
3.3224442 -0.64646393 0.50280362 4293661440
3.3240395 -0.64666063 0.49189508 4293661440
3.2745376 -0.63631541 0.40096754 4293400320
3.3059464 -0.64229697 0.38992673 4293530880
3.3330319 -0.64743733 0.37767053 4293530880
3.3178339 -0.64437348 0.36014196 4293530880
3.2850418 -0.63789815 0.34053144 4293400320
3.2909296 -0.63892537 0.32468608 4293400320
3.3210545 -0.64465106 0.31069052 4293530880
3.3056526 -0.64154953 0.29201177 4293400320
3.2628121 -0.63313115 0.27088991 4293269760
3.2814028 -0.63661921 0.25470412 4293400320
3.2699976 -0.63429457 0.23586711 4293269760
2.8464682 -0.55214137 0.18940572 4291833600
2.7345574 -0.53036797 0.16651051 4291441920
3.0407214 -0.58955491 0.16784672 4292486400
3.2591426 -0.63173354 0.16113494 4293269760
3.2806115 -0.63577437 0.1430942 4293400320
3.2500398 -0.62974238 0.12267286 4293269760
3.280961 -0.63561088 0.1044445 4293400320
3.2740207 -0.63415247 0.08474838 4293269760
3.2745771 -0.63414466 0.065192051 4293269760
3.2521091 -0.62968415 0.045232497 4293269760
3.262928 -0.6316613 0.02576074 4293269760
3.271111 -0.63312799 0.0061237174 4293269760
3.2376888 -0.62655276 -0.013455289 4293139200
3.2506685 -0.62894678 -0.033082664 4293269760
3.2699301 -0.63255358 -0.052932862 4293269760
3.2811539 -0.63460636 -0.0727823 4293269760
3.2317481 -0.6249485 -0.090994567 4293139200
3.2734942 -0.63289589 -0.1116115 4293269760
3.2914715 -0.63625139 -0.13165814 4293400320
3.3003318 -0.63784581 -0.15135944 4293400320
3.2464583 -0.62733221 -0.16777363 4293269760
3.2865553 -0.63495529 -0.18876132 4293400320
3.2780001 -0.6331892 -0.20694405 4293400320
3.2874575 -0.63489836 -0.226041 4293400320
3.2676663 -0.63096625 -0.24283208 4293269760
3.2998388 -0.63705528 -0.26327541 4293400320
3.307267 -0.63837183 -0.2816796 4293400320
3.3154178 -0.63982731 -0.29992086 4293530880
3.2964923 -0.63606429 -0.31533569 4293400320
3.2906461 -0.63482291 -0.33152446 4293400320
3.3060553 -0.63767689 -0.34953147 4293530880
3.314481 -0.63918483 -0.36653361 4293530880
3.3065155 -0.63753575 -0.3813245 4293530880
3.288785 -0.63400733 -0.39444882 4293400320
3.3194687 -0.63980043 -0.41298369 4293530880
3.3259494 -0.64093322 -0.42821762 4293530880
3.3319814 -0.64197934 -0.44296744 4293661440
3.3359895 -0.64263594 -0.45699245 4293661440
3.3296745 -0.64130658 -0.46908256 4293661440
3.2859821 -0.63278884 -0.47519925 4293400320
3.29458 -0.63432986 -0.48819277 4293530880
3.2955883 -0.63441133 -0.49954295 4293530880
3.3173773 -0.63848782 -0.51354182 4293530880
3.3102357 -0.63700253 -0.52253175 4293530880
3.3172016 -0.63822901 -0.53314447 4293530880
3.3130753 -0.63732409 -0.54137433 4293530880
3.3129854 -0.63719517 -0.54962844 4293530880
3.3010256 -0.63478673 -0.55525517 4293530880
3.3038881 -0.63522565 -0.5627079 4293530880
3.2965958 -0.63371503 -0.56777477 4293530880
3.3005557 -0.63436526 -0.57411104 4293530880
3.2818482 -0.63066489 -0.57582295 4293530880
3.2640176 -0.62713432 -0.57696736 4293400320
3.2818232 -0.63044262 -0.58372539 4293530880
3.2602212 -0.62619036 -0.58280581 4293400320
3.2598662 -0.62601501 -0.58497906 4293400320
3.2596247 -0.62586176 -0.58648974 4293400320
3.2767568 -0.62903994 -0.59044117 4293530880
3.262238 -0.62614977 -0.58801305 4293400320
3.2843122 -0.63027465 -0.59147924 4293530880
3.2937276 -0.63197249 -0.59197205 4293530880
3.2930818 -0.63174224 -0.58996564 4293530880
3.3040757 -0.63374221 -0.5893448 4293530880
3.3080432 -0.6343959 -0.58677328 4293530880
3.3035893 -0.63343686 -0.58202851 4293530880
3.3088796 -0.63434422 -0.57831854 4293530880
3.2985821 -0.63226736 -0.57122594 4293530880
3.3050635 -0.63340312 -0.56637633 4293530880
3.3079829 -0.63385707 -0.56024384 4293530880
3.2981441 -0.63186985 -0.55132222 4293530880
3.294544 -0.63107717 -0.54283577 4293530880
3.285347 -0.62921429 -0.53283596 4293530880
3.2776399 -0.62763727 -0.52251017 4293400320
3.2771575 -0.62744254 -0.5127579 4293400320
3.2954009 -0.63082832 -0.50528824 4293530880
3.3077173 -0.63308024 -0.49623731 4293530880
3.3044834 -0.63235945 -0.4842636 4293530880
3.2858167 -0.62868989 -0.46956223 4293400320
3.2637753 -0.62437701 -0.45400006 4293400320
3.2746031 -0.62634492 -0.44252998 4293400320
3.292784 -0.62971693 -0.43143627 4293400320
3.2945166 -0.62994677 -0.41762573 4293400320
3.262506 -0.62373358 -0.39921302 4293400320
3.2674532 -0.62457836 -0.3849864 4293400320
3.2914798 -0.62906504 -0.37244046 4293400320
3.2996519 -0.63052452 -0.35754058 4293400320
3.2994118 -0.63037837 -0.34129828 4293400320
3.2428923 -0.61949468 -0.31915745 4293269760
3.2622905 -0.62309694 -0.30430362 4293269760
3.272104 -0.62487006 -0.2880739 4293400320
3.2616057 -0.62276918 -0.26975089 4293269760
3.2398283 -0.61851835 -0.2503781 4293269760
3.2661412 -0.62343717 -0.23441207 4293269760
3.2774553 -0.62549549 -0.21691124 4293400320
3.2728407 -0.6245175 -0.19808859 4293269760
3.2751398 -0.62485731 -0.17948264 4293269760
3.2518723 -0.6203261 -0.15940987 4293269760
3.2664692 -0.6230092 -0.14106393 4293269760
3.2755377 -0.62463856 -0.12219161 4293269760
3.2368734 -0.61717755 -0.10159416 4293139200
3.2612066 -0.62171382 -0.082937673 4293269760
3.2786891 -0.62494451 -0.063771911 4293269760
3.2849541 -0.62603891 -0.04418169 4293400320
3.252506 -0.6197654 -0.024190404 4293269760
3.2697926 -0.62295759 -0.0046269214 4293269760
3.2773135 -0.6242907 0.01510046 4293269760
3.0970452 -0.58990133 0.03287138 4292747520
2.7101903 -0.51623106 0.044967961 4291311360
2.6118321 -0.49744573 0.058951329 4291050240
2.5487597 -0.48537534 0.07270886 4290789120
2.6140947 -0.49771956 0.090087719 4291050240
2.8613272 -0.54463398 0.11551534 4291833600
3.3087454 -0.62957776 0.1530035 4293400320
3.3200712 -0.6316306 0.17277038 4293530880
3.2586474 -0.61986136 0.18826394 4293269760
3.3211966 -0.63164502 0.21073365 4293530880
3.3255513 -0.6323722 0.22964963 4293530880
3.3259273 -0.63234353 0.24806361 4293530880
3.262727 -0.62024379 0.26111138 4293269760
3.3346603 -0.63380069 0.28474438 4293530880
3.3461971 -0.63588971 0.30334285 4293530880
