# .PCD v0.7 - Point Cloud Data file format
VERSION 0.7
FIELDS x y z rgba
SIZE 4 4 4 4
TYPE F F F U
COUNT 1 1 1 1
WIDTH 1104
HEIGHT 1
VIEWPOINT 0 0 0 1 0 0 0
POINTS 1104
DATA ascii
3.3161755 0.59797913 0.23925076 4293400320
3.3068674 0.59641826 0.2202097 4293400320
3.2678862 0.58950377 0.19921744 4293269760
3.3090336 0.59704483 0.18288821 4293400320
3.3244433 0.59994394 0.16460933 4293530880
3.3162386 0.59858167 0.14493628 4293400320
3.2754338 0.59133315 0.12396113 4293269760
3.2919581 0.59443426 0.10517043 4293400320
3.2964237 0.59535861 0.085753195 4293400320
3.2921891 0.59471172 0.066012621 4293400320
3.2778678 0.59224194 0.046106003 4293269760
3.2851422 0.59367406 0.026497498 4293269760
3.2919176 0.59501648 0.0067702699 4293400320
3.258862 0.58915818 -0.012897189 4293269760
3.2749074 0.59217644 -0.03263535 4293269760
3.2936275 0.59567964 -0.052574776 4293400320
3.2924767 0.59558946 -0.072251186 4293400320
3.2663226 0.59097511 -0.091144949 4293269760
3.2866549 0.59477162 -0.11119455 4293400320
3.3095479 0.599033 -0.13146707 4293400320
3.31534 0.6002 -0.15109195 4293400320
3.2604601 0.59038073 -0.16751806 4293269760
3.2783141 0.59373075 -0.18726972 4293269760
3.2925375 0.59642422 -0.20679621 4293400320
3.283741 0.5949477 -0.22468989 4293400320
3.2594681 0.5906657 -0.24110074 4293269760
3.3001635 0.59815794 -0.26212811 4293400320
3.3092957 0.59993064 -0.28064138 4293400320
3.3183217 0.60168457 -0.2989358 4293530880
3.3033237 0.59908187 -0.31471413 4293400320
3.2876346 0.59635258 -0.32992372 4293400320
3.3062139 0.59983939 -0.34821302 4293400320
3.3189285 0.60226309 -0.36565533 4293530880
3.3083231 0.60045475 -0.38014048 4293530880
3.27987 0.5954054 -0.39197585 4293400320
3.3157632 0.60203743 -0.41107723 4293530880
3.3210888 0.60312033 -0.42612058 4293530880
3.3226194 0.60351402 -0.44022959 4293530880
3.3187447 0.60292548 -0.45311952 4293530880
3.3127904 0.60195851 -0.46517622 4293530880
3.2673182 0.59380853 -0.47097579 4293400320
3.282728 0.59672236 -0.48488608 4293400320
3.2860005 0.59743023 -0.49652135 4293400320
3.2893174 0.59814608 -0.50761884 4293530880
3.2924004 0.59881926 -0.51811993 4293530880
3.2943785 0.59929138 -0.52786863 4293530880
3.2872183 0.59810054 -0.53553563 4293530880
3.2909863 0.59889758 -0.54435331 4293530880
3.2789757 0.59682256 -0.54991925 4293400320
3.2866662 0.598333 -0.55813628 4293530880
3.2841794 0.59799051 -0.56399292 4293530880
3.2745352 0.59634387 -0.56794673 4293400320
3.2606113 0.59391665 -0.57046199 4293400320
3.2514405 0.59235418 -0.57311058 4293400320
3.2432239 0.59096456 -0.57523841 4293400320
3.246598 0.59168643 -0.57874167 4293400320
3.2510509 0.59260488 -0.58176762 4293400320
3.2459276 0.59177721 -0.58240384 4293400320
3.2506068 0.59273642 -0.58411437 4293400320
3.2591264 0.594396 -0.58583295 4293400320
3.2666676 0.59587723 -0.5866906 4293400320
3.2532842 0.59354085 -0.58311439 4293400320
3.280216 0.59856004 -0.58606058 4293530880
3.2727749 0.59730703 -0.58218163 4293400320
3.2854273 0.59972119 -0.58118522 4293530880
3.2857685 0.59988803 -0.57732409 4293530880
3.2905371 0.60086298 -0.57356012 4293530880
3.2971556 0.60217571 -0.56943369 4293530880
3.2858481 0.60021394 -0.5615648 4293530880
3.2838206 0.59994656 -0.55465245 4293530880
3.2826591 0.59983689 -0.54725051 4293530880
3.279007 0.59927166 -0.53881294 4293400320
3.2566853 0.59529305 -0.52675772 4293400320
3.2614388 0.59626287 -0.51851231 4293400320
3.2540982 0.59502113 -0.50776076 4293400320
3.2770975 0.5993275 -0.50110298 4293400320
3.2974036 0.60314226 -0.49332282 4293530880
3.2941184 0.60264194 -0.48140186 4293530880
3.2818131 0.60049063 -0.46767408 4293400320
3.2666707 0.59781897 -0.45311484 4293400320
3.2755213 0.59953785 -0.4413875 4293400320
3.2927125 0.60278398 -0.43017888 4293400320
3.2905016 0.60247827 -0.41589594 4293400320
3.2574251 0.59651965 -0.39740837 4293269760
3.268199 0.59859055 -0.38391167 4293400320
3.2824423 0.60129744 -0.37027881 4293400320
3.2856896 0.60199022 -0.35491505 4293400320
3.3039951 0.6054424 -0.34067568 4293400320
3.2462585 0.59495842 -0.31843781 4293269760
3.2626779 0.59806442 -0.30331084 4293269760
3.2781456 0.60099661 -0.28759742 4293400320
3.2766712 0.60082299 -0.27001363 4293400320
3.248138 0.5956865 -0.2500737 4293269760
3.2779481 0.60125005 -0.23433019 4293400320
3.2752628 0.60085368 -0.21586742 4293269760
3.2810915 0.60201913 -0.19771186 4293400320
3.2959533 0.6048426 -0.17976695 4293400320
3.2723591 0.60060835 -0.15959015 4293269760
3.2869401 0.60338074 -0.14114641 4293400320
3.297394 0.60539609 -0.12222844 4293400320
3.2575903 0.59818292 -0.10150069 4293269760
3.2874691 0.60376555 -0.082879193 4293400320
3.2964315 0.60550767 -0.063415274 4293400320
3.2987328 0.60602647 -0.043690067 4293400320
3.2808111 0.60282934 -0.023748832 4293269760
3.2988639 0.6062426 -0.0040360112 4293400320
3.3101885 0.60842025 0.015863476 4293400320
3.3027184 0.60714334 0.035674375 4293400320
3.3219557 0.6107766 0.05580914 4293400320
3.3419664 0.61455327 0.076130427 4293530880
3.3313906 0.61270553 0.095723055 4293530880
3.2870402 0.6046443 0.11390958 4293400320
3.3148456 0.60985595 0.13438481 4293400320
3.3221531 0.61129749 0.15408525 4293530880
3.329088 0.61267096 0.17368278 4293530880
3.2645836 0.60089505 0.18902327 4293269760
3.3344915 0.61386073 0.21198599 4293530880
3.3388081 0.61475343 0.23095748 4293530880
3.327116 0.61269838 0.24852553 4293530880
3.245961 0.59784853 0.26011634 4293269760
3.3575964 0.61850947 0.28705204 4293661440
3.3567059 0.61844462 0.30462888 4293661440
3.3464251 0.61664939 0.32095766 4293661440
3.3144245 0.61085081 0.33463019 4293530880
3.2282634 0.59506673 0.34186915 4293139200
3.3664436 0.62063861 0.37275216 4293661440
3.3472495 0.61719978 0.38635138 4293661440
3.3339748 0.61485183 0.400051 4293530880
3.3010871 0.60888553 0.41073939 4293530880
3.2720113 0.60362077 0.42116934 4293400320
3.3406415 0.61638284 0.44387028 4293661440
3.358155 0.61971593 0.45962617 4293661440
3.3471849 0.61779302 0.47098672 4293661440
3.3435926 0.61723173 0.48279458 4293661440
3.3279414 0.61444402 0.49224073 4293661440
3.3091128 0.6110689 0.50053525 4293530880
3.3430059 0.61743057 0.5162794 4293661440
3.3484309 0.61853576 0.52715462 4293661440
3.3335977 0.61589873 0.53420562 4293661440
3.3403008 0.61724079 0.54406828 4293661440
3.3317986 0.61577338 0.55081993 4293661440
3.3326299 0.61603117 0.55845755 4293661440
3.3357868 0.61671937 0.56584424 4293661440
3.3387506 0.61737233 0.57255131 4293661440
3.333003 0.61641479 0.57709217 4293661440
3.3142564 0.61305261 0.5786705 4293661440
3.3183997 0.61392462 0.58354849 4293661440
3.3226502 0.61481708 0.58777183 4293661440
3.3001642 0.61076194 0.58656049 4293530880
3.3085148 0.61241376 0.59013087 4293530880
3.3131049 0.61337036 0.59234506 4293661440
3.326252 0.6159122 0.59539932 4293661440
3.3165488 0.61422324 0.59366554 4293661440
3.3166463 0.61434954 0.59298986 4293661440
3.3212249 0.61530644 0.59241784 4293661440
3.3302569 0.61708921 0.59193778 4293661440
3.3364158 0.61834055 0.59024197 4293661440
3.3327157 0.61776513 0.58610833 4293661440
3.326514 0.61672598 0.58085996 4293661440
3.3209276 0.61580098 0.57505566 4293661440
3.327327 0.61709893 0.57065356 4293661440
3.3368289 0.61897326 0.56609005 4293661440
3.33584 0.61890215 0.55907106 4293661440
3.3312583 0.6181646 0.55081195 4293661440
3.3207591 0.61632878 0.54097062 4293661440
3.3148324 0.61534148 0.53128928 4293530880
3.3208573 0.61657315 0.52290899 4293661440
3.3346217 0.61924285 0.51508683 4293661440
3.3452525 0.62133181 0.50611287 4293661440
3.3363142 0.61978638 0.49359173 4293661440
3.2881114 0.61156899 0.40267211 4293400320
3.3173797 0.61712909 0.39134434 4293530880
3.3338499 0.62031025 0.37785837 4293530880
3.3323429 0.62014717 0.3618407 4293530880
3.2896893 0.61232513 0.34116131 4293400320
3.3066041 0.61559051 0.32641006 4293530880
3.3256733 0.6192584 0.31132731 4293530880
3.3053136 0.61558443 0.29221207 4293400320
3.2858884 0.61208332 0.27306509 4293400320
3.2907498 0.61310589 0.25571483 4293400320
3.3126323 0.61730093 0.23926161 4293400320
3.3033335 0.61568588 0.22022054 4293400320
3.2742062 0.6103738 0.19982848 4293269760
3.3028955 0.6158402 0.18275476 4293400320
3.3129647 0.61783624 0.16422622 4293400320
3.3225133 0.61973596 0.1453784 4293530880
3.2719302 0.61041784 0.12397186 4293269760
3.2972794 0.61526537 0.10546549 4293400320
3.3027234 0.61639977 0.08602158 4293400320
3.2886658 0.6138941 0.066023409 4293400320
3.2743592 0.611341 0.04611674 4293269760
3.2865403 0.61373335 0.026548836 4293400320
3.2933078 0.61511546 0.006792082 4293400320
3.255372 0.60814667 -0.012886511 4293269760
3.276314 0.61217672 -0.032672703 4293269760
3.2812531 0.61321747 -0.05242436 4293269760
3.2889488 0.61477375 -0.072240397 4293400320
3.2579091 0.6090886 -0.090998009 4293269760
3.2847006 0.61421543 -0.11123659 4293400320
3.2977459 0.61677313 -0.13112973 4293400320
3.3117852 0.61951756 -0.15108107 4293400320
3.2520547 0.60846037 -0.167256 4293269760
3.2797046 0.61375111 -0.18753849 4293400320
3.2840996 0.61469096 -0.20647809 4293400320
3.2938256 0.61662906 -0.22560817 4293400320
3.2657733 0.61149377 -0.24181372 4293269760
3.3032441 0.61862773 -0.26264238 4293400320
3.3106403 0.62013072 -0.28104514 4293530880
3.3138645 0.62085235 -0.29884452 4293530880
3.2997758 0.61832976 -0.31470329 4293400320
3.2841029 0.61550915 -0.32991293 4293400320
3.3173265 0.62185329 -0.34974474 4293530880
3.315362 0.621602 -0.36564445 4293530880
3.3135574 0.62138033 -0.3811385 4293530880
3.2821026 0.61559689 -0.39265251 4293400320
3.3024418 0.61952764 -0.40985802 4293530880
3.3223932 0.62338674 -0.42673466 4293530880
3.3190458 0.6228745 -0.44021869 4293530880
3.3239417 0.62390906 -0.45430458 4293530880
3.309226 0.62126184 -0.46516535 4293530880
3.2835579 0.61655664 -0.47381043 4293400320
3.281481 0.61628002 -0.48521277 4293400320
3.2970455 0.61931682 -0.49871236 4293530880
3.2857759 0.61731279 -0.50760806 4293530880
3.2927399 0.61873394 -0.51872009 4293530880
3.2908301 0.61848754 -0.52785784 4293530880
3.2924113 0.61889684 -0.53694677 4293530880
3.2971411 0.6198979 -0.54594606 4293530880
3.2841697 0.61757022 -0.55137122 4293530880
3.2879705 0.61839592 -0.5589481 4293530880
3.2806392 0.61712736 -0.56398213 4293530880
3.2758486 0.61633593 -0.56877565 4293530880
3.2754977 0.61637932 -0.57366896 4293530880
3.257617 0.61312294 -0.57480574 4293400320
3.2608752 0.61384439 -0.57897681 4293400320
3.2430949 0.61060447 -0.57873106 4293400320
3.252382 0.61246014 -0.58262247 4293400320
3.242424 0.61069131 -0.58239323 4293400320
3.2519364 0.6125893 -0.58497274 4293400320
3.264317 0.61502796 -0.58738691 4293400320
3.2595429 0.61423427 -0.58603424 4293400320
3.2633197 0.61505157 -0.58553088 4293400320
3.2815118 0.61858612 -0.58691394 4293530880
3.277951 0.61802012 -0.58371979 4293530880
3.2818768 0.61886531 -0.58117443 4293530880
3.2909324 0.62067789 -0.57884371 4293530880
3.2777798 0.61830133 -0.57194668 4293530880
3.2848711 0.61974299 -0.56791788 4293530880
3.2884014 0.62051278 -0.56259704 4293530880
3.2889936 0.62072784 -0.55611438 4293530880
3.2839565 0.61988008 -0.54804754 4293530880
3.2667282 0.61672997 -0.53736848 4293400320
3.2764523 0.61866766 -0.53051174 4293400320
3.2539408 0.61451781 -0.51787126 4293400320
3.2593172 0.61563385 -0.50911307 4293400320
3.2809825 0.61982721 -0.50222796 4293400320
3.3074434 0.62492764 -0.49534672 4293530880
3.2954137 0.62275553 -0.4821012 4293530880
3.2831237 0.62053311 -0.4683561 4293400320
3.2631314 0.61685359 -0.45310411 4293400320
3.2838588 0.62087148 -0.4429771 4293400320
3.2891436 0.62197018 -0.43016809 4293400320
3.2957106 0.6233114 -0.41699323 4293530880
3.2636495 0.61734581 -0.39858666 4293400320
3.2548938 0.61578727 -0.38275564 4293269760
3.2925546 0.62301087 -0.37180853 4293400320
3.3006899 0.62464875 -0.35690707 4293400320
3.2906346 0.62284386 -0.3396582 4293400320
3.243835 0.61408204 -0.31853485 4293269760
3.2591369 0.6170755 -0.30330014 4293269760
3.2745869 0.62009776 -0.28758666 4293400320
3.282907 0.62177038 -0.27080846 4293400320
3.2495093 0.61554074 -0.25043947 4293269760
3.2783084 0.62109274 -0.2345991 4293400320
3.2815096 0.62179571 -0.21650136 4293400320
3.2961619 0.62466896 -0.19882107 4293400320
3.2972772 0.62497705 -0.18002291 4293400320
3.2714026 0.62016851 -0.15970579 4293269760
3.2745323 0.62085772 -0.14075771 4293269760
3.3036275 0.62647086 -0.12257993 4293400320
3.2638681 0.61902654 -0.10179429 4293269760
3.2878225 0.62366581 -0.082966767 4293400320
3.3026688 0.62657851 -0.063591689 4293400320
3.2951438 0.625247 -0.043679241 4293400320
3.2821531 0.62287778 -0.023772724 4293400320
3.3050981 0.62732863 -0.0040353886 4293400320
3.3065853 0.62770736 0.015874339 4293400320
3.3079641 0.62806565 0.035782401 4293400320
3.3183384 0.6301322 0.05582004 4293400320
3.3294871 0.63234651 0.075938314 4293530880
3.3424921 0.6349141 0.096160166 4293530880
3.2834592 0.62379646 0.11392037 4293400320
3.3200684 0.63084871 0.13475566 4293530880
3.3322718 0.63326508 0.15473624 4293530880
3.3303647 0.63300025 0.17395067 4293530880
3.252197 0.61823821 0.18852097 4293269760
3.3308556 0.63328904 0.21199694 4293530880
3.3351667 0.63420677 0.23096845 4293530880
3.3234868 0.63208365 0.24853645 4293530880
3.2512336 0.61843777 0.26083532 4293269760
3.3578484 0.63881707 0.2873987 4293661440
3.357935 0.638933 0.305085 4293661440
3.3427722 0.63614696 0.32096866 4293661440
3.3196039 0.63183653 0.33553138 4293530880
3.1556625 0.60072649 0.33454818 4293008640
3.3465078 0.6371569 0.37095901 4293661440
3.353354 0.63856071 0.38749132 4293661440
3.3352103 0.63520575 0.40064842 4293661440
3.311131 0.63071924 0.41245207 4293530880
3.2635627 0.62175649 0.42055166 4293400320
3.3457563 0.63751692 0.44504821 4293661440
3.3544836 0.63928157 0.45963717 4293661440
3.3522823 0.63896394 0.47223219 4293661440
3.3447986 0.63763952 0.48350894 4293661440
3.3194411 0.63290691 0.49153152 4293530880
3.2832959 0.62611592 0.49718288 4293530880
3.3344924 0.63598168 0.51553923 4293661440
3.3359542 0.63636357 0.52577597 4293661440
3.3396518 0.6371724 0.53577399 4293661440
3.3366439 0.6367023 0.54407924 4293661440
3.3281505 0.63518536 0.5508309 4293661440
3.3283937 0.63533598 0.55836999 4293661440
3.3466661 0.63892907 0.56832427 4293661440
3.3302503 0.63589996 0.57173049 4293661440
3.3341928 0.63675833 0.57794267 4293661440
3.3154647 0.63328695 0.57952785 4293661440
3.319602 0.63418299 0.58441168 4293661440
3.3141694 0.63325119 0.58692551 4293661440
3.3185253 0.63419002 0.5904839 4293661440
3.3048866 0.63169003 0.59014171 4293530880
3.3007648 0.63100898 0.59079701 4293530880
3.322603 0.6352917 0.59541023 4293661440
3.3177464 0.63447124 0.59454352 4293661440
3.3130066 0.63367313 0.59300077 4293661440
3.3262863 0.63632232 0.59398413 4293661440
3.3314385 0.63741767 0.59280992 4293661440
3.3173683 0.63483518 0.5875271 4293661440
3.3329272 0.63792324 0.58680111 4293661440
3.3325403 0.63796014 0.58256376 4293661440
3.3308344 0.63774484 0.57741743 4293661440
3.3236711 0.63648474 0.57066453 4293661440
3.338006 0.63934219 0.56692404 4293661440
3.3321736 0.63833755 0.55908197 4293661440
3.3372903 0.63943076 0.55242836 4293661440
3.3268056 0.6375348 0.54256392 4293661440
3.3160379 0.63558435 0.53207886 4293661440
3.3123522 0.63499111 0.52215451 4293530880
3.3358083 0.63960212 0.51584899 4293661440
3.3367147 0.63989067 0.50538778 4293661440
3.3326428 0.63922471 0.49360269 4293661440
3.2844892 0.63072675 0.40268293 4293400320
3.3101163 0.6357643 0.39092872 4293530880
3.3438396 0.64235926 0.37942126 4293661440
3.3318348 0.64017063 0.36219606 4293530880
3.2977893 0.63374579 0.34239104 4293400320
3.293184 0.63297737 0.32545379 4293400320
3.3229148 0.63880986 0.31142354 4293530880
3.3065593 0.63578314 0.29265648 4293530880
3.2822635 0.63122833 0.27307591 4293400320
3.2888782 0.63261771 0.25586277 4293400320
3.3089767 0.63660175 0.23927251 4293400320
3.3085063 0.63662952 0.22082123 4293400320
3.2794135 0.63114876 0.20037955 4293400320
3.3031707 0.6358394 0.18298346 4293400320
3.3132982 0.63790768 0.16443583 4293400320
3.3227677 0.63985014 0.14556183 4293530880
3.2683156 0.62948185 0.12398262 4293269760
3.2887287 0.63353169 0.10531838 4293400320
3.2957327 0.63499945 0.085944764 4293400320
3.3085926 0.63759625 0.066511862 4293400320
3.2672153 0.62974006 0.046077184 4293269760
3.286248 0.6335268 0.02658727 4293400320
3.2945752 0.63525075 0.0068139504 4293400320
3.2468617 0.62616771 -0.012857288 4293269760
3.2677803 0.6303196 -0.032613866 4293269760
3.2825315 0.63328308 -0.052491125 4293400320
3.2990522 0.63658911 -0.072529048 4293400320
3.254303 0.62807137 -0.090987295 4293269760
3.2849896 0.63411194 -0.11135805 4293400320
3.307245 0.6385268 -0.13163961 4293400320
3.3110635 0.63938302 -0.15120411 4293400320
3.2582588 0.6293031 -0.16774805 4293269760
3.280973 0.63380778 -0.18780722 4293400320
3.2902608 0.6357199 -0.20708191 4293400320
3.2901757 0.63582116 -0.22559734 4293400320
3.2586386 0.62984318 -0.24154325 4293269760
3.2929664 0.63659579 -0.26210645 4293400320
3.3167541 0.64131266 -0.28186348 4293530880
3.3159726 0.64127964 -0.29935431 4293530880
3.3058913 0.63944751 -0.3156234 4293530880
3.2853451 0.63558996 -0.33039224 4293400320
3.308763 0.64023763 -0.34921965 4293530880
3.3165634 0.64186424 -0.36617118 4293530880
3.3098798 0.64068758 -0.38112763 4293530880
3.2784593 0.63472104 -0.39264172 4293400320
3.3221648 0.64329934 -0.41274711 4293530880
3.3138335 0.64180231 -0.42609876 4293530880
3.3153594 0.64221382 -0.44020778 4293530880
3.3202493 0.64327693 -0.45429364 4293530880
3.3055494 0.640544 -0.46515447 4293530880
3.2750487 0.63474739 -0.47309887 4293400320
3.2826917 0.63634235 -0.48591971 4293400320
3.2836697 0.63664538 -0.49723369 4293530880
3.2892573 0.637842 -0.5086987 4293530880
3.2939293 0.63886112 -0.51947296 4293530880
3.2920191 0.63860333 -0.5286243 4293530880
3.3032892 0.64090234 -0.53930581 4293530880
3.2886279 0.63816965 -0.54513347 4293530880
3.2853582 0.63764668 -0.55217302 4293530880
3.293026 0.63924623 -0.56041789 4293530880
3.2818272 0.63718295 -0.56480294 4293530880
3.280911 0.63711524 -0.5702762 4293530880
3.2718503 0.63546526 -0.57365817 4293530880
3.257858 0.63285637 -0.57547736 4293400320
3.2399848 0.6294921 -0.57590353 4293400320
3.2539856 0.63232017 -0.58130717 4293400320
3.253592 0.63235104 -0.58347726 4293400320
3.243644 0.63052434 -0.58325028 4293400320
3.2579784 0.63341755 -0.58669996 4293400320
3.2606778 0.63404882 -0.58737618 4293400320
3.2520418 0.63247532 -0.5853287 4293400320
3.2741814 0.63688731 -0.58812064 4293530880
3.2778664 0.63770998 -0.58690578 4293530880
3.2887981 0.63994259 -0.58629042 4293530880
3.2830503 0.63892949 -0.58201945 4293530880
3.281204 0.63867497 -0.57776833 4293530880
3.2886338 0.64022583 -0.57446676 4293530880
3.2899137 0.64057934 -0.56941199 4293530880
3.2847297 0.63967383 -0.56258625 4293530880
3.2827599 0.63939357 -0.5556708 4293530880
3.2802885 0.6390152 -0.54803669 4293530880
3.2814901 0.6393519 -0.54038441 4293530880
3.2727914 0.63775909 -0.53050095 4293400320
3.2503045 0.63347811 -0.51786053 4293400320
3.2556741 0.63462543 -0.50910234 4293400320
3.2747431 0.63844359 -0.50182384 4293400320
3.299861 0.64344203 -0.49475449 4293530880
3.3014443 0.643852 -0.48351061 4293530880
3.2794516 0.63966322 -0.46834531 4293400320
3.2555909 0.63510841 -0.45255366 4293400320
3.2714274 0.63829726 -0.44178605 4293400320
3.2934861 0.64270091 -0.43120557 4293530880
3.2968922 0.64346522 -0.41759801 4293530880
3.2736392 0.63902557 -0.40024045 4293400320
3.2648997 0.63741779 -0.38434833 4293400320
3.2823811 0.6409291 -0.37106603 4293400320
3.2969933 0.64388096 -0.35689622 4293400320
3.291831 0.6429711 -0.34015068 4293400320
3.2402008 0.63298309 -0.31852418 4293269760
3.257787 0.63651544 -0.30350333 4293269760
3.2758062 0.64013326 -0.28800458 4293400320
3.2694447 0.63898695 -0.26999211 4293400320
3.2360799 0.6325618 -0.24967597 4293269760
3.2746327 0.64019436 -0.23458831 4293400320
3.2729328 0.6399585 -0.21616822 4293400320
3.2875662 0.64291656 -0.1985155 4293400320
3.2886782 0.64323062 -0.1797453 4293400320
3.2700362 0.6396805 -0.15980713 4293269760
3.284585 0.64262289 -0.14133476 4293400320
3.290112 0.64380068 -0.12220678 4293400320
3.2602043 0.63804388 -0.10178354 4293269760
3.2841308 0.64282256 -0.082955942 4293400320
3.29896 0.64582163 -0.063580818 4293400320
3.3012557 0.64636761 -0.043796714 4293400320
3.275871 0.6414932 -0.023743594 4293269760
3.2982039 0.64596289 -0.0040212092 4293400320
3.3126831 0.64889544 0.01593418 4293400320
3.2954147 0.64560926 0.035696078 4293400320
3.3146083 0.6494664 0.05583097 4293400320
3.3443844 0.65539849 0.076378077 4293530880
3.3387337 0.65438884 0.09617117 4293530880
3.2846701 0.64388871 0.11410232 4293400320
3.3261392 0.65211523 0.13516659 4293530880
3.3308272 0.65313208 0.1548547 4293530880
3.3266175 0.65240425 0.17396164 4293530880
3.2524559 0.63795567 0.1887597 4293269760
3.3271065 0.65269583 0.21200791 4293530880
3.336307 0.65459907 0.2313195 4293530880
3.3344243 0.65432805 0.24964844 4293530880
3.2436593 0.63661289 0.26053122 4293269760
3.3501551 0.65761316 0.28707409 4293661440
3.3590391 0.65945667 0.30554119 4293661440
3.3526828 0.65830839 0.32229608 4293661440
3.3207455 0.65213633 0.33603695 4293530880
3.1472261 0.61815441 0.33404005 4293008640
3.3563921 0.65933722 0.37248716 4293661440
3.3544481 0.65905589 0.38806686 4293661440
3.3363218 0.65559489 0.40124589 4293661440
3.317136 0.65192485 0.41367862 4293530880
3.2696157 0.6426844 0.42181927 4293400320
3.3419816 0.65700996 0.44505924 4293661440
3.3555608 0.65978146 0.4603157 4293661440
3.3480828 0.65841311 0.47218448 4293661440
3.3361659 0.65617162 0.48281658 4293661440
3.3254032 0.65415668 0.49298277 4293661440
3.298028 0.64887309 0.49999082 4293530880
3.3404272 0.65731788 0.51705253 4293661440
3.3370342 0.65675354 0.52655238 4293661440
3.3407249 0.65758365 0.53656375 4293661440
3.3373032 0.65701407 0.54481363 4293661440
3.3340735 0.65648252 0.55244732 4293661440
3.3207593 0.65396512 0.55773026 4293661440
3.3274963 0.65539664 0.56571817 4293661440
3.3264995 0.65530539 0.57174397 4293661440
3.3255863 0.655231 0.57711411 4293661440
3.3213844 0.65450883 0.58123165 4293661440
3.3206804 0.65447617 0.58527499 4293661440
3.3068271 0.65185183 0.58629924 4293661440
3.3015134 0.65091068 0.58813232 4293530880
3.301146 0.65094489 0.59015262 4293530880
3.3105562 0.65290773 0.59323299 4293661440
3.3140101 0.65369672 0.59455413 4293661440
3.3043272 0.65189469 0.59282023 4293661440
3.3140857 0.65392852 0.59387779 4293661440
3.3321817 0.65760869 0.59572339 4293661440
3.3228469 0.65587622 0.59196234 4293661440
3.3281074 0.6570248 0.59010977 4293661440
3.32915 0.65734136 0.58681208 4293661440
3.3287628 0.65737599 0.58257473 4293661440
3.3318939 0.65810585 0.57826799 4293661440
3.3344131 0.65871549 0.5731709 4293661440
3.3302741 0.65801013 0.56626374 4293661440
3.3371058 0.65947282 0.56055701 4293661440
3.3295469 0.65809208 0.5517832 4293661440
3.3230307 0.65691733 0.54257488 4293661440
3.3122747 0.65490419 0.53208983 4293661440
3.3134398 0.65524805 0.52293086 4293661440
3.3320212 0.65903705 0.51585996 4293661440
3.3474808 0.66221011 0.5076071 4293661440
3.337595 0.66036987 0.49491 4293661440
3.2904942 0.65179217 0.40389019 4293400320
3.319994 0.65775245 0.3925541 4293530880
3.3312631 0.66010267 0.37843457 4293530880
3.332922 0.66054922 0.36273837 4293530880
3.2940378 0.65295964 0.34240192 4293400320
3.2996011 0.65417957 0.32647154 4293530880
3.3142495 0.65720165 0.31097564 4293530880
3.3076818 0.65601718 0.29310098 4293530880
3.278527 0.65035188 0.27308673 4293400320
3.298826 0.65449637 0.25694194 4293400320
3.3091221 0.65665758 0.23956728 4293530880
3.3096318 0.65687728 0.22115986 4293530880
3.2707822 0.64928412 0.20009017 4293400320
3.2994072 0.65508491 0.18299435 4293400320
3.3183398 0.65896308 0.16488621 4293530880
3.3052619 0.65648502 0.14496894 4293400320
3.2743149 0.65045637 0.12436432 4293400320
3.2914462 0.65397811 0.10553765 4293400320
3.3057015 0.65692967 0.086316332 4293400320
3.299916 0.65589899 0.066423252 4293400320
3.2772183 0.65150583 0.046284266 4293400320
3.2913256 0.65442908 0.026671203 4293400320
3.2944436 0.65516794 0.0068329968 4293400320
3.252964 0.64703643 -0.01288359 4293269760
3.2738576 0.65131044 -0.032699186 4293269760
3.2738807 0.65143317 -0.052402761 4293269760
3.2903826 0.6548354 -0.072411232 4293400320
3.2594101 0.64878905 -0.091221735 4293269760
3.2773166 0.65247148 -0.11121497 4293400320
3.2936666 0.65584517 -0.13124023 4293400320
3.3072803 0.65867501 -0.15119319 4293400320
3.2505322 0.64749026 -0.16753185 4293269760
3.2674308 0.65097386 -0.18723741 4293269760
3.2864995 0.65489084 -0.20707107 4293400320
3.2815211 0.65401661 -0.22525175 4293400320
3.2588248 0.64961004 -0.24182193 4293269760
3.2909198 0.65612549 -0.26223221 4293400320
3.3184295 0.66172874 -0.2823166 4293530880
3.3209705 0.66235393 -0.30013588 4293530880
3.3098342 0.6602509 -0.31634909 4293530880
3.2864647 0.65570611 -0.33087149 4293400320
3.3147302 0.66146314 -0.35023704 4293530880
3.3078914 0.66021574 -0.36562261 4293530880
3.3060896 0.65997308 -0.38111669 4293530880
3.2844441 0.65576822 -0.39379618 4293400320
3.3086247 0.6607126 -0.41152787 4293530880
3.3197663 0.66305411 -0.42733774 4293530880
3.3164227 0.66250259 -0.44084188 4293530880
3.3213036 0.66359389 -0.45494708 4293530880
3.3056462 0.66058093 -0.46568993 4293530880
3.2761488 0.65480053 -0.4737888 4293400320
3.2837799 0.65643972 -0.48662663 4293530880
3.2847538 0.65674812 -0.49795675 4293530880
3.2757895 0.65506893 -0.50718945 4293400320
3.2918918 0.65840226 -0.51973653 4293530880
3.2969596 0.65952903 -0.53001243 4293530880
3.2955499 0.65935975 -0.53865057 4293530880
3.2935641 0.65907478 -0.54656571 4293530880
3.2960997 0.65969425 -0.5546 4293530880
3.294081 0.65940189 -0.56122953 4293530880
3.2780585 0.65630543 -0.5647921 4293530880
3.2819757 0.65720016 -0.571105 4293530880
3.2548363 0.65187496 -0.57132453 4293400320
3.2637765 0.65377456 -0.57717234 4293400320
3.2459214 0.65030622 -0.57760894 4293400320
3.255075 0.65224814 -0.58215868 4293400320
3.2633717 0.65401864 -0.58588982 4293530880
3.2543991 0.65232772 -0.58584267 4293400320
3.2494042 0.65143329 -0.58582026 4293400320
3.2617557 0.6540162 -0.58823466 4293400320
3.2521634 0.65219891 -0.58601278 4293400320
3.2655866 0.65499693 -0.58724302 4293530880
3.2740946 0.65680939 -0.58689493 4293530880
3.2801843 0.65813679 -0.58541912 4293530880
3.2879653 0.65980363 -0.58354908 4293530880
3.2822573 0.65876335 -0.57860768 4293530880
3.2896791 0.66035783 -0.5752995 4293530880
3.2880549 0.6601364 -0.56973499 4293530880
3.2857809 0.6597839 -0.56340295 4293530880
3.2886503 0.66046387 -0.55729628 4293530880
3.2813468 0.65910035 -0.54883367 4293530880
3.2838554 0.65970713 -0.54138517 4293530880
3.2707593 0.6571784 -0.53077197 4293400320
3.2514012 0.65339017 -0.51862097 4293400320
3.2664571 0.65651703 -0.51136321 4293400320
3.2758145 0.65849906 -0.50255537 4293400320
3.2999353 0.66344941 -0.49532491 4293530880
3.2983725 0.66323656 -0.48360747 4293530880
3.2805228 0.65974796 -0.46902725 4293400320
3.2518344 0.65407783 -0.4525429 4293400320
3.267652 0.65735888 -0.44177523 4293400320
3.2896845 0.66189098 -0.43119469 4293530880
3.2962394 0.66330963 -0.41798615 4293530880
3.2659659 0.65731645 -0.39975408 4293400320
3.2659991 0.65742147 -0.3849102 4293400320
3.27859 0.66005445 -0.37105522 4293400320
3.2931848 0.6630913 -0.35688534 4293400320
3.2929044 0.66313338 -0.34064308 4293400320
3.2364566 0.65186268 -0.31851345 4293269760
3.2676895 0.65825057 -0.304764 4293400320
3.2727606 0.65936941 -0.28805882 4293400320
3.2820773 0.66134375 -0.27133432 4293400320
3.2421131 0.65338719 -0.25041804 4293269760
3.2708454 0.65927428 -0.23457749 4293400320
3.2740383 0.66001445 -0.21647972 4293400320
3.2984416 0.66503114 -0.19938874 4293400320
3.2897673 0.66337913 -0.18000118 4293400320
3.2750642 0.66051072 -0.16022559 4293400320
3.2856803 0.66274834 -0.14153382 4293400320
3.2998965 0.66571265 -0.12269856 4293400320
3.2652476 0.65881866 -0.10204657 4293269760
3.2934625 0.66460794 -0.083274603 4293400320
3.3039598 0.66682309 -0.063738376 4293400320
3.3013523 0.66639352 -0.043837123 4293400320
3.2857985 0.66335022 -0.023829727 4293400320
3.3096704 0.66826642 -0.0040261261 4293400320
3.3087587 0.66817927 0.015944699 4293400320
3.284833 0.66344398 0.035632424 4293400320
3.3068454 0.66798663 0.055775125 4293400320
3.3356068 0.67389411 0.076276265 4293530880
3.3397608 0.67483127 0.096324295 4293530880
3.2808604 0.66302639 0.11411317 4293400320
3.3222806 0.67149431 0.13517758 4293530880
3.3318584 0.67352808 0.15509434 4293530880
3.3364613 0.67455667 0.1746922 4293530880
3.2535739 0.65789497 0.18905549 4293269760
3.3320484 0.67386091 0.21258184 4293530880
3.3484275 0.67727208 0.23244299 4293661440
3.3305523 0.67375517 0.24965945 4293530880
3.2584569 0.65926754 0.26203737 4293269760
3.3550537 0.67891049 0.28784043 4293661440
3.3590417 0.67981732 0.30590841 4293661440
3.3487871 0.67784172 0.32230717 4293661440
3.3168862 0.6714837 0.33604795 4293530880
3.1572154 0.63925457 0.33550239 4293008640
3.3437212 0.67711633 0.37152293 4293661440
3.3555379 0.67961001 0.38865644 4293661440
3.341202 0.67680722 0.40231267 4293661440
3.313278 0.671251 0.41368958 4293530880
3.2609506 0.66074884 0.42120162 4293400320
3.3526704 0.67943478 0.44701529 4293661440
3.3565125 0.68031555 0.46099427 4293661440
3.35431 0.67997158 0.47362599 4293661440
3.3411136 0.67739886 0.48410797 4293661440
3.3312302 0.67549741 0.49443412 4293661440
3.3135753 0.6720196 0.50294614 4293661440
3.3452573 0.67854822 0.51841575 4293661440
3.3476746 0.67914242 0.52885962 4293792000
3.345546 0.67881465 0.53797656 4293661440
3.3285763 0.67547554 0.54403347 4293661440
3.3301883 0.67590708 0.55245829 4293661440
3.3304262 0.67606008 0.56001866 4293661440
3.3284507 0.67576408 0.56655222 4293661440
3.3226211 0.67468578 0.57175499 4293661440
3.3313692 0.67656797 0.57880431 4293661440
3.3213742 0.67464411 0.58191979 4293661440
3.316807 0.67382264 0.58528596 4293661440
3.2942798 0.66935217 0.5847671 4293530880
3.3073144 0.67210716 0.58986562 4293661440
3.3165977 0.67410105 0.59362012 4293661440
3.3066919 0.6721952 0.5932439 4293661440
3.3017287 0.67129391 0.5930534 4293661440
3.3284569 0.67683703 0.5978604 4293661440
3.3053899 0.6722551 0.59302264 4293661440
3.3186378 0.67505884 0.59400606 4293661440
3.3141389 0.67425334 0.59111208 4293661440
3.324219 0.67641449 0.59012079 4293661440
3.3256404 0.67681462 0.58689034 4293661440
3.3297012 0.67775238 0.58343226 4293661440
3.3424888 0.68046737 0.58079791 4293792000
3.3343797 0.67892885 0.57384735 4293661440
3.3312125 0.67839658 0.56709784 4293661440
3.3302991 0.67832351 0.56007946 4293661440
3.3304882 0.67847532 0.55259699 4293661440
3.3288183 0.67824876 0.54416829 4293661440
3.3083992 0.67420173 0.53210074 4293661440
3.3231184 0.67731535 0.52508497 4293661440
3.3368397 0.68022692 0.51722318 4293661440
3.3435621 0.68171275 0.50761813 4293661440
3.3336871 0.67981493 0.49492103 4293661440
3.2866373 0.67096311 0.40390107 4293400320
3.3122091 0.67630035 0.39210379 4293530880
3.3361208 0.6813007 0.37944335 4293661440
3.3307271 0.68031728 0.36293632 4293661440
3.296994 0.67354447 0.34312335 4293530880
3.3089821 0.67611128 0.32779682 4293530880
3.3288977 0.68029916 0.31273034 4293530880
3.3038006 0.67528838 0.29311192 4293530880
3.2855415 0.67167395 0.27400488 4293400320
3.2949536 0.67371613 0.25695285 4293400320
3.3150096 0.67793572 0.24028793 4293530880
3.3155217 0.67815953 0.22182626 4293530880
3.28161 0.67134148 0.20100163 4293400320
3.3053143 0.6763097 0.18354996 4293400320
3.319334 0.6792978 0.16514134 4293530880
3.3199749 0.67954874 0.14579944 4293530880
3.275362 0.67053568 0.12456209 4293400320
3.2973695 0.67516005 0.1058645 4293400320
3.2930014 0.67438471 0.086095363 4293400320
3.305831 0.67713153 0.066633254 4293400320
3.2768805 0.67132038 0.046345454 4293400320
3.2923527 0.67460912 0.02672272 4293400320
3.2905681 0.6743626 0.0068438984 4293400320
3.2530553 0.66679275 -0.012887617 4293269760
3.2602096 0.6683771 -0.032592285 4293269760
3.2749252 0.67151237 -0.052469447 4293400320
3.2963033 0.67601496 -0.072614178 4293400320
3.2516558 0.66697645 -0.091101997 4293269760
3.2773738 0.67237002 -0.11133636 4293400320
3.2962449 0.67636043 -0.13148558 4293400320
3.3102317 0.67934984 -0.15149416 4293530880
3.2555079 0.66823685 -0.16797349 4293269760
3.2733614 0.67201936 -0.18778554 4293400320
3.2875149 0.67504334 -0.20736746 4293400320
3.2924349 0.67617202 -0.22625336 4293400320
3.2647529 0.67060441 -0.24253468 4293400320
3.3007119 0.67810881 -0.26330885 4293530880
3.3242781 0.68306929 -0.28313479 4293530880
3.3210413 0.68252307 -0.30048478 4293530880
3.3030894 0.6789518 -0.31606701 4293530880
3.2864866 0.67565644 -0.33125266 4293400320
3.3108189 0.68077654 -0.35022607 4293530880
3.3039875 0.67948931 -0.36561167 4293530880
3.3021872 0.67923623 -0.38110575 4293530880
3.2854307 0.67590594 -0.39436793 4293400320
3.3095796 0.68099076 -0.41212106 4293530880
3.310987 0.68139702 -0.42670181 4293530880
3.3212471 0.68362522 -0.44199196 4293661440
3.3090417 0.68122911 -0.45379478 4293530880
3.325027 0.68463624 -0.46895713 4293661440
3.2674284 0.6728909 -0.47307724 4293400320
3.2886224 0.67736983 -0.48790762 4293530880
3.2870233 0.6771546 -0.49887797 4293530880
3.2951574 0.67894429 -0.51077473 4293530880
3.2928388 0.67858022 -0.52048928 4293530880
3.3036189 0.68091536 -0.53169793 4293530880
3.2964871 0.67955852 -0.53942961 4293530880
3.2902086 0.67837679 -0.54664451 4293530880
3.2941198 0.67929548 -0.55491203 4293530880
3.2905638 0.67867398 -0.56128353 4293530880
3.2790072 0.67640162 -0.56561279 4293530880
3.2829177 0.67731911 -0.57193375 4293530880
3.2558086 0.67183578 -0.57216048 4293400320
3.2550864 0.67179585 -0.57630867 4293400320
3.2517252 0.67121077 -0.57931423 4293400320
3.251219 0.67121458 -0.5821479 4293400320
3.2595055 0.6730333 -0.58587903 4293530880
3.259223 0.67308271 -0.58739376 4293530880
3.2455533 0.67036664 -0.58580947 4293400320
3.2675335 0.67501372 -0.5899623 4293530880
3.257952 0.67314094 -0.58773899 4293400320
3.2752171 0.67681473 -0.58965921 4293530880
3.2702117 0.67588651 -0.58688414 4293530880
3.2859404 0.67924345 -0.58712912 4293530880
3.2937133 0.68095624 -0.58524978 4293530880
3.2880132 0.67988336 -0.58029717 4293530880
3.2944624 0.68132222 -0.57680708 4293530880
3.2841525 0.67929476 -0.56972414 4293530880
3.2905724 0.68072706 -0.56488168 4293530880
3.2895763 0.68062508 -0.5581035 4293530880
3.2652261 0.67569005 -0.54677927 4293400320
3.2799554 0.67884099 -0.54137433 4293530880
3.2668741 0.67623603 -0.53076112 4293400320
3.2523761 0.67333651 -0.5193814 4293400320
3.2634597 0.67573255 -0.51149064 4293400320
3.2767634 0.67858869 -0.50328684 4293530880
3.2977171 0.68302971 -0.49556959 4293530880
3.2808816 0.67964387 -0.48160827 4293530880
3.2876346 0.6811437 -0.47058967 4293530880
3.2566998 0.67483443 -0.45374641 4293400320
3.2637658 0.67639822 -0.44176441 4293400320
3.2906275 0.68206513 -0.4318198 4293530880
3.2940269 0.68286967 -0.41819176 4293530880
3.2620797 0.67634583 -0.39974323 4293400320
3.2669756 0.67745954 -0.38547197 4293400320
3.286025 0.68150854 -0.37232608 4293400320
3.2990012 0.68429881 -0.35792843 4293530880
3.2956052 0.68369317 -0.34131631 4293530880
3.2462473 0.67355114 -0.3198438 4293269760
3.2589221 0.67627817 -0.30429912 4293400320
3.2649598 0.67762834 -0.28770503 4293400320
3.278167 0.68046677 -0.27132344 4293400320
3.2470369 0.67410159 -0.25108474 4293269760
3.2669473 0.67833179 -0.23456666 4293400320
3.2838147 0.68193108 -0.2173713 4293400320
3.2759385 0.68039238 -0.19825801 4293400320
3.2956219 0.68457758 -0.18052372 4293400320
3.255168 0.67627072 -0.15943496 4293269760
3.2719791 0.67985952 -0.14110312 4293400320
3.2872753 0.68313444 -0.12236612 4293400320
3.2565436 0.67684406 -0.10188629 4293269760
3.2895324 0.68379682 -0.083263688 4293400320
3.3049111 0.68709058 -0.063820995 4293400320
3.3072014 0.68766379 -0.043954436 4293400320
3.2844648 0.68303281 -0.023837142 4293400320
3.3090506 0.68824255 -0.0040185954 4293530880
3.3116572 0.68888187 0.015989961 4293530880
3.2770083 0.68177086 0.035600241 4293400320
3.3165996 0.69010466 0.05601991 4293530880
3.3365154 0.69434655 0.076400198 4293530880
3.3401752 0.69520628 0.0964633 4293530880
3.2916157 0.68519658 0.11463756 4293400320
3.3183093 0.69085062 0.13518859 4293530880
3.3415668 0.69579089 0.15574561 4293530880
3.3312392 0.69373876 0.17463845 4293530880
3.2594566 0.67888677 0.18963638 4293269760
3.3338566 0.69448078 0.21296382 4293530880
3.3395381 0.69576305 0.23211399 4293661440
3.3349364 0.69490319 0.25029975 4293530880
3.263341 0.68008232 0.26275659 4293400320
3.3461607 0.69744074 0.28743196 4293661440
3.3647716 0.70141989 0.30680984 4293661440
3.3593969 0.70039982 0.32372883 4293661440
3.2907851 0.68619394 0.33381149 4293400320
3.1446712 0.65582192 0.33457944 4293008640
3.3445818 0.69761187 0.37207589 4293661440
3.3427639 0.69733334 0.38765141 4293661440
3.3295064 0.69466829 0.40139553 4293661440
3.2959795 0.68777335 0.41203302 4293530880
3.2706382 0.68258482 0.42297214 4293400320
3.353797 0.70004141 0.44771385 4293661440
3.3573389 0.70088315 0.46167287 4293792000
3.3537509 0.7002368 0.47412705 4293792000
3.3371065 0.69686413 0.48411903 4293661440
3.3223908 0.69389361 0.49372497 4293661440
3.3183136 0.69314462 0.50428218 4293661440
3.3383367 0.69743037 0.51797557 4293661440
3.3388205 0.69763523 0.52810526 4293661440
3.3469059 0.69942898 0.53885359 4293792000
3.3294129 0.69587773 0.54483575 4293661440
3.339716 0.69813597 0.55471706 4293792000
3.3215978 0.69445342 0.55921632 4293661440
3.328315 0.69596297 0.56722176 4293661440
3.3234558 0.69505244 0.5725978 4293661440
3.3273668 0.69597632 0.57881534 4293661440
3.3366768 0.69803029 0.58531672 4293792000
3.331146 0.69698018 0.5885359 4293661440
3.3086419 0.69237846 0.58803564 4293661440
3.2936966 0.68935758 0.5881542 4293530880
3.3126099 0.69342339 0.59363115 4293661440
3.3075354 0.69246888 0.59412104 4293661440
3.3025773 0.69153887 0.59393144 4293661440
3.3148136 0.69420969 0.59613717 4293661440
3.3197284 0.69534826 0.59632492 4293661440
3.3329608 0.69822997 0.59730095 4293792000
3.3197913 0.69558138 0.5928455 4293661440
3.3240745 0.69658941 0.59081763 4293661440
3.3216369 0.69618958 0.58690143 4293661440
3.3391964 0.69998169 0.58581346 4293792000
3.3332262 0.69884247 0.57989746 4293661440
3.3351889 0.69936651 0.57469028 4293661440
3.3320265 0.6988163 0.56793195 4293661440
3.3291869 0.69833398 0.56057912 4293661440
3.3351688 0.69970244 0.55405301 4293661440
3.3286719 0.69845337 0.54481232 4293661440
3.3140783 0.69550514 0.53366929 4293661440
3.3104076 0.69484878 0.52371824 4293661440
3.3328161 0.69966716 0.51723427 4293661440
3.3443696 0.70220834 0.50836539 4293661440
3.3441927 0.70228738 0.49709272 4293661440
3.2962711 0.69297069 0.40558711 4293530880
3.2984884 0.69355363 0.39096153 4293530880
3.3418171 0.70278221 0.38056305 4293661440
3.3298573 0.70038557 0.36329183 4293661440
3.2861991 0.69132024 0.34242374 4293400320
3.2917478 0.6926049 0.32649338 4293530880
3.3248746 0.69969356 0.31274137 4293530880
3.3134551 0.69740921 0.294337 4293530880
3.2892506 0.69243288 0.2746582 4293400320
3.2958479 0.69394004 0.25734535 4293400320
3.3061202 0.69622171 0.23994407 4293530880
3.3115115 0.69747621 0.22183725 4293530880
3.2727563 0.68943197 0.20071229 4293400320
3.3062005 0.69659621 0.18383329 4293530880
3.3113391 0.69779849 0.16495359 4293530880
3.3172288 0.69915956 0.1458666 4293530880
3.2762861 0.69064921 0.12475993 4293400320
3.2972894 0.69519597 0.10600185 4293400320
3.3027081 0.6964581 0.086467087 4293400320
3.3013365 0.69628859 0.066634245 4293400320
3.2729113 0.69041234 0.046356332 4293400320
3.2932563 0.69482332 0.026774291 4293400320
3.2953873 0.69539249 0.0068747881 4293400320
3.2491131 0.68574607 -0.012876816 4293269760
3.2660418 0.68943733 -0.032677494 4293269760
3.2846515 0.69348466 -0.052675586 4293400320
3.2923067 0.69522023 -0.072603233 4293400320
3.2516248 0.68674803 -0.091200136 4293269760
3.2733989 0.69146508 -0.11132547 4293400320
3.2961571 0.69639164 -0.13162999 4293400320
3.3062158 0.69863629 -0.15148316 4293530880
3.2564433 0.68823725 -0.16821401 4293269760
3.2797401 0.69327921 -0.18836693 4293400320
3.28582 0.69468296 -0.20750099 4293400320
3.284457 0.69451326 -0.22596943 4293400320
3.2656679 0.69065803 -0.2428856 4293400320
3.3015804 0.69837159 -0.26368627 4293530880
3.3186836 0.70210844 -0.28299135 4293530880
3.3170071 0.70187277 -0.30047372 4293530880
3.3116543 0.70085883 -0.317258 4293530880
3.2785985 0.69398069 -0.33084971 4293400320
3.2970636 0.69800669 -0.34918684 4293530880
3.3048346 0.6997695 -0.36613828 4293530880
3.2981727 0.69847625 -0.38109478 4293530880
3.2814357 0.69504845 -0.394357 4293400320
3.3022499 0.69957381 -0.41169888 4293530880
3.3086667 0.70105004 -0.42691064 4293530880
3.3194871 0.70345956 -0.44228414 4293661440
3.3147116 0.70256418 -0.45511249 4293661440
3.3074136 0.70113343 -0.46703389 4293530880
3.2783785 0.69509339 -0.47522607 4293530880
3.2868996 0.69701463 -0.48823482 4293530880
3.2878597 0.69733268 -0.49960092 4293530880
3.2885871 0.69760108 -0.51036751 4293530880
3.2987874 0.69987881 -0.52205157 4293530880
3.2995951 0.70016396 -0.5316869 4293530880
3.2924712 0.69876564 -0.53941864 4293530880
3.295855 0.69959676 -0.54823697 4293530880
3.2968743 0.69992578 -0.55604076 4293530880
3.2952371 0.69969046 -0.56275314 4293530880
3.2933369 0.69939882 -0.56876165 4293530880
3.2610693 0.69265693 -0.56881523 4293530880
3.2737386 0.69545817 -0.57599646 4293530880
3.265574 0.69383359 -0.57885635 4293530880
3.2477586 0.69015735 -0.57930344 4293400320
3.2472527 0.69015813 -0.58213711 4293400320
3.2603452 0.69304907 -0.58673364 4293530880
3.2600622 0.69309688 -0.58825058 4293530880
3.2502611 0.69112056 -0.58736277 4293400320
3.2635446 0.69405228 -0.58995146 4293530880
3.2587905 0.69314814 -0.58859664 4293530880
3.2664013 0.69487345 -0.58878154 4293530880
3.2758517 0.69699037 -0.58860141 4293530880
3.2905982 0.70023441 -0.58866698 4293530880
3.2896893 0.70014721 -0.58523887 4293530880
3.2926702 0.70088756 -0.58181655 4293530880
3.2904365 0.70051759 -0.57679611 4293530880
3.28496 0.69945663 -0.57054925 4293530880
3.2830877 0.69916248 -0.5642767 4293530880
3.2942381 0.70164144 -0.55956513 4293530880
3.2892244 0.70067751 -0.55145329 4293530880
3.2733905 0.69740784 -0.54094219 4293530880
3.2679987 0.69636172 -0.53158176 4293530880
3.2590234 0.69455123 -0.52106655 4293400320
3.2546327 0.693717 -0.51072264 4293400320
3.2862942 0.70056725 -0.50535446 4293530880
3.2936807 0.70224386 -0.49555862 4293530880
3.2904186 0.70164996 -0.4835856 4293530880
3.2836094 0.70029908 -0.47057873 4293530880
3.2546465 0.69422239 -0.45400497 4293400320
3.2636468 0.69624186 -0.44227809 4293400320
3.2817466 0.70020306 -0.43117288 4293530880
3.2899914 0.70206219 -0.41818082 4293530880
3.2668221 0.6972174 -0.40080234 4293400320
3.2522886 0.69421417 -0.38420179 4293400320
3.2868576 0.70169187 -0.37286529 4293530880
3.2949572 0.70352012 -0.35791746 4293530880
3.3003213 0.7047646 -0.34221122 4293530880
3.2520013 0.6945442 -0.32079086 4293400320
3.2646642 0.69734621 -0.30519637 4293400320
3.2648523 0.6974839 -0.28803709 4293400320
3.27054 0.69879633 -0.27101463 4293400320
3.2381771 0.69197834 -0.25069761 4293269760
3.2726934 0.69945109 -0.23525482 4293400320
3.2797842 0.70106375 -0.21736038 4293400320
3.285584 0.70240074 -0.19907218 4293400320
3.2887313 0.70317084 -0.18035741 4293400320
3.2632346 0.69781607 -0.16001309 4293400320
3.2777309 0.70101261 -0.14151202 4293400320
3.2920327 0.7041682 -0.12268116 4293400320
3.266227 0.69874495 -0.10230128 4293400320
3.2854905 0.70296252 -0.083252743 4293400320
3.3057382 0.7073918 -0.063903563 4293530880
3.3129144 0.70902485 -0.044071663 4293530880
3.2804272 0.70216888 -0.023826219 4293400320
3.3098714 0.70856833 -0.004012628 4293530880
3.3212745 0.71110708 0.016069645 4293530880
3.2964449 0.70588815 0.035870615 4293400320
3.3230388 0.71168035 0.056210663 4293530880
3.3388596 0.71516669 0.076560237 4293530880
3.3311784 0.71361965 0.096332289 4293530880
3.2826788 0.70332718 0.11447732 4293400320
3.3102484 0.70933133 0.13503678 4293530880
3.3374536 0.71525913 0.15575673 4293530880
3.3271379 0.71314681 0.17464954 4293530880
3.1945496 0.68482369 0.18609078 4293139200
3.3337231 0.71475554 0.21322952 4293530880
3.3500576 0.71835685 0.23314546 4293661440
3.330828 0.71433264 0.25031084 4293530880
3.264194 0.70014018 0.263161 4293400320
3.3469088 0.71798044 0.28786269 4293661440
3.3580492 0.72047037 0.30658558 4293661440
3.3737509 0.72393996 0.32552677 4293792000
3.313695 0.71115315 0.33656463 4293530880
3.1456559 0.67518693 0.33510849 4293008640
3.3589249 0.72106141 0.37414613 4293661440
3.3473842 0.71868515 0.38867873 4293661440
3.3399634 0.71719313 0.40316626 4293661440
3.2880311 0.70614201 0.41155767 4293530880
3.271452 0.70268118 0.42361152 4293400320
3.349658 0.71958029 0.447725 4293661440
3.353195 0.72044259 0.46168405 4293792000
3.345737 0.718943 0.47358951 4293661440
3.3416977 0.71817786 0.48539636 4293661440
3.3231254 0.71428925 0.49445623 4293661440
3.3093801 0.7114374 0.50355709 4293661440
3.3438785 0.71895713 0.51948917 4293792000
3.3530519 0.72103387 0.53102505 4293792000
3.3331132 0.7168507 0.53730714 4293661440
3.3436394 0.71921939 0.54785347 4293792000
3.3279526 0.71595013 0.5534578 4293661440
3.3271377 0.71587992 0.5608542 4293661440
3.3241997 0.71535319 0.56723285 4293661440
3.3145258 0.71337706 0.57177705 4293661440
3.318908 0.71442616 0.57806957 4293661440
3.3180969 0.71435791 0.58278835 4293661440
3.3222082 0.71534985 0.58769464 4293661440
3.2949166 0.70958012 0.58633208 4293661440
3.304065 0.71165723 0.59074879 4293661440
3.3085098 0.71272212 0.59364218 4293661440
3.3082547 0.71277517 0.59499818 4293661440
3.3033018 0.71181643 0.59480959 4293661440
3.3203361 0.71559608 0.59788251 4293661440
3.3204305 0.71572602 0.59720212 4293661440
3.3110132 0.71380597 0.59411335 4293661440
3.3156784 0.71492189 0.59285659 4293661440
3.3392167 0.72010833 0.59425789 4293792000
3.3310053 0.71844923 0.58929914 4293792000
3.3226173 0.71675187 0.58363843 4293661440
3.3290942 0.71826124 0.57990855 4293661440
3.3267736 0.71787322 0.57396263 4293661440
3.3327153 0.7192685 0.56876618 4293792000
3.3366282 0.72022665 0.56254184 4293792000
3.3455038 0.72225672 0.55647248 4293792000
3.3390195 0.72097152 0.5471971 4293792000
3.3283114 0.71877408 0.53663975 4293661440
3.3198225 0.71705556 0.52587253 4293661440
3.3481264 0.72328448 0.52026892 4293792000
3.3402178 0.72169214 0.50837654 4293661440
3.3448768 0.72281522 0.49782407 4293792000
3.2970259 0.71322411 0.40619636 4293530880
3.3128345 0.71676123 0.39316374 4293530880
3.3328056 0.72120047 0.38001984 4293661440
3.3264542 0.71994472 0.36338356 4293661440
3.2986381 0.71404266 0.34416088 4293530880
3.2973812 0.71388859 0.32747161 4293530880
3.3110061 0.71695685 0.31183463 4293530880
3.3142009 0.7177676 0.29478168 4293530880
3.2851574 0.71159619 0.27466917 4293400320
3.2966182 0.71419728 0.25773793 4293530880
3.3077853 0.71673566 0.24037595 4293530880
3.3112895 0.71761447 0.22211049 4293530880
3.2823389 0.71145946 0.20156388 4293400320
3.3180435 0.71931815 0.18473527 4293530880
3.3177166 0.7193675 0.16549005 4293530880
3.3267655 0.72145009 0.14648163 4293530880
3.28197 0.71185535 0.12514478 4293400320
3.3029482 0.71652514 0.10632886 4293530880
3.3068013 0.71748114 0.08669468 4293530880
3.3021066 0.71658266 0.066744812 4293530880
3.2737167 0.71054119 0.04643739 4293400320
3.2842636 0.71294969 0.026744604 4293400320
3.2961636 0.7156527 0.0068968725 4293400320
3.2499464 0.70573711 -0.012884449 4293269760
3.2619674 0.70846599 -0.032666616 4293269760
3.2805531 0.71262169 -0.052664641 4293400320
3.2881982 0.7144019 -0.072592266 4293400320
3.2398729 0.7040211 -0.09097483 4293269760
3.2839627 0.71372044 -0.11181038 4293400320
3.2969241 0.71665698 -0.1318132 4293400320
3.3069685 0.71896017 -0.15169503 4293530880
3.2445657 0.70551193 -0.16780089 4293269760
3.2779369 0.71288663 -0.18848738 4293400320
3.2953694 0.71679688 -0.20835033 4293400320
