# .PCD v0.7 - Point Cloud Data file format
VERSION 0.7
FIELDS x y z rgba
SIZE 4 4 4 4
TYPE F F F U
COUNT 1 1 1 1
WIDTH 1103
HEIGHT 1
VIEWPOINT 0 0 0 1 0 0 0
POINTS 1103
DATA ascii
3.3012609 0.16204984 -0.42317948 4290789120
3.2980115 0.1619942 -0.40895665 4290658560
3.2649963 0.16047536 -0.39073956 4290397440
3.2463422 0.15966074 -0.37402925 4290266880
3.2259409 0.15875895 -0.35687637 4290005760
3.061193 0.15074758 -0.32422701 4288569600
2.9363034 0.1446899 -0.29681826 4287394560
2.6729343 0.13179624 -0.2569868 4285175040
2.6314087 0.12983158 -0.23971123 4284783360
2.584826 0.12761463 -0.22216006 4284261120
2.6048565 0.12868558 -0.21022457 4284522240
2.5870039 0.1278851 -0.19499117 4284261120
2.5591159 0.12658709 -0.17903399 4284130560
2.5933187 0.12836061 -0.16718823 4284391680
2.5469604 0.12614623 -0.15003644 4284000000
2.4509521 0.12146831 -0.13059439 4283086080
2.5338912 0.12565854 -0.12061401 4283869440
2.4533269 0.12174054 -0.10271063 4283086080
2.4012754 0.11923323 -0.086652495 4282694400
2.4303825 0.12075505 -0.073560759 4282955520
2.4591014 0.12225941 -0.060040314 4283086080
2.3921235 0.1190048 -0.044344157 4282563840
2.3976347 0.11935449 -0.030305076 4282563840
2.4218132 0.12063437 -0.016293779 4282824960
2.4333193 0.12128414 -0.0019685731 4282955520
2.3685174 0.11812881 0.012105022 4282302720
2.2385108 0.11171529 0.024679849 4281258240
2.4340289 0.12154948 0.041202188 4282955520
2.471684 0.12350773 0.056383502 4283216640
2.4015064 0.12007666 0.068854496 4282694400
2.3371205 0.11693093 0.080630712 4282041600
2.5281951 0.1265704 0.10186447 4283738880
2.5203598 0.12625752 0.11603517 4283738880
2.5089905 0.12576701 0.12980761 4283608320
2.8103426 0.14096124 0.16125374 4286219520
3.2929156 0.16526987 0.2073153 4290528000
3.3209016 0.16677906 0.22737777 4290789120
3.3252604 0.16710269 0.24575223 4290789120
3.2505822 0.16345231 0.25764045 4290136320
3.3454244 0.16832672 0.28278208 4291050240
3.3557935 0.16895413 0.30102587 4291180800
3.3529139 0.16891477 0.31778863 4291050240
3.3237154 0.16754846 0.3315461 4290919680
3.2188566 0.16236392 0.33673424 4290005760
3.3487029 0.16901903 0.36620805 4291180800
3.3427522 0.16882396 0.38101223 4291050240
3.3283284 0.16820033 0.39433283 4290919680
3.3068528 0.16721919 0.40621787 4290789120
3.2887235 0.16640602 0.41788751 4290658560
3.3403604 0.16912399 0.43808576 4291180800
3.3449936 0.16946393 0.45185387 4291180800
3.3439126 0.16951449 0.46435255 4291180800
3.346236 0.16973767 0.47680104 4291180800
3.3204944 0.16853651 0.48462704 4291050240
3.2926745 0.16722819 0.49141574 4290789120
3.330034 0.16923049 0.50739473 4291180800
3.3364854 0.16966343 0.51821792 4291180800
3.3451364 0.17020871 0.52882975 4291311360
3.327884 0.16943568 0.53471625 4291180800
3.3433654 0.17032921 0.54523724 4291311360
3.3298452 0.1697453 0.55040473 4291180800
3.3268826 0.16969906 0.55664313 4291180800
3.3268847 0.16980396 0.56272495 4291180800
3.3215487 0.16963622 0.5672403 4291180800
3.3256743 0.16995168 0.57270771 4291180800
3.3075497 0.16912964 0.57365882 4291050240
3.3069715 0.16920425 0.57696027 4291050240
3.306505 0.16928451 0.57960558 4291050240
3.3110697 0.16962253 0.58245724 4291050240
3.3108313 0.16971458 0.58378476 4291050240
3.310709 0.1698126 0.58444899 4291050240
3.2959509 0.16915944 0.58184493 4290919680
3.3184049 0.1704164 0.58512384 4291180800
3.3186333 0.17053264 0.58379382 4291180800
3.3184919 0.17062992 0.58171529 4291180800
3.3277893 0.17121279 0.58060318 4291180800
3.3253088 0.1711899 0.57675219 4291180800
3.3333881 0.17171083 0.57405162 4291180800
3.3326409 0.17177732 0.56915236 4291180800
3.329298 0.1717099 0.56315309 4291180800
3.3300846 0.17185536 0.55720103 4291180800
3.3321183 0.17206527 0.55080473 4291180800
3.3328848 0.17220983 0.54355425 4291180800
3.3256698 0.1719418 0.5343886 4291180800
3.3112493 0.17130055 0.52350235 4290919680
3.3179958 0.17175408 0.51537776 4291050240
3.3445902 0.17323607 0.50964618 4291311360
3.3295498 0.17256193 0.49695408 4291050240
3.333154 0.17285371 0.48651108 4291180800
3.2793329 0.17091744 0.39642471 4290528000
3.3173087 0.17300121 0.38633919 4290919680
3.3362355 0.17409337 0.37334892 4291050240
3.3325982 0.17400855 0.357348 4290919680
3.2930186 0.17204566 0.33730251 4290658560
3.2968845 0.17235151 0.32150391 4290658560
3.3139141 0.17334615 0.30652884 4290789120
3.142956 0.16450258 0.27461731 4289222400
2.7160931 0.14224611 0.22314681 4285436160
2.5279911 0.13247454 0.19427317 4283869440
2.513557 0.13179733 0.17960927 4283608320
2.4783955 0.13003172 0.16353808 4283347200
2.44751 0.12848839 0.1479342 4283086080
2.4598217 0.12921222 0.13488232 4283216640
2.4500728 0.1287773 0.12046032 4283086080
2.4107382 0.1267858 0.10473331 4282694400
2.3525703 0.12380073 0.088635162 4282172160
2.4317393 0.1280435 0.077491 4282955520
2.4256861 0.12780119 0.063122749 4282824960
2.3730185 0.12510107 0.047817905 4282433280
2.3919239 0.12617308 0.034101497 4282563840
2.4593618 0.12980787 0.020530274 4283086080
2.4450774 0.12913096 0.0059407111 4282955520
2.4550517 0.12973507 -0.0085708834 4283086080
2.5222356 0.13336481 -0.0237296 4283738880
2.4787352 0.13114278 -0.037962023 4283347200
2.4597983 0.13021839 -0.05216125 4283086080
2.5350108 0.13427989 -0.068630487 4283869440
2.5445449 0.13486508 -0.083744526 4283869440
2.5869217 0.13719262 -0.10015055 4284261120
2.5866024 0.13725717 -0.11503936 4284261120
2.6195099 0.13908593 -0.13146748 4284522240
2.6137393 0.13886186 -0.14596711 4284522240
2.6457739 0.14064714 -0.1625661 4284783360
2.6551018 0.14122666 -0.1778238 4284913920
2.9449525 0.15673679 -0.21330886 4287525120
3.1269827 0.16652335 -0.24331202 4289091840
3.2782109 0.17468008 -0.2724314 4290397440
3.3144174 0.17671379 -0.29268175 4290789120
3.313139 0.17675 -0.30948159 4290789120
3.2876062 0.17549145 -0.32354003 4290528000
3.310262 0.17680511 -0.34196594 4290789120
3.3131495 0.17706372 -0.35809496 4290789120
3.313024 0.1771614 -0.37351316 4290789120
3.2975292 0.17643671 -0.38671112 4290658560
3.3179588 0.17763434 -0.40370911 4290919680
3.3252199 0.17812786 -0.41877279 4290919680
3.3333261 0.17866711 -0.43353614 4291050240
3.3385949 0.17905471 -0.4474957 4291180800
3.32061 0.17819476 -0.4577843 4290919680
3.2926972 0.17680061 -0.46601367 4290789120
3.289788 0.17674805 -0.47713912 4290789120
3.306227 0.17773542 -0.4905712 4290919680
3.2997515 0.17749128 -0.50007671 4290789120
3.3104644 0.17817181 -0.51162541 4290919680
3.3038194 0.17791827 -0.51991689 4290919680
3.2970538 0.17765781 -0.52755392 4290919680
3.3036988 0.17811997 -0.53672624 4290919680
3.2938373 0.17769206 -0.54258996 4290919680
3.3054094 0.17842047 -0.55135721 4290919680
3.2946188 0.17794183 -0.55575782 4290919680
3.2881827 0.17769782 -0.56021547 4290789120
3.2825601 0.1774974 -0.56414008 4290789120
3.2907047 0.17804147 -0.56977487 4290919680
3.2718928 0.17712677 -0.57006705 4290658560
3.2812362 0.17773595 -0.57458633 4290789120
3.2710192 0.1772856 -0.57500958 4290658560
3.280586 0.17790747 -0.57823527 4290789120
3.2755158 0.17773572 -0.57820714 4290789120
3.2656446 0.17730297 -0.57665247 4290658560
3.2799883 0.17818509 -0.57869554 4290789120
3.2890179 0.17877926 -0.57911807 4290919680
3.2947404 0.17919414 -0.57827389 4290919680
3.2891755 0.1789951 -0.57477295 4290919680
3.3081081 0.18012965 -0.57486671 4291050240
3.2995634 0.17976834 -0.56950563 4290919680
3.3056841 0.18020597 -0.56601274 4291050240
3.3052356 0.18028568 -0.56072766 4290919680
3.3057425 0.18041748 -0.55495167 4290919680
3.2989619 0.18015136 -0.54731983 4290919680
3.2983639 0.18022265 -0.5400933 4290919680
3.28653 0.17967959 -0.53043056 4290789120
3.2818537 0.17952734 -0.52134961 4290658560
3.2649188 0.17870383 -0.50977796 4290528000
3.2739387 0.1793007 -0.50169206 4290658560
3.2953115 0.18057503 -0.49483123 4290789120
3.3111088 0.18154502 -0.48644939 4290919680
3.312356 0.18171777 -0.47531861 4290919680
3.2846081 0.180299 -0.45958057 4290658560
3.274195 0.17983058 -0.44588396 4290528000
3.2879379 0.18068899 -0.43495709 4290658560
3.3005941 0.18148853 -0.42329019 4290789120
3.3059113 0.18188506 -0.41013163 4290789120
3.2639871 0.17968133 -0.39081049 4290397440
3.2677455 0.1799912 -0.37668571 4290397440
3.2742119 0.18045056 -0.36240569 4290528000
3.2322342 0.17823891 -0.34252787 4290136320
3.1140261 0.17181854 -0.31495982 4289091840
2.8524113 0.15747365 -0.27440208 4286741760
2.6445138 0.14607956 -0.24105118 4284913920
2.6268013 0.14518391 -0.22591087 4284652800
2.6378865 0.14587972 -0.21303183 4284783360
2.6150751 0.1447006 -0.19724503 4284522240
2.5722661 0.1424129 -0.1800874 4284130560
2.5642371 0.14204919 -0.16544388 4284130560
2.5790617 0.14295168 -0.15205608 4284261120
2.5020375 0.13876125 -0.13343845 4283608320
2.5520535 0.14161552 -0.1216002 4284000000
2.471519 0.13722448 -0.10358716 4283216640
2.429466 0.13496616 -0.08777976 4282955520
2.4485896 0.1361057 -0.07421957 4283086080
2.4822931 0.13805737 -0.060712509 4283347200
2.4253218 0.13496523 -0.045059796 4282824960
2.420851 0.13479272 -0.030695152 4282824960
2.4500153 0.1364938 -0.016577763 4283086080
2.4300971 0.1354607 -0.0020558145 4282824960
2.3867521 0.13311973 0.012113634 4282563840
2.2947237 0.12805922 0.025221899 4281649920
2.4472494 0.13664818 0.041347064 4283086080
2.4674163 0.13785201 0.056210663 4283216640
2.4097433 0.13470583 0.069021024 4282694400
2.3463738 0.13123737 0.0808862 4282172160
2.5224223 0.14116362 0.1015678 4283738880
2.5195777 0.14108382 0.11593969 4283738880
2.6624587 0.14916836 0.13768962 4284913920
3.1105039 0.17436881 0.17841469 4288961280
3.3207915 0.18626177 0.20901051 4290789120
3.3298323 0.18687381 0.22793572 4290919680
3.3229733 0.18659361 0.2455363 4290789120
3.2495737 0.18257444 0.25752106 4290136320
3.3533406 0.18851016 0.28341722 4291050240
3.3597243 0.18897492 0.30135131 4291180800
3.3566253 0.18890639 0.31812012 4291180800
3.3142321 0.186625 0.330587 4290789120
3.2228222 0.18157926 0.33714312 4290005760
3.3516328 0.1889423 0.36652935 4291180800
3.3417137 0.18848844 0.38090187 4291050240
3.3252983 0.18766734 0.39398897 4290919680
3.3058245 0.18667249 0.40611374 4290789120
3.2575207 0.18404755 0.41395161 4290397440
3.3343706 0.18849461 0.43733716 4291050240
3.3488989 0.18942145 0.45242584 4291180800
3.3428702 0.18918581 0.46425951 4291180800
3.34025 0.18914279 0.47600713 4291180800
3.3243976 0.18834992 0.48526278 4291050240
3.3064582 0.18743774 0.49354589 4290919680
3.3378758 0.18932396 0.50867069 4291180800
3.3354409 0.18929097 0.51814401 4291180800
3.3391573 0.18960711 0.52798027 4291180800
3.331769 0.18929259 0.53544331 4291180800
3.3295913 0.1892738 0.54310095 4291180800
3.3238728 0.18905349 0.5495345 4291180800
3.3307588 0.18955013 0.55741602 4291180800
3.3346958 0.1898793 0.56417769 4291180800
3.3116426 0.18867101 0.56568617 4291050240
3.2973516 0.18796073 0.56797415 4290919680
3.3114214 0.18886714 0.57448161 4291050240
3.3010056 0.18837711 0.57607687 4290919680
3.3192232 0.18952134 0.5819999 4291180800
3.3139503 0.18932472 0.58313513 4291050240
3.309777 0.18919063 0.58377618 4291050240
3.3096533 0.18928787 0.58444607 4291050240
3.3096461 0.18939178 0.58445215 4291050240
3.3222597 0.19021828 0.58599973 4291180800
3.31757 0.19005434 0.58380848 4291180800
3.3223441 0.19043255 0.58259815 4291180800
3.3129504 0.18999854 0.57822663 4291050240
3.3330917 0.19125871 0.5783211 4291311360
3.3294477 0.19115455 0.57359695 4291180800
3.3311434 0.19135691 0.56912553 4291180800
3.3242838 0.19106764 0.56253803 4291180800
3.3339298 0.19172713 0.55808264 4291180800
3.331038 0.19166583 0.55086839 4291180800
3.3268757 0.1915312 0.54282027 4291180800
3.3334601 0.19201533 0.5358907 4291180800
3.3151019 0.19106236 0.52436393 4291050240
3.3080354 0.19075935 0.51408583 4290919680
3.3336289 0.19234028 0.50823617 4291180800
3.3383362 0.19271712 0.49852899 4291180800
3.3326533 0.19249409 0.48670357 4291180800
3.2882144 0.19021805 0.39762321 4290658560
3.3123 0.19171576 0.38587549 4290789120
3.3490772 0.19394998 0.37490052 4291180800
3.3355212 0.19327009 0.35776883 4291050240
3.2870173 0.19056323 0.3367869 4290528000
3.2958474 0.19117904 0.32149518 4290658560
3.3164937 0.1924812 0.30685326 4290789120
3.2851799 0.19076736 0.28712189 4290528000
2.8632519 0.16635665 0.23529819 4286741760
2.5892971 0.15052134 0.19903384 4284391680
2.5038023 0.14563027 0.17895408 4283608320
2.4726326 0.14389527 0.16319324 4283347200
2.4557056 0.14298761 0.14845878 4283216640
2.4490764 0.14267883 0.13431624 4283086080
2.4632428 0.14358176 0.12112499 4283216640
2.4274595 0.14157249 0.10547058 4282824960
2.3807559 0.13892373 0.08970172 4282433280
2.4245133 0.14155352 0.077259317 4282824960
2.4488685 0.14305268 0.063718379 4283086080
2.3962202 0.14005272 0.048271861 4282563840
2.4151213 0.14123358 0.034412403 4282694400
2.4925213 0.14583841 0.020780299 4283477760
2.4732504 0.14478883 0.0059763193 4283216640
2.4822226 0.14539233 -0.0087049594 4283347200
2.4821234 0.14546475 -0.023397652 4283347200
2.4919195 0.14611742 -0.038215753 4283477760
2.4779768 0.14537798 -0.052604351 4283347200
2.5681305 0.15074807 -0.069593102 4284130560
2.5816457 0.1516228 -0.085038081 4284261120
2.6050472 0.15307932 -0.10093159 4284391680
2.6146955 0.15372871 -0.11637451 4284522240
2.6425989 0.15545256 -0.13271891 4284783360
2.6418054 0.15548918 -0.14763303 4284783360
2.6738198 0.15745772 -0.16439489 4285044480
2.7784522 0.16370699 -0.18620069 4285958400
3.1150646 0.18363847 -0.22576645 4288961280
3.2686608 0.19279628 -0.25448534 4290397440
3.3100536 0.19534211 -0.27523527 4290658560
3.3215051 0.19612263 -0.29347196 4290789120
3.3120689 0.19566987 -0.30955142 4290789120
3.2915108 0.19455911 -0.32409865 4290658560
3.3181276 0.19623703 -0.3429597 4290789120
3.3138223 0.19608687 -0.35835373 4290789120
3.3169103 0.19637416 -0.37414235 4290919680
3.2915025 0.19497368 -0.3861984 4290658560
3.3168819 0.19658162 -0.40377787 4290919680
3.3241398 0.19711657 -0.41884089 4290919680
3.3322427 0.19770211 -0.43360344 4291050240
3.3286042 0.19759119 -0.4463678 4291050240
3.3195293 0.19715713 -0.45784879 4290919680
3.2866828 0.19530989 -0.46537635 4290658560
3.2985954 0.1961218 -0.47863331 4290789120
3.3002119 0.19632195 -0.4898974 4290789120
3.3085454 0.19692199 -0.50163007 4290919680
3.3005054 0.19654752 -0.51030737 4290919680
3.3076718 0.19707857 -0.52074534 4290919680
3.3009059 0.19677952 -0.52839231 4290919680
3.3075469 0.19727968 -0.5375737 4290919680
3.2976863 0.19679552 -0.54344511 4290919680
3.2944832 0.19670822 -0.54975456 4290919680
3.2935424 0.1967559 -0.55579478 4290919680
3.2920289 0.19676927 -0.56108749 4290919680
3.2952466 0.19706549 -0.56653512 4290919680
3.2847116 0.19653903 -0.56894869 4290789120
3.2659068 0.19551682 -0.56923151 4290658560
3.2654152 0.19559035 -0.57201999 4290658560
3.2797828 0.19655433 -0.57675147 4290789120
3.2745993 0.19634694 -0.57737696 4290789120
3.2695313 0.19614615 -0.57734293 4290658560
3.2926021 0.19763403 -0.58160138 4290919680
3.2740028 0.19662085 -0.57782197 4290789120
3.2830296 0.19726646 -0.57824105 4290789120
3.2936661 0.19800943 -0.57825732 4290919680
3.2949991 0.19819346 -0.57595646 4290919680
3.2971952 0.19842951 -0.57312965 4290919680
3.2886515 0.19801903 -0.56777424 4290919680
3.2957523 0.19855049 -0.56445724 4290919680
3.3028789 0.19908398 -0.56046557 4290919680
3.2997444 0.19899909 -0.55407453 4290919680
3.2978885 0.19899115 -0.54726326 4290919680
3.297291 0.19905907 -0.54003072 4290919680
3.2903886 0.1987461 -0.53115755 4290789120
3.2758572 0.19797167 -0.52049196 4290658560
3.2638574 0.1973494 -0.50969774 4290528000
3.277808 0.19829626 -0.50236154 4290658560
3.2893047 0.19909549 -0.4939965 4290789120
3.3096817 0.20043322 -0.48629758 4290919680
3.3112793 0.20063439 -0.47521204 4290919680
3.2809212 0.1988984 -0.45910212 4290658560
3.2695804 0.19831398 -0.44528267 4290528000
3.2720251 0.19856545 -0.43286887 4290528000
3.2945702 0.20003749 -0.42252412 4290658560
3.300873 0.20052427 -0.40950251 4290789120
3.2629247 0.19832183 -0.39066863 4290397440
3.2666812 0.19865316 -0.37653771 4290397440
3.2910728 0.20024024 -0.36423564 4290658560
3.2980385 0.20076805 -0.34945408 4290658560
3.2695048 0.19913416 -0.33062768 4290397440
3.0054066 0.18314363 -0.28905737 4288047360
2.7886293 0.17002156 -0.25411996 4286088960
2.6547818 0.16194466 -0.22824422 4284913920
2.6609006 0.16240181 -0.21480843 4285044480
2.6520398 0.16194464 -0.19994278 4284913920
2.6152329 0.15977953 -0.18299794 4284522240
2.5873001 0.15815453 -0.16682696 4284261120
2.6071088 0.1594476 -0.15359561 4284522240
2.5111799 0.1536599 -0.13380823 4283608320
2.5179324 0.15415248 -0.11984839 4283738880
2.5036116 0.15335467 -0.10479921 4283608320
2.4715531 0.15146893 -0.089161597 4283216640
2.4807005 0.15210775 -0.075046137 4283347200
2.5203838 0.15462047 -0.061487641 4283738880
2.4534552 0.15059191 -0.04542309 4283086080
2.341835 0.14381456 -0.029534547 4282172160
2.4681609 0.15165019 -0.01652649 4283216640
2.4492464 0.15056527 -0.0018927567 4283086080
2.3483262 0.14443535 0.01209657 4282172160
2.3418596 0.14411145 0.025923336 4282172160
2.4292374 0.14956506 0.041238841 4282824960
2.4516168 0.15102024 0.056054369 4283086080
2.4049387 0.1482207 0.069088563 4282694400
2.2447512 0.13841885 0.077579305 4281258240
2.5215673 0.15556777 0.10175906 4283738880
2.5877261 0.15973103 0.11931221 4284261120
2.8566329 0.17641978 0.14799786 4286611200
3.1622562 0.19539416 0.18168356 4289352960
3.3286228 0.20577884 0.20982499 4290789120
3.3376555 0.20644251 0.22879863 4290919680
3.3218353 0.20556873 0.24578255 4290789120
3.2534339 0.20143838 0.25815457 4290266880
3.3571613 0.2079666 0.28408191 4291180800
3.3635392 0.20846777 0.30203912 4291180800
3.3606551 0.20839499 0.31885022 4291180800
3.3180549 0.20585799 0.33131438 4290789120
3.2266729 0.20029025 0.33788425 4290005760
3.3603961 0.20869687 0.36784139 4291180800
3.3355992 0.20726205 0.38055688 4291050240
3.3380229 0.20751794 0.39584923 4291050240
3.3046789 0.20554923 0.406322 4290789120
3.2514403 0.20234035 0.41352171 4290397440
3.3431098 0.20815048 0.43883464 4291180800
3.3477364 0.20854411 0.45261887 4291180800
3.3417094 0.20827407 0.46444556 4291180800
3.3283205 0.20754455 0.47465026 4291050240
3.3183045 0.20702465 0.48471233 4291050240
3.3053095 0.20631814 0.49370831 4290919680
3.3367164 0.2083838 0.50882673 4291180800
3.3392138 0.20864508 0.51905829 4291180800
3.3379979 0.20867439 0.52811968 4291180800
3.3355398 0.20862591 0.53636593 4291180800
3.3382869 0.20890301 0.54482979 4291311360
3.3365064 0.20889683 0.55192667 4291311360
3.3345268 0.20887806 0.55834246 4291180800
3.3296051 0.20867477 0.56360394 4291180800
3.310497 0.20758164 0.56576806 4291050240
3.3011301 0.20709839 0.56889302 4290919680
3.3102782 0.20777671 0.57454276 4291050240
3.3096993 0.20784476 0.57784373 4291050240
3.3092318 0.20791979 0.58048755 4291050240
3.3001831 0.20745534 0.58094078 4290919680
3.3086395 0.20809127 0.58379334 4291050240
3.3085172 0.20818794 0.58445185 4291050240
3.3035972 0.20798256 0.58357823 4291050240
3.2938793 0.20747463 0.58117545 4290919680
3.3213503 0.20930974 0.5846442 4291180800
3.3212094 0.20940562 0.58255678 4291180800
3.3255851 0.2097864 0.58057636 4291180800
3.3231061 0.20973483 0.57671928 4291180800
3.328315 0.21016856 0.57351887 4291180800
3.3250926 0.21006995 0.56819457 4291180800
3.3320122 0.21061221 0.5639345 4291180800
3.3377213 0.21107836 0.55879146 4291311360
3.3348331 0.2110009 0.55155528 4291180800
3.3306754 0.21084288 0.54348433 4291180800
3.3283918 0.2108033 0.53510475 4291180800
3.3041244 0.20937055 0.522641 4290919680
3.3069191 0.20965195 0.51391041 4290919680
3.3325047 0.21137913 0.50804722 4291180800
3.3346007 0.21161726 0.49793789 4291180800
3.3414061 0.21215454 0.48793274 4291180800
3.2919924 0.20987745 0.39822248 4290658560
3.3079393 0.21099848 0.38550627 4290789120
3.33796 0.21301864 0.37379152 4291050240
3.334326 0.21289192 0.35777134 4291050240
3.3042941 0.21107864 0.33868191 4290789120
3.2959576 0.21065007 0.32162568 4290658560
3.3153033 0.21199109 0.30685866 4290789120
3.2979186 0.21098347 0.28834519 4290658560
3.196414 0.20459057 0.26277864 4289744640
2.6632121 0.17054631 0.20479605 4285044480
2.5307584 0.16214409 0.18095317 4283869440
2.4767215 0.15876013 0.16353002 4283347200
2.4508367 0.15717819 0.14822662 4283086080
2.4581587 0.1577253 0.13487262 4283216640
2.4638581 0.15816873 0.12120952 4283216640
2.3982904 0.15403524 0.10425195 4282694400
2.4038305 0.15446688 0.090615816 4282694400
2.4475765 0.15735516 0.078035489 4283086080
2.4619505 0.15835692 0.064095907 4283216640
2.4153092 0.15543306 0.048688561 4282824960
2.4531639 0.15794653 0.034982726 4283086080
2.5105798 0.16172245 0.020955253 4283608320
2.5012956 0.16120329 0.0060638557 4283477760
2.5102639 0.16186048 -0.0087880408 4283608320
2.5051737 0.16161129 -0.023604307 4283608320
2.5289335 0.16322385 -0.038777322 4283738880
2.5110006 0.16214561 -0.053304024 4283608320
2.591141 0.16740234 -0.070220038 4284261120
2.6046469 0.16835707 -0.085803956 4284391680
2.6469808 0.17117693 -0.10256959 4284783360
2.6326885 0.17033572 -0.11719346 4284652800
2.6655595 0.17254658 -0.13389537 4285044480
2.6687446 0.17283693 -0.14916678 4285044480
2.8181188 0.18259983 -0.17330196 4286350080
3.014333 0.19540861 -0.20205164 4288047360
3.2347374 0.20979871 -0.23449212 4290005760
3.2966783 0.21392007 -0.25672606 4290658560
3.3178003 0.21539533 -0.27594522 4290789120
3.3202968 0.21566217 -0.29343712 4290789120
3.3170841 0.21555814 -0.31009802 4290789120
3.2903125 0.21392222 -0.32406384 4290658560
3.3218825 0.21607956 -0.3434377 4290919680
3.3108699 0.21546769 -0.35812995 4290789120
3.3157012 0.21588671 -0.37410745 4290919680
3.3041778 0.21524066 -0.3877925 4290789120
3.3206251 0.21641682 -0.40434659 4290919680
3.3318374 0.21725269 -0.41992989 4291050240
3.3260782 0.2169821 -0.43292576 4291050240
3.3273883 0.21717255 -0.44633475 4291050240
3.3321559 0.21758884 -0.45972595 4291050240
3.2805409 0.2143219 -0.46464545 4290658560
3.2924509 0.21520387 -0.47788617 4290789120
3.2990041 0.21573628 -0.4898679 4290789120
3.2974675 0.21573983 -0.5001052 4290789120
3.3032408 0.21622178 -0.51089019 4290919680
3.3015301 0.21621399 -0.519943 4290919680
3.3085632 0.21677895 -0.5297876 4291050240
3.3014078 0.21641427 -0.5367496 4290919680
3.3053367 0.21677612 -0.54488415 4290919680
3.298615 0.21643937 -0.55062628 4290919680
3.2962668 0.2163893 -0.55644071 4290919680
3.2957356 0.2164584 -0.56190938 4290919680
3.2841978 0.21580425 -0.56482887 4290789120
3.2835004 0.21586202 -0.56893587 4290789120
3.2647018 0.21472917 -0.56922078 4290658560
3.2838678 0.21609339 -0.57545626 4290789120
3.2736566 0.21552473 -0.57588053 4290789120
3.2783017 0.21593399 -0.5782395 4290789120
3.2781477 0.21602729 -0.57907695 4290789120
3.2781093 0.21612819 -0.57925653 4290789120
3.2777021 0.21620476 -0.5786925 4290789120
3.2916386 0.21722789 -0.57997823 4290919680
3.2924428 0.21738485 -0.57826561 4290919680
3.2868807 0.21712133 -0.57476205 4290919680
3.2959683 0.21782562 -0.57314336 4290919680
3.29726 0.21801503 -0.56948906 4290919680
3.2984579 0.21819831 -0.56515074 4290919680
3.3065658 0.21883899 -0.56132299 4291050240
3.2985122 0.21841006 -0.5540998 4290919680
3.3104374 0.21930414 -0.5495795 4291050240
3.2911341 0.21812922 -0.53925526 4290789120
3.2874241 0.21798706 -0.53091198 4290789120
3.2795575 0.2175689 -0.52131242 4290658560
3.2764361 0.21746522 -0.51189429 4290658560
3.2716463 0.21725054 -0.50164872 4290658560
3.2979372 0.21910043 -0.49552584 4290789120
3.3173227 0.220493 -0.48765382 4291050240
3.3001566 0.21945615 -0.47384715 4290789120
3.2862573 0.21863556 -0.460078 4290658560
3.2669542 0.2174544 -0.44515148 4290528000
3.275738 0.21814245 -0.43358549 4290528000
3.2883792 0.21908803 -0.42195466 4290658560
3.2946765 0.21961156 -0.40895665 4290658560
3.2706094 0.21811053 -0.39180773 4290528000
3.2654474 0.21786933 -0.37661171 4290397440
3.2848704 0.21926889 -0.36376405 4290528000
3.2967916 0.22016867 -0.34953469 4290658560
3.2973492 0.22030996 -0.33365312 4290658560
3.1535964 0.21080473 -0.30350754 4289352960
2.9431407 0.19682953 -0.26838127 4287525120
2.7838552 0.18626477 -0.23950943 4286088960
2.7116089 0.18151642 -0.21906261 4285436160
2.6848636 0.17981081 -0.20257314 4285175040
2.6421115 0.177031 -0.18502854 4284783360
2.6191776 0.175577 -0.16902736 4284652800
2.5546284 0.17133054 -0.15064156 4284000000
2.5480893 0.17097239 -0.13590865 4284000000
2.5458803 0.17090452 -0.12130836 4284000000
2.5415406 0.17069341 -0.10651241 4283869440
2.4945467 0.16761594 -0.09011025 4283477760
2.503695 0.16830966 -0.075857177 4283608320
2.5433669 0.17105685 -0.062161215 4283869440
2.490433 0.1675753 -0.046213817 4283477760
2.3698795 0.15953834 -0.029984931 4282433280
2.4961591 0.16811815 -0.016811175 4283477760
2.4762547 0.16685572 -0.0020053613 4283347200
2.3673906 0.15959492 0.012111671 4282302720
2.374893 0.16017564 0.026210343 4282433280
2.4633863 0.16622184 0.041741949 4283216640
2.4569552 0.16586544 0.056105077 4283086080
2.4080169 0.16263768 0.069112115 4282694400
2.3496768 0.15877154 0.081147261 4282172160
2.534554 0.17134398 0.10222574 4283869440
2.68099 0.18132813 0.12355749 4285175040
3.1902635 0.21587342 0.1652246 4289614080
3.237138 0.2191474 0.18593408 4290005760
3.3323412 0.22569762 0.21001375 4290919680
3.3413687 0.2264145 0.22901513 4290919680
3.3295324 0.22571754 0.24632193 4290919680
3.2522018 0.22057776 0.258035 4290266880
3.3558898 0.22771622 0.28395978 4291180800
3.3523281 0.22758032 0.30102587 4291180800
3.358171 0.22808298 0.31861612 4291180800
3.3118339 0.22504035 0.33070278 4290789120
3.2204885 0.21893504 0.33725381 4290005760
3.3452373 0.22752127 0.36620805 4291180800
3.3482125 0.22782931 0.38203019 4291180800
3.3318031 0.22681788 0.39515388 4291050240
3.3123374 0.22559728 0.40731382 4290919680
3.2551548 0.22180541 0.41405147 4290397440
3.3517327 0.22849198 0.44003385 4291311360
3.351408 0.22857562 0.45319086 4291311360
3.3453801 0.2282701 0.4650394 4291180800
3.3319931 0.2274618 0.47526553 4291180800
3.3170414 0.22654581 0.48462704 4291050240
3.3040504 0.22576284 0.4936271 4290919680
3.3462083 0.22874905 0.51039052 4291311360
3.3388486 0.22835134 0.51912564 4291180800
3.3422019 0.22868617 0.52891701 4291311360
3.334265 0.22824833 0.53630066 4291180800
3.3370099 0.22854155 0.54476905 4291311360
3.3312914 0.22825506 0.55121911 4291180800
3.3381686 0.22883165 0.55911535 4291311360
3.3322623 0.22853194 0.564224 4291180800
3.3180764 0.22766379 0.5672403 4291180800
3.3096926 0.22719301 0.57055229 4291050240
3.3090036 0.22725016 0.57451218 4291050240
3.3084235 0.22731474 0.57781851 4291050240
3.3167989 0.2279949 0.58201975 4291180800
3.3164427 0.2280751 0.58401453 4291180800
3.3162022 0.22816321 0.58534563 4291180800
3.3072355 0.22765069 0.58444899 4291050240
3.3072283 0.22775458 0.58444929 4291050240
3.3073378 0.22786652 0.58378553 4291050240
3.3200588 0.22884776 0.58465898 4291180800
3.3287604 0.22955263 0.58412945 4291180800
3.3341169 0.23002724 0.58231968 4291311360
3.3218088 0.22928295 0.57675219 4291180800
3.3319299 0.23008673 0.57440543 4291311360
3.3326421 0.23024109 0.56975287 4291311360
3.3312571 0.23025057 0.56407911 4291180800
3.3323991 0.2304347 0.55817705 4291180800
3.3245792 0.2299989 0.55013907 4291180800
3.3333044 0.23070772 0.54419726 4291180800
3.3270817 0.23038207 0.53518081 4291180800
3.3077495 0.22914784 0.52350235 4290919680
3.3105438 0.2294459 0.51476461 4291050240
3.3282268 0.23077653 0.50768989 4291180800
3.3382165 0.23157459 0.49877563 4291180800
3.3450203 0.23215216 0.48876077 4291311360
3.2837844 0.22857139 0.39738393 4290658560
3.306654 0.23026763 0.38550627 4290789120
3.3465762 0.23315337 0.37490216 4291180800
3.3290615 0.23203823 0.35734546 4290919680
3.30797 0.23067258 0.33919069 4290789120
3.2857385 0.22922604 0.32075337 4290528000
3.3239455 0.23199645 0.30777845 4290919680
3.3155155 0.23151274 0.28999674 4290789120
3.2564018 0.22748779 0.26781467 4290266880
2.8443077 0.19878927 0.21880732 4286611200
2.5893314 0.18105066 0.18521352 4284391680
2.4983671 0.17476913 0.16502364 4283608320
2.4449008 0.17110617 0.14792539 4283086080
2.4445312 0.17115749 0.13417736 4283086080
2.4653234 0.17269112 0.12132904 4283216640
2.4262543 0.170031 0.10550879 4282955520
2.4357858 0.17077586 0.09185636 4282955520
2.4745355 0.17357077 0.078925915 4283347200
2.4988801 0.17535725 0.065082848 4283477760
2.4382987 0.17118298 0.049171265 4282955520
2.4661663 0.1732173 0.035181936 4283216640
2.5285478 0.17767864 0.021113509 4283738880
2.5242548 0.17745669 0.0061219176 4283738880
2.5382066 0.17851764 -0.0088893548 4283869440
2.5331168 0.17823964 -0.023876972 4283869440
2.5618517 0.18034242 -0.039297517 4284130560
2.5429244 0.17909031 -0.054002941 4283869440
2.6280138 0.18516585 -0.071247317 4284652800
2.6325343 0.18556748 -0.086756788 4284652800
2.665874 0.18800177 -0.10334238 4285044480
2.6655338 0.18806192 -0.11870232 4285044480
2.716315 0.19173047 -0.13649869 4285436160
2.8229125 0.19934374 -0.15784608 4286350080
2.9931479 0.21145967 -0.18413813 4287916800
3.1990263 0.22610554 -0.21451636 4289744640
3.257338 0.23032983 -0.23622376 4290266880
3.3142717 0.23446031 -0.25819811 4290789120
3.3178365 0.23481724 -0.27605733 4290789120
3.3216116 0.2351893 -0.29366946 4290919680
3.3257039 0.23558407 -0.31102687 4290919680
3.2890103 0.23308863 -0.32406384 4290658560
3.3116372 0.23479672 -0.34251407 4290789120
3.314517 0.23510557 -0.35866654 4290789120
3.3143873 0.23520102 -0.37410745 4290919680
3.3078213 0.23483951 -0.38837409 4290789120
3.3193078 0.23575979 -0.40434659 4290919680
3.3255668 0.23630935 -0.41930598 4291050240
3.3297036 0.23670845 -0.43356979 4291050240
3.3349645 0.23718776 -0.44752881 4291180800
3.3308315 0.23699898 -0.45972595 4291050240
3.2940514 0.23448597 -0.46674463 4290789120
3.301013 0.23508576 -0.47931957 4290919680
3.2927575 0.2346018 -0.48913503 4290789120
3.3060169 0.23565088 -0.50160152 4290919680
3.2979817 0.23518229 -0.51028007 4290919680
3.3149951 0.23650019 -0.52227163 4291050240
3.2983794 0.23541895 -0.52836758 4290919680
3.3099368 0.23634835 -0.538351 4291050240
3.3040175 0.23603001 -0.54488415 4290919680
3.3022175 0.23600569 -0.55144781 4290919680
3.307651 0.23649846 -0.55858558 4291050240
3.2993352 0.23600806 -0.56274796 4290919680
3.2878003 0.23528676 -0.56567454 4290919680
3.2821872 0.23498872 -0.56893587 4290789120
3.2781355 0.23480216 -0.57179183 4290789120
3.2776406 0.2348702 -0.57459503 4290789120
3.2674332 0.23424193 -0.57501608 4290658560
3.276988 0.2350304 -0.5782395 4290789120
3.2719221 0.23477037 -0.57820904 4290789120
3.2802393 0.23547074 -0.57986552 4290789120
3.2852275 0.23593257 -0.58025402 4290919680
3.2961118 0.23681833 -0.58099967 4290919680
3.2911203 0.23656361 -0.57826561 4290919680
3.290473 0.23662099 -0.57562149 4290919680
3.3044705 0.23773192 -0.57485294 4291050240
3.2954409 0.23718637 -0.56940389 4290919680
3.2990935 0.23755345 -0.56548721 4290919680
3.3003175 0.23774581 -0.56048799 4290919680
3.2971838 0.23762417 -0.5540998 4290919680
3.3091037 0.23858772 -0.5495795 4291050240
3.2996507 0.23801036 -0.54086876 4290919680
3.2860982 0.23713657 -0.53091198 4290789120
3.278234 0.2366726 -0.52131242 4290658560
3.2613165 0.23555422 -0.50973785 4290528000
3.2703249 0.23630814 -0.50164872 4290658560
3.2916727 0.23795465 -0.4947845 4290789120
3.3212669 0.24019888 -0.48843104 4291050240
3.3086953 0.23939419 -0.47526532 4290919680
3.2809765 0.23749226 -0.4595246 4290658560
3.2705734 0.23684251 -0.44582507 4290528000
3.2842994 0.23794024 -0.43489483 4290658560
3.2969401 0.23896013 -0.42322463 4290789120
3.3022494 0.23944925 -0.41006285 4290789120
3.2692831 0.23716207 -0.39180773 4290528000
3.2641225 0.23689081 -0.37661171 4290397440
3.2884939 0.23876338 -0.36431316 4290658560
3.3103304 0.24045339 -0.35111269 4290789120
3.2960095 0.23951726 -0.33365312 4290658560
3.230206 0.2348374 -0.31100696 4290136320
3.1313891 0.22775225 -0.28566352 4289222400
2.9531276 0.21488021 -0.25417623 4287655680
2.7343647 0.19904858 -0.22099093 4285697280
2.7116177 0.19747835 -0.20467506 4285436160
2.6698883 0.19452366 -0.18704996 4285044480
2.6419973 0.19257501 -0.17056952 4284783360
2.6767435 0.1951922 -0.15790683 4285175040
2.5809119 0.18828553 -0.13771549 4284261120
2.6358745 0.19237846 -0.12564777 4284783360
2.5644186 0.18724427 -0.10751508 4284130560
2.5323989 0.18498629 -0.09151496 4283869440
2.5415504 0.18573506 -0.077035606 4283869440
2.5662563 0.18762161 -0.062746294 4284130560
2.5033746 0.18310334 -0.046472978 4283608320
2.5098839 0.1836587 -0.031769339 4283608320
2.523062 0.18470269 -0.016999319 4283738880
2.504163 0.18339828 -0.0020287933 4283608320
2.3943455 0.17543115 0.012254594 4282563840
2.4028399 0.17612943 0.026529655 4282694400
2.4609101 0.18046372 0.041717093 4283216640
2.4556322 0.18015425 0.056097884 4283086080
2.4169974 0.17739621 0.069398351 4282824960
2.3437283 0.17209262 0.080975078 4282172160
2.5931613 0.19048962 0.10463253 4284391680
2.844523 0.20904408 0.13114807 4286611200
3.2949519 0.2422502 0.17071664 4290528000
3.2457628 0.23873627 0.18650621 4290136320
3.325639 0.24471647 0.20967767 4290789120
3.3399928 0.24587817 0.22901513 4290919680
3.3281608 0.24511227 0.24632193 4290919680
3.2548382 0.23981503 0.25835067 4290266880
3.3545063 0.24726447 0.28395978 4291180800
3.3559117 0.24747407 0.30147204 4291180800
3.3428853 0.24661906 0.31729677 4291050240
3.3104665 0.24433196 0.33070278 4290789120
3.2241178 0.23806076 0.33777338 4290005760
3.3676481 0.24876505 0.36881381 4291311360
3.3468282 0.24733283 0.38203019 4291180800
3.3403287 0.24695802 0.39632896 4291180800
3.3070076 0.24459895 0.40682673 4290789120
3.2676582 0.24179174 0.41581401 4290528000
3.3542998 0.24830879 0.44055334 4291311360
3.3589141 0.24875648 0.45439416 4291311360
3.3435705 0.24772575 0.46498057 4291180800
3.3394971 0.24752946 0.4765335 4291180800
3.3294809 0.24689221 0.48664638 4291180800
3.3026791 0.24500909 0.4936271 4290919680
3.3448188 0.24824087 0.51039052 4291311360
3.3512583 0.24882466 0.52127165 4291311360
3.3358877 0.2477888 0.52813727 4291180800
3.3417404 0.2483291 0.53772664 4291311360
3.3307004 0.24761392 0.54396528 4291180800
3.3338408 0.2479527 0.55187058 4291311360
3.3269427 0.24754477 0.55746722 4291180800
3.3308742 0.24794252 0.564224 4291180800
3.3166938 0.24699172 0.5672403 4291180800
3.3257248 0.24776933 0.57355517 4291180800
3.3076234 0.24652524 0.57451218 4291050240
3.3070428 0.24658644 0.57781851 4291050240
3.3154144 0.24731539 0.58201975 4291180800
3.2975299 0.24608546 0.58092666 4290919680
3.309906 0.24711362 0.5844785 4291050240
3.3009427 0.2465487 0.58358091 4291050240
3.3009348 0.24665239 0.58358115 4291050240
3.3135328 0.24769843 0.58512384 4291180800
3.3088474 0.24745271 0.58292866 4291050240
3.318526 0.24828136 0.58257747 4291180800
3.322896 0.24871328 0.58060318 4291180800
3.3253295 0.24900049 0.57760555 4291180800
3.330533 0.24949534 0.57440543 4291311360
3.3361592 0.2500222 0.57059354 4291311360
3.3243926 0.24924541 0.56315309 4291180800
3.3349345 0.25014114 0.55883628 4291311360
3.3379412 0.2504721 0.5525822 4291311360
3.3319037 0.25012434 0.54419726 4291180800
3.32076 0.2493927 0.5343886 4291180800
3.3162081 0.24915563 0.52506191 4291050240
3.3180194 0.24939653 0.51614416 4291050240
3.3317549 0.25053421 0.5084421 4291180800
3.341742 0.25139078 0.49951276 4291311360
3.3337433 0.2508944 0.48731834 4291180800
3.2922966 0.24844658 0.39858246 4290658560
3.3092182 0.24982809 0.38596836 4290789120
3.3348989 0.25187221 0.37375206 4291050240
3.3415339 0.2524789 0.35883608 4291050240
3.2916903 0.24881683 0.33766434 4290658560
3.2932792 0.24904099 0.32162568 4290658560
3.3175728 0.25098291 0.30731854 4290789120
3.3141103 0.25082567 0.28999674 4290789120
3.2838414 0.24863856 0.27018595 4290528000
3.2036812 0.2426704 0.24655785 4289744640
2.6784952 0.20297356 0.1916727 4285175040
2.529635 0.19177303 0.16715993 4283869440
2.4727268 0.18753691 0.14967254 4283347200
2.4431779 0.18537307 0.13416009 4283086080
2.4578316 0.18656255 0.12101178 4283216640
2.449131 0.18597952 0.10654893 4283086080
2.4636457 0.18715955 0.092946537 4283216640
2.5073674 0.19056025 0.080007151 4283608320
2.5177517 0.19142902 0.065602295 4283738880
2.4611859 0.187206 0.049653966 4283216640
2.5030017 0.19046573 0.035722651 4283608320
2.5513995 0.19422919 0.02131341 4284000000
2.5560827 0.19466646 0.0062017534 4284000000
2.5660396 0.19550583 -0.0089906678 4284130560
2.5609503 0.19519901 -0.024149638 4284130560
2.5946553 0.19785003 -0.039817713 4284391680
2.656177 0.20262519 -0.05643215 4284913920
2.6557958 0.20268001 -0.072031297 4284913920
2.6742606 0.20417368 -0.088169605 4285044480
2.697613 0.20604183 -0.10461751 4285305600
2.7072256 0.20686159 -0.12061058 4285436160
2.8021669 0.21420467 -0.14087319 4286219520
2.9791708 0.22782943 -0.16665483 4287786240
3.1709585 0.24259643 -0.19516067 4289483520
3.2738042 0.25056818 -0.21962489 4290397440
3.2658856 0.2500653 -0.23694526 4290397440
3.307879 0.25338522 -0.25781074 4290658560
3.3253551 0.25482899 -0.27680174 4290919680
3.329124 0.25522301 -0.29446012 4290919680
3.3143473 0.25419492 -0.31009802 4290789120
3.2975194 0.25300848 -0.32504195 4290658560
3.3141801 0.25439155 -0.34292457 4290789120
3.3180475 0.25479326 -0.35920313 4290919680
3.3129606 0.25450733 -0.37410745 4290919680
3.3083901 0.25426075 -0.38860822 4290789120
3.3129289 0.25471428 -0.40374348 4290919680
3.3241334 0.2556808 -0.41930598 4291050240
3.3332117 0.25648439 -0.43421379 4291050240
3.3384674 0.25699431 -0.44819218 4291180800
3.3293943 0.25640106 -0.45972595 4291050240
3.282757 0.25291324 -0.46534517 4290658560
3.2897198 0.25355363 -0.47788617 4290789120
3.3011975 0.25454259 -0.49060076 4290919680
3.3045878 0.25490841 -0.50160152 4290919680
3.2916286 0.25401282 -0.50951743 4290789120
3.3037114 0.25504965 -0.52071923 4290919680
3.3058126 0.25531635 -0.5297876 4291050240
3.3035827 0.25524852 -0.53755033 4290919680
3.3025863 0.25527591 -0.54488415 4290919680
3.3007865 0.2552411 -0.55144781 4290919680
3.2935216 0.25478342 -0.55644071 4290919680
3.2880752 0.254466 -0.56107074 4290919680
3.2952175 0.2551229 -0.56719685 4290919680
3.2807624 0.25410742 -0.56893587 4290789120
3.2718008 0.2535167 -0.57093483 4290789120
3.2663953 0.25320113 -0.57287258 4290658560
3.2758329 0.25403622 -0.57674497 4290789120
3.2608345 0.25297618 -0.57563943 4290658560
3.275408 0.25421032 -0.57907695 4290789120
3.2704592 0.25392959 -0.57838833 4290789120
3.278888 0.25468764 -0.57938653 4290789120
3.2888839 0.25556803 -0.57997823 4290919680
3.3044164 0.25687945 -0.58085495 4291050240
3.2959261 0.25632361 -0.57682687 4290919680
3.2932062 0.25621617 -0.57314336 4290919680
3.303828 0.25714698 -0.57110226 4291050240
3.2917604 0.25631177 -0.56447661 4290919680
3.3037913 0.25735295 -0.56132299 4291050240
3.3006597 0.25721332 -0.5549264 4290919680
3.3027396 0.25747982 -0.54876238 4291050240
3.2883689 0.25646341 -0.53925526 4290789120
3.2895823 0.25666201 -0.53170747 4290789120
3.2718763 0.25538397 -0.52052915 4290658560
3.2736797 0.2556282 -0.51189429 4290658560
3.2738202 0.25574264 -0.50240493 4290658560
3.3000898 0.25789908 -0.49626717 4290919680
3.3105826 0.25882372 -0.48707333 4290919680
3.2973754 0.25789541 -0.47384715 4290789120
3.2884233 0.25729918 -0.46076974 4290789120
3.2691379 0.25589353 -0.44582507 4290528000
3.2868109 0.25738078 -0.43541858 4290658560
3.3004363 0.25855207 -0.4238596 4290789120
3.3007984 0.25868478 -0.41006285 4290789120
3.2628963 0.25581753 -0.39121431 4290397440
3.2725911 0.25668105 -0.37775493 4290528000
3.2870469 0.25791878 -0.36431316 4290658560
3.3088732 0.25973597 -0.35111269 4290789120
3.3034852 0.25941744 -0.33455718 4290789120
3.2417698 0.25467351 -0.31225792 4290136320
3.2400856 0.25464362 -0.29570979 4290136320
3.0882838 0.24281089 -0.26592639 4288830720
2.9838881 0.2346973 -0.24126379 4287916800
2.8781209 0.22646916 -0.21733879 4286872320
2.8315022 0.22289039 -0.19846009 4286480640
2.7859285 0.21939099 -0.17994131 4286088960
2.713378 0.21376343 -0.16013874 4285436160
2.7344341 0.21550871 -0.14597185 4285566720
2.6775274 0.21110837 -0.12768976 4285175040
2.592169 0.20446026 -0.10872664 4284391680
2.5691357 0.2027247 -0.092883654 4284130560
2.5643399 0.20242733 -0.077760793 4284130560
2.5980074 0.20516714 -0.06355077 4284391680
2.5361538 0.2003627 -0.047102369 4283869440
2.5366819 0.2004846 -0.03212278 4283869440
2.5558364 0.20207925 -0.01722778 4284000000
2.5219927 0.1994831 -0.0020441455 4283738880
2.507621 0.19842561 0.012840054 4283608320
2.4346681 0.19272989 0.026893009 4282955520
2.4937057 0.19748218 0.042291835 4283477760
2.4884257 0.19714271 0.056872316 4283477760
2.3883235 0.18928772 0.06860555 4282563840
2.3566339 0.18685064 0.08145719 4282302720
2.6784174 0.2124486 0.10812067 4285175040
3.2309213 0.25637463 0.14902948 4290005760
3.3173776 0.26333982 0.17195512 4290789120
3.2632263 0.25914437 0.18759325 4290266880
3.3294849 0.26451147 0.21001375 4290919680
3.348449 0.26612392 0.22969736 4291050240
3.3366177 0.2652891 0.24705803 4290919680
3.2583547 0.25916952 0.25874522 4290266880
3.3579752 0.26719952 0.28438038 4291180800
3.3593771 0.26741728 0.30191821 4291180800
3.3564954 0.26729399 0.31873101 4291180800
3.3139465 0.2640104 0.33119845 4290789120
3.2177188 0.256446 0.33725381 4290005760
3.3423591 0.26648527 0.36620805 4291180800
3.3314643 0.26572195 0.3804467 4291050240
3.3388331 0.26641527 0.39632896 4291180800
3.3055263 0.2638621 0.40682673 4290789120
3.2612495 0.26043084 0.41518453 4290397440
3.3527963 0.26784742 0.44055334 4291311360
3.3496275 0.2677002 0.45334113 4291311360
3.34602 0.26751766 0.46553007 4291311360
3.3291163 0.26627147 0.47526553 4291180800
3.3191085 0.26557595 0.48534822 4291050240
3.3100688 0.26495731 0.49495393 4290919680
3.3285336 0.26654059 0.50813389 4291180800
3.3448265 0.26795101 0.52050519 4291311360
3.3442335 0.26800925 0.52969676 4291311360
3.3402369 0.26779458 0.53772664 4291311360
3.3341203 0.26740959 0.54476905 4291311360
3.3421743 0.26816124 0.55349934 4291311360
3.3303599 0.26731861 0.55829126 4291180800
3.3205273 0.26663437 0.56272495 4291180800
3.3250244 0.2671006 0.56892157 4291180800
3.31075 0.26605862 0.57123023 4291050240
3.3100595 0.2661078 0.5751949 4291050240
3.3242078 0.26735035 0.58107996 4291180800
3.2963953 0.26521775 0.57894242 4290919680
3.3107662 0.26647866 0.58352214 4291050240
3.3280435 0.2679745 0.58794701 4291311360
3.3043582 0.26617184 0.58444899 4291050240
3.3043499 0.26627567 0.58444929 4291050240
3.2995498 0.26599318 0.58291841 4291050240
3.3171668 0.26751828 0.58465898 4291180800
3.3170233 0.26761156 0.58257747 4291180800
3.3213906 0.26806894 0.58060318 4291180800
3.3238223 0.26837033 0.57760555 4291180800
3.3290229 0.26889548 0.57440543 4291311360
3.3208899 0.26834357 0.56823975 4291180800
3.3332622 0.2694487 0.56491196 4291311360
3.3334203 0.26956689 0.55883628 4291311360
3.3315079 0.2695176 0.55176783 4291311360
3.3317776 0.26964477 0.54442406 4291180800
3.3281081 0.26945302 0.53581458 4291180800
3.3147004 0.26847231 0.52506191 4291050240
3.3027208 0.26760647 0.51399815 4290919680
3.3302388 0.26994145 0.5084421 4291180800
3.3402207 0.2708562 0.49951276 4291311360
3.3470197 0.27151337 0.48948196 4291311360
3.2907932 0.26762396 0.39858246 4290658560
3.3176067 0.2699095 0.38712361 4290919680
3.3436322 0.27213258 0.37490216 4291180800
3.3350511 0.27153963 0.35830373 4291050240
3.3050578 0.26920211 0.33919069 4290789120
3.2967324 0.26862824 0.3221103 4290658560
3.3210166 0.27071202 0.30777845 4290919680
3.3086212 0.26980624 0.28964904 4290789120
3.2738049 0.26707065 0.2694836 4290397440
3.268496 0.26674092 0.25166136 4290397440
2.8832681 0.23539378 0.20642085 4287002880
2.6135654 0.21345755 0.17278536 4284522240
2.4904945 0.20348476 0.15081722 4283477760
2.4898255 0.20350884 0.13678437 4283477760
2.5159039 0.20571996 0.12392789 4283738880
2.4808652 0.20293337 0.10797912 4283347200
2.4864166 0.2034661 0.09384875 4283477760
2.5251415 0.20671488 0.080611371 4283738880
2.5544541 0.20919527 0.066589236 4284000000
2.5882952 0.21204852 0.052242409 4284261120
2.6128445 0.2141424 0.037307493 4284522240
2.6234465 0.21509428 0.02192536 4284652800
2.6649139 0.21857843 0.0064687873 4285044480
2.7052329 0.22197099 -0.009482732 4285305600
2.7455475 0.22536574 -0.025902323 4285697280
2.8264487 0.23209582 -0.043394841 4286350080
2.9363475 0.24121313 -0.062413346 4287394560
2.9846685 0.24527696 -0.080988467 4287786240
3.0317547 0.24924235 -0.10000227 4288177920
3.1098847 0.25576383 -0.12066177 4288961280
3.2001939 0.26329228 -0.14263891 4289744640
3.1539876 0.25959048 -0.15863362 4289352960
3.2080455 0.26414117 -0.17954113 4289875200
3.2768633 0.26991108 -0.20177208 4290397440
3.2872047 0.27086687 -0.22062601 4290528000
3.2725275 0.26976097 -0.23753713 4290397440
3.3162827 0.2734727 -0.25858551 4290789120
3.3234608 0.27416974 -0.27677235 4290919680
3.3199914 0.27398854 -0.29378852 4290919680
3.3128099 0.27350065 -0.31009802 4290789120
3.2860711 0.27139705 -0.32406384 4290658560
3.3175983 0.27410585 -0.3434377 4290919680
3.3115525 0.27371109 -0.35866654 4290789120
3.3163733 0.27421445 -0.37466687 4290919680
3.3068526 0.27353179 -0.38860822 4290789120
3.3163352 0.2744211 -0.40434659 4290919680
3.3225875 0.27504355 -0.41930598 4291050240
3.3267193 0.27549079 -0.43356979 4291050240
3.3319745 0.27603137 -0.44752881 4291180800
3.3327804 0.27620357 -0.46040788 4291180800
3.2812278 0.27203494 -0.46534517 4290658560
3.2881868 0.2727159 -0.47788617 4290789120
3.2996585 0.27377173 -0.49060076 4290919680
3.2981198 0.2737484 -0.50085336 4290919680
3.2989571 0.27392223 -0.51089019 4290919680
3.3021693 0.27429342 -0.52071923 4290919680
3.3042691 0.27457234 -0.5297876 4291050240
3.3020394 0.27449155 -0.53755033 4290919680
3.2921929 0.27377716 -0.5434233 4290919680
3.3041584 0.27487671 -0.55226934 4291050240
3.296895 0.27437675 -0.55727124 4290919680
3.2914491 0.27402765 -0.56190938 4290919680
3.2848353 0.27358097 -0.56567454 4290919680
3.2841361 0.2736266 -0.56978768 4290919680
3.2653592 0.27216545 -0.57007778 4290658560
3.269773 0.27263677 -0.57373381 4290789120
3.2693896 0.27270824 -0.57588053 4290789120
3.2740269 0.2731986 -0.5782395 4290789120
3.2738714 0.2732892 -0.57907695 4290789120
3.2772729 0.27367681 -0.57986552 4290789120
3.2685156 0.27304894 -0.57782501 4290789120
3.2824316 0.2743153 -0.57911247 4290919680
3.284214 0.27456817 -0.57757515 4290919680
3.2943766 0.27552199 -0.57682687 4290919680
3.2916577 0.27539873 -0.57314336 4290919680
3.2973635 0.27598044 -0.57025307 4291050240
3.3039629 0.27663732 -0.56683588 4291050240
3.2924106 0.27577421 -0.55965292 4290919680
3.2991049 0.27643928 -0.5549264 4290919680
3.3011835 0.27671787 -0.54876238 4291050240
3.2966533 0.27644247 -0.54086876 4290919680
3.2848423 0.27555597 -0.53119183 4290789120
3.2801747 0.2752682 -0.52209568 4290789120
3.2583504 0.27353981 -0.50973785 4290528000
3.2771997 0.27522588 -0.50316113 4290658560
3.2936039 0.27670774 -0.49552584 4290789120
3.3129623 0.27843893 -0.48765382 4291050240
3.3056812 0.27793157 -0.47526532 4290919680
3.2842538 0.27623394 -0.4604032 4290658560
3.2675915 0.27493587 -0.44582507 4290528000
3.2797265 0.27606067 -0.43468577 4290658560
3.2988739 0.27777672 -0.4238596 4290789120
3.3041797 0.27832803 -0.4106774 4290789120
3.2662976 0.27524036 -0.39180773 4290528000
3.2759898 0.27616075 -0.37832654 4290528000
3.3003449 0.27831829 -0.36596054 4290789120
3.3073039 0.27900976 -0.35111269 4290789120
3.3019176 0.27865982 -0.33455718 4290789120
3.2451906 0.27397513 -0.31273586 4290266880
3.2607789 0.27539435 -0.29773977 4290397440
3.2695005 0.27623439 -0.28166443 4290397440
3.259973 0.27553257 -0.26371211 4290266880
3.2180088 0.27208757 -0.2431207 4290005760
3.242393 0.27425191 -0.22736758 4290136320
3.2467959 0.27472705 -0.20980826 4290136320
3.2494564 0.27505496 -0.19186845 4290136320
3.2654881 0.27651531 -0.17440405 4290266880
3.1904585 0.2702629 -0.15222366 4289614080
3.1796672 0.26944938 -0.13343242 4289483520
3.1951296 0.27086079 -0.11557071 4289614080
3.0582497 0.25935385 -0.092782319 4288439040
2.968658 0.25184998 -0.072652049 4287655680
2.9047303 0.24651849 -0.053973462 4287133440
2.8656483 0.24329236 -0.036305916 4286741760
