# .PCD v0.7 - Point Cloud Data file format
VERSION 0.7
FIELDS x y z rgba
SIZE 4 4 4 4
TYPE F F F U
COUNT 1 1 1 1
WIDTH 1128
HEIGHT 1
VIEWPOINT 0 0 0 1 0 0 0
POINTS 1128
DATA ascii
1.8117466 1.7950739 0.41541204 4290658560
1.8118142 1.795249 0.42108312 4290658560
1.8114439 1.7949911 0.42616332 4290658560
1.8130211 1.7966616 0.43120971 4290658560
1.809687 1.7934699 0.43458229 4290658560
1.7997422 1.7837322 0.43583277 4290658560
1.7993159 1.7834196 0.43885946 4290658560
1.8017486 1.7859389 0.44207373 4290658560
1.7925417 1.7769308 0.44190726 4290658560
1.7887988 1.7733339 0.44255689 4290658560
1.7921157 1.7767301 0.44443399 4290658560
1.804392 1.7890019 0.44801837 4290658560
1.7980392 1.7828211 0.44645482 4290658560
1.7980465 1.7829407 0.44594759 4290658560
1.8040686 1.7890203 0.44640645 4290658560
1.8104886 1.7954952 0.44643185 4290658560
1.8085144 1.7936534 0.44386092 4290658560
1.8084946 1.7937486 0.44125277 4290658560
1.8045491 1.7899539 0.43717751 4290658560
1.8136319 1.7990712 0.43573737 4290789120
1.8084037 1.7940059 0.43034345 4290658560
1.8141065 1.799775 0.42704749 4290789120
1.8161057 1.8018742 0.42236251 4290789120
1.8119848 1.7979068 0.41577035 4290658560
1.807502 1.7935805 0.40864119 4290658560
1.8004779 1.7867342 0.4005051 4290658560
1.7986717 1.7850614 0.39310035 4290658560
1.8102593 1.7966701 0.38813025 4290658560
1.8142483 1.8007452 0.38101861 4290658560
1.815258 1.8018667 0.37282193 4290658560
1.7878027 1.7754096 0.30411622 4290528000
1.8045899 1.7921872 0.295739 4290658560
1.8205261 1.808123 0.28668398 4290658560
1.8211359 1.8088514 0.27478617 4290658560
1.7897917 1.7778677 0.2579625 4290528000
1.7958108 1.7839636 0.24641316 4290528000
1.8200699 1.8081652 0.2368834 4290658560
1.8108916 1.7991787 0.22262785 4290658560
1.7907456 1.7793033 0.20698956 4290528000
1.7975075 1.7861392 0.19433601 4290528000
1.7931626 1.7819488 0.18024766 4290528000
1.5669528 1.5574632 0.14538388 4289483520
1.2430352 1.2359236 0.10553592 4287916800
1.1297202 1.1234807 0.086945519 4287394560
1.1506225 1.1443173 0.079369664 4287525120
1.1473433 1.1411399 0.069888622 4287394560
1.6544815 1.644943 0.087544225 4289875200
1.7883645 1.7780484 0.080030657 4290528000
1.5804752 1.5716536 0.057652418 4289483520
1.5226583 1.5143236 0.042922813 4289222400
1.5788683 1.570276 0.031412281 4289483520
1.5306846 1.5225096 0.017687151 4289222400
1.5569143 1.5486796 0.0050119227 4289352960
1.5291934 1.5212398 -0.0078516155 4289222400
1.5376072 1.5297077 -0.020718021 4289352960
1.5509176 1.5430433 -0.033808075 4289352960
1.4944617 1.4870359 -0.04501342 4289091840
1.5504267 1.5427704 -0.059502006 4289352960
1.5689875 1.5613288 -0.073123388 4289483520
1.5856167 1.5779697 -0.086866274 4289483520
1.5733945 1.5659276 -0.098985389 4289483520
1.6024665 1.5949427 -0.11371201 4289614080
1.5849416 1.5776272 -0.12512571 4289483520
1.5531728 1.5461442 -0.13489661 4289352960
1.5372611 1.530427 -0.14551657 4289352960
1.5483971 1.5416083 -0.15848695 4289352960
1.5441895 1.5375297 -0.16977637 4289352960
1.5272909 1.5208266 -0.17933434 4289222400
1.5550696 1.548565 -0.19399555 4289483520
1.4749898 1.4690038 -0.1946753 4289091840
1.6320927 1.6254098 -0.22683804 4289744640
1.6341562 1.6275743 -0.2384076 4289875200
1.6444942 1.6379725 -0.25100017 4289875200
1.6312209 1.6248758 -0.25970614 4289744640
1.6153823 1.6092238 -0.26752797 4289744640
1.630294 1.6241741 -0.28011769 4289875200
1.6427552 1.6366872 -0.29214188 4289875200
1.6386541 1.6327156 -0.30095363 4289875200
1.6380681 1.6322423 -0.31004304 4289875200
1.6175647 1.6119405 -0.31491071 4289744640
1.6132567 1.6077595 -0.32243204 4289744640
1.614032 1.608639 -0.33058178 4289744640
1.620465 1.6151519 -0.33954459 4289744640
1.6229137 1.6176977 -0.34732878 4289744640
1.6205158 1.615417 -0.35368213 4289744640
1.6164806 1.611505 -0.35924718 4289744640
1.6160642 1.6111965 -0.36518338 4289744640
1.6112232 1.6064804 -0.36968336 4289744640
1.6104798 1.6058451 -0.37467462 4289744640
1.6066041 1.6020888 -0.37849179 4289744640
1.600808 1.5964186 -0.38139212 4289744640
1.5996851 1.5954033 -0.38494158 4289744640
1.5765537 1.5724585 -0.38271067 4289614080
1.5894268 1.585387 -0.38872406 4289614080
1.5732327 1.5693511 -0.38719356 4289614080
1.5792282 1.5754263 -0.39063928 4289614080
1.566547 1.5628879 -0.38901684 4289614080
1.5788207 1.5752203 -0.39311507 4289614080
1.5759101 1.5724185 -0.39299014 4289614080
1.5688705 1.5655003 -0.39137679 4289614080
1.5847063 1.5813849 -0.39499202 4289614080
1.5941745 1.590923 -0.39655429 4289744640
1.6018698 1.5986942 -0.39720193 4289744640
1.6037856 1.6007035 -0.39594775 4289744640
1.6098888 1.6068881 -0.39525127 4289744640
1.6073101 1.6044153 -0.39196345 4289744640
1.6184176 1.6155907 -0.39152932 4289875200
1.6191936 1.6164632 -0.38812315 4289875200
1.6124203 1.6098059 -0.38247591 4289744640
1.6182414 1.6157097 -0.37936401 4289875200
1.6171724 1.6147408 -0.37418836 4289744640
1.6212196 1.6188753 -0.36974964 4289875200
1.6101081 1.6078873 -0.36146247 4289744640
1.591379 1.5892977 -0.35116464 4289614080
1.5964381 1.5944397 -0.34574738 4289744640
1.6008236 1.5989102 -0.33974794 4289744640
1.6153383 1.6134883 -0.33541712 4289744640
1.6268333 1.6250544 -0.32995605 4289875200
1.6104696 1.6088191 -0.31851292 4289744640
1.6000575 1.5985217 -0.30801848 4289744640
1.6090012 1.6075416 -0.30089471 4289744640
1.6105245 1.6091557 -0.29198974 4289744640
1.6211094 1.619815 -0.28432176 4289744640
1.6148038 1.613614 -0.27335745 4289744640
1.6009303 1.5998569 -0.26093554 4289614080
1.5900542 1.5890903 -0.24886617 4289614080
1.5664972 1.5656614 -0.23476866 4289483520
1.5450877 1.5443739 -0.22103295 4289352960
1.5627494 1.5620981 -0.2126416 4289483520
1.5784892 1.5779052 -0.20351921 4289614080
1.6156026 1.6150588 -0.19653456 4289744640
1.5593417 1.5589616 -0.17816994 4289483520
1.5669961 1.5666951 -0.16723703 4289483520
1.6113232 1.6110592 -0.15961926 4289744640
1.5770159 1.5768809 -0.14400323 4289483520
1.5767457 1.5767001 -0.13158891 4289483520
1.5200071 1.5201068 -0.11479837 4289222400
1.5184956 1.5186821 -0.10248904 4289222400
1.51884 1.5191116 -0.090201885 4289222400
1.4765027 1.4768946 -0.075644672 4289091840
1.5108887 1.5113372 -0.064962462 4289222400
1.5464567 1.5469645 -0.053683657 4289352960
1.5218415 1.5224522 -0.040193778 4289222400
1.4926618 1.4933755 -0.026988804 4289091840
1.5502847 1.5510505 -0.015048839 4289352960
1.763302 1.7640502 -0.0022772043 4290397440
1.7737819 1.7746243 0.012557797 4290397440
1.2733241 1.2744554 0.019501399 4288047360
1.1695489 1.1707851 0.027631769 4287525120
1.1273519 1.128665 0.036000662 4287394560
1.137046 1.1384203 0.045742117 4287394560
1.1625 1.1639345 0.056365289 4287525120
1.7030891 1.7045357 0.096759558 4290136320
1.8080757 1.8096137 0.11745178 4290658560
1.806429 1.8080689 0.13190188 4290658560
1.7686826 1.7704216 0.14325018 4290397440
1.8140717 1.8159163 0.16125409 4290658560
1.8090841 1.8110304 0.17491208 4290658560
1.803409 1.8054564 0.18823059 4290658560
1.7623277 1.7644652 0.19728595 4290397440
1.8279049 1.8301659 0.21826564 4290789120
1.8262814 1.8286457 0.23144475 4290789120
1.820575 1.8230408 0.2437983 4290658560
1.7874562 1.7900087 0.25193346 4290528000
1.7229617 1.7255791 0.25468621 4290266880
1.8143902 1.8171651 0.28040257 4290658560
1.8076012 1.8104759 0.29118145 4290658560
1.8074566 1.8104355 0.3026616 4290658560
1.7756538 1.7787117 0.30830026 4290528000
1.7452079 1.7483424 0.31345063 4290397440
1.8138663 1.8171661 0.33627632 4290789120
1.80687 1.8102689 0.34504476 4290658560
1.8000377 1.8035353 0.35337865 4290658560
1.7977151 1.801316 0.36214891 4290658560
1.7961656 1.7998707 0.37064344 4290658560
1.7832199 1.7870156 0.37629434 4290658560
1.8008798 1.804804 0.3879939 4290658560
1.8013622 1.8053942 0.39562613 4290658560
1.7988337 1.8029699 0.40213412 4290658560
1.8002052 1.8044512 0.40904596 4290658560
1.7956837 1.8000314 0.41413558 4290658560
1.78459 1.7890286 0.41717947 4290658560
1.7939832 1.7985455 0.42452243 4290658560
1.7858001 1.7904577 0.42721751 4290658560
1.7922394 1.7970176 0.43290827 4290658560
1.7788724 1.7837361 0.43329686 4290658560
1.7784504 1.7834228 0.43630591 4290658560
1.7780868 1.7831686 0.43881831 4290658560
1.7724137 1.7775944 0.43949971 4290528000
1.7775402 1.782842 0.44234318 4290658560
1.7808374 1.7862574 0.44421977 4290658560
1.7876743 1.7932212 0.44646311 4290658560
1.7771845 1.7828203 0.44385698 4290658560
1.777191 1.7829394 0.4433527 4290658560
1.7838728 1.7897501 0.44399068 4290658560
1.7832979 1.7892873 0.44229862 4290658560
1.7848111 1.7909187 0.44060552 4290658560
1.784789 1.7910111 0.438016 4290658560
1.7885276 1.7948747 0.43583116 4290658560
1.7829294 1.7893771 0.43086636 4290658560
1.7944361 1.8010315 0.42951852 4290658560
1.7938362 1.8005469 0.42474678 4290658560
1.7878714 1.7946821 0.41822886 4290658560
1.7910227 1.7979602 0.41336563 4290658560
1.7862754 1.7933165 0.40620595 4290658560
1.7767841 1.7839139 0.39754793 4290528000
1.7812613 1.7885231 0.39157468 4290658560
1.7892886 1.7966949 0.38588014 4290658560
1.798587 1.8061432 0.37994185 4290658560
1.8012332 1.8089187 0.37210867 4290658560
1.7641126 1.7724433 0.30184492 4290528000
1.7871045 1.7956446 0.29459095 4290658560
1.800139 1.8088527 0.28513581 4290658560
1.793723 1.8025346 0.2722362 4290658560
1.772441 1.7812891 0.2569609 4290528000
1.7783605 1.7873551 0.24545106 4290528000
1.7961515 1.8053439 0.23514186 4290658560
1.7835056 1.7927679 0.22054698 4290528000
1.7634689 1.7727674 0.20503235 4290397440
1.7737018 1.7831678 0.19288813 4290528000
1.7699106 1.7794827 0.17895536 4290528000
1.5220088 1.5305735 0.14203687 4289352960
1.2090517 1.2162733 0.10324724 4287786240
1.1132915 1.1201473 0.086183541 4287264000
1.1340694 1.1411021 0.078686722 4287394560
1.1378539 1.1449841 0.069720164 4287394560
1.6723571 1.6821909 0.089023553 4290005760
1.7666837 1.777104 0.079527728 4290397440
1.5741094 1.5836812 0.057764366 4289483520
1.5138074 1.5231807 0.042930048 4289222400
1.5174925 1.5269911 0.030356346 4289222400
1.5323642 1.5420474 0.017821433 4289352960
1.5478626 1.5577359 0.0050193197 4289352960
1.4970306 1.5067379 -0.007733616 4289091840
1.5187944 1.5287257 -0.020581016 4289222400
1.5115809 1.5215788 -0.033148747 4289222400
1.5064193 1.5164942 -0.045622628 4289222400
1.553901 1.5643511 -0.059971277 4289483520
1.649242 1.6603491 -0.077265725 4289875200
1.6897533 1.7012116 -0.093053721 4290136320
1.6928136 1.7044082 -0.10705359 4290136320
1.6643976 1.6759411 -0.11875656 4290005760
1.6793928 1.691143 -0.13330016 4290005760
1.6849772 1.6968786 -0.14712183 4290136320
1.6469249 1.6587092 -0.1567405 4289875200
1.6013559 1.6129707 -0.16482683 4289614080
1.5573002 1.5687485 -0.17220075 4289483520
1.6128615 1.6247722 -0.19043089 4289744640
1.6281787 1.6402999 -0.20425199 4289875200
1.6115733 1.6236992 -0.21385412 4289744640
1.6195494 1.6318392 -0.2264064 4289744640
1.6285195 1.6409807 -0.23896636 4289875200
1.6286873 1.6412618 -0.25003871 4289875200
1.62199 1.6346309 -0.25974068 4289744640
1.6041788 1.6168089 -0.26722166 4289744640
1.622484 1.6353507 -0.28039962 4289875200
1.6278797 1.640895 -0.29118729 4289875200
1.6240439 1.6371431 -0.30001256 4289875200
1.61833 1.6314988 -0.30809972 4289875200
1.6087149 1.6219243 -0.31501439 4289744640
1.600323 1.6135801 -0.32171538 4289744640
1.6032645 1.6166511 -0.33029342 4289744640
1.6059278 1.619442 -0.33846563 4289744640
1.6051291 1.618745 -0.34553307 4289744640
1.611178 1.6249468 -0.35369688 4289744640
1.5987183 1.6124998 -0.35737959 4289744640
1.6037771 1.6177036 -0.36452496 4289744640
1.5981039 1.6120927 -0.36881709 4289744640
1.6005646 1.6146783 -0.37454313 4289744640
1.5966455 1.6108336 -0.37834328 4289744640
1.5956173 1.609902 -0.38237351 4289744640
1.5934285 1.6078 -0.38567418 4289744640
1.5836004 1.5979966 -0.38665628 4289744640
1.5756453 1.5900795 -0.38760856 4289614080
1.5760114 1.5905507 -0.39013594 4289614080
1.5687892 1.5833704 -0.39032605 4289614080
1.5685589 1.583239 -0.39178544 4289614080
1.5753185 1.5901555 -0.39453191 4289614080
1.5751975 1.5901339 -0.39510286 4289614080
1.5848297 1.5999482 -0.39765173 4289744640
1.5819765 1.5971708 -0.3966125 4289744640
1.5859101 1.601238 -0.39680436 4289744640
1.5824929 1.5978907 -0.39469859 4289744640
1.5879823 1.6035273 -0.39434311 4289744640
1.5945461 1.6102479 -0.39377779 4289744640
1.594842 1.6106454 -0.39119944 4289744640
1.5961933 1.6121075 -0.38841969 4289744640
1.5979054 1.6139334 -0.38526836 4289744640
1.600517 1.616667 -0.38187447 4289744640
1.5964812 1.6126921 -0.3764599 4289744640
1.5945002 1.6107903 -0.37110898 4289744640
1.5950441 1.6114362 -0.36591849 4289744640
1.5921507 1.6086123 -0.35952729 4289744640
1.5898434 1.6063794 -0.35287261 4289744640
1.5837131 1.6002868 -0.34499979 4289614080
1.591167 1.6079065 -0.33967379 4289744640
1.6045444 1.6215067 -0.33512527 4289744640
1.6157236 1.6328889 -0.32962027 4289875200
1.6060231 1.6231904 -0.31948799 4289744640
1.5907872 1.6079012 -0.30802467 4289744640
1.5959229 1.6131812 -0.30019644 4289744640
1.6010708 1.6184735 -0.29197302 4289744640
1.6196066 1.6372869 -0.28571418 4289875200
1.6034888 1.6211033 -0.27302995 4289744640
1.5894505 1.6070179 -0.26057997 4289614080
1.594175 1.6118823 -0.2509616 4289744640
1.6123493 1.6303335 -0.24302062 4289744640
1.6281197 1.6463583 -0.23421867 4289875200
1.6449832 1.6634887 -0.22508708 4289875200
1.6607014 1.6794639 -0.21531932 4290005760
1.6742049 1.6932031 -0.20481648 4290005760
1.6732955 1.6923803 -0.19224004 4290005760
1.6572374 1.6762499 -0.17784762 4290005760
1.6761297 1.6954362 -0.16696994 4290005760
1.6700795 1.6894177 -0.15333852 4290005760
1.6668643 1.6862637 -0.13987097 4290005760
1.5448565 1.5630437 -0.11733689 4289352960
1.5416838 1.5599247 -0.10464288 4289352960
1.4994214 1.5172925 -0.089570083 4289222400
1.5151637 1.5332915 -0.07805194 4289222400
1.4886999 1.5066241 -0.064383812 4289091840
1.5275731 1.5460094 -0.053336952 4289352960
1.5544385 1.5732585 -0.041270804 4289483520
1.4333062 1.4508685 -0.026082868 4288830720
1.5377036 1.5565131 -0.015008559 4289352960
1.7264715 1.7474871 -0.0022436022 4290266880
1.7549638 1.7763987 0.012503247 4290397440
1.310168 1.3266594 0.020209942 4288308480
1.1076176 1.1218754 0.026301751 4287264000
1.1038853 1.1181632 0.035456024 4287264000
1.0903343 1.104519 0.044108011 4287264000
1.14069 1.155519 0.055632338 4287525120
1.6482396 1.6690321 0.094189346 4289875200
1.7865466 1.8090481 0.11674181 4290528000
1.7826769 1.8052349 0.13093871 4290528000
1.737983 1.7601156 0.14159538 4290397440
1.7936367 1.8165281 0.16038221 4290658560
1.7886814 1.8116164 0.17396362 4290658560
1.7861556 1.809163 0.18753415 4290528000
1.7387021 1.7612414 0.19579236 4290397440
1.7940966 1.8174051 0.21549372 4290658560
1.8046755 1.8282158 0.23005955 4290658560
1.7994246 1.8230051 0.2423913 4290658560
1.7731524 1.7965151 0.25139663 4290528000
1.6995957 1.7221558 0.25271738 4290136320
1.7939889 1.8178153 0.27888924 4290658560
1.7866068 1.810446 0.28950122 4290658560
1.7801269 1.8039896 0.29984671 4290658560
1.7649134 1.7886896 0.30824858 4290528000
1.7429843 1.766588 0.3149046 4290397440
1.7848836 1.8091204 0.33285847 4290658560
1.7851505 1.8094963 0.34291241 4290658560
1.7799345 1.8043194 0.35149792 4290658560
1.7739707 1.7983849 0.359478 4290658560
1.7793885 1.8039784 0.36935261 4290658560
1.7595726 1.7840123 0.37349913 4290528000
1.782406 1.8072486 0.38628429 4290658560
1.781091 1.8060238 0.39348677 4290658560
1.7716424 1.796559 0.39839649 4290658560
1.7738868 1.7989405 0.40544853 4290658560
1.7754564 1.800639 0.4118917 4290658560
1.7678958 1.7930863 0.41572085 4290658560
1.7703079 1.7956392 0.42139685 4290658560
1.7656392 1.7910167 0.42489216 4290658560
1.7651197 1.7905995 0.42887849 4290658560
1.7681049 1.7937348 0.43322167 4290658560
1.7548784 1.7804382 0.43306899 4290528000
1.7579782 1.7836902 0.43642169 4290528000
1.7639028 1.7898067 0.43997702 4290658560
1.7671193 1.7931789 0.44235164 4290658560
1.7572569 1.7832915 0.44093055 4290528000
1.7605964 1.7867893 0.44230136 4290528000
1.7570828 1.7833387 0.4414328 4290528000
1.7664285 1.7929285 0.44327557 4290658560
1.7630388 1.7896043 0.44140163 4290658560
1.7631572 1.7898383 0.43989101 4290658560
1.7639683 1.7907752 0.43803713 4290658560
1.7674029 1.7943735 0.4363164 4290658560
1.7614317 1.7884316 0.43176845 4290528000
1.7636547 1.7908022 0.42873129 4290528000
1.763836 1.7911022 0.42469263 4290528000
1.7729266 1.8004417 0.422281 4290658560
1.7711483 1.7987547 0.41677025 4290658560
1.7708145 1.7985338 0.4111217 4290658560
1.765398 1.7931552 0.40383571 4290528000
1.7524916 1.780175 0.39443451 4290528000
1.7572823 1.7851547 0.38859111 4290528000
1.7690734 1.7972409 0.38378051 4290658560
1.7783123 1.8067384 0.37788448 4290658560
1.7798293 1.8083987 0.36986542 4290658560
1.7502701 1.7791654 0.30125338 4290528000
1.7652112 1.7944611 0.29270771 4290528000
1.7860804 1.8157803 0.28458837 4290658560
1.776212 1.8058802 0.2711786 4290528000
1.7494074 1.7787743 0.25512633 4290397440
1.7603755 1.7900388 0.24441154 4290528000
1.7725767 1.8025578 0.23343292 4290528000
1.7632443 1.7931997 0.21933658 4290528000
1.7468159 1.7766298 0.20430358 4290397440
1.7511424 1.7811489 0.19156617 4290397440
1.7364235 1.7663137 0.17661041 4290397440
1.4350392 1.4601282 0.13469812 4288961280
1.1746404 1.1955584 0.10089791 4287655680
1.09624 1.1159493 0.085366651 4287264000
1.1203949 1.1405814 0.078200378 4287394560
1.1647896 1.1857929 0.071812652 4287655680
1.6862688 1.7160569 0.090310082 4290136320
1.7472476 1.778177 0.079123698 4290397440
1.5648534 1.592837 0.057771876 4289483520
1.4661314 1.4925575 0.041817017 4289091840
1.4882371 1.5151423 0.029946838 4289091840
1.5233516 1.5509608 0.017828746 4289352960
1.4747564 1.501642 0.0047929473 4289091840
1.4980391 1.5254294 -0.0077734021 4289222400
1.4958397 1.5232984 -0.020388551 4289222400
1.5213619 1.5493689 -0.033545379 4289352960
1.5326691 1.5609807 -0.046669483 4289352960
1.6480927 1.678529 -0.063929737 4289875200
1.671813 1.7027822 -0.07876502 4290005760
1.6739142 1.7050387 -0.092721522 4290005760
1.6827779 1.7141776 -0.10704077 4290136320
1.6605012 1.6916246 -0.11916928 4290005760
1.6695914 1.7009941 -0.13329865 4290005760
1.672639 1.7042142 -0.14690226 4290005760
1.6755955 1.7073418 -0.16038673 4290136320
1.6409513 1.6721908 -0.16986977 4289875200
1.6416315 1.6729989 -0.18254328 4289875200
1.6192362 1.6503119 -0.19229971 4289875200
1.6184652 1.6496404 -0.20422821 4289875200
1.6024545 1.63345 -0.21389565 4289744640
1.6115239 1.6427982 -0.22661032 4289744640
1.6094674 1.6408162 -0.23756716 4289744640
1.6154335 1.647005 -0.24946743 4289875200
1.5979588 1.6293179 -0.25740901 4289744640
1.5815101 1.612673 -0.26500657 4289614080
1.6106629 1.6424814 -0.27999958 4289744640
1.6085601 1.6404504 -0.28943446 4289744640
1.6073782 1.6393572 -0.29869002 4289744640
1.6116216 1.6437914 -0.30863145 4289875200
1.598603 1.630636 -0.31488231 4289744640
1.584945 1.6168269 -0.32050863 4289744640
1.5922533 1.6243832 -0.32996273 4289744640
1.5949012 1.6271904 -0.33812764 4289744640
1.5922072 1.6245526 -0.34477794 4289744640
1.5911489 1.6235815 -0.35137007 4289744640
1.5930001 1.625576 -0.35820261 4289744640
1.5863044 1.6188571 -0.36268917 4289744640
1.5865417 1.6192054 -0.36831376 4289744640
1.5827543 1.6154495 -0.37256983 4289744640
1.5842745 1.6171051 -0.37763268 4289744640
1.5739614 1.6066936 -0.37942177 4289744640
1.5723076 1.6051111 -0.38281983 4289744640
1.5766897 1.6096841 -0.38724327 4289744640
1.5676633 1.6005812 -0.38792428 4289614080
1.5673263 1.60034 -0.39027977 4289614080
1.562974 1.5960026 -0.39117649 4289614080
1.555849 1.5888357 -0.39091158 4289614080
1.5653261 1.5986049 -0.39434856 4289614080
1.5665144 1.5999184 -0.39524862 4289614080
1.5664489 1.5999522 -0.39537108 4289614080
1.5730605 1.6067989 -0.39670989 4289744640
1.5682204 1.6019601 -0.39470544 4289614080
1.5812137 1.6153197 -0.39670715 4289744640
1.5783771 1.6125249 -0.39427707 4289744640
1.5775194 1.6117491 -0.39188331 4289744640
1.5851465 1.6196332 -0.39112213 4289744640
1.5869753 1.6215992 -0.38846156 4289744640
1.5887678 1.623528 -0.38533175 4289744640
1.5874411 1.6222724 -0.3809984 4289744640
1.5808439 1.6156352 -0.37498271 4289744640
1.5816343 1.6165397 -0.37029532 4289744640
1.5799242 1.6148908 -0.3645986 4289744640
1.5827503 1.6178735 -0.35951969 4289744640
1.5630219 1.5978234 -0.34898406 4289614080
1.5672671 1.6022539 -0.34344232 4289614080
1.5740085 1.6092342 -0.33800441 4289614080
1.5819169 1.6174068 -0.33236289 4289744640
1.5970014 1.6329103 -0.32773447 4289744640
1.5833735 1.6190852 -0.31685436 4289744640
1.5742805 1.6098908 -0.3066366 4289614080
1.5717509 1.6074005 -0.29740793 4289614080
1.5856614 1.6217062 -0.29087734 4289744640
1.59806 1.6344686 -0.28358793 4289744640
1.5834457 1.6196302 -0.27121818 4289744640
1.5767893 1.6129217 -0.26003501 4289614080
1.5850271 1.621433 -0.25099689 4289744640
1.6116796 1.6487645 -0.24435093 4289875200
1.6423483 1.6802036 -0.23764907 4290005760
1.6373539 1.675195 -0.22536606 4289875200
1.6555853 1.6939257 -0.21592173 4290005760
1.6554346 1.6938682 -0.20372079 4290005760
1.6534672 1.6919532 -0.19108851 4290005760
1.6353395 1.6735168 -0.17653932 4289875200
1.6546985 1.6934038 -0.16581281 4290005760
1.6616789 1.7006369 -0.15346585 4290005760
1.6592624 1.698262 -0.14005211 4290005760
1.6608334 1.699964 -0.12682673 4290005760
1.6246363 1.663044 -0.11087726 4289875200
1.5091637 1.5450464 -0.090672135 4289222400
1.4964213 1.5321012 -0.077542439 4289222400
1.4931715 1.5288632 -0.064948082 4289222400
1.5185376 1.5548949 -0.053329647 4289352960
1.4900151 1.5258062 -0.039811924 4289222400
1.4548827 1.4899527 -0.026612651 4288961280
1.5188208 1.555446 -0.014909133 4289352960
1.7099677 1.7510917 -0.0022293609 4290266880
1.7410872 1.7830292 0.012485402 4290397440
1.3121989 1.3442936 0.020372363 4288308480
1.1010603 1.1283212 0.026307052 4287264000
1.0903622 1.1174371 0.035232101 4287264000
1.0901656 1.1172987 0.04437213 4287264000
1.1472065 1.1757383 0.056294806 4287525120
1.5979844 1.6371667 0.091856845 4289744640
1.7592195 1.802289 0.11564453 4290528000
1.7651476 1.8084584 0.13042977 4290528000
1.7242078 1.7666522 0.14131691 4290266880
1.7662827 1.8098245 0.15888125 4290528000
1.7711222 1.8148813 0.17328851 4290528000
1.7658262 1.809562 0.18651013 4290528000
1.7249256 1.7677871 0.19540539 4290397440
1.7916468 1.8362062 0.21649143 4290658560
1.7835522 1.8280218 0.22872755 4290658560
1.7720771 1.8163748 0.24013476 4290528000
1.7557005 1.7997071 0.25041234 4290528000
1.6825819 1.7249237 0.25168493 4290136320
1.7724208 1.8170389 0.27718458 4290658560
1.7690846 1.8137262 0.28837729 4290528000
1.7598714 1.8043932 0.29820812 4290528000
1.7447525 1.7890097 0.30655023 4290528000
1.7257297 1.7696251 0.31365258 4290397440
1.764614 1.8095661 0.33104679 4290528000
1.7648839 1.8099483 0.34104717 4290658560
1.7597033 1.804746 0.34958124 4290528000
1.7604209 1.8055873 0.35886672 4290528000
1.7522585 1.7973289 0.36589599 4290528000
1.7325677 1.7772553 0.36996597 4290397440
1.7552733 1.8006315 0.38267884 4290528000
1.760874 1.8064791 0.39134732 4290658560
1.7576931 1.8033264 0.39762449 4290528000
1.7502725 1.7958276 0.40244392 4290528000
1.7545942 1.800366 0.4094868 4290528000
1.7539709 1.7998356 0.41491422 4290528000
1.7467278 1.7925185 0.41827118 4290528000
1.7517285 1.7977548 0.42406708 4290528000
1.7450185 1.790984 0.4265312 4290528000
1.7445477 1.7906109 0.43000704 4290528000
1.731402 1.7772398 0.42983195 4290528000
1.7406752 1.7868599 0.43471214 4290528000
1.7369384 1.7831379 0.43584347 4290528000
1.7401376 1.78653 0.43820393 4290528000
1.739959 1.7864584 0.43920326 4290528000
1.7398416 1.7864498 0.43970332 4290528000
1.7301619 1.7766318 0.43727085 4290528000
1.7490751 1.7961481 0.44154835 4290528000
1.7491311 1.7963194 0.44054157 4290528000
1.7361965 1.7831615 0.43575746 4290528000
1.7473135 1.7946831 0.43649942 4290528000
1.7458526 1.7932988 0.43357691 4290528000
1.7482274 1.7958513 0.43109834 4290528000
1.7497481 1.797528 0.42789838 4290528000
1.7499269 1.7978278 0.42386752 4290528000
1.7513937 1.7994503 0.41965073 4290528000
1.750308 1.7984532 0.41433343 4290528000
1.7534157 1.8017613 0.40952122 4290528000
1.7514728 1.7998848 0.40305123 4290528000
1.7420868 1.7903661 0.39444292 4290528000
1.7303021 1.7783835 0.38491723 4290397440
1.751042 1.7997991 0.38214564 4290528000
1.7626804 1.8118708 0.37680829 4290658560
1.7526922 1.8017335 0.36640874 4290528000
1.7287951 1.777963 0.29934224 4290397440
1.7450246 1.7947605 0.29109684 4290528000
1.7650715 1.8154832 0.28292882 4290528000
1.7594167 1.8097957 0.27022758 4290528000
1.7314404 1.7811668 0.25402263 4290397440
1.7360325 1.7860088 0.24247861 4290397440
1.755098 1.8057287 0.23252019 4290528000
1.7458174 1.7963128 0.21847436 4290528000
1.7232288 1.7732146 0.20275562 4290397440
1.7344757 1.7849 0.19088462 4290397440
1.6903523 1.7396564 0.17295273 4290136320
1.4066737 1.4480839 0.1328266 4288830720
1.1068575 1.1398767 0.095627673 4287394560
1.0897171 1.1223288 0.085371904 4287264000
1.100499 1.1334953 0.077271342 4287264000
1.1474122 1.181826 0.071165979 4287525120
1.6727567 1.7222815 0.09012948 4290136320
1.7236184 1.7747215 0.078525104 4290397440
1.4770579 1.5211959 0.054837547 4289091840
1.4337153 1.47671 0.041135296 4288961280
1.4793819 1.5237989 0.029953972 4289091840
1.507318 1.5526503 0.017751308 4289352960
1.4492543 1.4930087 0.0047384817 4288961280
1.4591577 1.5033046 -0.0076222206 4289091840
1.4755379 1.5202675 -0.020229941 4289091840
1.6411384 1.6908181 -0.036340266 4289875200
1.6459545 1.6958932 -0.050358046 4290005760
1.6303893 1.6799885 -0.063617103 4289875200
1.6519701 1.7023222 -0.07829237 4290005760
1.6639994 1.7148253 -0.092716239 4290005760
1.6663623 1.7173772 -0.10662612 4290005760
1.6437652 1.6942286 -0.11866988 4290005760
1.6580776 1.7090845 -0.13316502 4290005760
1.6641845 1.7154919 -0.14702648 4290005760
1.6608207 1.7121464 -0.15991905 4290005760
1.6306261 1.6811653 -0.16980459 4289875200
1.6286423 1.6792382 -0.18217771 4289875200
1.6125102 1.6627361 -0.19263907 4289875200
1.6031854 1.6532444 -0.20350757 4289744640
1.5906128 1.6404049 -0.21358091 4289744640
1.5887539 1.6386025 -0.22474691 4289744640
1.5929509 1.6430392 -0.23653464 4289744640
1.599577 1.6499795 -0.24849515 4289744640
1.5815171 1.6314807 -0.25628397 4289744640
1.5686276 1.6183078 -0.2644181 4289614080
1.5913868 1.6418751 -0.27830517 4289744640
1.5932698 1.6439272 -0.28839773 4289744640
1.5943457 1.6451476 -0.29803902 4289744640
1.5951145 1.6460509 -0.30729842 4289744640
1.5818933 1.6325313 -0.31345627 4289744640
1.5623983 1.6125412 -0.31784481 4289614080
1.5758706 1.6265402 -0.3285231 4289744640
1.5750624 1.6258153 -0.33592355 4289744640
1.5765189 1.6274254 -0.34342486 4289744640
1.5754693 1.6264509 -0.34999096 4289744640
1.5688796 1.6197621 -0.35489726 4289744640
1.574095 1.6252482 -0.36205101 4289744640
1.5770798 1.6284337 -0.36830616 4289744640
1.5664459 1.6175709 -0.37094051 4289744640
1.5679591 1.6192374 -0.37598348 4289744640
1.5641885 1.6154526 -0.37932134 4289744640
1.5597912 1.6110204 -0.38204616 4289614080
1.5604242 1.6117775 -0.38554573 4289614080
1.5518678 1.6030519 -0.38631755 4289614080
1.5511185 1.6023815 -0.38855964 4289614080
1.5542639 1.6057301 -0.39132369 4289614080
1.5431377 1.5943488 -0.39004037 4289614080
1.5504328 1.6019797 -0.39293799 4289614080
1.553739 1.6054937 -0.39437389 4289614080
1.5534031 1.605248 -0.39442763 4289614080
1.5560737 1.6081057 -0.39478028 4289614080
1.5574975 1.6096761 -0.39435408 4289614080
1.5544636 1.6066438 -0.39234263 4289614080
1.5621008 1.6146291 -0.39255205 4289744640
1.5681012 1.6209249 -0.39187574 4289744640
1.5619709 1.6146942 -0.38772067 4289744640
1.5678997 1.6209161 -0.38609669 4289744640
1.5724221 1.6256858 -0.38365546 4289744640
1.5745311 1.6279631 -0.38016495 4289744640
1.5679717 1.6212863 -0.37415871 4289744640
1.5665208 1.6198854 -0.3689568 4289744640
1.5704875 1.6240808 -0.364591 4289744640
1.5614427 1.6148337 -0.3568114 4289614080
1.5598696 1.613305 -0.35036156 4289614080
1.5482795 1.6014256 -0.3413195 4289614080
1.5584149 1.6119937 -0.33666375 4289614080
1.5736655 1.6278484 -0.33260816 4289744640
1.5847058 1.6393538 -0.32716012 4289744640
1.5773557 1.6318538 -0.31753778 4289744640
1.5614277 1.6154871 -0.30595616 4289614080
1.5561535 1.6101301 -0.29622328 4289614080
1.5761847 1.6309294 -0.29086971 4289744640
1.5816084 1.6366307 -0.28235257 4289744640
1.574273 1.6291422 -0.27126071 4289744640
1.5635136 1.6181127 -0.25939101 4289614080
1.5720474 1.6270291 -0.25043306 4289614080
1.6012527 1.6573197 -0.24422285 4289744640
1.630531 1.6876892 -0.23735133 4290005760
1.6275644 1.6847181 -0.22535819 4289875200
1.6331919 1.6906339 -0.21428107 4290005760
1.6430247 1.7008992 -0.20340325 4290005760
1.6481344 1.7062806 -0.19160779 4290005760
1.6218714 1.6792132 -0.17613278 4289875200
1.6371073 1.695068 -0.16503289 4290005760
1.6450633 1.7033939 -0.15284067 4290005760
1.6368159 1.6949582 -0.13898674 4290005760
1.6404886 1.6988534 -0.12602381 4290005760
1.6246569 1.6825696 -0.11153366 4289875200
1.6275811 1.6856898 -0.098306261 4289875200
1.4985919 1.5523161 -0.078109853 4289222400
1.464093 1.5167044 -0.064068884 4289091840
1.4927779 1.546474 -0.052740786 4289222400
1.5095958 1.5639656 -0.04055807 4289352960
1.4295015 1.4811591 -0.026306253 4288961280
1.4965287 1.5506164 -0.014776948 4289222400
1.6661636 1.7262881 -0.0021891799 4290136320
1.72094 1.7830858 0.012420255 4290397440
1.4218076 1.4735267 0.022265123 4288961280
1.0812669 1.121065 0.025988385 4287264000
1.0741071 1.1137153 0.034916408 4287264000
1.0905794 1.1308327 0.044665072 4287264000
1.075321 1.1150973 0.053061925 4287264000
1.5463003 1.6028503 0.089415938 4289483520
1.7389716 1.8024594 0.11500787 4290397440
1.7476414 1.8115393 0.12992075 4290528000
1.700707 1.7630335 0.14023538 4290266880
1.7478987 1.8120102 0.15818135 4290528000
1.7497077 1.8139865 0.17223069 4290528000
1.7448606 1.8090684 0.18541226 4290528000
1.6910537 1.753433 0.19272567 4290266880
1.7615383 1.8265511 0.21414053 4290528000
1.761968 1.8271003 0.22732762 4290528000
1.758696 1.8238144 0.23976575 4290528000
1.735508 1.799893 0.24903086 4290528000
1.6524714 1.7139548 0.24867527 4290005760
1.745234 1.8101782 0.27458385 4290528000
1.7488253 1.8140039 0.28680027 4290528000
1.7389823 1.8039078 0.29645181 4290528000
1.7239591 1.7884417 0.30472988 4290397440
1.7057439 1.7696657 0.31189629 4290397440
1.7471536 1.8126918 0.3297551 4290528000
1.7439849 1.8095129 0.339048 4290528000
1.7491553 1.8149787 0.34958971 4290528000
1.7395585 1.805136 0.35675973 4290528000
1.7314496 1.7968352 0.36373866 4290528000
1.7221802 1.7873304 0.36997429 4290397440
1.7351415 1.8008761 0.38057905 4290528000
1.7365971 1.8024926 0.38828719 4290528000
1.7375544 1.803593 0.39544758 4290528000
1.7363498 1.8024518 0.40165937 4290528000
1.7379062 1.8041744 0.40804717 4290528000
1.732435 1.7986084 0.41230008 4290528000
1.725983 1.7920249 0.41580519 4290528000
1.7179545 1.7838054 0.41840735 4290528000
1.7276993 1.7940235 0.42485431 4290528000
1.7238232 1.7901121 0.42747083 4290528000
1.73025 1.7968903 0.43214744 4290528000
1.7206608 1.7870513 0.43231535 4290528000
1.7203649 1.786855 0.43429855 4290528000
1.7167109 1.7831743 0.43492195 4290528000
1.7199509 1.7866479 0.43678164 4290528000
1.7198341 1.7866387 0.43727893 4290528000
1.7197779 1.7866927 0.43727916 4290528000
1.7255949 1.7928435 0.43825892 4290528000
1.7222329 1.7894672 0.43639374 4290528000
1.7257744 1.7932575 0.4357658 4290528000
1.7231556 1.7906532 0.43307182 4290528000
1.7292196 1.7970639 0.43204793 4290528000
1.7274766 1.7953697 0.42856213 4290528000
1.7324044 1.8006024 0.42622408 4290528000
1.7329208 1.8012553 0.42229193 4290528000
1.7312988 1.799688 0.4173497 4290528000
1.7302163 1.798681 0.41205952 4290528000
1.723718 1.7920493 0.4050245 4290528000
1.7313663 1.8001114 0.40083939 4290528000
1.7220324 1.790534 0.39226589 4290528000
1.719908 1.7884454 0.38492554 4290397440
1.730925 1.8000097 0.3800458 4290528000
1.7328867 1.8021677 0.37268472 4290528000
1.7359864 1.8055087 0.36511767 4290528000
1.7053268 1.7744224 0.29707059 4290397440
1.7214519 1.7913067 0.28890747 4290397440
1.7467026 1.8176811 0.28168491 4290528000
1.7385007 1.8092774 0.26863676 4290528000
1.7113765 1.7811972 0.25260431 4290397440
1.7193855 1.7896477 0.24161333 4290397440
1.7348822 1.8058864 0.23123889 4290528000
1.7284631 1.7993345 0.21761817 4290397440
1.7080327 1.778209 0.20219079 4290397440
1.7136791 1.7842048 0.18974303 4290397440
1.654851 1.7231328 0.17034696 4290005760
1.3659058 1.4226596 0.1297549 4288700160
1.1001949 1.1463176 0.095633008 4287394560
1.0796976 1.1250706 0.08510305 4287264000
1.0738033 1.1190155 0.075850345 4287264000
1.1342745 1.1820194 0.070780128 4287525120
1.6599219 1.7291273 0.08998657 4290136320
1.7031324 1.7742188 0.078066774 4290266880
1.4847898 1.5470879 0.055471539 4289222400
1.4250849 1.4850496 0.041142203 4288961280
1.5148221 1.578566 0.030881505 4289352960
1.4885459 1.5513215 0.017639885 4289222400
1.4405288 1.5014387 0.004745461 4288961280
1.4614679 1.5233448 -0.007668782 4289091840
1.6219176 1.6905193 -0.022297261 4289875200
1.6229861 1.6917497 -0.036151409 4289875200
1.6314392 1.7006707 -0.050210275 4290005760
1.6186608 1.6874808 -0.06353505 4289875200
1.6611712 1.7318746 -0.079189256 4290136320
1.6749489 1.746346 -0.093874641 4290136320
1.6903784 1.7625402 -0.10879506 4290266880
1.6397494 1.7099195 -0.11908669 4290005760
1.648284 1.7189296 -0.1331726 4290005760
1.6420643 1.7125685 -0.14594916 4290005760
1.6318203 1.7020131 -0.15808018 4290005760
1.609326 1.6786908 -0.16860025 4289875200
1.6038194 1.6730682 -0.18048839 4289875200
1.5965838 1.6656429 -0.19188821 4289744640
1.5843136 1.6529689 -0.20232855 4289744640
1.5744371 1.6427878 -0.2126867 4289744640
1.5722889 1.6406612 -0.22376262 4289744640
1.5805953 1.6494329 -0.23611706 4289744640
1.5761703 1.6449325 -0.24634406 4289744640
1.5738025 1.642576 -0.25657183 4289744640
1.5629027 1.6313229 -0.26504117 4289614080
1.5817925 1.6511312 -0.27829748 4289744640
1.5809165 1.6503297 -0.28789151 4289744640
1.5847323 1.6544207 -0.29803133 4289744640
1.5758921 1.6453123 -0.30543539 4289744640
1.5689256 1.6381567 -0.31276745 4289744640
1.5591426 1.6280619 -0.31909543 4289614080
1.5602021 1.6292762 -0.32722676 4289744640
1.565562 1.6349766 -0.33591595 4289744640
1.5601673 1.629457 -0.34192237 4289744640
1.5659653 1.6356146 -0.34998339 4289744640
1.5594146 1.6288874 -0.35488969 4289744640
1.5599802 1.629585 -0.36097801 4289744640
1.5580028 1.6276286 -0.36605865 4289744640
1.5501671 1.6195573 -0.36931127 4289614080
1.5489433 1.6183857 -0.3736777 4289614080
1.5551306 1.6249493 -0.37940666 4289744640
1.5466754 1.6162287 -0.38112903 4289614080
1.551006 1.6208539 -0.38553822 4289614080
1.5390924 1.6085205 -0.38545898 4289614080
1.5356219 1.6050001 -0.38701081 4289614080
1.5380675 1.6076562 -0.38959521 4289614080
1.5372276 1.6068816 -0.39089665 4289614080
1.5444778 1.6145548 -0.39379647 4289614080
1.5375463 1.6074179 -0.39263198 4289614080
1.5412987 1.6114383 -0.39372614 4289614080
1.5432715 1.6135999 -0.393906 4289614080
1.544686 1.6151782 -0.39348152 4289614080
1.5459342 1.6165826 -0.39255258 4289614080
1.5499411 1.6208687 -0.39185756 4289614080
1.5422781 1.6129631 -0.38776869 4289614080
1.5559429 1.6273392 -0.38856161 4289744640
1.5482048 1.6193539 -0.38356355 4289614080
1.5595142 1.6312702 -0.38281357 4289744640
1.5650184 1.6371213 -0.38015735 4289744640
1.5587864 1.6307079 -0.37422019 4289744640
1.5558652 1.6277534 -0.36866811 4289744640
1.5609974 1.6332154 -0.36458343 4289744640
1.5451788 1.6167793 -0.35523885 4289614080
1.5408798 1.6123823 -0.34819964 4289614080
1.531939 1.603132 -0.33976811 4289614080
1.5387412 1.6103383 -0.33443448 4289614080
1.5545785 1.6269913 -0.33057088 4289614080
1.5682843 1.6414171 -0.32573575 4289744640
1.5621686 1.6351192 -0.3163892 4289744640
1.5458238 1.6181238 -0.30473751 4289614080
1.5431422 1.615414 -0.29552814 4289614080
1.5597992 1.6329279 -0.28959364 4289614080
1.5686154 1.6422433 -0.28173113 4289744640
1.5613221 1.6347102 -0.2706604 4289614080
1.5525054 1.6255826 -0.25912523 4289614080
1.5625398 1.6361727 -0.25042546 4289614080
1.5773131 1.6517209 -0.24203591 4289744640
1.5945809 1.6698804 -0.2335373 4289875200
1.5839107 1.6588128 -0.22065906 4289744640
1.6008123 1.6765912 -0.21131518 4289875200
1.6144563 1.6909628 -0.20108482 4289875200
1.6208609 1.6977607 -0.18958493 4289875200
1.6387902 1.7166194 -0.17903194 4290005760
1.677687 1.7574226 -0.17012011 4290266880
1.6830351 1.7631192 -0.15728928 4290266880
1.6584355 1.7374721 -0.14165688 4290136320
1.623854 1.7013742 -0.12550066 4289875200
1.6113744 1.6884072 -0.11128912 4289875200
1.6185906 1.6960562 -0.098350301 4289875200
1.5786781 1.6543688 -0.082735412 4289744640
1.4358981 1.5049821 -0.063219957 4288961280
1.4733831 1.5443127 -0.052370153 4289222400
1.4389837 1.508382 -0.038916249 4288961280
1.4443259 1.5140605 -0.026723443 4289091840
1.4971355 1.5694455 -0.014861701 4289352960
1.6261175 1.7046056 -0.002152585 4289875200
1.7050555 1.787371 0.012386985 4290266880
1.4297688 1.4991543 0.022539839 4288961280
1.0678101 1.1201255 0.025823068 4287264000
1.054481 1.1062269 0.034485981 4287133440
1.1005355 1.1545315 0.045360908 4287394560
1.0619026 1.114126 0.052721255 4287133440
1.5059701 1.5794061 0.087612152 4289352960
1.7180922 1.8017327 0.11432502 4290397440
1.7239541 1.8079759 0.12894589 4290397440
1.689608 1.77209 0.14017737 4290266880
1.7319772 1.8165873 0.15770301 4290528000
1.7322191 1.8169435 0.1715554 4290528000
1.7248006 1.8092721 0.18440419 4290397440
1.6896464 1.7725317 0.19374944 4290266880
1.7371064 1.8223755 0.2124636 4290528000
1.7416646 1.8272572 0.22608478 4290528000
1.7343471 1.8196909 0.23789385 4290528000
1.7215444 1.8063742 0.24854131 4290397440
1.6328437 1.7134892 0.24722636 4290005760
1.7312243 1.81673 0.27404866 4290528000
1.7269702 1.8123745 0.28495011 4290528000
1.7157111 1.8006737 0.2942751 4290397440
1.7073418 1.7920021 0.3036409 4290397440
1.6789705 1.7623546 0.30887946 4290266880
1.7201378 1.8056297 0.32664305 4290528000
1.7169966 1.8024408 0.33584404 4290528000
1.7251788 1.8111281 0.3469083 4290528000
1.7228602 1.8088025 0.35549879 4290528000
1.7113891 1.7968765 0.3617256 4290397440
1.6919435 1.776584 0.36570299 4290397440
1.7150669 1.8009477 0.37847918 4290528000
1.7090201 1.794711 0.38446027 4290397440
1.7103163 1.7961781 0.39163125 4290397440
1.7196848 1.8061159 0.40024045 4290528000
1.7110202 1.7971325 0.40419397 4290528000
1.7185198 1.8051111 0.41149333 4290528000
1.7159214 1.8024936 0.4159134 4290528000
1.7048084 1.7909398 0.41774881 4290397440
1.7104144 1.7969332 0.42317992 4290528000
1.7072428 1.7937142 0.42595235 4290528000
1.7102333 1.7969637 0.42976433 4290528000
1.7000241 1.7863573 0.42974663 4290397440
1.6970136 1.7833076 0.43102768 4290397440
1.6994964 1.786025 0.43319845 4290397440
1.7027167 1.7895179 0.43505421 4290397440
1.6964881 1.7830898 0.43398556 4290397440
1.7056049 1.7927756 0.43633291 4290528000
1.6988174 1.7857608 0.43410146 4290397440
1.7049828 1.7923491 0.43467024 4290528000
1.7097913 1.7975136 0.43437597 4290528000
1.7063087 1.7939703 0.43146613 4290528000
1.708526 1.7964145 0.42949399 4290528000
1.7040733 1.7918525 0.42534721 4290397440
1.705869 1.7938547 0.42226794 4290397440
1.7060784 1.794191 0.41829917 4290397440
1.7071812 1.7954663 0.41405877 4290528000
1.7092966 1.7978061 0.40957338 4290528000
1.7154238 1.8043627 0.40554821 4290528000
1.7113171 1.8001654 0.39862746 4290528000
1.7046746 1.7933029 0.39069378 4290397440
1.6999198 1.7884239 0.38278577 4290397440
1.7135909 1.8029125 0.37854826 4290528000
1.7223541 1.8122442 0.37269309 4290528000
1.7186143 1.8084337 0.36368215 4290528000
1.6881156 1.7771444 0.29587883 4290266880
1.7127963 1.8032242 0.28922227 4290397440
1.7230695 1.8141532 0.2795803 4290528000
1.7217613 1.8129009 0.26768556 4290528000
1.6941131 1.7839388 0.2515935 4290397440
1.6958984 1.7859395 0.23977721 4290397440
1.7140386 1.8051482 0.22986534 4290397440
1.7049084 1.7956655 0.21597211 4290397440
1.6845962 1.7744149 0.2006426 4290266880
1.7005048 1.791279 0.18944465 4290397440
1.6099849 1.6961359 0.16674274 4289875200
1.328831 1.4003344 0.12700388 4288569600
1.093495 1.1527196 0.095638327 4287394560
1.0634941 1.1212187 0.084340744 4287264000
1.061072 1.1187468 0.075412869 4287264000
1.1404387 1.2023824 0.071611926 4287525120
1.6564271 1.7457403 0.09035714 4290136320
1.6660008 1.7559425 0.076832585 4290136320
1.4853858 1.5658723 0.055844449 4289222400
1.4033257 1.4795638 0.040764078 4288830720
1.4959581 1.577225 0.030687504 4289352960
1.4663982 1.546201 0.017485954 4289222400
1.4117875 1.4887862 0.0046778801 4288961280
1.5384753 1.6223422 -0.0080787493 4289483520
1.6003268 1.687614 -0.022132039 4289875200
1.6079661 1.6957799 -0.036030583 4289875200
1.6297927 1.718895 -0.050455716 4290005760
1.6616606 1.7525935 -0.065592252 4290136320
1.6995058 1.7925955 -0.081484608 4290266880
1.7048399 1.7983415 -0.096110187 4290397440
1.6418824 1.7321151 -0.10633021 4290005760
1.5627331 1.6488136 -0.11421229 4289614080
1.5806521 1.6678157 -0.12851046 4289744640
1.5818102 1.6691521 -0.14147204 4289744640
1.5757414 1.6628699 -0.15359864 4289744640
1.5659473 1.6526594 -0.1650712 4289744640
1.574832 1.6621411 -0.17831552 4289744640
1.5765638 1.6640821 -0.19064207 4289744640
1.5719126 1.6592921 -0.20197009 4289744640
1.5552459 1.64183 -0.21138081 4289614080
1.5599626 1.6469172 -0.22336437 4289744640
1.5641128 1.6514072 -0.2350847 4289744640
1.5638222 1.6512136 -0.24590777 4289744640
1.5623963 1.6498224 -0.25626874 4289744640
1.543804 1.6303214 -0.2634072 4289614080
1.565315 1.6531264 -0.2770851 4289744640
1.5644476 1.6523232 -0.28663751 4289744640
1.5621037 1.6499619 -0.29557928 4289744640
1.5628691 1.6508809 -0.30476516 4289744640
1.5500932 1.6375099 -0.31090847 4289614080
1.5434998 1.6306616 -0.31782976 4289614080
1.5438749 1.6311666 -0.32578731 4289614080
1.5498853 1.6376195 -0.33459058 4289744640
1.5411258 1.6284822 -0.33982202 4289614080
1.5496111 1.6375477 -0.34845203 4289744640
1.5446395 1.6324075 -0.35368198 4289614080
1.5414664 1.6291652 -0.3588832 4289614080
1.5383104 1.6259401 -0.36365125 4289614080
1.5407037 1.6285738 -0.36930376 4289614080
1.5394868 1.627395 -0.37367019 4289614080
1.5323735 1.619989 -0.37615311 4289614080
1.5375218 1.6255314 -0.38119331 4289614080
1.5252718 1.6126981 -0.38147491 4289614080
1.5263063 1.6138947 -0.3846004 4289614080
1.5194703 1.6067773 -0.38529083 4289614080
1.5286736 1.6166024 -0.38958776 4289614080
1.5210673 1.6086696 -0.3891618 4289614080
1.5255654 1.6135241 -0.39136434 4289614080
1.5186763 1.6063471 -0.39019638 4289614080
1.5251135 1.6132503 -0.39198375 4289614080
1.525102 1.6133394 -0.39166012 4289614080
1.5284787 1.6170088 -0.39174393 4289614080
1.5337803 1.6227125 -0.39185521 4289614080
1.5336994 1.6227278 -0.39013267 4289614080
1.5328532 1.6219337 -0.38776121 4289614080
1.5369524 1.6263666 -0.38617846 4289614080
1.5455166 1.6355199 -0.38523972 4289744640
1.5371089 1.6267313 -0.37963566 4289614080
1.5425756 1.63261 -0.37701172 4289614080
1.539767 1.6297395 -0.37192681 4289614080
1.53686 1.6267643 -0.36640376 4289614080
1.5419571 1.6322522 -0.3623507 4289614080
1.5357317 1.6257666 -0.35523134 4289614080
1.528064 1.6177549 -0.34742278 4289614080
1.5286839 1.618507 -0.34112045 4289614080
1.5232167 1.6128206 -0.33309397 4289614080
1.5382743 1.6288433 -0.3291136 4289614080
1.5518926 1.6433451 -0.32431149 4289744640
1.5526142 1.6442051 -0.31638163 4289744640
1.5295619 1.6199137 -0.30338433 4289614080
1.5371078 1.627992 -0.29617459 4289614080
1.5441254 1.635512 -0.28844446 4289614080
1.5590193 1.6513666 -0.28172353 4289744640
1.5422219 1.6336876 -0.26899338 4289614080
1.5368655 1.6281137 -0.25809017 4289614080
1.5434217 1.6351461 -0.24888247 4289614080
1.5654378 1.6585412 -0.24168625 4289744640
1.5711205 1.6646513 -0.23151818 4289744640
1.5409917 1.6328555 -0.21601284 4289614080
1.5583701 1.6513448 -0.20698947 4289744640
1.553881 1.6466869 -0.19475114 4289614080
1.5647736 1.6583122 -0.18416809 4289744640
1.5535944 1.6465706 -0.17080012 4289614080
1.6217259 1.7188011 -0.16547248 4290005760
1.6960293 1.7975749 -0.15946068 4290397440
1.6952275 1.7968273 -0.14566118 4290397440
1.6806557 1.7814978 -0.13065134 4290266880
1.6161134 1.7132461 -0.11228944 4290005760
1.5979484 1.6941043 -0.097691253 4289875200
1.5966612 1.6928363 -0.084173232 4289875200
1.4477011 1.5351516 -0.064115435 4289091840
1.4547507 1.5427053 -0.052023858 4289091840
1.4809701 1.5705671 -0.040268131 4289222400
1.4121412 1.4977387 -0.026292464 4288961280
1.491396 1.5817891 -0.014887275 4289352960
1.5703759 1.6655579 -0.0021010204 4289744640
1.6784089 1.7801194 0.012271145 4290266880
1.4374791 1.524924 0.022814704 4289091840
1.0550874 1.1197947 0.025674734 4287133440
1.044585 1.1087277 0.034376442 4287133440
1.0226893 1.0855849 0.042383756 4287002880
1.0423598 1.1064941 0.052069206 4287133440
1.4675459 1.5572213 0.085901 4289222400
1.6979662 1.8015509 0.11368815 4290397440
1.7034508 1.8074664 0.1282037 4290397440
1.6724015 1.7746531 0.1396119 4290266880
1.7049259 1.8092346 0.15620163 4290397440
1.7154402 1.8204845 0.17094842 4290397440
1.7073847 1.8120466 0.18367492 4290397440
1.6731321 1.7758301 0.19304605 4290266880
1.723722 1.8295768 0.21213493 4290528000
1.724153 1.8301383 0.22519937 4290528000
1.7195302 1.8253403 0.23732421 4290528000
1.7007483 1.8055249 0.24706036 4290397440
1.6098667 1.7092352 0.24525701 4290005760
1.7171977 1.8231802 0.27351341 4290528000
1.7068369 1.8122951 0.28337285 4290397440
1.7051878 1.8106503 0.29428342 4290397440
1.6927741 1.7975856 0.30291578 4290397440
1.6584646 1.7612894 0.30699691 4290266880
1.707987 1.813936 0.32634574 4290528000
1.7092406 1.8153722 0.33639941 4290528000
1.6982907 1.8038594 0.34361607 4290397440
1.7021049 1.808013 0.35339159 4290397440
1.6879942 1.7931446 0.35899049 4290397440
1.672065 1.7763445 0.36364514 4290266880
1.6968803 1.8027887 0.37678561 4290397440
1.6985314 1.8046486 0.38446856 4290397440
1.699819 1.8061233 0.39163953 4290397440
1.6925025 1.7984645 0.39635378 4290397440
1.69375 1.7998973 0.40259326 4290397440
1.6883527 1.7942758 0.40677387 4290397440
1.6857767 1.7916493 0.4111377 4290397440
1.6949492 1.8014981 0.41790694 4290397440
1.6870725 1.7932439 0.41999096 4290397440
1.6866256 1.7928792 0.42341593 4290397440
1.6929768 1.7997348 0.42806441 4290397440
1.6858745 1.7923026 0.4288111 4290397440
1.6764635 1.7824178 0.42844701 4290397440
1.6796068 1.7858677 0.43078214 4290397440
1.6760575 1.7822088 0.43089661 4290397440
1.6918091 1.7990545 0.43547207 4290397440
1.6850029 1.7919368 0.43373457 4290397440
1.6789314 1.7855989 0.43167961 4290397440
1.6884328 1.7958082 0.43311986 4290397440
1.6857854 1.7931093 0.4309324 4290397440
1.6897482 1.797435 0.42992815 4290397440
1.6851984 1.7927151 0.42625663 4290397440
1.6905137 1.7984798 0.42457989 4290397440
1.6886306 1.7965944 0.42059344 4290397440
1.6861341 1.7940571 0.4159734 4290397440
1.6899887 1.7982717 0.41243172 4290397440
1.6886498 1.7969655 0.40713623 4290397440
1.6947355 1.8035535 0.40314299 4290397440
1.6845618 1.7928549 0.39482942 4290397440
1.6779536 1.7859464 0.3869555 4290397440
1.6793135 1.7875106 0.38049242 4290397440
1.6926178 1.8017777 0.37623578 4290397440
1.6955026 1.8049659 0.36915955 4290397440
1.6985562 1.8083341 0.361669 4290397440
1.6648121 1.7732153 0.29360694 4290266880
1.6859331 1.7958118 0.28645432 4290397440
1.709065 1.8205513 0.27903259 4290528000
1.701196 1.8123009 0.26613241 4290397440
1.6707456 1.7800149 0.24966539 4290266880
1.6770415 1.7868387 0.23858599 4290266880
1.6924026 1.8033134 0.22837545 4290397440
1.6875941 1.7983184 0.21510962 4290397440
1.6639917 1.7733142 0.19942196 4290266880
1.6736546 1.7837249 0.18761282 4290266880
1.565998 1.6692158 0.16319114 4289744640
1.3144995 1.4015177 0.1264172 4288439040
1.0238415 1.0920799 0.090081945 4287002880
1.043955 1.1135769 0.083304197 4287133440
1.0442787 1.113999 0.074680187 4287133440
1.1334115 1.209018 0.071617469 4287525120
1.6428057 1.7517301 0.090176456 4290136320
1.6492363 1.7587028 0.076536886 4290136320
