# .PCD v0.7 - Point Cloud Data file format
VERSION 0.7
FIELDS x y z rgba
SIZE 4 4 4 4
TYPE F F F U
COUNT 1 1 1 1
WIDTH 1078
HEIGHT 1
VIEWPOINT 0 0 0 1 0 0 0
POINTS 1078
DATA ascii
2.3838267 -0.55714381 -0.29448351 4290266880
2.2886295 -0.53485721 -0.27227643 4290005760
2.3350182 -0.54560834 -0.26677674 4290136320
2.3274992 -0.54378188 -0.25465983 4290136320
2.3286693 -0.54398263 -0.2432401 4290136320
2.2089348 -0.51598781 -0.21956685 4289744640
2.2610955 -0.52808207 -0.21301381 4289875200
2.2242961 -0.51943278 -0.19780231 4289744640
2.2301335 -0.52072495 -0.18631481 4289744640
2.1478527 -0.5014782 -0.16771191 4289483520
2.1901922 -0.5112794 -0.15882905 4289614080
2.2331738 -0.52122772 -0.14934374 4289744640
2.1820614 -0.50925046 -0.13348536 4289614080
2.0844839 -0.48645204 -0.11551104 4289222400
2.1468112 -0.50090599 -0.1064193 4289483520
2.1931458 -0.51163149 -0.095790654 4289614080
2.1527483 -0.50215715 -0.08126609 4289483520
2.1731102 -0.50683236 -0.069048055 4289483520
2.2407267 -0.52250755 -0.057717051 4289744640
2.2502739 -0.52466148 -0.04438347 4289744640
2.1218429 -0.49470106 -0.029040989 4289352960
2.2616398 -0.52716905 -0.017190201 4289875200
2.3203678 -0.54076505 -0.0035247626 4290005760
2.3095784 -0.53818405 0.01052098 4290005760
2.2661047 -0.52800059 0.024067003 4289875200
2.3673267 -0.55147493 0.039507803 4290136320
2.4001803 -0.55904311 0.054557469 4290266880
2.3488123 -0.54702514 0.06750194 4290136320
2.3006454 -0.5357545 0.079867743 4290005760
2.4505091 -0.57052308 0.099667616 4290528000
2.4560394 -0.57173359 0.11437907 4290528000
2.3616145 -0.54971313 0.12376983 4290136320
2.3079686 -0.5371747 0.13430804 4290005760
2.5141275 -0.58500451 0.16074045 4290658560
2.5129385 -0.58465111 0.1748724 4290658560
2.4516919 -0.57034713 0.18427294 4290528000
2.4017334 -0.55866855 0.19370474 4290397440
2.5958192 -0.60366619 0.22342327 4291050240
2.601989 -0.60501873 0.23776999 4291050240
2.5318775 -0.58866107 0.24453765 4290789120
2.5468171 -0.59205073 0.25897259 4290919680
2.6482134 -0.61550605 0.28250477 4291180800
3.0303507 -0.70410669 0.33807471 4292616960
3.1994982 -0.74326146 0.37213776 4293139200
3.2348344 -0.75136012 0.39116803 4293269760
3.2269852 -0.74943835 0.40465862 4293269760
3.1914465 -0.74109453 0.41402811 4293139200
3.2540696 -0.75551778 0.43578202 4293400320
3.263797 -0.7576713 0.45025349 4293400320
3.2702022 -0.75905371 0.46381795 4293400320
3.2666171 -0.75811952 0.47544685 4293400320
3.2452979 -0.75307482 0.48386019 4293400320
3.2223692 -0.74765819 0.49132556 4293269760
3.25474 -0.7550571 0.50668919 4293400320
3.2430456 -0.752244 0.51467335 4293400320
3.2609918 -0.75629807 0.52678537 4293400320
3.250361 -0.75373137 0.53369164 4293400320
3.2480719 -0.753097 0.54131556 4293400320
3.2536674 -0.75428838 0.54963219 4293400320
3.2450268 -0.75218296 0.55489779 4293400320
3.2531092 -0.75394922 0.56237453 4293400320
3.2417922 -0.75122428 0.56583554 4293400320
3.2420204 -0.75117177 0.57063228 4293400320
3.2365768 -0.74980652 0.57375562 4293400320
3.2456391 -0.75179762 0.57878172 4293400320
3.2274487 -0.74748313 0.57826108 4293400320
3.2487316 -0.75230002 0.58413512 4293400320
3.2485268 -0.75214565 0.58547115 4293400320
3.2397997 -0.75002033 0.58458078 4293400320
3.2398231 -0.74991852 0.58458108 4293400320
3.253381 -0.75294513 0.58633453 4293400320
3.2353992 -0.74868053 0.58171731 4293400320
3.2366254 -0.74885589 0.57987869 4293400320
3.2415209 -0.7498787 0.57801211 4293400320
3.2449017 -0.75055099 0.57518947 4293400320
3.2536988 -0.75247395 0.57263869 4293400320
3.2417214 -0.74959773 0.56576616 4293400320
3.2471478 -0.75074124 0.56127942 4293400320
3.2442534 -0.74996275 0.55469477 4293400320
3.2440619 -0.74980819 0.54793167 4293400320
3.2356114 -0.74774694 0.53915489 4293400320
3.2390924 -0.74843979 0.53175151 4293400320
3.2346797 -0.74731046 0.52243829 4293269760
3.2216244 -0.74418712 0.51117289 4293269760
3.2554722 -0.75188488 0.50669837 4293400320
3.2542865 -0.75149918 0.49608597 4293400320
3.2471743 -0.74974638 0.48402745 4293400320
2.6178458 -0.60401535 0.32282016 4291180800
2.6157975 -0.60345161 0.3106961 4291050240
2.6073189 -0.60140681 0.29750702 4291050240
2.5681045 -0.59228396 0.28070053 4290919680
2.5301597 -0.5834561 0.26409376 4290789120
2.519249 -0.58085483 0.25025985 4290789120
2.5096276 -0.57855105 0.2363801 4290658560
2.4750142 -0.57049567 0.22011097 4290658560
2.4319479 -0.5604974 0.20325674 4290397440
2.4430039 -0.56295496 0.19088088 4290528000
2.4378793 -0.56168932 0.17699526 4290397440
2.4139447 -0.55609733 0.16170786 4290397440
2.3705647 -0.54603487 0.14531668 4290266880
2.4034853 -0.55352044 0.13351548 4290266880
2.3808415 -0.54822874 0.11841191 4290266880
2.3405559 -0.53888327 0.10266487 4290136320
2.3045635 -0.53052723 0.087443218 4290005760
2.3304346 -0.5363903 0.074545518 4290005760
2.3030663 -0.53001875 0.059860285 4290005760
2.1551721 -0.49596035 0.043001268 4289483520
2.2519853 -0.51812106 0.031345718 4289744640
2.2380223 -0.51483387 0.017584616 4289744640
2.1927464 -0.5043574 0.0039079124 4289614080
2.1659195 -0.49811986 -0.0092993146 4289483520
2.1912558 -0.50385851 -0.022698183 4289614080
2.161804 -0.49702048 -0.035497453 4289483520
2.0996618 -0.48268273 -0.047179434 4289222400
2.1546168 -0.495217 -0.061362509 4289483520
2.219888 -0.51011407 -0.076492287 4289744640
2.1908271 -0.50336897 -0.088536531 4289614080
2.1191764 -0.48685846 -0.098182879 4289352960
2.217968 -0.50943631 -0.11572061 4289744640
2.2124519 -0.50809264 -0.12827149 4289614080
2.1702027 -0.49832901 -0.1382924 4289483520
2.1778491 -0.50000429 -0.15112804 4289614080
2.2986164 -0.52760231 -0.17233029 4290005760
2.307425 -0.52953905 -0.18571228 4290005760
2.3433757 -0.53769326 -0.20131136 4290136320
2.3484733 -0.53877795 -0.21427272 4290136320
2.2887483 -0.52501661 -0.22082184 4290005760
2.3780262 -0.5453791 -0.24159829 4290266880
2.4049985 -0.55147058 -0.25639263 4290397440
2.3575897 -0.54053324 -0.26290274 4290266880
2.3357158 -0.53544384 -0.27162412 4290136320
2.2989786 -0.52695477 -0.27804604 4290005760
2.4833782 -0.56906664 -0.31148311 4290658560
2.5753162 -0.59001291 -0.3342396 4290919680
2.6401842 -0.60476083 -0.35379288 4291180800
2.7364225 -0.62667906 -0.37780792 4291572480
2.8311586 -0.64824724 -0.40195322 4291833600
3.0861535 -0.70644993 -0.4496758 4292747520
3.1537886 -0.72180444 -0.47084382 4293008640
3.1850834 -0.7288484 -0.48641169 4293139200
3.2019379 -0.73259032 -0.49938595 4293139200
3.2095244 -0.73421365 -0.51042491 4293269760
3.2152104 -0.73540252 -0.52061731 4293269760
3.2188056 -0.73611367 -0.52990031 4293269760
3.211329 -0.73429608 -0.53674501 4293269760
3.1972153 -0.73096359 -0.54181194 4293269760
3.189858 -0.72917497 -0.54734761 4293139200
3.1682627 -0.72413677 -0.54975379 4293139200
3.1074574 -0.71015024 -0.54458421 4292878080
3.1297717 -0.71513808 -0.55325282 4293008640
3.1339231 -0.71598011 -0.55811262 4293008640
3.0606699 -0.69916159 -0.54848588 4292747520
3.0688782 -0.70093167 -0.55271912 4292747520
3.0685475 -0.70075381 -0.55477983 4292747520
3.0683236 -0.70060062 -0.55621231 4292747520
3.0682075 -0.7004723 -0.55701506 4292747520
3.0595589 -0.69839895 -0.55562067 4292747520
3.1323388 -0.71488881 -0.56832778 4293008640
3.1143086 -0.71067619 -0.56391823 4292878080
3.1745317 -0.72429842 -0.57296795 4293139200
3.1567209 -0.72013611 -0.56726801 4293139200
3.1806204 -0.72547805 -0.56837994 4293139200
3.1886861 -0.72721189 -0.56597179 4293139200
3.2072129 -0.73132813 -0.56472313 4293269760
3.2047131 -0.73065501 -0.55910027 4293269760
3.1873276 -0.7265929 -0.55027193 4293139200
3.1897433 -0.72704029 -0.54424584 4293139200
3.1677794 -0.72193813 -0.53348184 4293139200
3.1266284 -0.71247065 -0.51902455 4293008640
3.0629585 -0.6978814 -0.50050294 4292747520
2.9111562 -0.66324294 -0.46762067 4292225280
2.7722149 -0.63154036 -0.4371005 4291703040
2.6679223 -0.60772842 -0.41227403 4291311360
2.5837636 -0.58850276 -0.39069089 4291050240
2.4722567 -0.5630632 -0.36520815 4290658560
2.459985 -0.56019503 -0.35436988 4290528000
2.3504317 -0.53521097 -0.32961696 4290266880
2.4064636 -0.54787439 -0.32784772 4290397440
2.3845155 -0.54281056 -0.31498188 4290266880
2.3722255 -0.53994322 -0.30317894 4290266880
2.3637941 -0.5379535 -0.29161909 4290266880
2.2732999 -0.51732033 -0.27009067 4289875200
2.329433 -0.5300011 -0.26577869 4290136320
2.2976561 -0.52271146 -0.25106308 4290005760
2.2939601 -0.52180105 -0.23930043 4290005760
2.193459 -0.49890953 -0.21773724 4289614080
2.2408249 -0.50959581 -0.21082349 4289744640
2.2000787 -0.50027716 -0.19539028 4289614080
2.2243798 -0.50572532 -0.18558232 4289744640
2.127398 -0.48364738 -0.16589487 4289352960
2.1746488 -0.49430409 -0.15749125 4289483520
2.2079489 -0.50179285 -0.14746261 4289614080
2.1616251 -0.49121648 -0.13206026 4289483520
2.0590396 -0.46788156 -0.11395258 4289091840
2.1685071 -0.49264523 -0.10733917 4289483520
2.1956069 -0.49872431 -0.095764302 4289614080
2.1507623 -0.48848963 -0.081078485 4289483520
2.180898 -0.49525595 -0.069195718 4289483520
2.2476306 -0.51031595 -0.05781056 4289744640
2.2445147 -0.50954127 -0.044207435 4289744640
2.1985061 -0.49904692 -0.030022621 4289614080
2.2646706 -0.51397163 -0.017184483 4289875200
2.3283532 -0.52833003 -0.0035250147 4290005760
2.3175488 -0.52581179 0.010550262 4290005760
2.2603629 -0.51278925 0.023977378 4289875200
2.3753731 -0.53876561 0.039596234 4290266880
2.4033942 -0.5450381 0.054563537 4290266880
2.3568318 -0.53442329 0.067648925 4290136320
2.2949522 -0.52034396 0.079567365 4290005760
2.4489162 -0.55512184 0.099474855 4290528000
2.4632235 -0.55828506 0.11456735 4290528000
2.3511376 -0.5328474 0.12305917 4290136320
2.3013189 -0.52150434 0.13374591 4290005760
2.5174906 -0.57033539 0.16074681 4290658560
2.541085 -0.57559508 0.17660585 4290789120
2.4462156 -0.55406213 0.18362038 4290528000
2.381608 -0.53937781 0.19182685 4290266880
2.5992894 -0.58852094 0.22342984 4291050240
2.6103244 -0.59093565 0.23822066 4291050240
2.5352612 -0.5738886 0.24454406 4290789120
2.4472551 -0.55392098 0.24850671 4290528000
2.513365 -0.56878424 0.26774788 4290789120
2.9309518 -0.66305566 0.32654387 4292225280
3.1756639 -0.71824729 0.36887774 4293008640
3.2304351 -0.73052031 0.39012238 4293269760
3.2274203 -0.72973895 0.40418133 4293269760
3.1957066 -0.72247702 0.41403618 4293139200
3.2632487 -0.73762715 0.43643755 4293400320
3.2594516 -0.73666781 0.44906214 4293400320
3.2610378 -0.73692369 0.46190879 4293400320
3.2526248 -0.73492247 0.4727861 4293400320
3.2496266 -0.7341435 0.48386842 4293400320
3.2314911 -0.72994906 0.4920688 4293269760
3.2590802 -0.73607075 0.50669742 4293400320
3.2637613 -0.73702323 0.51728094 4293400320
3.2566664 -0.73531938 0.52539372 4293400320
3.2600486 -0.73597825 0.5345785 4293400320
3.2662933 -0.73728204 0.54363722 4293400320
3.2397141 -0.73118544 0.54655355 4293400320
3.2589726 -0.73542231 0.55655003 4293400320
3.248785 -0.73302132 0.56088734 4293400320
3.24611 -0.73231357 0.56584376 4293400320
3.2463379 -0.73225975 0.5706405 4293400320
3.2504995 -0.73309177 0.57546645 4293400320
3.2499602 -0.7328645 0.57878995 4293400320
3.235589 -0.72952181 0.57895738 4293400320
3.2492118 -0.73248339 0.58345282 4293400320
3.2490063 -0.73233038 0.58478731 4293400320
3.252758 -0.73306793 0.5861479 4293400320
3.2441335 -0.73101932 0.58458924 4293400320
3.2432952 -0.73072326 0.58374751 4293400320
3.2435462 -0.730672 0.582416 4293400320
3.2505403 -0.7321375 0.58160722 4293400320
3.2506371 -0.73205072 0.5788765 4293400320
3.2588291 -0.73378444 0.57690036 4293400320
3.2484078 -0.73133147 0.57095605 4293400320
3.249877 -0.73155248 0.56644523 4293400320
3.2466524 -0.73071784 0.56045687 4293400320
3.2485638 -0.73103768 0.554703 4293400320
3.253185 -0.73196602 0.54875219 4293400320
3.2447245 -0.7299543 0.53996474 4293400320
3.2482111 -0.73062706 0.53254986 4293400320
3.238975 -0.72844118 0.52244651 4293269760
3.2307227 -0.72647679 0.51194543 4293269760
3.2597938 -0.73289436 0.5067066 4293400320
3.258606 -0.73251551 0.49609423 4293400320
3.2553461 -0.73167121 0.48461097 4293400320
2.6164734 -0.58765554 0.32222956 4291050240
2.6192658 -0.58819014 0.31070274 4291050240
2.6107755 -0.58619469 0.2975136 4291050240
2.580241 -0.57925808 0.28166157 4290919680
2.5335131 -0.56869382 0.26410016 4290789120
2.5274434 -0.56724441 0.25074878 4290789120
2.5226698 -0.56608564 0.23730211 4290789120
2.4734323 -0.55496579 0.21968469 4290528000
2.4448953 -0.54848617 0.20407644 4290528000
2.4559693 -0.55087984 0.19164808 4290528000
2.4459746 -0.54855472 0.17735523 4290528000
2.4171407 -0.54201239 0.16171399 4290397440
2.373703 -0.53220278 0.14532268 4290266880
2.4017947 -0.53840595 0.13325028 4290266880
2.3971577 -0.53728288 0.11907466 4290266880
2.3339036 -0.52304459 0.10224155 4290136320
2.3173647 -0.51926154 0.087820835 4290005760
2.3188865 -0.51951945 0.074080624 4290005760
2.3061128 -0.51658005 0.059866119 4290005760
2.1492412 -0.48142028 0.042829446 4289483520
2.2549634 -0.50498015 0.031351421 4289744640
2.2361021 -0.50068361 0.017550714 4289744640
2.1858861 -0.4893806 0.0038934227 4289614080
2.1627767 -0.48413849 -0.009269774 4289483520
2.1995089 -0.49226844 -0.022746516 4289614080
2.1759439 -0.48692575 -0.03567367 4289483520
2.036087 -0.4556101 -0.045705736 4289091840
2.1242933 -0.47523594 -0.06042381 4289352960
2.1994102 -0.4919329 -0.075688168 4289614080
2.1751912 -0.48644769 -0.087788947 4289483520
2.0800498 -0.46513325 -0.096251443 4289222400
2.1838562 -0.4882268 -0.11379684 4289614080
2.2625155 -0.5057016 -0.13098012 4289875200
2.1457913 -0.47957906 -0.13656028 4289483520
2.1378758 -0.47773716 -0.14816773 4289352960
2.2646585 -0.50593877 -0.169567 4289875200
2.2773852 -0.50869668 -0.18305816 4289875200
2.3231232 -0.51881421 -0.19931042 4290005760
2.3136537 -0.51662111 -0.21082452 4290005760
2.2402618 -0.5001806 -0.21587127 4289744640
2.3578498 -0.52630752 -0.23923489 4290136320
2.3703053 -0.52900004 -0.25236812 4290266880
2.3374081 -0.52158749 -0.26031128 4290136320
2.3155165 -0.51662904 -0.2689231 4290005760
2.2700176 -0.50641435 -0.27418804 4289875200
2.4498315 -0.54637706 -0.30687749 4290528000
2.4756899 -0.55204898 -0.32091486 4290658560
2.5073309 -0.55900657 -0.33558658 4290789120
2.5708723 -0.57306254 -0.35453174 4290919680
2.5843747 -0.57597822 -0.36650521 4291050240
2.746954 -0.61206472 -0.39981773 4291572480
2.8335266 -0.63123024 -0.4225595 4291833600
2.9248786 -0.65145326 -0.44615501 4292225280
2.9491427 -0.65674919 -0.45942032 4292355840
2.9941459 -0.66665548 -0.47560185 4292486400
2.979017 -0.66318917 -0.48179987 4292355840
3.0289068 -0.67417824 -0.49803129 4292616960
2.9731319 -0.66167772 -0.49634275 4292355840
3.0134959 -0.67054713 -0.51005512 4292616960
3.0490971 -0.67835563 -0.52254266 4292616960
2.9775667 -0.66236049 -0.51603675 4292486400
2.9998562 -0.66721141 -0.52506351 4292486400
3.0222261 -0.67207885 -0.53356707 4292616960
3.0350626 -0.67482799 -0.53982121 4292616960
3.048955 -0.67781103 -0.54566687 4292747520
3.0571756 -0.67953426 -0.54988629 4292747520
3.0568457 -0.67935926 -0.55193651 4292747520
3.056622 -0.67920816 -0.55336165 4292747520
3.0565057 -0.67908114 -0.55416024 4292747520
3.0382316 -0.6749258 -0.55102456 4292616960
3.0200646 -0.67079562 -0.54726666 4292616960
3.0154626 -0.66967577 -0.54532838 4292616960
2.9878881 -0.6634618 -0.53862429 4292486400
2.951755 -0.65535212 -0.5297963 4292355840
3.0093589 -0.66802722 -0.53711593 4292616960
2.9820755 -0.66188145 -0.52866185 4292486400
3.0286798 -0.67211443 -0.53263527 4292616960
2.9784775 -0.66089135 -0.5190109 4292486400
2.9148564 -0.64669842 -0.50264722 4292225280
2.9200258 -0.64775008 -0.49764675 4292225280
2.8613236 -0.63465327 -0.48132575 4291964160
2.8127427 -0.62380213 -0.46639556 4291833600
2.7357743 -0.60666788 -0.4465476 4291572480
2.6626606 -0.59039217 -0.42721802 4291311360
2.5784664 -0.57166839 -0.40607846 4291050240
2.5381439 -0.56266129 -0.39174527 4290919680
2.4559207 -0.54438329 -0.37091359 4290528000
2.4522991 -0.5435046 -0.36178839 4290528000
2.4351645 -0.53963643 -0.35033965 4290528000
2.4083598 -0.53363019 -0.33727244 4290397440
2.3815434 -0.52762318 -0.32403266 4290266880
2.3459928 -0.51968634 -0.30949733 4290136320
2.3375404 -0.51774418 -0.29836333 4290136320
2.3348944 -0.51708657 -0.28768292 4290136320
2.3167193 -0.51299614 -0.27486897 4290005760
2.294631 -0.50804204 -0.26147357 4290005760
2.3379254 -0.5175398 -0.25511044 4290136320
2.2697587 -0.50240409 -0.23647042 4289875200
2.2426858 -0.49635249 -0.22231057 4289744640
2.2058306 -0.48814154 -0.2072679 4289614080
2.2402909 -0.49568576 -0.19868296 4289744640
2.2412808 -0.49583578 -0.18673785 4289744640
2.1814888 -0.48256341 -0.16986713 4289614080
2.2148736 -0.48986802 -0.16017669 4289614080
2.2122657 -0.4892247 -0.14755207 4289614080
2.1274066 -0.4704257 -0.12980717 4289352960
2.0285754 -0.4485482 -0.11212647 4288961280
2.1798408 -0.48186707 -0.10775121 4289483520
2.1935952 -0.48483559 -0.095547773 4289614080
2.1735461 -0.48034582 -0.081818782 4289483520
2.192529 -0.48446715 -0.069465846 4289614080
2.2505636 -0.49720037 -0.057804853 4289744640
2.247443 -0.4964439 -0.044201732 4289744640
2.1964917 -0.48514125 -0.029951857 4289614080
2.2627418 -0.49968037 -0.017143067 4289875200
2.3265066 -0.51366764 -0.0035129946 4290005760
2.3156879 -0.51121259 0.010532693 4290005760
2.2681923 -0.50067562 0.024036108 4289875200
2.3784692 -0.5249055 0.039602265 4290266880
2.4065266 -0.53101468 0.054569643 4290266880
2.3511171 -0.51873595 0.067401014 4290136320
2.2930622 -0.50587791 0.07940308 4289875200
2.442348 -0.53868407 0.099083118 4290397440
2.4664319 -0.54391289 0.11457361 4290528000
2.3541994 -0.51912874 0.12306514 4290136320
2.3043156 -0.50807613 0.13375175 4290005760
2.5158944 -0.55457425 0.1604415 4290658560
2.5395205 -0.55969691 0.17627326 4290789120
2.4396594 -0.53764606 0.1828946 4290397440
2.3944435 -0.52762365 0.19261791 4290266880
2.606564 -0.57421201 0.22377129 4291050240
2.6185842 -0.57677591 0.23867141 4291050240
2.5239735 -0.55588919 0.24314308 4290789120
2.5496492 -0.56145728 0.25859061 4290789120
2.6270278 -0.57839084 0.27951658 4291180800
3.0053303 -0.66146964 0.33441254 4292486400
3.1992006 -0.70398808 0.37113973 4293139200
3.2346332 -0.71167582 0.39013058 4293269760
3.2354915 -0.71176416 0.40467498 4293269760
3.2143931 -0.70702827 0.41592658 4293139200
3.2587709 -0.71667665 0.43528068 4293400320
3.2676408 -0.7185232 0.44961518 4293400320
3.2604346 -0.71683848 0.46123224 4293400320
3.260716 -0.71679813 0.47335628 4293400320
3.2490122 -0.71412623 0.48315752 4293400320
3.2489376 -0.71400762 0.4940936 4293400320
3.2536526 -0.71493995 0.50520533 4293400320
3.2631698 -0.7169255 0.51652485 4293400320
3.2657158 -0.7173807 0.52617973 4293400320
3.2685602 -0.71790093 0.53528851 4293400320
3.2570317 -0.7152679 0.54140073 4293400320
3.2535534 -0.71440101 0.54818648 4293400320
3.2535632 -0.7142989 0.55491424 4293400320
3.2578127 -0.7151261 0.56172639 4293400320
3.2551324 -0.71443355 0.56669056 4293400320
3.264009 -0.71627408 0.57301342 4293400320
3.2498987 -0.71307588 0.57462335 4293400320
3.2541709 -0.71390653 0.57879823 4293400320
3.2575889 -0.71454936 0.58214939 4293400320
3.2572689 -0.71437287 0.58415157 4293400320
3.2618728 -0.71527457 0.58635271 4293400320
3.248311 -0.71219742 0.58459717 4293400320
3.2531438 -0.71314865 0.58546358 4293400320
3.2474935 -0.71180415 0.58375573 4293400320
3.2525551 -0.71280456 0.58328736 4293400320
3.2451236 -0.71107 0.57989514 4293400320
3.2596552 -0.71414191 0.579741 4293400320
3.2582319 -0.71372163 0.57605731 4293400320
3.2574236 -0.71343571 0.57180977 4293400320
3.2588954 -0.71364826 0.56729209 4293400320
3.2644124 -0.7147451 0.56280434 4293400320
3.2489095 -0.711245 0.5540536 4293400320
3.2525706 -0.71193552 0.54794812 4293400320
3.2537398 -0.71208072 0.54077476 4293400320
3.2331157 -0.70746243 0.52939737 4293269760
3.2286844 -0.70638382 0.52012151 4293269760
3.2300694 -0.70657611 0.51118922 4293269760
3.2591751 -0.71282387 0.50596476 4293400320
3.2541177 -0.71160734 0.49477932 4293400320
3.2508485 -0.71078146 0.48332477 4293400320
2.6149995 -0.57133222 0.32163903 4291050240
2.6139102 -0.57100332 0.30967334 4291050240
2.6228826 -0.57286876 0.29851612 4291050240
2.583569 -0.56420404 0.28166813 4290919680
2.52706 -0.55179292 0.26309314 4290789120
2.52584 -0.55143821 0.25027263 4290789120
2.5259221 -0.55136722 0.23730853 4290789120
2.4814878 -0.54159504 0.22012354 4290658560
2.4295437 -0.53018957 0.20253688 4290397440
2.4445207 -0.53336656 0.19051276 4290528000
2.444253 -0.53322184 0.17700765 4290397440
2.3993213 -0.52335006 0.16031732 4290266880
2.3679826 -0.51644129 0.1447902 4290136320
2.4048882 -0.52439207 0.13325639 4290266880
2.3870625 -0.52042657 0.11842401 4290266880
2.3466711 -0.51155108 0.10267677 4290136320
2.3105836 -0.50361502 0.08745493 4290005760
2.3179648 -0.50513881 0.073960975 4290005760
2.2868903 -0.49829671 0.059291344 4289875200
2.1705694 -0.47291589 0.043209225 4289483520
2.2490711 -0.48990983 0.031232808 4289744640
2.2487502 -0.48976004 0.017635576 4289744640
2.193584 -0.47768736 0.0039090221 4289614080
2.1753302 -0.47364178 -0.0093033249 4289483520
2.1872022 -0.4761444 -0.022588899 4289614080
2.1614311 -0.47046694 -0.03538977 4289483520
2.0816917 -0.45306683 -0.04665057 4289222400
2.1977265 -0.47819707 -0.062404878 4289614080
2.2173462 -0.48237997 -0.076197237 4289614080
2.1682217 -0.47163415 -0.087392889 4289483520
2.1777728 -0.47363079 -0.10060698 4289483520
2.2329028 -0.48552069 -0.11618272 4289744640
2.2468829 -0.48847571 -0.12990843 4289744640
2.2223821 -0.48307937 -0.14122252 4289744640
2.1367207 -0.46441519 -0.14789368 4289352960
2.3098466 -0.50189579 -0.17270887 4290005760
2.3186753 -0.5037291 -0.18611947 4290005760
2.3076005 -0.50124562 -0.19772518 4290005760
2.2981267 -0.4991101 -0.20914167 4290005760
2.239244 -0.48626408 -0.21549238 4289744640
2.3884747 -0.51853168 -0.24201626 4290266880
2.3451543 -0.50905949 -0.24937412 4290136320
2.2986255 -0.4988952 -0.25567311 4290005760
2.2815821 -0.49512231 -0.26465008 4289875200
2.2311902 -0.48412699 -0.26916286 4289744640
2.4199865 -0.5249384 -0.30275619 4290397440
2.4420159 -0.52962452 -0.31615117 4290528000
2.4042294 -0.52135849 -0.32140607 4290397440
2.4543445 -0.53212368 -0.3380636 4290528000
2.4237118 -0.52540863 -0.34333074 4290397440
2.5483692 -0.55230135 -0.37049836 4290919680
2.6080675 -0.56513047 -0.38850558 4291050240
2.6571062 -0.57564962 -0.40486839 4291311360
2.6291237 -0.56950569 -0.40913704 4291180800
2.669497 -0.57814711 -0.42358506 4291311360
2.7147131 -0.58783317 -0.43856865 4291441920
2.7695994 -0.59960705 -0.45488599 4291703040
2.7431176 -0.59378839 -0.45742479 4291572480
2.7092791 -0.58638173 -0.45806739 4291441920
2.7691283 -0.59922338 -0.47403711 4291703040
2.8376911 -0.61394387 -0.49120548 4291964160
2.8112524 -0.60813677 -0.49147764 4291833600
2.8385129 -0.61393058 -0.50054497 4291964160
2.8697033 -0.62057155 -0.50980449 4292094720
2.8075533 -0.60705566 -0.50189203 4291833600
2.8158188 -0.60874665 -0.5058974 4291833600
2.8116634 -0.60775614 -0.50709027 4291833600
2.8114572 -0.60761851 -0.50839955 4291833600
2.8152001 -0.60833341 -0.50982916 4291833600
2.8825903 -0.62278116 -0.52217323 4292094720
2.8268523 -0.61066204 -0.51165688 4291964160
2.7991261 -0.60458893 -0.50562274 4291833600
2.7445354 -0.59272414 -0.49419686 4291572480
2.7609367 -0.59617144 -0.49497166 4291703040
2.6872528 -0.58019537 -0.47911122 4291441920
2.7254469 -0.58834195 -0.48262742 4291572480
2.6702092 -0.57634813 -0.46910182 4291311360
2.714643 -0.58583784 -0.47251233 4291441920
2.6508605 -0.5720073 -0.45662054 4291311360
2.6054368 -0.56213629 -0.44356304 4291050240
2.5600526 -0.55227691 -0.43019134 4290919680
2.5098748 -0.54138821 -0.41574055 4290789120
2.5424542 -0.54832435 -0.41452464 4290919680
2.5020027 -0.53953403 -0.40098014 4290789120
2.466397 -0.53178966 -0.38796911 4290658560
2.4482045 -0.52779597 -0.37740996 4290528000
2.4222956 -0.52214289 -0.3653771 4290397440
2.4089742 -0.51920027 -0.35495529 4290397440
2.4014754 -0.51751149 -0.34506074 4290397440
2.3794606 -0.51270056 -0.33280712 4290266880
2.3574388 -0.50788963 -0.32034904 4290266880
2.3861942 -0.51400059 -0.31438091 4290266880
2.382601 -0.51315391 -0.30370682 4290266880
2.3184519 -0.49928796 -0.28529507 4290005760
2.3012142 -0.49551073 -0.27268317 4290005760
2.3494191 -0.5058009 -0.26735181 4290136320
2.3224275 -0.49992785 -0.25309792 4290005760
2.2677822 -0.48811436 -0.23596032 4289875200
2.2406721 -0.48222023 -0.22182487 4289744640
2.204741 -0.47443298 -0.20689818 4289614080
2.2519059 -0.48449591 -0.19945069 4289744640
2.2577732 -0.48568717 -0.18786271 4289875200
2.1842616 -0.46983343 -0.16986157 4289614080
2.2274413 -0.47903737 -0.16087218 4289744640
2.238493 -0.48134202 -0.14909844 4289744640
2.1437738 -0.46094394 -0.13062978 4289352960
2.0594661 -0.44278607 -0.11367434 4289091840
2.166434 -0.46567607 -0.10695232 4289483520
2.2012649 -0.47308311 -0.095753118 4289614080
2.1699836 -0.46630615 -0.081577532 4289483520
2.1816301 -0.46873841 -0.069031477 4289483520
2.2446229 -0.48218134 -0.057576012 4289744640
2.2454071 -0.48228157 -0.044101391 4289744640
2.2041674 -0.47337216 -0.030011423 4289614080
2.2976017 -0.49333426 -0.017370578 4289875200
2.3294578 -0.50009257 -0.0035070602 4290005760
2.3186247 -0.49770057 0.0105386 4290005760
2.2661798 -0.486393 0.023988893 4289875200
2.3726857 -0.5091424 0.039459892 4290136320
2.4193528 -0.51906723 0.054799449 4290397440
2.3492098 -0.5039708 0.067265943 4290136320
2.3008544 -0.49354437 0.079579063 4290005760
2.4503279 -0.52547991 0.099288337 4290397440
2.4482167 -0.52495366 0.11358543 4290397440
2.3659706 -0.50727385 0.12353189 4290136320
2.3209016 -0.49755597 0.13455287 4290005760
2.5190799 -0.53989536 0.16044791 4290658560
2.5427356 -0.54488033 0.17627974 4290789120
2.4476237 -0.52445489 0.18326683 4290528000
2.383826 -0.51073343 0.19152497 4290266880
2.6098623 -0.55900466 0.22377793 4291050240
2.6121569 -0.55941558 0.23778985 4291050240
2.5369022 -0.54324502 0.24408782 4290789120
2.5664978 -0.54949433 0.25997928 4290919680
2.808424 -0.6011284 0.29847321 4291703040
3.1681261 -0.67791897 0.35211027 4293008640
3.2246251 -0.68989486 0.37362763 4293139200
3.2387211 -0.69280714 0.39013883 4293269760
3.2259903 -0.6899873 0.40298414 4293269760
3.2039011 -0.6851691 0.41405246 4293139200
3.271615 -0.69953126 0.43645418 4293400320
3.2716837 -0.69944423 0.44961193 4293400320
3.2645521 -0.69781953 0.46124056 4293400320
3.264833 -0.69777757 0.47336459 4293400320
3.253114 -0.69517392 0.4831658 4293400320
3.2349329 -0.69119173 0.49135017 4293269760
3.2674282 -0.69802386 0.50671399 4293400320
3.2672875 -0.69789076 0.5165332 4293400320
3.2698362 -0.69833112 0.52618808 4293400320
3.2630265 -0.69677502 0.5337165 4293400320
3.2707934 -0.69832766 0.5430125 4293400320
3.2576566 -0.69542235 0.54819477 4293400320
3.2576656 -0.69532019 0.55492258 4293400320
3.257098 -0.69509476 0.56090391 4293400320
3.2505581 -0.6935963 0.56518942 4293400320
3.2536633 -0.69415325 0.57048541 4293400320
3.2588129 -0.69514531 0.57548302 4293400320
3.258271 -0.69492429 0.57880652 4293400320
3.2530215 -0.69370031 0.58060938 4293400320
3.2575183 -0.694552 0.58346939 4293400320
3.2524943 -0.69337577 0.58393872 4293400320
3.2524014 -0.6932494 0.58460552 4293400320
3.252423 -0.69314718 0.58460581 4293400320
3.2563982 -0.69388604 0.58462912 4293400320
3.2518318 -0.69280672 0.58243257 4293400320
3.2588425 -0.69419068 0.58162379 4293400320
3.2406287 -0.69020766 0.57563931 4293400320
3.2642708 -0.69512844 0.57640833 4293400320
3.2432044 -0.69053918 0.56860536 4293400320
3.2543156 -0.69279319 0.56579095 4293400320
3.2540493 -0.69262725 0.56032026 4293400320
3.2569375 -0.69313163 0.55473381 4293400320
3.2470078 -0.69091135 0.5463317 4293400320
3.2578294 -0.69310105 0.54078305 4293400320
3.2420082 -0.68962902 0.53019583 4293269760
3.2327414 -0.68755013 0.52012974 4293269760
3.2437942 -0.68978757 0.51272631 4293269760
3.2719731 -0.69566083 0.50732338 4293400320
3.2669127 -0.69447434 0.49611083 4293400320
3.2426858 -0.68921894 0.48151362 4293269760
2.670063 -0.56705755 0.32801402 4291311360
2.6259351 -0.55760777 0.31071609 4291050240
2.6174223 -0.55571139 0.29752693 4291050240
2.5868092 -0.54913092 0.28167474 4290919680
2.5302291 -0.53704923 0.26309958 4290789120
2.529007 -0.53670156 0.2502791 4290789120
2.5144761 -0.53353423 0.23594144 4290658560
2.4933698 -0.52897501 0.22090852 4290658560
2.441364 -0.51787281 0.20327532 4290397440
2.4622159 -0.52220237 0.19166061 4290528000
2.4521947 -0.51999384 0.17736772 4290528000
2.3974457 -0.50831765 0.15999675 4290266880
2.374855 -0.50345153 0.14503561 4290266880
2.4078999 -0.51036036 0.13326253 4290266880
2.3851655 -0.50546503 0.11818699 4290266880
2.2876599 -0.48475373 0.099961944 4289875200
2.3183644 -0.49116695 0.087646753 4290005760
2.3394458 -0.49554291 0.074563332 4290005760
2.3119705 -0.48965058 0.059877891 4290005760
2.1586127 -0.45714822 0.04291923 4289483520
2.2567763 -0.47782025 0.031307656 4289744640
2.2515633 -0.47663844 0.017641325 4289744640
2.1914356 -0.46385369 0.0039045815 4289614080
2.1703742 -0.45932645 -0.0092671411 4289483520
2.1816142 -0.46162355 -0.022499841 4289483520
2.18385 -0.46201831 -0.035700854 4289483520
2.0882068 -0.44174525 -0.046731602 4289222400
2.2141659 -0.4682636 -0.062783465 4289614080
2.2435865 -0.4743953 -0.076989941 4289744640
2.1904845 -0.46310869 -0.08816833 4289614080
2.1951554 -0.46401668 -0.10127322 4289614080
2.25035 -0.47558376 -0.11693411 4289744640
2.2633657 -0.47824976 -0.13068807 4289875200
2.2437127 -0.47402474 -0.14238839 4289744640
2.1432934 -0.45276988 -0.14815681 4289352960
2.3312721 -0.49232706 -0.17408159 4290005760
2.3352265 -0.49307844 -0.18720393 4290136320
2.3104801 -0.48778051 -0.19771928 4290005760
2.3058674 -0.48672721 -0.20957708 4290005760
2.232295 -0.4711448 -0.21455373 4289744640
2.3914537 -0.50459504 -0.24201015 4290266880
2.3626788 -0.49845049 -0.25091359 4290136320
2.3936172 -0.50488317 -0.26586834 4290266880
2.2892883 -0.48283249 -0.26520571 4290005760
2.3249781 -0.49026608 -0.28008771 4290005760
2.4230022 -0.51081795 -0.30274999 4290397440
2.4450588 -0.51537561 -0.31614494 4290528000
2.3839359 -0.50242949 -0.31829891 4290266880
2.4574018 -0.51780289 -0.33805731 4290528000
2.4121897 -0.50820774 -0.34127265 4290397440
2.5331333 -0.53356063 -0.36782518 4290789120
2.5599875 -0.53912038 -0.38088036 4290919680
2.6333103 -0.55444825 -0.40074623 4291180800
2.6688693 -0.5618329 -0.41478646 4291311360
2.7044408 -0.56921798 -0.42857867 4291441920
2.6716893 -0.56224328 -0.43109059 4291311360
2.7121673 -0.57065719 -0.44491318 4291441920
2.7855175 -0.58597416 -0.46389768 4291703040
2.736866 -0.57566112 -0.46214145 4291572480
2.7871282 -0.58612418 -0.47651383 4291703040
2.7437544 -0.57692295 -0.4743807 4291572480
2.7989655 -0.58842182 -0.48872024 4291833600
2.7398033 -0.57590955 -0.48256603 4291572480
2.7806964 -0.58440042 -0.49340293 4291703040
2.8033459 -0.58906054 -0.50051349 4291833600
2.8260822 -0.5937376 -0.50710189 4291833600
2.8305955 -0.59459078 -0.50985891 4291964160
2.8400254 -0.59647512 -0.51291275 4291964160
2.8254597 -0.59332699 -0.51104307 4291833600
2.8119581 -0.59040326 -0.50876433 4291833600
2.7561479 -0.57861096 -0.49825916 4291703040
2.8379183 -0.59566081 -0.51197517 4291964160
2.7736232 -0.5820936 -0.49879947 4291703040
2.8155375 -0.5907864 -0.50410986 4291833600
2.7562342 -0.57827049 -0.4907707 4291703040
2.8044057 -0.58827245 -0.49596074 4291833600
2.7500813 -0.57680404 -0.48250103 4291572480
2.7727194 -0.58145648 -0.48199728 4291703040
2.7223871 -0.57082897 -0.46832934 4291572480
2.7001023 -0.56607664 -0.45907038 4291441920
2.65083 -0.555677 -0.44485539 4291311360
2.5909603 -0.54306275 -0.42860496 4291050240
2.5407715 -0.53247839 -0.41373286 4290919680
2.5186415 -0.52776796 -0.40313584 4290789120
2.4733224 -0.51820815 -0.38856936 4290658560
2.447365 -0.51270109 -0.37680903 4290528000
2.438853 -0.51084423 -0.36740834 4290528000
2.4303656 -0.50899321 -0.35765135 4290397440
2.413173 -0.50532287 -0.34630337 4290397440
2.3959842 -0.50165468 -0.33469278 4290397440
2.3690898 -0.49595916 -0.32152504 4290266880
2.4173026 -0.50596094 -0.31806946 4290397440
2.4001198 -0.50229591 -0.30555049 4290397440
2.3358986 -0.48880517 -0.28707552 4290136320
2.3322606 -0.48797327 -0.2760044 4290136320
2.3101211 -0.48327771 -0.26256415 4290005760
2.3535283 -0.4922711 -0.25615454 4290136320
2.2842205 -0.47772819 -0.23736653 4289875200
2.2668269 -0.47402722 -0.224123 4289875200
2.2308621 -0.46645108 -0.20907697 4289744640
2.2644415 -0.47339103 -0.20030428 4289875200
2.2094562 -0.46184835 -0.1836272 4289614080
2.210387 -0.46197534 -0.1716674 4289614080
2.2624178 -0.47276217 -0.16318016 4289875200
2.2510264 -0.47031754 -0.14973935 4289744640
2.1747606 -0.45434427 -0.1323394 4289483520
2.0756946 -0.4336215 -0.11441877 4289222400
2.171582 -0.45354995 -0.10706794 4289483520
2.1773548 -0.45468765 -0.094599023 4289483520
2.1677699 -0.45262414 -0.081389844 4289483520
2.1843219 -0.45600802 -0.069025889 4289483520
2.2562001 -0.47091904 -0.057793342 4289744640
2.2530708 -0.47019905 -0.044190235 4289744640
2.2019911 -0.45949093 -0.02994062 4289614080
2.2781959 -0.47529608 -0.01720277 4289875200
2.3323295 -0.4865005 -0.0035010928 4290005760
2.3263776 -0.48519093 0.01056802 4290005760
2.2640779 -0.47215089 0.023941686 4289744640
2.3893137 -0.49815106 0.039696913 4290266880
2.4076517 -0.50189561 0.054470107 4290266880
2.3521037 -0.4902637 0.067271963 4290136320
2.2939038 -0.47808337 0.079244673 4289875200
2.4582365 -0.51220095 0.099493615 4290528000
2.4686847 -0.51429993 0.11440413 4290528000
2.3503056 -0.48960552 0.12256523 4290136320
2.3149612 -0.48218474 0.13404757 4290005760
2.5221798 -0.52519816 0.16045438 4290658560
2.5161004 -0.52385783 0.17421989 4290658560
2.450635 -0.51017427 0.18327311 4290528000
2.3955429 -0.49865043 0.19223763 4290266880
2.6091692 -0.54296738 0.22344977 4291050240
2.6202447 -0.54518896 0.23824067 4291050240
2.6235571 -0.54579705 0.25213549 4291050240
2.69277 -0.56009245 0.27246138 4291311360
2.8956265 -0.60213721 0.30738214 4291964160
3.2349465 -0.6725046 0.35911137 4293269760
3.2559118 -0.67675781 0.37680131 4293269760
3.261591 -0.67783654 0.3924222 4293269760
3.2348115 -0.67217797 0.40359923 4293269760
3.2126923 -0.66748792 0.41468811 4293139200
3.2804861 -0.68145472 0.43710992 4293400320
3.270932 -0.67937094 0.44896543 4293400320
3.2685587 -0.67877692 0.46124893 4293400320
3.2765102 -0.6803242 0.47448453 4293400320
3.2532294 -0.6753943 0.48259881 4293269760
3.2570293 -0.67608029 0.4941102 4293400320
3.2569141 -0.67595428 0.50447184 4293400320
3.2625852 -0.67702723 0.51516563 4293400320
3.2641726 -0.67725331 0.52464098 4293400320
3.2718611 -0.67874318 0.53451502 4293400320
3.2651372 -0.67724639 0.54141736 4293400320
3.2568181 -0.67541939 0.54739076 4293400320
3.2664871 -0.67731816 0.55575299 4293400320
3.2659166 -0.67709559 0.56174308 4293400320
3.2584014 -0.67543495 0.56586862 4293400320
3.2672999 -0.6771723 0.57218468 4293400320
3.253154 -0.67413914 0.57378864 4293400320
3.2661197 -0.67671722 0.5794999 4293400320
3.2570038 -0.67472517 0.58061773 4293400320
3.2566826 -0.67455286 0.5826146 4293400320
3.2612972 -0.67540127 0.58481222 4293400320
3.2515588 -0.67328054 0.58374774 4293400320
3.25158 -0.67317837 0.58374804 4293400320
3.2652042 -0.67588836 0.58550262 4293400320
3.2558091 -0.67383856 0.58244091 4293400320
3.2531807 -0.67318767 0.57991177 4293400320
3.2532744 -0.67309922 0.57718891 4293400320
3.2779117 -0.67808163 0.5781194 4293400320
3.2655077 -0.67540985 0.57182646 4293400320
3.2534654 -0.67281342 0.56496066 4293400320
3.2628541 -0.67464334 0.56115937 4293400320
3.2569685 -0.67331845 0.55407023 4293400320
3.2654693 -0.67496371 0.54877716 4293400320
3.2618084 -0.67409778 0.54079139 4293400320
3.2508025 -0.67171592 0.53099436 4293400320
3.2415257 -0.66969132 0.52091581 4293269760
3.2525935 -0.67186451 0.51349908 4293269760
3.2720935 -0.67577618 0.50673163 4293400320
3.2708995 -0.67541808 0.4961192 4293400320
3.2637486 -0.6738314 0.48406059 4293400320
2.7182672 -0.5607397 0.33354214 4291441920
2.6388655 -0.54429179 0.31187403 4291180800
2.624506 -0.54124302 0.29797629 4291050240
2.5899615 -0.5340392 0.28168136 4290919680
2.5381839 -0.52329022 0.26361284 4290789120
2.5223389 -0.51994026 0.24932039 4290789120
2.5175388 -0.5188641 0.23594789 4290658560
2.4876242 -0.51262093 0.22013626 4290658560
2.449218 -0.50463301 0.2036884 4290397440
2.4554472 -0.50582802 0.19090584 4290528000
2.4502947 -0.50468206 0.17702018 4290397440
2.3964541 -0.49352577 0.15974154 4290266880
2.3777452 -0.4895952 0.1450417 4290266880
2.4108298 -0.49631137 0.13326871 4290266880
2.3880675 -0.49154854 0.11819311 4290266880
2.295336 -0.47241104 0.10018248 4289875200
2.3123744 -0.47583005 0.087318033 4290005760
2.3325 -0.47988194 0.074255399 4290005760
2.2925363 -0.47159246 0.059303068 4289875200
2.1710308 -0.44656324 0.043121826 4289483520
2.2595196 -0.46465212 0.031313449 4289744640
2.2582178 -0.46430486 0.017678794 4289744640
2.1940985 -0.4510664 0.0039102077 4289614080
2.1867254 -0.44947585 -0.009316178 4289483520
2.1992352 -0.45196468 -0.022644158 4289614080
2.18996 -0.44998434 -0.035750691 4289483520
2.1103306 -0.43357667 -0.047157966 4289222400
2.2364395 -0.45935944 -0.063326597 4289744640
2.2609966 -0.46431464 -0.077483125 4289744640
2.2068479 -0.45313579 -0.088709362 4289614080
2.2262006 -0.4570238 -0.10256634 4289614080
2.2853677 -0.46906847 -0.11859385 4289875200
2.2846961 -0.46885014 -0.1317481 4289875200
2.2611012 -0.46393666 -0.14330749 4289744640
2.1742394 -0.44606814 -0.15009856 4289483520
2.3575494 -0.4835259 -0.17581698 4290136320
2.3712659 -0.48625103 -0.18984595 4290136320
2.3318307 -0.4780958 -0.19929257 4290005760
2.3223245 -0.47606847 -0.21080674 4290005760
2.2584107 -0.4629091 -0.21678697 4289744640
2.4275005 -0.49742299 -0.24534337 4290397440
2.3743117 -0.48645845 -0.25183478 4290266880
2.3461623 -0.48061863 -0.2602933 4290136320
2.3154259 -0.4742519 -0.26789474 4290005760
2.3462813 -0.48047951 -0.28229952 4290136320
2.4492769 -0.50145131 -0.30564842 4290528000
2.4713476 -0.50587702 -0.31914321 4290528000
2.493397 -0.51029706 -0.33246636 4290658560
2.5484469 -0.52145797 -0.35012051 4290789120
2.6306303 -0.53815776 -0.37164193 4291180800
2.745163 -0.56145912 -0.39805108 4291572480
2.8148851 -0.57560223 -0.41820323 4291833600
2.9065907 -0.59422922 -0.44170061 4292094720
2.9625607 -0.60555524 -0.4597683 4292355840
2.9782255 -0.60865146 -0.47129682 4292355840
2.9814394 -0.60920596 -0.48037618 4292355840
3.0073304 -0.61438739 -0.4926298 4292486400
2.979404 -0.60858864 -0.49551719 4292355840
3.015085 -0.61576569 -0.50840479 4292486400
3.0653174 -0.62590808 -0.52334279 4292747520
2.9751596 -0.60742217 -0.51368278 4292355840
2.9975345 -0.61188394 -0.52268678 4292486400
3.019989 -0.61636072 -0.53117031 4292486400
3.0560458 -0.62360829 -0.54150563 4292616960
3.0690212 -0.62615067 -0.54718965 4292747520
3.050245 -0.62222368 -0.54658252 4292616960
2.9658773 -0.60493737 -0.53353035 4292355840
3.059339 -0.62387449 -0.5517745 4292747520
3.0640457 -0.62473238 -0.55344081 4292747520
3.0495615 -0.621683 -0.55100119 4292616960
3.0216753 -0.61590666 -0.54550445 4292616960
3.0035434 -0.61211777 -0.54113978 4292486400
2.9806876 -0.60736901 -0.53531384 4292355840
3.0712156 -0.62569207 -0.54913235 4292747520
3.0302269 -0.61725426 -0.53880644 4292616960
2.9980137 -0.61060435 -0.52949011 4292486400
3.0351326 -0.61805701 -0.53176737 4292616960
2.9895709 -0.60869527 -0.51898801 4292486400
3.0275495 -0.61632115 -0.5200873 4292616960
3.0201418 -0.61471891 -0.51274794 4292486400
2.9554486 -0.6014744 -0.49526545 4292355840
2.8905094 -0.58818424 -0.47746867 4292094720
2.7982857 -0.56935471 -0.45501828 4291703040
2.711843 -0.55170566 -0.43346176 4291441920
2.6348619 -0.53598416 -0.41338512 4291180800
2.5895643 -0.52670211 -0.3981654 4291050240
2.5502315 -0.51863438 -0.38367912 4290919680
2.4478393 -0.49776661 -0.35977843 4290528000
2.4442203 -0.49695575 -0.35032094 4290528000
2.43188 -0.49437523 -0.33928072 4290397440
2.4001124 -0.4878532 -0.32532769 4290397440
2.443537 -0.49658993 -0.32112083 4290528000
2.4263453 -0.49302688 -0.3085039 4290397440
2.3620589 -0.47991231 -0.28992766 4290136320
2.3584285 -0.47910342 -0.27875182 4290136320
2.3314035 -0.47355103 -0.26465255 4290136320
2.3797448 -0.48328072 -0.258683 4290266880
2.3152404 -0.47013187 -0.2402855 4290005760
2.288084 -0.46455699 -0.22594102 4289875200
2.2569644 -0.45818073 -0.21125561 4289744640
2.2857122 -0.4639371 -0.20193119 4289875200
2.235553 -0.45370567 -0.18555954 4289744640
2.2364945 -0.45382854 -0.17347309 4289744640
2.2041452 -0.44720894 -0.15880105 4289614080
2.2820902 -0.46292645 -0.15160877 4289875200
2.1920447 -0.44462559 -0.13322091 4289614080
2.0977578 -0.42547154 -0.11548439 4289222400
2.2025766 -0.44662505 -0.10845128 4289614080
2.1997013 -0.4459767 -0.095443599 4289614080
2.1899579 -0.44393882 -0.082112744 4289483520
2.1869395 -0.44326219 -0.069020271 4289483520
2.2402861 -0.45398808 -0.057316639 4289744640
2.2606697 -0.45804355 -0.044279028 4289744640
2.2046287 -0.44664216 -0.029934956 4289614080
2.2809241 -0.46200308 -0.017196909 4289875200
2.3302212 -0.47190112 -0.0034890228 4290005760
2.3242619 -0.47062641 0.010550513 4290005760
2.2716887 -0.45993078 0.024000537 4289875200
2.3823724 -0.48222986 0.039538078 4290136320
2.4056327 -0.48685804 0.054364443 4290266880
2.3549175 -0.47654 0.067278013 4290136320
2.2966478 -0.464699 0.079250574 4289875200
2.4611764 -0.49785858 0.099499941 4290528000
2.4716365 -0.49989671 0.11441048 4290528000
2.362905 -0.47786891 0.12308326 4290136320
2.3079422 -0.46670207 0.13348545 4290005760
2.5251942 -0.51048315 0.16046086 4290658560
2.5449944 -0.51440269 0.17602153 4290789120
2.4623613 -0.49765179 0.18393826 4290528000
2.3896096 -0.48289934 0.19153722 4290266880
2.6074014 -0.52676016 0.22303788 4291050240
2.6184919 -0.52891773 0.23780327 4291050240
2.7012303 -0.54552317 0.25930917 4291311360
2.9301741 -0.59160292 0.29617116 4292094720
3.0222871 -0.61008346 0.3204695 4292486400
3.2703846 -0.65999991 0.36262476 4293269760
3.2646663 -0.65874726 0.37737319 4293269760
3.2654815 -0.65881139 0.3924306 4293269760
3.2435346 -0.65428919 0.40421441 4293269760
3.2116604 -0.64776826 0.41406891 4293139200
3.2795367 -0.66134053 0.43647102 4293400320
3.2884331 -0.66303068 0.45084 4293400320
3.2773097 -0.660689 0.4619422 4293400320
3.2668262 -0.65847653 0.47252616 4293400320
3.2794039 -0.66090661 0.48591325 4293400320
3.2609093 -0.65708196 0.4941186 4293400320
3.2704859 -0.658907 0.50598061 4293400320
3.2703457 -0.65877622 0.51578557 4293400320
3.2777436 -0.6601615 0.52620488 4293400320
3.2670438 -0.65790606 0.53310108 4293400320
3.2641852 -0.65722787 0.54062402 4293400320
3.2655308 -0.65739495 0.54821151 4293400320
3.2655387 -0.65729272 0.55493933 4293400320
3.2553005 -0.65513062 0.559259 4293400320
3.2622774 -0.65642875 0.56587702 4293400320
3.2615228 -0.65617257 0.5705021 4293400320
3.261853 -0.65613407 0.57464838 4293400320
3.2613096 -0.65591973 0.57796699 4293400320
3.2608757 -0.65572715 0.58062613 4293400320
3.2740734 -0.65827173 0.58503985 4293400320
3.2603447 -0.6554088 0.58395547 4293400320
3.2554224 -0.65431428 0.58375609 4293400320
3.2457864 -0.65227377 0.58202416 4293400320
3.2594261 -0.6549046 0.58378077 4293400320
3.2509842 -0.65310353 0.5808956 4293400320
3.261873 -0.65518081 0.58078033 4293400320
3.253273 -0.65334791 0.57651228 4293400320
3.2682765 -0.65624899 0.57574403 4293400320
3.2548878 -0.65345567 0.56929839 4293400320
3.2660255 -0.6555801 0.56647855 4293400320
3.2667253 -0.65561116 0.56116778 4293400320
3.2608323 -0.6543206 0.55407864 4293400320
3.2693424 -0.65591633 0.54878557 4293400320
3.2559984 -0.65313268 0.53919625 4293400320
3.2498162 -0.65178424 0.53021252 4293269760
3.2405255 -0.64981347 0.52014637 4293269760
3.2467589 -0.65095168 0.51197857 4293269760
3.2662771 -0.6547491 0.50523961 4293400320
3.2660465 -0.65459156 0.49480441 4293400320
3.2627635 -0.65382284 0.4833498 4293400320
2.802695 -0.56111795 0.34351298 4291703040
2.6717589 -0.53484774 0.31539926 4291311360
2.6237135 -0.52515268 0.2975404 4291050240
2.5793746 -0.51620156 0.28020304 4290919680
2.5324066 -0.50672805 0.2627072 4290789120
2.5302026 -0.50619936 0.2498095 4290789120
2.5205162 -0.50417638 0.23595437 4290658560
2.4807961 -0.49615678 0.21927747 4290528000
2.4472268 -0.48936781 0.20328788 4290397440
2.4583497 -0.4915022 0.19091217 4290528000
2.4531906 -0.49038625 0.17702648 4290397440
2.412986 -0.48227751 0.16066255 4290266880
2.3805544 -0.47572228 0.14504783 4290266880
2.4087815 -0.48126888 0.13300358 4290266880
2.390888 -0.47761539 0.11819927 4290266880
2.2892287 -0.4572601 0.09980198 4289875200
2.323925 -0.46409655 0.087658681 4290005760
2.3303525 -0.4652957 0.074104428 4290005760
2.2952425 -0.4582161 0.05930898 4289875200
2.1686907 -0.43291831 0.043028884 4289483520
2.2661085 -0.45224965 0.031374574 4289744640
2.2608824 -0.45112851 0.017684616 4289744640
2.196687 -0.43826383 0.003915865 4289614080
2.173152 -0.43349987 -0.0092463363 4289483520
2.2127678 -0.4413099 -0.022747874 4289614080
2.2160778 -0.44189048 -0.036121946 4289614080
2.1363516 -0.42594567 -0.047670536 4289352960
2.2577033 -0.45001641 -0.063842155 4289744640
2.257319 -0.44986019 -0.077262096 4289744640
2.2378697 -0.44591188 -0.089835949 4289744640
2.2474399 -0.44773614 -0.10341146 4289744640
2.3027532 -0.45865515 -0.11934497 4289875200
2.3108892 -0.46019146 -0.13308847 4290005760
2.2872589 -0.45541316 -0.1447814 4289875200
2.2051792 -0.43902096 -0.15204014 4289614080
2.312999 -0.46036673 -0.17230083 4290005760
2.3926361 -0.47610626 -0.19131956 4290266880
2.3678081 -0.47109088 -0.20211247 4290136320
2.3631608 -0.47008502 -0.21424261 4290136320
2.2893884 -0.45535445 -0.21948647 4289875200
2.3831327 -0.47388461 -0.24058567 4290266880
2.3966169 -0.47647786 -0.25388917 4290266880
2.4422419 -0.48544866 -0.27059561 4290397440
2.3415403 -0.46538293 -0.27058363 4290136320
2.3860581 -0.4741331 -0.28672892 4290266880
2.5411289 -0.50480813 -0.31670111 4290789120
2.6101995 -0.51841772 -0.33662465 4291050240
2.6679184 -0.52977192 -0.35525292 4291311360
2.7290535 -0.5417996 -0.37442547 4291441920
2.8269405 -0.5611077 -0.39883512 4291833600
3.0633225 -0.6078555 -0.44355366 4292616960
3.1642456 -0.62774748 -0.46943763 4293008640
3.1860342 -0.6319558 -0.48350468 4293008640
3.2170634 -0.63799316 -0.49859473 4293139200
3.2343905 -0.6413151 -0.51114839 4293269760
3.2333114 -0.64099169 -0.52026284 4293269760
3.2295723 -0.64014196 -0.52833962 4293269760
3.2129681 -0.63674629 -0.533656 4293139200
3.1999972 -0.63407105 -0.53888822 4293139200
3.1802566 -0.63005745 -0.54228818 4293139200
3.1325045 -0.62050384 -0.54015934 4292878080
3.1364896 -0.62118739 -0.54622555 4292878080
3.0664175 -0.6072247 -0.53868365 4292747520
3.0802753 -0.60986292 -0.54514575 4292747520
3.1029258 -0.61423886 -0.55256993 4292878080
3.0928195 -0.61213857 -0.55354297 4292747520
3.1021452 -0.61387968 -0.55733979 4292878080
3.1019158 -0.61373234 -0.558779 4292878080
3.0873044 -0.61074388 -0.55697566 4292747520
3.0824633 -0.60968667 -0.55627757 4292747520
3.0690365 -0.60693425 -0.55338508 4292747520
3.1336834 -0.61960053 -0.5638783 4292878080
3.124341 -0.61765444 -0.56040436 4292878080
3.1715209 -0.62686723 -0.56636608 4293008640
3.1955652 -0.63151079 -0.56748235 4293139200
3.2177017 -0.63577658 -0.56754923 4293269760
3.2334394 -0.63877875 -0.5657807 4293269760
3.2342315 -0.63883168 -0.56072074 4293269760
3.2324157 -0.63837045 -0.55456096 4293269760
3.2244854 -0.63670379 -0.54673088 4293269760
3.2100885 -0.63376278 -0.53722179 4293139200
3.1832159 -0.62836331 -0.52510452 4293139200
3.1206667 -0.61593318 -0.50673389 4292878080
2.964184 -0.58499384 -0.47315127 4292355840
2.8150592 -0.55551451 -0.44107258 4291833600
2.7265844 -0.53799456 -0.41869047 4291441920
2.6532581 -0.52346444 -0.39867172 4291180800
2.5777738 -0.50851405 -0.37838119 4290919680
2.4703927 -0.48728698 -0.35364458 4290528000
2.448328 -0.48286584 -0.34116611 4290528000
2.4213934 -0.47748747 -0.32781684 4290397440
