# .PCD v0.7 - Point Cloud Data file format
VERSION 0.7
FIELDS x y z rgba
SIZE 4 4 4 4
TYPE F F F U
COUNT 1 1 1 1
WIDTH 1076
HEIGHT 1
VIEWPOINT 0 0 0 1 0 0 0
POINTS 1076
DATA ascii
3.3259494 -0.20476159 0.14289376 4293269760
3.2921345 -0.20257187 0.1224226 4293139200
3.3190141 -0.20410757 0.10412274 4293269760
3.3161783 -0.20381954 0.084631756 4293269760
3.3202913 -0.20395745 0.065218419 4293269760
3.2945099 -0.20226432 0.045268446 4293139200
3.3016167 -0.20258588 0.025835428 4293139200
3.3101072 -0.20299156 0.0062914719 4293139200
3.2716134 -0.20052421 -0.013181146 4293008640
3.2978959 -0.20201749 -0.032817908 4293139200
3.3129194 -0.2028214 -0.052555613 4293269760
3.3116937 -0.20263258 -0.072065391 4293139200
3.279294 -0.20054229 -0.090629533 4293139200
3.3155086 -0.20263731 -0.11100155 4293269760
3.3297832 -0.20339309 -0.13081972 4293269760
3.3402052 -0.20391335 -0.15049055 4293269760
3.2884316 -0.20064767 -0.16697502 4293139200
3.3115566 -0.20194148 -0.18690221 4293269760
3.3309958 -0.20300974 -0.20666063 4293269760
3.3310645 -0.20289984 -0.22510754 4293269760
3.3151271 -0.20181812 -0.24214591 4293269760
3.3378232 -0.20308228 -0.26176968 4293269760
3.353085 -0.20389411 -0.2807301 4293400320
3.3603666 -0.20422125 -0.29883641 4293400320
3.3371434 -0.20269983 -0.31382915 4293400320
3.3335807 -0.20237067 -0.3301852 4293269760
3.3451042 -0.20295496 -0.34770691 4293400320
3.343147 -0.20272328 -0.36349377 4293400320
3.3422673 -0.20255703 -0.37898147 4293400320
3.3224347 -0.20124595 -0.39180979 4293269760
3.3539217 -0.20303535 -0.41028944 4293400320
3.3652971 -0.20360911 -0.42604259 4293530880
3.370837 -0.20383032 -0.44065231 4293530880
3.3584342 -0.20296974 -0.45239928 4293400320
3.364872 -0.20324543 -0.46614462 4293530880
3.3237045 -0.20065424 -0.47265407 4293400320
3.3304684 -0.2009508 -0.48530379 4293400320
3.3282881 -0.20070915 -0.49611726 4293400320
3.3372047 -0.20113505 -0.50803739 4293400320
3.3443036 -0.20145145 -0.51915038 4293400320
3.3423903 -0.20122644 -0.52828783 4293400320
3.3340435 -0.20061572 -0.5357762 4293400320
3.3439257 -0.20109937 -0.54557449 4293400320
3.3371103 -0.20058155 -0.55203271 4293400320
3.3346672 -0.2003265 -0.55855453 4293400320
3.3291173 -0.19988587 -0.56389475 4293400320
3.3076496 -0.19849311 -0.56584263 4293400320
3.3033888 -0.19813147 -0.57002956 4293400320
3.2941101 -0.19747038 -0.57267088 4293269760
3.2935147 -0.19732913 -0.57613993 4293269760
3.2930298 -0.19719484 -0.57895571 4293269760
3.2701972 -0.19572684 -0.57715786 4293269760
3.2923999 -0.19694763 -0.58261657 4293269760
3.2873428 -0.19654177 -0.58258814 4293269760
3.292232 -0.19672939 -0.58363813 4293269760
3.3008919 -0.19714163 -0.58467269 4293400320
3.3094625 -0.19754836 -0.58500439 4293400320
3.3186202 -0.19798981 -0.58474857 4293400320
3.320539 -0.19800048 -0.58253032 4293400320
3.3308527 -0.19851041 -0.58109176 4293400320
3.3385303 -0.19886339 -0.57849801 4293400320
3.3243449 -0.19791792 -0.57145941 4293400320
3.3360116 -0.19850805 -0.56819451 4293400320
3.3423948 -0.19878437 -0.56334203 4293400320
3.3322871 -0.19808282 -0.55507052 4293400320
3.3262081 -0.19762096 -0.54686004 4293400320
3.3225255 -0.19730172 -0.53843331 4293400320
3.318629 -0.19697033 -0.52937025 4293400320
3.3016996 -0.19586831 -0.51767921 4293269760
3.2973182 -0.1955097 -0.50741726 4293269760
3.3381035 -0.19782145 -0.50340003 4293400320
3.3462484 -0.19820262 -0.4937427 4293400320
3.3379993 -0.19761553 -0.48111054 4293400320
3.3239088 -0.19668442 -0.46717051 4293400320
3.3062339 -0.19554295 -0.45231533 4293269760
3.3124683 -0.19581252 -0.44025603 4293269760
3.3210604 -0.19622089 -0.42795491 4293269760
3.3344431 -0.19691117 -0.41569874 4293400320
3.3018889 -0.19489646 -0.39734715 4293269760
3.2959907 -0.19445239 -0.38192043 4293269760
3.3207791 -0.1958137 -0.36952949 4293269760
3.3436179 -0.19705915 -0.35629082 4293400320
3.3343465 -0.1964168 -0.33918145 4293269760
3.2808578 -0.19317843 -0.31752023 4293139200
3.3163059 -0.19516373 -0.30418119 4293269760
3.3049374 -0.19440046 -0.28610516 4293269760
3.3134449 -0.19480354 -0.2694464 4293269760
3.27774 -0.19261493 -0.2490547 4293139200
3.3119965 -0.19452699 -0.2336971 4293269760
3.3192527 -0.19485626 -0.21596165 4293269760
3.3161364 -0.19457817 -0.19729765 4293269760
3.3184557 -0.19461833 -0.17874746 4293269760
3.2924445 -0.19300206 -0.15862 4293139200
3.3122487 -0.19406472 -0.14055432 4293269760
3.3089123 -0.19377469 -0.1212669 4293139200
3.2815883 -0.19208452 -0.10115446 4293139200
3.3062639 -0.19343023 -0.082541719 4293139200
3.3269572 -0.19454232 -0.063477069 4293269760
3.3243256 -0.19429351 -0.043799236 4293269760
3.3061583 -0.19313972 -0.023997407 4293139200
3.3294988 -0.19440424 -0.0044345143 4293269760
3.3509154 -0.19555548 0.015398408 4293269760
3.3215847 -0.19375299 0.034923848 4293269760
3.3390422 -0.19467294 0.05483925 4293269760
3.3494029 -0.19517939 0.074739791 4293269760
3.3631501 -0.19588195 0.094775341 4293400320
3.3036916 -0.19233295 0.11236554 4293139200
3.3409264 -0.19439904 0.13300556 4293269760
3.3596952 -0.19539177 0.15308516 4293400320
3.3392351 -0.19410887 0.17119464 4293269760
3.2850177 -0.19087084 0.18695791 4293139200
3.3519611 -0.19465362 0.20949695 4293400320
3.3627806 -0.19518326 0.22872324 4293400320
3.3495979 -0.19432332 0.24604988 4293400320
3.2712324 -0.18969415 0.25781688 4293139200
3.3796194 -0.19586478 0.28419438 4293530880
3.3837261 -0.196004 0.30206761 4293530880
3.3633866 -0.1947311 0.31733853 4293400320
3.3309426 -0.19276056 0.33084869 4293269760
3.2445092 -0.18767707 0.33803964 4293008640
3.3610089 -0.19429967 0.36615363 4293400320
3.3584447 -0.19405346 0.38141438 4293400320
3.3539467 -0.19369583 0.39599526 4293400320
3.317615 -0.19150548 0.40618983 4293269760
3.3044524 -0.19065027 0.41855121 4293269760
3.3560781 -0.1935218 0.43880749 4293400320
3.3607156 -0.19368897 0.45264676 4293530880
3.3658323 -0.19388315 0.4660736 4293530880
3.3520849 -0.19299352 0.47632468 4293400320
3.3406942 -0.19223969 0.48627722 4293400320
3.3221087 -0.19107355 0.494524 4293400320
3.3596089 -0.19312391 0.51061255 4293530880
3.3610029 -0.19310267 0.52074373 4293530880
3.357172 -0.19278181 0.52945745 4293530880
3.3551829 -0.19256629 0.53783363 4293530880
3.352258 -0.19229709 0.54542428 4293530880
3.3501709 -0.19207564 0.55250621 4293530880
3.3445497 -0.19165201 0.55834627 4293400320
3.3377523 -0.19116125 0.56331539 4293400320
3.3457205 -0.19151355 0.57012075 4293530880
3.3459306 -0.19142236 0.5749504 4293530880
3.350167 -0.19156046 0.5798049 4293530880
3.3313899 -0.19038622 0.57998139 4293400320
3.3496177 -0.19132091 0.58591878 4293530880
3.339438 -0.19063668 0.58620608 4293400320
3.3342924 -0.19023925 0.58668077 4293400320
3.3341808 -0.19012809 0.58735037 4293400320
3.3435345 -0.19055463 0.58899814 4293530880
3.3436584 -0.1904559 0.58832729 4293530880
3.3478181 -0.19058597 0.58767414 4293530880
3.3539774 -0.1908289 0.58667666 4293530880
3.3599644 -0.19106135 0.58495182 4293530880
3.353579 -0.19059177 0.58038783 4293530880
3.3424795 -0.1898552 0.57434797 4293530880
3.3547845 -0.19044416 0.57165551 4293530880
3.3553557 -0.19036803 0.56627601 4293530880
3.3548374 -0.19022992 0.56005162 4293530880
3.3530705 -0.19002096 0.55297065 4293530880
3.3538542 -0.18995588 0.54566902 4293530880
3.3327708 -0.1886559 0.53422314 4293400320
3.3282368 -0.18829077 0.52487475 4293400320
3.3350759 -0.18856698 0.51670671 4293400320
3.3509097 -0.18934937 0.50927109 4293400320
3.3555498 -0.18949996 0.49948582 4293530880
3.3482542 -0.18897809 0.48735869 4293400320
3.3016717 -0.18564346 0.39771095 4293269760
3.3345788 -0.18737639 0.38691282 4293400320
3.352174 -0.18824933 0.373676 4293400320
3.3416476 -0.18754676 0.35685161 4293400320
3.3072727 -0.18551061 0.33729318 4293269760
3.3380742 -0.18712041 0.32402721 4293400320
3.3348892 -0.18682903 0.30696234 4293269760
3.3142178 -0.18556125 0.28806701 4293269760
3.30059 -0.18468782 0.26964289 4293139200
3.3084006 -0.18501081 0.25270477 4293269760
3.3256581 -0.18585965 0.23607619 4293269760
3.3311696 -0.18605292 0.21822903 4293269760
3.3006845 -0.18424182 0.19791751 4293139200
3.3334014 -0.18594888 0.18117307 4293269760
3.3450649 -0.18648304 0.1628328 4293269760
3.347034 -0.18647763 0.1437632 4293269760
3.298245 -0.18365337 0.12261821 4293139200
3.3251343 -0.18503229 0.10428946 4293269760
3.3083239 -0.18398561 0.084410474 4293139200
3.3212018 -0.18458562 0.065223508 4293269760
3.3056135 -0.18360786 0.045416694 4293139200
3.3127232 -0.18388766 0.025924698 4293139200
3.3212161 -0.18424352 0.0063216654 4293269760
3.2827084 -0.1820001 -0.01321019 4293139200
3.2940226 -0.18251228 -0.032759838 4293139200
3.3090508 -0.18322881 -0.052468013 4293139200
3.3178072 -0.18359819 -0.072163589 4293269760
3.2993689 -0.18246715 -0.091140307 4293139200
3.325017 -0.18376739 -0.11127109 4293269760
3.3358984 -0.18425253 -0.13100517 4293269760
3.3463221 -0.1847118 -0.15070465 4293269760
3.2945292 -0.18174754 -0.1672177 4293139200
3.3166628 -0.18285149 -0.18711692 4293269760
3.3294799 -0.18344212 -0.206488 4293269760
3.3281255 -0.18325377 -0.22482452 4293269760
3.3112657 -0.18221472 -0.24177405 4293269760
3.3489029 -0.18416582 -0.26253837 4293400320
3.3581948 -0.18456087 -0.28105277 4293400320
3.3484817 -0.18391439 -0.29767275 4293400320
3.348208 -0.1837855 -0.31475189 4293400320
3.3347018 -0.18293285 -0.33017573 4293269760
3.3551674 -0.18393868 -0.34862408 4293400320
3.3541973 -0.18377207 -0.36456081 4293400320
3.3483505 -0.18333942 -0.37953308 4293400320
3.3334668 -0.18241417 -0.39296696 4293400320
3.3689232 -0.18423568 -0.41197336 4293530880
3.3664253 -0.18398629 -0.42603302 4293530880
3.3719664 -0.18417521 -0.44064274 4293530880
3.3783619 -0.18441053 -0.45491686 4293530880
3.3709438 -0.18389411 -0.46681866 4293530880
3.3297596 -0.1815425 -0.47334602 4293400320
3.3276293 -0.18131606 -0.4847196 4293400320
3.3432279 -0.18205281 -0.49816453 4293400320
3.3333828 -0.18140791 -0.50727808 4293400320
3.3454199 -0.18195082 -0.51914084 4293400320
3.3385735 -0.1814696 -0.52750045 4293400320
3.3411932 -0.18150197 -0.53673506 4293400320
3.3351841 -0.18106729 -0.54396027 4293400320
3.3421626 -0.18133603 -0.55267382 4293400320
3.3210034 -0.18008307 -0.55607551 4293400320
3.3302248 -0.18047367 -0.56388527 4293400320
3.3136711 -0.17947184 -0.56667352 4293400320
3.309407 -0.17913479 -0.5708676 4293400320
3.3037806 -0.17872484 -0.57414955 4293400320
3.2946079 -0.17812437 -0.57613057 4293269760
3.2892044 -0.17772792 -0.57808346 4293269760
3.2860332 -0.17745237 -0.5797469 4293269760
3.2846403 -0.17727305 -0.58104414 4293269760
3.284498 -0.17716141 -0.58188307 4293269760
3.2884052 -0.1772678 -0.5827589 4293269760
3.3069007 -0.17815804 -0.58553249 4293400320
3.3105567 -0.17825067 -0.58499497 4293400320
3.3197169 -0.17863876 -0.58473915 4293400320
3.3265538 -0.17890203 -0.58338201 4293400320
3.3230979 -0.17861348 -0.57954067 4293400320
3.3347118 -0.17913277 -0.57763767 4293400320
3.33922 -0.17927127 -0.57381392 4293400320
3.3321886 -0.17879231 -0.5673483 4293400320
3.3247848 -0.17829423 -0.56018525 4293400320
3.3383095 -0.17891546 -0.55587983 4293400320
3.3371568 -0.17875215 -0.5484674 4293400320
3.328547 -0.17819114 -0.53922099 4293400320
3.3157747 -0.17740886 -0.52873284 4293400320
3.302784 -0.176616 -0.51766986 4293269760
3.3082709 -0.17680898 -0.50892359 4293269760
3.3342612 -0.17809404 -0.50264752 4293400320
3.3522854 -0.17895375 -0.49446049 4293400320
3.3457739 -0.17850721 -0.48206183 4293400320
3.3338978 -0.17777608 -0.46840921 4293400320
3.3073161 -0.17626435 -0.45230591 4293269760
3.3112202 -0.17637375 -0.43993741 4293269760
3.332051 -0.17738175 -0.4292188 4293400320
3.3404875 -0.17773116 -0.41630548 4293400320
3.3069334 -0.1758536 -0.39781383 4293269760
3.3010345 -0.17544392 -0.3823697 4293269760
3.3357577 -0.17718653 -0.37106231 4293400320
3.3447082 -0.17756291 -0.35628131 4293400320
3.3404005 -0.17723744 -0.33967593 4293400320
3.2768328 -0.17377862 -0.31701937 4293139200
3.312413 -0.17556393 -0.30371702 4293269760
3.3149667 -0.17560275 -0.28686857 4293269760
3.3108406 -0.1752889 -0.26913854 4293269760
3.278805 -0.17350276 -0.24904537 4293139200
3.3107305 -0.17509174 -0.23352304 4293269760
3.3153474 -0.17523962 -0.21562925 4293269760
3.3221965 -0.17550494 -0.19758359 4293269760
3.314939 -0.17502724 -0.17849173 4293269760
3.296154 -0.17394345 -0.15873735 4293139200
3.3133214 -0.17475167 -0.14054491 4293269760
3.3248746 -0.17526388 -0.12179999 4293269760
3.2826498 -0.17295021 -0.10114513 4293139200
3.3173161 -0.17467636 -0.082779482 4293269760
3.3148496 -0.17445189 -0.063218743 4293269760
3.3299639 -0.17514972 -0.043849036 4293269760
3.304878 -0.17373933 -0.023971418 4293139200
3.3223426 -0.17455974 -0.004415602 4293269760
3.3380148 -0.17528531 0.015341207 4293269760
3.322655 -0.17438586 0.034933291 4293269760
3.3451097 -0.17546527 0.054931577 4293269760
3.3520749 -0.17573358 0.074785151 4293269760
3.3590217 -0.17600051 0.094637275 4293400320
3.3097439 -0.17333084 0.11254543 4293139200
3.3469889 -0.17517981 0.13321441 4293269760
3.3567834 -0.17559464 0.15291233 4293400320
3.3502798 -0.17515913 0.17171679 4293400320
3.2188931 -0.16821666 0.18313506 4292878080
3.3580189 -0.17536935 0.20981857 4293400320
3.358876 -0.17531717 0.22839338 4293400320
3.3542275 -0.17497842 0.24632113 4293400320
3.2191374 -0.16785797 0.25363189 4292878080
3.3856757 -0.17641851 0.28462294 4293530880
3.3772035 -0.17588037 0.30139765 4293400320
3.3699884 -0.17540784 0.31787017 4293400320
3.3270371 -0.17308171 0.33036417 4293269760
3.2544837 -0.16922314 0.33898109 4293008640
3.3759797 -0.17542367 0.36767852 4293530880
3.361496 -0.17457482 0.38164908 4293400320
3.3520269 -0.17398617 0.39565179 4293400320
3.328584 -0.17267498 0.40741363 4293400320
3.3154113 -0.17189594 0.41981623 4293269760
3.3670475 -0.17446612 0.44011238 4293530880
3.3667324 -0.17435019 0.45332316 4293530880
3.3669012 -0.17425902 0.46608317 4293530880
3.3482051 -0.17319451 0.47563148 4293400320
3.3506482 -0.1732206 0.48758188 4293400320
3.3271132 -0.17190784 0.49512181 4293400320
3.3606732 -0.17353612 0.51062214 4293530880
3.3571324 -0.17325285 0.51998854 4293530880
3.3621805 -0.17341122 0.53008944 4293530880
3.3599312 -0.1731939 0.53843439 4293530880
3.3582463 -0.1730054 0.54623592 4293530880
3.3512292 -0.17254294 0.55251575 4293530880
3.3554564 -0.17265753 0.5600006 4293530880
3.3437293 -0.17195342 0.56415606 4293400320
3.3379297 -0.17155349 0.56862271 4293400320
3.3469849 -0.17191443 0.57495993 4293530880
3.3463018 -0.17177598 0.57896274 4293530880
3.3324385 -0.17096303 0.57999086 4293400320
3.3408337 -0.17128855 0.58420724 4293400320
3.3355694 -0.17091531 0.58535206 4293400320
3.3402584 -0.17105028 0.58755577 4293400320
3.3401458 -0.17093962 0.58822632 4293400320
3.3534362 -0.17151216 0.59056729 4293530880
3.3447073 -0.17096123 0.58833683 4293530880
3.3587046 -0.17156813 0.58941066 4293530880
3.3510931 -0.17107381 0.58599776 4293530880
3.356097 -0.17122141 0.58410478 4293530880
3.3546286 -0.1710393 0.58039743 4293530880
3.353368 -0.17086752 0.57604915 4293530880
3.3656785 -0.17138457 0.57334304 4293530880
3.3470466 -0.17033036 0.56470609 4293530880
3.3460336 -0.17017052 0.55841637 4293530880
3.3590441 -0.17072111 0.55379289 4293530880
3.3450422 -0.16990247 0.54407436 4293400320
3.3387403 -0.16947417 0.53502321 4293400320
3.3342063 -0.16913539 0.52566236 4293400320
3.3311791 -0.16887279 0.5159514 4293400320
3.3568892 -0.17006174 0.51003116 4293530880
3.3615324 -0.17018522 0.50023085 4293530880
3.3581898 -0.16990523 0.48866341 4293530880
3.3076518 -0.16664222 0.39831793 4293269760
3.3395789 -0.16813354 0.3873831 4293400320
3.3671072 -0.16940184 0.37523577 4293400320
3.3565836 -0.16876045 0.35834706 4293400320
3.3182302 -0.16672534 0.33831683 4293269760
3.3241932 -0.16691133 0.32258788 4293269760
3.3448689 -0.16783282 0.30779663 4293400320
3.3301644 -0.16698386 0.28937528 4293269760
3.3016069 -0.16544361 0.26965231 4293139200
3.3193779 -0.16621827 0.25347599 4293269760
3.3366439 -0.16696636 0.23679404 4293269760
3.3411636 -0.16707765 0.21882723 4293269760
3.302618 -0.16504271 0.19798213 4293139200
3.3344254 -0.16651331 0.18118256 4293269760
3.3550699 -0.1674262 0.16328062 4293400320
3.3380823 -0.1664664 0.1433427 4293269760
3.310359 -0.16497424 0.12304203 4293139200
3.3261533 -0.16564476 0.10429893 4293269760
3.3233154 -0.16538961 0.084778793 4293269760
3.3174446 -0.16498423 0.065138422 4293269760
3.3066249 -0.16433398 0.045426112 4293139200
3.3037484 -0.16407777 0.025854209 4293139200
3.3172369 -0.16463155 0.006320714 4293269760
3.2887049 -0.16310653 -0.013219988 4293139200
3.3000214 -0.16355257 -0.032799147 4293139200
3.3150535 -0.16418129 -0.052536767 4293269760
3.3188186 -0.16425306 -0.072154135 4293269760
3.286396 -0.16254017 -0.090747729 4293139200
3.3226318 -0.16421278 -0.11114865 4293269760
3.3409054 -0.16499846 -0.13115156 4293269760
3.3473396 -0.16520037 -0.15069512 4293269760
3.2955303 -0.16253789 -0.16720831 4293139200
3.3136811 -0.16331682 -0.18688336 4293269760
3.3421037 -0.164599 -0.20719597 4293269760
3.333199 -0.16404767 -0.22508858 4293269760
3.3172505 -0.16315167 -0.24212705 4293269760
3.3499174 -0.16463916 -0.26252881 4293400320
3.3592117 -0.16498004 -0.2810432 4293400320
3.3674898 -0.1652707 -0.2992582 4293400320
3.3492205 -0.1642628 -0.31474236 4293400320
3.3357098 -0.16348884 -0.33016622 4293269760
3.3522067 -0.16418132 -0.34820268 4293400320
3.350245 -0.16397209 -0.36401302 4293400320
3.3534083 -0.16401315 -0.37998116 4293400320
3.3245518 -0.16249382 -0.3917909 4293269760
3.3511002 -0.16367473 -0.40966558 4293400320
3.371403 -0.16455016 -0.42652392 4293530880
3.3729811 -0.16451386 -0.44063312 4293530880
3.3694787 -0.16423079 -0.45357719 4293530880
3.3670099 -0.16399841 -0.46612546 4293530880
3.3307598 -0.16212703 -0.47333652 4293400320
3.3424668 -0.16258411 -0.48672158 4293400320
3.3408685 -0.16239586 -0.49765503 4293400320
3.3393202 -0.1622104 -0.50801843 4293400320
3.3464224 -0.16244403 -0.5191313 4293400320
3.3480482 -0.16241258 -0.52882725 4293400320
3.3421931 -0.16201977 -0.53672552 4293400320
3.3413272 -0.16186862 -0.5447883 4293400320
3.3392196 -0.16165788 -0.5520137 4293400320
3.3269217 -0.16095608 -0.55688924 4293400320
3.3312192 -0.16105534 -0.56387579 4293400320
3.3195829 -0.16038711 -0.56750429 4293400320
3.2956281 -0.15912697 -0.56831604 4293269760
3.2961862 -0.1590479 -0.57265216 4293269760
3.2955892 -0.15891358 -0.57612115 4293269760
3.3000219 -0.15902127 -0.57979983 4293269760
3.2870107 -0.15829153 -0.57973754 4293269760
3.2944698 -0.15854508 -0.58259779 4293269760
3.2943265 -0.15843397 -0.58343899 4293269760
3.2893817 -0.15809315 -0.58274949 4293269760
3.3078821 -0.15887561 -0.58552307 4293400320
3.3066199 -0.15871157 -0.58411813 4293400320
3.3207006 -0.15928166 -0.58472967 4293400320
3.3324587 -0.15974019 -0.58423364 4293400320
3.3290021 -0.15947169 -0.58038765 4293400320
3.3356981 -0.15968831 -0.5776282 4293400320
3.3362691 -0.15961269 -0.573129 4293400320
3.3479447 -0.16006668 -0.56984895 4293530880
3.3413277 -0.1596489 -0.56279242 4293400320
3.3432362 -0.1596377 -0.55652535 4293400320
3.3332121 -0.15905902 -0.5476495 4293400320
3.3344584 -0.1590171 -0.5400086 4293400320
3.3256297 -0.15849669 -0.53013623 4293400320
3.3126383 -0.15777947 -0.5190497 4293269760
3.3131933 -0.15770614 -0.50952041 4293269760
3.3352413 -0.15865235 -0.50263804 4293400320
3.3483288 -0.15917286 -0.49372366 4293400320
3.3418126 -0.15876433 -0.48134154 4293400320
3.3348761 -0.15833658 -0.4683997 4293400320
3.308286 -0.15697977 -0.4522965 4293269760
3.322093 -0.15753458 -0.44124064 4293269760
3.3429344 -0.15842117 -0.43048257 4293400320
3.3454304 -0.15844056 -0.41678894 4293400320
3.3079007 -0.15657134 -0.39780441 4293269760
3.2980301 -0.1560089 -0.38190165 4293269760
3.331768 -0.15750243 -0.370502 4293269760
3.3506513 -0.15829454 -0.35679942 4293400320
3.3453505 -0.15794741 -0.34006953 4293400320
3.2917085 -0.15532674 -0.31835294 4293139200
3.3133783 -0.15624993 -0.30370757 4293269760
3.3258843 -0.15674148 -0.28771773 4293269760
3.320765 -0.15640488 -0.26985523 4293269760
3.288723 -0.15480538 -0.24971466 4293139200
3.3166749 -0.15602134 -0.23386379 4293269760
3.3212945 -0.15614229 -0.21594274 4293269760
3.3251517 -0.15622738 -0.19769204 4293269760
3.320888 -0.15593222 -0.17874965 4293269760
3.2971096 -0.15472446 -0.15872794 4293139200
3.3192716 -0.15566599 -0.14074601 4293269760
3.3208461 -0.15564442 -0.12160873 4293269760
3.2935841 -0.15427627 -0.10144127 4293139200
3.3182755 -0.15533422 -0.082770012 4293269760
3.3307886 -0.15582286 -0.063491978 4293269760
3.3309257 -0.15573396 -0.043839533 4293269760
3.3108263 -0.15470243 -0.023997258 4293139200
3.3332901 -0.15565349 -0.0044175503 4293269760
3.3549564 -0.15656616 0.015427027 4293400320
3.3336008 -0.15547727 0.035049532 4293269760
3.3500681 -0.15614708 0.055007402 4293269760
3.3630259 -0.15665297 0.075019144 4293400320
3.3699727 -0.1568791 0.094929755 4293400320
3.3146882 -0.15421842 0.11269128 4293269760
3.3519425 -0.15585025 0.13338345 4293400320
3.3617382 -0.15620787 0.15310431 4293400320
3.3602192 -0.15604106 0.17218778 4293400320
3.2870131 -0.15255752 0.18697663 4293139200
3.3589809 -0.1557906 0.20982815 4293400320
3.3698037 -0.15619399 0.22908185 4293400320
3.3551869 -0.15542182 0.24633071 4293400320
3.2150784 -0.14885879 0.25324821 4292878080
3.3766887 -0.15621963 0.28379473 4293400320
3.3857737 -0.1565406 0.30208689 4293530880
3.3803387 -0.15619202 0.3187663 4293530880
3.3379264 -0.15414132 0.33136168 4293400320
3.246469 -0.14983656 0.33805814 4293008640
3.3719757 -0.15551226 0.36714697 4293400320
3.3574898 -0.1547481 0.38109481 4293400320
3.362901 -0.15489821 0.39683309 4293400320
3.32953 -0.15326811 0.40742314 4293400320
3.3203173 -0.15274766 0.42032793 4293269760
3.3680034 -0.15483518 0.44012201 4293530880
3.3726375 -0.15494785 0.45399961 4293530880
3.3666081 -0.15457191 0.46592 4293530880
3.3590438 -0.15412585 0.47704658 4293400320
3.3565397 -0.15391128 0.48831096 4293400320
3.3329949 -0.15273541 0.49586678 4293400320
3.3616235 -0.15394248 0.51063174 4293530880
3.3679533 -0.15413024 0.52152765 4293530880
3.3542488 -0.15340392 0.52869844 4293530880
3.3559475 -0.15337993 0.53765339 4293530880
3.3631375 -0.15360555 0.54688716 4293530880
3.3620305 -0.1534529 0.55415076 4293530880
3.3514748 -0.15287037 0.55918777 4293530880
3.3486109 -0.15263768 0.56483054 4293530880
3.3487167 -0.15253969 0.57031018 4293530880
3.3528488 -0.15262407 0.57581532 4293530880
3.3378835 -0.15184186 0.57735288 4293400320
3.3422318 -0.15193546 0.58154231 4293400320
3.3368504 -0.15158784 0.5833562 4293400320
3.356184 -0.15235868 0.58881563 4293530880
3.3559525 -0.15224318 0.59016174 4293530880
3.3460004 -0.15168807 0.58910233 4293530880
3.3504393 -0.15178314 0.58988369 4293530880
3.3544977 -0.15186042 0.58990425 4293530880
3.3547235 -0.15176426 0.58855677 4293530880
3.3413036 -0.15105282 0.58413148 4293400320
3.3525007 -0.15145047 0.58332533 4293530880
3.3654079 -0.15192401 0.5821104 4293530880
3.3582411 -0.1514937 0.57673538 4293530880
3.3518436 -0.15109809 0.57083565 4293530880
3.3484724 -0.15083845 0.56479901 4293530880
3.3568182 -0.15110448 0.56007075 4293530880
3.3546445 -0.15089795 0.55292302 4293530880
3.3597763 -0.15101857 0.5463298 4293530880
3.3445995 -0.15022926 0.53582335 4293400320
3.3440127 -0.15009342 0.52707249 4293400320
3.337039 -0.14967176 0.51672572 4293400320
3.3667085 -0.15088733 0.51139182 4293530880
3.3624632 -0.15058662 0.50024045 4293530880
3.369005 -0.1507671 0.4901121 4293530880
3.3135223 -0.14757755 0.39892501 4293269760
3.3365288 -0.14848657 0.38693187 4293400320
3.3630691 -0.14955048 0.37469172 4293400320
3.3525398 -0.14897044 0.35782593 4293400320
3.3241112 -0.14759873 0.33883345 4293269760
3.3350496 -0.14796977 0.32356331 4293269760
3.3457868 -0.14833099 0.30780616 4293400320
3.3310776 -0.14756767 0.28938478 4293269760
3.3103538 -0.14653982 0.27030313 4293269760
3.3252676 -0.14708446 0.2538664 4293269760
3.3425395 -0.14773184 0.23715779 4293269760
3.3370929 -0.14737782 0.2185097 4293269760
3.3075097 -0.14596234 0.19823124 4293139200
3.335336 -0.14707211 0.1811921 4293269760
3.3429434 -0.14729188 0.16265367 4293269760
3.348974 -0.14744185 0.1437823 4293269760
3.3062696 -0.14545429 0.12286521 4293139200
3.3270593 -0.14625163 0.10430844 4293269760
3.3292136 -0.14623161 0.084916487 4293269760
3.3283355 -0.14607874 0.065345697 4293269760
3.3025291 -0.1448362 0.04536609 4293139200
3.3196311 -0.14546959 0.025983589 4293269760
3.3231328 -0.1455082 0.0063406276 4293269760
3.2746112 -0.1432779 -0.013153174 4293008640
3.2959211 -0.14409381 -0.032741029 4293139200
3.3159516 -0.14485258 -0.052527286 4293269760
3.3287065 -0.14529346 -0.072338261 4293269760
3.2973959 -0.1438179 -0.091015399 4293139200
3.3235304 -0.14483979 -0.11113915 4293269760
3.3418081 -0.14551896 -0.13114201 4293269760
3.3532338 -0.14589976 -0.15090911 4293400320
3.2964196 -0.14332272 -0.16719888 4293139200
3.3235521 -0.14438458 -0.18737809 4293269760
3.3353765 -0.14478236 -0.20671532 4293269760
3.344065 -0.14504386 -0.22574978 4293269760
3.3231254 -0.14402503 -0.24247998 4293269760
3.3607788 -0.14553684 -0.26329735 4293400320
3.3700707 -0.145823 -0.28186402 4293400320
3.3634183 -0.14542156 -0.29880768 4293400320
3.3540983 -0.14490587 -0.31510565 4293400320
3.3366044 -0.14403926 -0.33015668 4293269760
3.3531053 -0.14463559 -0.34819308 4293400320
3.3610749 -0.14486448 -0.36507991 4293400320
3.3543057 -0.14446037 -0.37997156 4293400320
3.3254409 -0.14310917 -0.39178139 4293269760
3.3619132 -0.1445604 -0.41086552 4293400320
3.3772595 -0.14510468 -0.42713985 4293530880
3.378835 -0.14505889 -0.44126913 4293530880
3.3753283 -0.14479594 -0.45423257 4293530880
3.3639486 -0.14419709 -0.46556896 4293530880
3.3227441 -0.142326 -0.47206452 4293400320
3.3433564 -0.14309491 -0.48671201 4293400320
3.3368158 -0.14270534 -0.49691096 4293400320
3.3540368 -0.14332852 -0.51010835 4293400320
3.352248 -0.14314182 -0.51988602 4293400320
3.3552637 -0.14315984 -0.52981496 4293530880
3.3470259 -0.14269976 -0.53734839 4293400320
3.3370659 -0.14216742 -0.5439412 4293400320
3.3440471 -0.1423548 -0.55265474 4293400320
3.3327296 -0.14176625 -0.55770284 4293400320
3.3222487 -0.14121419 -0.56220192 4293400320
3.3204606 -0.14103113 -0.56749481 4293400320
3.2964985 -0.13991056 -0.56830662 4293269760
3.2881963 -0.13945375 -0.57110643 4293269760
3.2964585 -0.13969739 -0.57611173 4293269760
3.2959712 -0.13957159 -0.57892752 4293269760
3.2955968 -0.13945091 -0.58108717 4293269760
3.2953372 -0.13933541 -0.58258837 4293269760
3.2902737 -0.139018 -0.58256 4293269760
3.2951658 -0.13912012 -0.58360994 4293269760
3.3038313 -0.13938095 -0.5846445 4293400320
3.3173275 -0.13984451 -0.5858435 4293400320
3.3215718 -0.13991913 -0.58472013 4293400320
3.3234904 -0.13989627 -0.58250195 4293400320
3.3338115 -0.14022587 -0.58106327 4293400320
3.3414941 -0.14044464 -0.57846946 4293400320
3.3419888 -0.14036238 -0.57395047 4293400320
3.339869 -0.14017105 -0.56831872 4293400320
3.3520536 -0.14057808 -0.56443924 4293530880
3.3441088 -0.14014393 -0.55651575 4293400320
3.3340816 -0.13962369 -0.54763991 4293400320
3.3353276 -0.13957451 -0.53999907 4293400320
3.328269 -0.13917947 -0.5304088 4293400320
3.3184364 -0.13866962 -0.51981205 4293400320
3.3239312 -0.13879853 -0.51102656 4293400320
3.3459888 -0.13961618 -0.50411439 4293400320
3.3590837 -0.14006034 -0.49516863 4293530880
3.34268 -0.13927901 -0.48133197 4293400320
3.335741 -0.1388917 -0.46839014 4293400320
3.3041935 -0.13748461 -0.45161176 4293269760
3.3328583 -0.13857469 -0.44254375 4293400320
3.3388445 -0.13872424 -0.42983636 4293400320
3.3462956 -0.13893428 -0.41677937 4293400320
3.3137157 -0.1374889 -0.39839002 4293269760
3.3078151 -0.13714801 -0.38292408 4293269760
3.332628 -0.13807586 -0.37049246 4293269760
3.3465476 -0.13855298 -0.35626218 4293400320
3.3511829 -0.13864669 -0.34056386 4293400320
3.2875834 -0.13592881 -0.31786391 4293139200
3.3142309 -0.13693064 -0.30369806 4293269760
3.3217623 -0.13714455 -0.28727889 4293269760
3.3315773 -0.1374521 -0.2706525 4293269760
3.2845862 -0.13542518 -0.24932823 4293139200
3.3225095 -0.1368876 -0.23420446 4293269760
3.3221462 -0.13677704 -0.21593323 4293269760
3.3339865 -0.13716701 -0.19815524 4293269760
3.3267272 -0.13677381 -0.17900752 4293269760
3.3102796 -0.13600494 -0.1593091 4293139200
3.3201201 -0.13631268 -0.14073651 4293269760
3.3356736 -0.13685352 -0.12210813 4293269760
3.2844381 -0.13466465 -0.10112636 4293139200
3.3231175 -0.13614996 -0.082859345 4293269760
3.3198528 -0.13592173 -0.063260138 4293269760
3.3357708 -0.13647585 -0.043881811 4293269760
3.3166649 -0.13560209 -0.024023032 4293269760
3.3341382 -0.13621874 -0.004408001 4293269760
3.341821 -0.13643606 0.015369829 4293269760
3.3154795 -0.13526958 0.034856353 4293139200
3.3469222 -0.13645233 0.054950714 4293269760
3.3678749 -0.13720734 0.075118557 4293400320
3.3608391 -0.13682556 0.09465649 4293400320
3.3205209 -0.13509473 0.1128713 4293269760
3.3527908 -0.13630708 0.13339306 4293400320
3.3649397 -0.13670287 0.15322135 4293400320
3.3610685 -0.13644974 0.1721974 4293400320
3.2206287 -0.13067539 0.18315348 4292878080
3.3648148 -0.136408 0.2101499 4293400320
3.3656693 -0.13634568 0.22875205 4293400320
3.3610151 -0.13606097 0.24670672 4293400320
3.2208686 -0.13031414 0.25365034 4292878080
3.3675816 -0.13613145 0.28296649 4293400320
3.3916013 -0.13700095 0.30254111 4293530880
3.376771 -0.13630605 0.31835899 4293400320
3.3437359 -0.13488005 0.33186525 4293400320
3.1710603 -0.12784654 0.3301228 4292747520
3.3966608 -0.13680974 0.36975446 4293530880
3.3632951 -0.13537219 0.3816683 4293400320
3.3587813 -0.13509284 0.39625686 4293400320
3.3303628 -0.13385607 0.40743268 4293400320
3.3122256 -0.13303225 0.41920736 4293269760
3.3737986 -0.13539715 0.44077939 4293530880
3.3784306 -0.13548258 0.45467612 4293530880
3.3723967 -0.13514155 0.46661487 4293530880
3.3697741 -0.13493674 0.47846177 4293530880
3.3623197 -0.13453914 0.48904014 4293530880
3.3387661 -0.13350026 0.4966118 4293400320
3.367399 -0.1345403 0.51139194 4293530880
3.3649628 -0.13434225 0.52094448 4293530880
3.363965 -0.13420124 0.53010869 4293530880
3.3518469 -0.13361824 0.53687245 4293530880
3.3639715 -0.13399795 0.54689682 4293530880
3.3628635 -0.13385177 0.55416042 4293530880
3.3661029 -0.13387764 0.56150019 4293530880
3.3592925 -0.13350497 0.56650251 4293530880
3.3584101 -0.133367 0.57182997 4293530880
3.3576162 -0.13323225 0.57650161 4293530880
3.3387074 -0.13238148 0.57736248 4293400320
3.3479786 -0.13264409 0.58240855 4293530880
3.3425946 -0.13232766 0.58422637 4293400320
3.3422475 -0.13220976 0.58623469 4293400320
3.3469372 -0.13228993 0.58844036 4293530880
3.3419027 -0.13198678 0.58824545 4293400320
3.3512626 -0.13224964 0.58989328 4293530880
3.3464642 -0.13195525 0.58835596 4293530880
3.3693256 -0.13274677 0.59098423 4293530880
3.34606 -0.131727 0.58482951 4293530880
3.3533223 -0.13190494 0.58333498 4293530880
3.3633642 -0.13219097 0.58162391 4293530880
3.3639867 -0.13210742 0.57759088 4293530880
3.3575885 -0.13174896 0.5716843 4293530880
3.3542171 -0.13150884 0.56563985 4293530880
3.3625658 -0.13172613 0.56090283 4293530880
3.3558676 -0.13135567 0.55299938 4293530880
3.3517184 -0.13108468 0.54489565 4293530880
3.3542941 -0.13107549 0.537256 4293530880
3.3448267 -0.13059728 0.52708209 4293400320
3.3378506 -0.13021623 0.51673532 4293400320
3.3684287 -0.13129395 0.51153851 4293530880
3.3682218 -0.13117468 0.50098556 4293530880
3.3648784 -0.13093355 0.4894022 4293530880
3.3143225 -0.12825885 0.39893451 4293269760
3.3512304 -0.12956916 0.38855419 4293400320
3.3688455 -0.13013417 0.37525505 4293400320
3.3632836 -0.12980644 0.358897 4293400320
3.3249114 -0.12821822 0.33884299 4293269760
3.330879 -0.12833458 0.3230899 4293269760
3.3574667 -0.12924127 0.30881748 4293400320
3.3318777 -0.1281465 0.28939435 4293269760
3.3072882 -0.12709156 0.26999697 4293269760
3.3228736 -0.127575 0.25363189 4293269760
3.3433406 -0.12824379 0.23716739 4293269760
3.3452215 -0.12820135 0.21900015 4293269760
3.308301 -0.12667835 0.19824073 4293139200
3.3424702 -0.12786746 0.18154678 4293269760
3.3477345 -0.12795338 0.16285807 4293269760
3.3497734 -0.12791613 0.14379191 4293269760
3.3070583 -0.12617739 0.12287469 4293139200
3.3278522 -0.12685356 0.10431799 4293269760
3.3334062 -0.12694994 0.085013308 4293269760
3.3431149 -0.12720342 0.065632194 4293269760
3.3083103 -0.12577018 0.045445062 4293139200
3.3104274 -0.12573652 0.025913132 4293139200
3.3239217 -0.12613283 0.0063501652 4293269760
3.2803848 -0.12437395 -0.013162898 4293139200
3.311691 -0.12544258 -0.032877568 4293139200
3.3207338 -0.12566964 -0.05258029 4293269760
3.3294945 -0.12588547 -0.072328702 4293269760
3.2930574 -0.12439968 -0.090865716 4293139200
3.3327086 -0.12577748 -0.11140849 4293269760
3.34759 -0.12622209 -0.13132727 4293269760
3.3630097 -0.12668595 -0.15130186 4293400320
3.3111694 -0.12462665 -0.16789494 4293139200
3.3243353 -0.12500644 -0.18736856 4293269760
3.3487785 -0.12580752 -0.20748472 4293269760
3.3448515 -0.12554611 -0.22574018 4293269760
3.30527 -0.12395297 -0.24111514 4293139200
3.3565867 -0.1257557 -0.26289865 4293400320
3.360903 -0.12580225 -0.28102395 4293400320
3.364207 -0.12581092 -0.29879802 4293400320
3.359859 -0.1255347 -0.3155621 4293400320
3.3373857 -0.12458481 -0.33014712 4293269760
3.3538897 -0.12508495 -0.34818345 4293400320
3.3568931 -0.12508297 -0.36453202 4293400320
3.3600543 -0.12508684 -0.380523 4293400320
3.3469591 -0.12448829 -0.39420968 4293400320
3.3676572 -0.12514198 -0.41146064 4293400320
3.3698757 -0.12511094 -0.42609906 4293530880
3.3796217 -0.12535818 -0.44125944 4293530880
3.3810661 -0.12529849 -0.45488787 4293530880
3.3736401 -0.12491174 -0.46678972 4293530880
3.3423154 -0.12364493 -0.47472015 4293400320
3.3441324 -0.12360086 -0.48670241 4293400320
3.3474746 -0.12361303 -0.49837038 4293400320
3.3597543 -0.12395377 -0.51084858 4293530880
3.3480864 -0.12341455 -0.51911211 4293400320
3.3511043 -0.12341523 -0.52902752 4293400320
3.3477998 -0.12318424 -0.53733879 4293400320
3.3429852 -0.12289847 -0.54476917 4293400320
3.3448191 -0.12285661 -0.55264515 4293400320
3.3462262 -0.12279934 -0.5598191 4293400320
3.3368099 -0.12234694 -0.56452239 4293400320
3.3212252 -0.12167035 -0.56748527 4293400320
3.3120303 -0.12122809 -0.57083917 4293400320
3.2889524 -0.12028097 -0.57109696 4293269760
3.2972157 -0.12047646 -0.57610226 4293269760
3.2967279 -0.1203535 -0.57891804 4293269760
3.3061953 -0.12059262 -0.58280987 4293400320
3.3010132 -0.12029965 -0.58344722 4293269760
3.305789 -0.12036855 -0.58515924 4293400320
3.313355 -0.12053859 -0.58668262 4293400320
3.3183646 -0.12061594 -0.5870685 4293400320
3.3180854 -0.12050197 -0.58583397 4293400320
3.3272514 -0.12072977 -0.58557534 4293400320
3.3193264 -0.12034008 -0.5816313 4293400320
3.3444171 -0.12114258 -0.58276653 4293530880
3.3471789 -0.12113883 -0.57931066 4293530880
3.3418412 -0.12084346 -0.57378519 4293400320
3.3397286 -0.12066483 -0.56815636 4293400320
3.3429596 -0.12067883 -0.56277323 4293400320
3.3497972 -0.12082253 -0.55732495 4293530880
3.3299067 -0.12000658 -0.54682195 4293400320
3.3360834 -0.12012719 -0.53998947 4293400320
3.3240879 -0.11959643 -0.52961433 4293400320
3.3191872 -0.11932077 -0.51980251 4293400320
3.3246827 -0.11941767 -0.51101702 4293400320
3.3342435 -0.11965989 -0.50222522 4293400320
3.3637969 -0.12061595 -0.49574077 4293530880
3.3483799 -0.11996549 -0.4820331 4293400320
3.3315442 -0.11926565 -0.46768719 4293400320
3.3148396 -0.11857171 -0.45295274 4293269760
3.3161273 -0.1185196 -0.44021815 4293269760
3.3346388 -0.11908034 -0.42919016 4293400320
3.34308 -0.11928231 -0.41627678 4293400320
3.3094981 -0.11799159 -0.39778543 4293269760
3.3035929 -0.11768517 -0.38234133 4293269760
3.3433075 -0.11899678 -0.37158442 4293400320
3.3531895 -0.11924941 -0.35687831 4293400320
3.3519325 -0.11910737 -0.34055424 4293400320
3.2894363 -0.11679967 -0.31796226 4293139200
3.3199472 -0.11778257 -0.30414325 4293269760
3.327482 -0.11795257 -0.28769863 4293269760
3.3273394 -0.11785143 -0.27023953 4293269760
3.2903004 -0.11644974 -0.24969578 4293139200
3.3232491 -0.11751556 -0.2341949 4293269760
3.3278716 -0.11758266 -0.2162466 4293269760
3.3297393 -0.11755274 -0.19785035 4293269760
3.3224759 -0.11720198 -0.17873059 4293269760
3.3110139 -0.11670431 -0.1592996 4293139200
3.3208561 -0.11695475 -0.14072695 4293269760
3.3274238 -0.11708993 -0.12177141 4293269760
3.3001487 -0.11603949 -0.10157509 4293139200
3.333843 -0.1171243 -0.083096869 4293269760
3.3305783 -0.1169149 -0.063439004 4293269760
3.3325098 -0.11688726 -0.043820411 4293269760
3.3173966 -0.11626451 -0.024013495 4293269760
3.3448668 -0.11712798 -0.0044097882 4293269760
3.3565481 -0.11743961 0.015446288 4293400320
3.3212056 -0.11611303 0.034919292 4293269760
3.351655 -0.11707768 0.055026636 4293269760
3.3736103 -0.11774524 0.075240485 4293400320
3.3755627 -0.11771666 0.095062278 4293400320
3.3084185 -0.11528961 0.11244272 4293139200
3.3544538 -0.11679149 0.13343978 4293400320
3.3656764 -0.11708433 0.15323102 4293400320
3.3563857 -0.11666621 0.17192873 4293400320
3.2313104 -0.11224298 0.18373159 4292878080
3.3655496 -0.11679031 0.21015957 4293400320
3.3763745 -0.11706743 0.22944067 4293400320
3.3667314 -0.11663747 0.2470828 4293400320
3.2315333 -0.11187881 0.25444543 4293008640
3.3882322 -0.11718396 0.28465205 4293530880
3.3897064 -0.11713673 0.30231574 4293530880
3.3819227 -0.11677086 0.3187857 4293530880
3.3534126 -0.115693 0.33276415 4293400320
3.2569342 -0.11228294 0.33900908 4293008640
3.3884549 -0.11670002 0.36879003 4293530880
3.3729606 -0.11607003 0.38269299 4293530880
3.359508 -0.11551066 0.39626652 4293400320
3.3360429 -0.11460924 0.40804949 4293400320
3.3178985 -0.11389089 0.41984475 4293269760
3.3834455 -0.11603222 0.441955 4293530880
3.3880734 -0.11609028 0.45588619 4293530880
3.3731232 -0.11548017 0.46662459 4293530880
3.3655519 -0.1151221 0.47776866 4293530880
3.3679879 -0.11510487 0.48976937 4293530880
3.3345408 -0.11386679 0.49588591 4293400320
3.3681219 -0.11490813 0.51140159 4293530880
3.3656847 -0.1147243 0.52095413 4293530880
3.3694057 -0.11474922 0.53086239 4293530880
3.371315 -0.1147122 0.53988636 4293530880
3.3627057 -0.1143186 0.54658359 4293530880
3.3685131 -0.11441293 0.55498284 4293530880
3.366822 -0.11425313 0.56150991 4293530880
3.3600092 -0.11392016 0.56651217 4293530880
3.355185 -0.11365438 0.57116842 4293530880
3.3632567 -0.11382324 0.57735711 4293530880
3.3492663 -0.1132483 0.57907557 4293530880
3.3585372 -0.11345653 0.58413148 4293530880
3.3531501 -0.11317112 0.58595711 4293530880
3.3577232 -0.11322021 0.58883494 4293530880
3.3574905 -0.11310744 0.59018099 4293530880
3.3475325 -0.11266832 0.58912158 4293530880
3.3524578 -0.11272792 0.58998841 4293530880
3.3324068 -0.11195121 0.58576906 4293400320
3.3611779 -0.11280739 0.58943957 4293530880
3.3467667 -0.11221933 0.58483917 4293530880
3.3628917 -0.11265063 0.58488661 4293530880
3.3640733 -0.11258248 0.58163357 4293530880
3.3696206 -0.1126593 0.57844639 4293530880
3.3582952 -0.11217411 0.57169396 4293530880
3.3736477 -0.11257596 0.56880808 4293530880
3.3632722 -0.11212227 0.56091255 4293530880
3.3565722 -0.11179082 0.55300903 4293530880
3.371165 -0.1121651 0.54795343 4293530880
3.3549969 -0.11151978 0.53726566 4293530880
3.341578 -0.11096611 0.52646923 4293400320
3.3474379 -0.11104999 0.51812154 4293400320
3.3592513 -0.11132969 0.51004702 4293530880
3.3712535 -0.11161455 0.50134176 4293530880
3.3655803 -0.11131609 0.48941189 4293530880
3.3239408 -0.10922808 0.40001976 4293269760
3.3487449 -0.10992709 0.38819483 4293400320
3.3745098 -0.11065559 0.37581843 4293530880
3.3639793 -0.11019805 0.35890669 4293400320
3.3255987 -0.10883339 0.33885255 4293269760
3.3378353 -0.10911904 0.32370818 4293269760
3.3482068 -0.10934301 0.30791062 4293400320
3.3514833 -0.10933562 0.29104927 4293400320
3.3129501 -0.10797095 0.2704137 4293269760
3.3275437 -0.10833112 0.25394621 4293269760
3.3439579 -0.10874913 0.23717202 4293269760
3.3459086 -0.10869797 0.21900977 4293269760
3.3189569 -0.10771248 0.19884944 4293269760
3.3531356 -0.10870223 0.18209985 4293400320
3.3584034 -0.1087572 0.16335478 4293400320
3.3594463 -0.10867561 0.14418867 4293400320
3.3086555 -0.10692584 0.12291858 4293139200
3.3335273 -0.10761175 0.10448495 4293269760
3.3356822 -0.1075664 0.08506386 4293269760
3.3437967 -0.10771205 0.06564182 4293269760
3.3002911 -0.10620302 0.045333665 4293139200
3.3160987 -0.1065955 0.025962675 4293139200
3.3335934 -0.10704082 0.0063785617 4293269760
3.2910461 -0.10556719 -0.013191663 4293139200
3.3123636 -0.10613415 -0.032868028 4293139200
3.3237565 -0.10638334 -0.052607458 4293269760
3.3351657 -0.10663229 -0.072426647 4293269760
3.2988439 -0.10536253 -0.090996429 4293139200
3.3299832 -0.10623844 -0.11128595 4293269760
3.3432729 -0.10654583 -0.13112278 4293269760
3.3547025 -0.1067934 -0.15088981 4293400320
3.3118374 -0.10532102 -0.16788539 4293139200
3.3399744 -0.10609753 -0.18819925 4293269760
3.3468099 -0.10619916 -0.20731191 4293269760
3.3455245 -0.10604412 -0.22573054 4293269760
3.3159032 -0.10499589 -0.24183039 4293269760
3.3622434 -0.10634218 -0.26327801 4293400320
3.3715382 -0.10651999 -0.28184465 4293400320
3.3748376 -0.10650891 -0.29967007 4293400320
3.360532 -0.1059451 -0.31555241 4293400320
3.3430269 -0.1052821 -0.33062819 4293400320
3.368479 -0.10596609 -0.3496151 4293400320
3.3625321 -0.10566605 -0.36506057 4293400320
3.3557589 -0.10534077 -0.37995228 4293400320
3.3525901 -0.10512871 -0.39478326 4293400320
3.3788419 -0.10583469 -0.41273257 4293530880
3.3804631 -0.10577175 -0.42734045 4293530880
3.3802938 -0.10565321 -0.4412497 4293530880
3.3817377 -0.10558508 -0.45487812 4293530880
3.3842111 -0.10554908 -0.46814713 4293530880
3.3479264 -0.1043108 -0.47541186 4293400320
3.3520658 -0.10432792 -0.48774877 4293400320
3.3530805 -0.10424832 -0.4990952 4293400320
3.3515246 -0.10408942 -0.50948924 4293400320
3.3536868 -0.10404578 -0.5198667 4293400320
3.3517656 -0.10387629 -0.52901787 4293400320
3.34846 -0.10366454 -0.53732914 4293400320
3.3483603 -0.10355204 -0.54552662 4293400320
3.3454776 -0.10335425 -0.55263549 4293400320
3.3468843 -0.10328877 -0.55980945 4293400320
3.3423934 -0.10304249 -0.56534493 4293400320
3.3169506 -0.10215439 -0.56663549 4293400320
3.3166201 -0.10203746 -0.57150745 4293400320
3.2935362 -0.10122465 -0.57177025 4293269760
3.2978611 -0.10125145 -0.57609278 4293269760
3.3022952 -0.10128164 -0.5797714 4293269760
3.3068411 -0.10131528 -0.58280033 4293400320
3.3065791 -0.10120248 -0.584306 4293400320
3.2965906 -0.10079395 -0.58341062 4293269760
3.3014834 -0.10083891 -0.58446079 4293269760
3.3190105 -0.10126769 -0.58705896 4293400320
3.3187306 -0.10115535 -0.58582443 4293400320
3.3229754 -0.10118052 -0.584701 4293400320
3.3298168 -0.1012844 -0.58334386 4293400320
3.3499894 -0.1017915 -0.58361328 4293530880
3.3429024 -0.10147387 -0.5784502 4293400320
3.3424881 -0.10135845 -0.57377559 4293400320
3.3462014 -0.10136788 -0.5691362 4293400320
3.3436053 -0.10118732 -0.56276357 4293400320
3.3455133 -0.1011428 -0.5564965 4293400320
3.3453448 -0.10103605 -0.54923749 4293400320
3.3465936 -0.10097221 -0.541574 4293400320
3.3328252 -0.10045795 -0.53089243 4293400320
3.3148873 -0.099819846 -0.51902115 4293269760
3.3253212 -0.10003277 -0.51100743 4293400320
3.3497102 -0.10066288 -0.50444442 4293400320
3.3612363 -0.10090737 -0.49525964 4293530880
3.344074 -0.10029487 -0.48131272 4293400320
3.3250513 -0.099628158 -0.46667871 4293400320
3.3243866 -0.099509895 -0.45415854 4293269760
3.3316243 -0.099627167 -0.44217744 4293400320
3.3451893 -0.09993244 -0.43045375 4293400320
3.3576045 -0.10020299 -0.41799247 4293400320
3.3150907 -0.098842673 -0.39837092 4293269760
3.3191159 -0.098865055 -0.3840515 4293269760
3.3489103 -0.09965077 -0.37212551 4293400320
3.3538263 -0.099698707 -0.35686862 4293400320
3.3493829 -0.099469848 -0.34022176 4293400320
3.3039892 -0.098031931 -0.31929556 4293269760
3.3255529 -0.098572522 -0.30458835 4293269760
3.3330905 -0.098698571 -0.2881183 4293269760
3.3329496 -0.098598219 -0.27063331 4293269760
3.2959051 -0.097412303 -0.25006327 4293139200
3.3312051 -0.098354965 -0.23470008 4293269760
3.330091 -0.098226517 -0.21634012 4293269760
3.3323581 -0.098197423 -0.19795865 4293269760
3.3320839 -0.098093837 -0.17920223 4293269760
3.3156295 -0.097516656 -0.1594813 4293269760
3.3288252 -0.097807713 -0.14102706 4293269760
3.3330421 -0.097835742 -0.12194353 4293269760
3.3007667 -0.096798338 -0.10156557 4293139200
3.3170762 -0.097179689 -0.082657307 4293269760
3.3419914 -0.097810872 -0.063632779 4293269760
3.3371301 -0.09757401 -0.043862592 4293269760
3.3370068 -0.097475216 -0.024137795 4293269760
3.3544865 -0.097887777 -0.004410346 4293269760
3.357173 -0.097870052 0.015455975 4293400320
3.3407991 -0.097299576 0.035131719 4293269760
3.3672695 -0.097970903 0.055284973 4293400320
3.3742366 -0.098076373 0.075250223 4293400320
3.3761888 -0.098036453 0.095072024 4293400320
3.3318543 -0.096659735 0.11323154 4293269760
3.3600688 -0.097378425 0.13364887 4293400320
3.3762841 -0.097749628 0.15369681 4293400320
3.3570058 -0.097097896 0.17193843 4293400320
3.2269168 -0.093259953 0.18345648 4292878080
3.3661699 -0.097168669 0.21016929 4293400320
3.3777909 -0.09740556 0.22950453 4293400320
3.3623662 -0.096866071 0.24672608 4293400320
3.2371097 -0.09318088 0.25484771 4293008640
3.3928387 -0.09754432 0.28499702 4293530880
3.3992887 -0.097630695 0.30312571 4293530880
3.391499 -0.097309835 0.3196407 4293530880
3.3264565 -0.095355682 0.33003512 4293269760
3.1872416 -0.091290973 0.33169493 4292878080
3.3814726 -0.096728779 0.36797175 4293530880
3.3785422 -0.096546799 0.38326666 4293530880
3.3601205 -0.095924579 0.39627621 4293400320
3.3406193 -0.095272571 0.4085449 4293400320
3.2922521 -0.093802921 0.41653043 4293269760
3.3719652 -0.095964111 0.44038385 4293530880
3.3797727 -0.096085556 0.45469558 4293530880
3.3875976 -0.096206769 0.46855301 4293530880
3.3750689 -0.095752493 0.47904345 4293530880
3.3502908 -0.094953135 0.48711568 4293400320
3.3400877 -0.094565697 0.49663106 4293400320
3.3736718 -0.095411181 0.51216191 4293530880
3.3900003 -0.095769145 0.52463496 4293530880
3.3749504 -0.095244415 0.5316503 4293530880
3.3719223 -0.095057607 0.53989607 4293530880
3.3731775 -0.094990738 0.54819763 4293530880
3.3730638 -0.094885148 0.55564278 4293530880
3.3624966 -0.094486877 0.56069714 4293530880
3.3704691 -0.094606884 0.56818432 4293530880
3.3597281 -0.09420383 0.57184935 4293530880
3.3737109 -0.094490319 0.57905859 4293530880
3.3547902 -0.093859397 0.57993698 4293530880
3.3591371 -0.093876481 0.58414119 4293530880
3.3537486 -0.093622468 0.58596683 4293530880
3.3583219 -0.093644924 0.58884466 4293530880
3.3580887 -0.093533508 0.59019071 4293530880
3.3619111 -0.09353406 0.5915575 4293530880
3.3432086 -0.09291102 0.58826506 4293400320
3.3615499 -0.093312226 0.59079874 4293530880
3.3568661 -0.093076542 0.58858836 4293530880
3.3572068 -0.092979304 0.58657002 4293530880
3.3684113 -0.093180805 0.58575296 4293530880
3.3646681 -0.092970192 0.58164328 4293530880
3.3751419 -0.09314999 0.57930201 4293530880
3.3638148 -0.092730656 0.57254267 4293530880
3.3643851 -0.092637748 0.56715536 4293530880
3.3687947 -0.092649557 0.56174469 4293530880
3.3719575 -0.092626676 0.55545706 4293530880
3.3682158 -0.092414729 0.5473873 4293530880
3.3605213 -0.092094906 0.53806591 4293530880
3.355988 -0.091861397 0.52865773 4293530880
3.3430851 -0.091400146 0.51736641 4293400320
3.3697221 -0.092013955 0.51155794 4293530880
3.3718429 -0.091960296 0.50135154 4293530880
3.3711143 -0.091828965 0.49014118 4293530880
3.3245173 -0.089849338 0.40002939 4293269760
3.3574705 -0.090622589 0.38914952 4293400320
3.3750937 -0.090982154 0.37582818 4293530880
3.3645611 -0.09058594 0.3589164 4293400320
3.3351235 -0.089684382 0.33977509 4293269760
3.3420913 -0.089757547 0.3240751 4293400320
3.3587382 -0.090088412 0.30883685 4293400320
3.3421013 -0.089530736 0.29019296 4293269760
3.3085382 -0.088523395 0.27001604 4293269760
3.3330991 -0.089063644 0.2543368 4293269760
3.3445318 -0.08925347 0.23718169 4293269760
