# .PCD v0.7 - Point Cloud Data file format
VERSION 0.7
FIELDS x y z rgba
SIZE 4 4 4 4
TYPE F F F U
COUNT 1 1 1 1
WIDTH 1127
HEIGHT 1
VIEWPOINT 0 0 0 1 0 0 0
POINTS 1127
DATA ascii
1.2441161 1.4036449 -0.11510258 4288308480
1.2351866 1.3936586 -0.12456562 4288308480
1.2458533 1.4057829 -0.135883 4288308480
1.2611797 1.4231669 -0.14777258 4288439040
1.2602357 1.4221916 -0.15771116 4288439040
1.2461212 1.4063523 -0.16571087 4288308480
1.1604587 1.3097578 -0.16324475 4287916800
1.2486397 1.409373 -0.18505982 4288439040
1.2524146 1.4137232 -0.19485335 4288439040
1.2582055 1.4203501 -0.20481451 4288439040
1.2208818 1.3783036 -0.20730972 4288308480
1.0460477 1.1810009 -0.18476814 4287394560
1.2610703 1.4238542 -0.2311146 4288439040
1.2671481 1.4308071 -0.24037485 4288439040
1.2541965 1.4162725 -0.2457139 4288439040
1.2490568 1.4105577 -0.25219536 4288439040
1.2086062 1.3649634 -0.25099829 4288177920
1.2427227 1.4035825 -0.26495811 4288439040
1.2444952 1.4056733 -0.27191904 4288439040
1.2449782 1.4063079 -0.27830029 4288439040
1.2462636 1.407849 -0.28455159 4288439040
1.2432572 1.4045416 -0.28948969 4288439040
1.2419413 1.403144 -0.29446986 4288439040
1.237772 1.3985219 -0.29841235 4288439040
1.2212962 1.3799938 -0.29896611 4288308480
1.2099826 1.3672967 -0.30033815 4288177920
1.1579939 1.3086315 -0.29106432 4287916800
1.1140144 1.2590107 -0.28317785 4287786240
1.1293446 1.276417 -0.28995249 4287786240
1.068707 1.2079592 -0.27678797 4287525120
1.0775802 1.2180656 -0.28118446 4287525120
1.0871371 1.2289462 -0.28546414 4287655680
1.0836736 1.2251085 -0.2860024 4287655680
1.0893837 1.2316419 -0.28862852 4287655680
1.0866481 1.2286267 -0.28868309 4287655680
1.0865607 1.2286057 -0.28910121 4287655680
1.0767258 1.2175622 -0.28658623 4287525120
1.0708437 1.2109874 -0.28478798 4287525120
1.0610849 1.2000273 -0.28163162 4287525120
1.1187998 1.2653798 -0.29601094 4287786240
1.1624258 1.3148047 -0.30621758 4288047360
1.1876204 1.343387 -0.31112379 4288177920
1.2004197 1.357951 -0.31235981 4288177920
1.2242899 1.3850414 -0.31603995 4288308480
1.233979 1.3960911 -0.31561846 4288439040
1.2461425 1.4099419 -0.31540683 4288439040
1.2457089 1.4095405 -0.31160879 4288439040
1.2408456 1.4041264 -0.30635789 4288439040
1.2403401 1.4036434 -0.30184546 4288439040
1.2407861 1.404237 -0.29721543 4288439040
1.2303495 1.3925138 -0.28967649 4288308480
1.2141829 1.3743033 -0.28056803 4288308480
1.2209115 1.3820066 -0.276467 4288308480
1.2401993 1.4039284 -0.27476737 4288439040
1.2589082 1.4251974 -0.27243444 4288439040
1.246375 1.411098 -0.26300102 4288439040
1.2323625 1.395322 -0.2531026 4288308480
1.227321 1.3897018 -0.24486779 4288308480
1.2374598 1.4012706 -0.23935218 4288308480
1.2428448 1.4074577 -0.23255108 4288439040
1.2386549 1.4028016 -0.22368979 4288308480
1.2163924 1.3776761 -0.21149051 4288177920
1.2293347 1.3924228 -0.20523541 4288308480
1.248505 1.4142258 -0.19956495 4288439040
1.2492751 1.4151877 -0.19058909 4288439040
1.2286655 1.391929 -0.17828764 4288308480
1.2291961 1.3926183 -0.16900559 4288308480
1.2425916 1.407884 -0.16119729 4288308480
1.2403897 1.4054781 -0.15110096 4288308480
1.2176876 1.379842 -0.13854088 4288177920
1.2373655 1.402229 -0.13067199 4288308480
1.2444069 1.410298 -0.12110609 4288308480
1.2434882 1.409346 -0.11058209 4288308480
1.2323686 1.3968318 -0.099131957 4288308480
1.2288944 1.392982 -0.088312566 4288308480
1.2377266 1.4030825 -0.078234367 4288308480
1.2325974 1.3973564 -0.067156501 4288308480
1.2127826 1.3749801 -0.055423893 4288177920
1.2290499 1.3935113 -0.045309927 4288308480
1.241726 1.4079728 -0.034757674 4288308480
1.2432414 1.4097804 -0.023728743 4288308480
1.2398686 1.4060447 -0.01259675 4288308480
1.2557542 1.4241498 -0.0015341702 4288439040
1.2518828 1.419849 0.0096623767 4288439040
1.2345517 1.4002813 0.020556001 4288308480
1.3181599 1.495208 0.033699509 4288700160
1.4623978 1.6589241 0.050384883 4289483520
1.46606 1.6631839 0.063487872 4289483520
1.4550383 1.6507847 0.075822674 4289483520
1.4606329 1.6572369 0.088894166 4289483520
1.4611953 1.6579801 0.1016179 4289483520
1.4536861 1.6495639 0.11361126 4289483520
1.4220222 1.6137357 0.12325976 4289222400
1.4590048 1.655809 0.13876715 4289483520
1.459123 1.6560482 0.15093082 4289483520
1.4494892 1.6452184 0.16184364 4289352960
1.4108102 1.6014179 0.16894491 4289222400
1.476747 1.6763692 0.18860152 4289614080
1.4813364 1.6816854 0.20077772 4289614080
1.4636557 1.6617187 0.20961528 4289483520
1.4429064 1.6382654 0.21749091 4289352960
1.3888837 1.5770284 0.21955797 4289091840
1.4748377 1.674732 0.24372941 4289614080
1.4675156 1.6665231 0.25278115 4289483520
1.4504781 1.6472795 0.25971079 4289483520
1.4416251 1.6373291 0.26764145 4289352960
1.4218181 1.6149355 0.2730535 4289352960
1.4553684 1.6531475 0.28848633 4289483520
1.4595084 1.6579551 0.2979961 4289483520
1.4553772 1.6533669 0.30548128 4289483520
1.4483876 1.6455307 0.31195816 4289483520
1.4434758 1.6400542 0.31846386 4289483520
1.4384891 1.6344918 0.32453933 4289483520
1.4461049 1.6432495 0.33309829 4289483520
1.4441487 1.6411306 0.33909801 4289483520
1.4392513 1.6356688 0.34398827 4289483520
1.4418546 1.6387312 0.35026476 4289483520
1.4375305 1.6339201 0.35444862 4289483520
1.4365147 1.6328691 0.35901916 4289483520
1.4311472 1.6268709 0.36206612 4289352960
1.4287724 1.6242743 0.36542687 4289352960
1.4279433 1.6234345 0.36874935 4289352960
1.430807 1.6267934 0.37260017 4289352960
1.432479 1.6287977 0.37571546 4289483520
1.4295776 1.6256014 0.3771911 4289352960
1.4228323 1.6180336 0.3771987 4289352960
1.4258835 1.6216063 0.37935662 4289352960
1.4289738 1.6252238 0.38108575 4289352960
1.425621 1.6215132 0.38065124 4289352960
1.4255701 1.621558 0.38065141 4289352960
1.4326563 1.6297216 0.38210931 4289483520
1.438952 1.636987 0.38290277 4289483520
1.4318417 1.6290015 0.37968338 4289483520
1.4365512 1.634463 0.37915459 4289483520
1.4313426 1.6286399 0.37556693 4289483520
1.4320155 1.6295089 0.37309042 4289483520
1.4313788 1.6288877 0.36983734 4289483520
1.4379317 1.6364483 0.36799592 4289483520
1.44192 1.6410912 0.36504263 4289483520
1.447786 1.6478719 0.36211139 4289483520
1.4419628 1.6413479 0.35583779 4289483520
1.4389665 1.6380411 0.34987989 4289483520
1.4281732 1.6258575 0.3416746 4289352960
1.4275209 1.6252179 0.33554611 4289352960
1.4379793 1.6372285 0.331599 4289483520
1.4561497 1.6580217 0.328917 4289483520
1.4527284 1.6542308 0.32091215 4289483520
1.420922 1.6186746 0.2600185 4289352960
1.446211 1.6475874 0.25496894 4289483520
1.460633 1.6641233 0.2474491 4289483520
1.4536161 1.6562337 0.23597082 4289483520
1.4262303 1.6251335 0.22117129 4289352960
1.434795 1.6349963 0.21183582 4289352960
1.4463781 1.6483001 0.20255923 4289483520
1.4335668 1.6338038 0.18965335 4289352960
1.4111499 1.6083577 0.17554346 4289222400
1.4323753 1.6326528 0.16667551 4289352960
1.441788 1.6434857 0.15600221 4289352960
1.4399559 1.6415013 0.1438792 4289352960
1.4245406 1.6240313 0.13038567 4289352960
1.4406471 1.6424974 0.11962704 4289352960
1.3313763 1.5180129 0.099127561 4288830720
1.2598393 1.4365386 0.082886688 4288439040
1.2416395 1.4158759 0.070843101 4288308480
1.2485108 1.4238017 0.060251068 4288439040
1.2507331 1.4264264 0.049288649 4288439040
1.2361225 1.4098527 0.037719131 4288308480
1.2409695 1.4154707 0.026788527 4288308480
1.2429875 1.4178623 0.015705833 4288308480
1.2348241 1.4086396 0.0045318855 4288308480
1.2131954 1.3840542 -0.0064299582 4288177920
1.2217482 1.3938998 -0.017428277 4288308480
1.2249924 1.3976897 -0.028438576 4288308480
1.2228811 1.3953692 -0.039304849 4288308480
1.2252076 1.3981124 -0.050273962 4288308480
1.238153 1.4129742 -0.061760511 4288308480
1.2431427 1.4187585 -0.072942667 4288308480
1.2326261 1.4068453 -0.083088852 4288308480
1.2311547 1.4052551 -0.093650907 4288308480
1.2390834 1.4143946 -0.10488238 4288308480
1.2388756 1.414247 -0.11537813 4288308480
1.2237487 1.3970674 -0.12423091 4288308480
1.2343559 1.4092662 -0.13552225 4288308480
1.2520119 1.4295146 -0.14767176 4288439040
1.2552111 1.4332584 -0.15812473 4288439040
1.2376474 1.4132929 -0.16567621 4288308480
1.1528081 1.3164966 -0.16324475 4287916800
1.2457852 1.422766 -0.18586218 4288439040
1.2441567 1.4209961 -0.19485335 4288439040
1.2462679 1.4234977 -0.20421788 4288439040
1.2216718 1.3954922 -0.20882092 4288308480
1.0995724 1.2561001 -0.19551182 4287655680
1.2515783 1.4298351 -0.23089784 4288439040
1.2529092 1.4314462 -0.23925178 4288439040
1.2524549 1.4310179 -0.24700193 4288439040
1.2427186 1.4199835 -0.25258178 4288439040
1.2006332 1.3719819 -0.25099829 4288177920
1.2336756 1.4098294 -0.26477599 4288439040
1.2388911 1.4158794 -0.27249241 4288439040
1.2391016 1.4162097 -0.27882639 4288439040
1.233485 1.4098796 -0.28350466 4288439040
1.2325926 1.408949 -0.28891301 4288439040
1.2275195 1.403239 -0.29298392 4288308480
1.2263522 1.4019934 -0.29762346 4288308480
1.2041372 1.3766841 -0.29672414 4288308480
1.1954999 1.3668957 -0.298715 4288177920
1.1445055 1.3086734 -0.28958559 4287916800
1.1040636 1.2625105 -0.28251344 4287786240
1.1160482 1.276296 -0.288443 4287786240
1.0584073 1.2104554 -0.27594227 4287525120
1.0672222 1.2206141 -0.28033262 4287525120
1.0702317 1.2241337 -0.28289306 4287525120
1.0765175 1.2314013 -0.2860024 4287655680
1.0795965 1.2350018 -0.28793699 4287655680
1.0794715 1.234937 -0.28868309 4287655680
1.0696625 1.2237929 -0.28649735 4287525120
1.0663733 1.2201072 -0.28571799 4287525120
1.0572894 1.2097903 -0.28305301 4287525120
1.1145824 1.2754281 -0.29779816 4287786240
1.099094 1.2577842 -0.29273114 4287655680
1.1450229 1.3104275 -0.30363926 4287916800
1.1797734 1.3502836 -0.31112379 4288177920
1.1957295 1.3686326 -0.313209 4288177920
1.2097145 1.3847276 -0.31435475 4288308480
1.2303729 1.408464 -0.31678963 4288439040
1.234805 1.4136273 -0.3146165 4288439040
1.2276601 1.4055368 -0.30913717 4288439040
1.2291311 1.4073102 -0.30548489 4288439040
1.2286984 1.406904 -0.30100206 4288439040
1.2291397 1.4074985 -0.29638499 4288439040
1.2222155 1.3996583 -0.28967649 4288308480
1.2090801 1.3847036 -0.28124836 4288308480
1.2095867 1.3853717 -0.27572566 4288308480
1.2287451 1.4074036 -0.27404174 4288308480
1.2429035 1.4237108 -0.27076143 4288439040
1.2322707 1.4116209 -0.26175588 4288439040
1.214438 1.3912809 -0.25108182 4288308480
1.2126843 1.38936 -0.24355845 4288308480
1.2260134 1.4047201 -0.2387172 4288308480
1.2367138 1.4170699 -0.23294479 4288439040
1.2262756 1.4051986 -0.22292894 4288308480
1.2117542 1.3886465 -0.21208718 4288308480
1.2244687 1.4033061 -0.20578453 4288308480
1.2369753 1.4177293 -0.19903895 4288439040
1.2383924 1.4194434 -0.19018728 4288439040
1.213991 1.3915628 -0.17733176 4288308480
1.2177882 1.3960038 -0.16855253 4288308480
1.2301693 1.4102863 -0.16064899 4288308480
1.2348578 1.4157511 -0.15142933 4288308480
1.2129049 1.3906707 -0.13891622 4288177920
1.2258964 1.4056553 -0.13032348 4288308480
1.2296102 1.4100031 -0.12046352 4288308480
1.2326316 1.4135574 -0.11034716 4288308480
1.2183031 1.3972143 -0.098653674 4288308480
1.2240399 1.4038826 -0.088550009 4288308480
1.2203388 1.3997265 -0.077649482 4288308480
1.2185248 1.3977345 -0.066832334 4288308480
1.2047511 1.3820227 -0.055423893 4288177920
1.2268221 1.4074308 -0.045529332 4288308480
1.2269324 1.4076464 -0.03457256 4288308480
1.225809 1.4064467 -0.023552023 4288308480
1.2316556 1.4132446 -0.01259675 4288308480
1.2441506 1.4276724 -0.0015301303 4288439040
1.2470181 1.4310535 0.0096890172 4288439040
1.2198033 1.3999113 0.020445894 4288308480
1.3059086 1.4988253 0.033608977 4288700160
1.44023 1.6530943 0.049952112 4289352960
1.4530621 1.6679288 0.063344754 4289483520
1.4421135 1.6554662 0.075650491 4289352960
1.4417646 1.6551707 0.088331245 4289352960
1.4515108 1.6664652 0.1016179 4289483520
1.4414271 1.6549932 0.11340485 4289352960
1.4060394 1.6144646 0.12268764 4289222400
1.4460557 1.6605182 0.13845338 4289483520
1.442898 1.6569973 0.1502486 4289483520
1.4372597 1.650627 0.16154921 4289352960
1.4014561 1.6096103 0.16894491 4289222400
1.4610664 1.6781808 0.18784443 4289483520
1.4656274 1.6835265 0.19997463 4289614080
1.450681 1.6664636 0.20914409 4289483520
1.4300704 1.6428915 0.21699524 4289352960
1.3731422 1.5775914 0.21851882 4289091840
1.4585289 1.6757978 0.24264368 4289483520
1.4464294 1.6620011 0.25081274 4289483520
1.4437888 1.6590723 0.26023942 4289483520
1.4261973 1.6389617 0.2665455 4289352960
1.4065242 1.6164564 0.27192044 4289222400
1.4489664 1.6653389 0.28913569 4289483520
1.4433192 1.6589537 0.29665911 4289483520
1.436618 1.651356 0.30355805 4289483520
1.435527 1.6502067 0.31125373 4289483520
1.4306489 1.6447034 0.31774265 4289483520
1.4230998 1.6361285 0.3232125 4289352960
1.4332625 1.6479172 0.33234608 4289483520
1.4280778 1.6420602 0.33756515 4289483520
1.4296972 1.6440264 0.34398827 4289483520
1.4193246 1.6322025 0.34709591 4289352960
1.425396 1.6392885 0.35380563 4289483520
1.4237401 1.637488 0.35820478 4289483520
1.4184088 1.6314597 0.36124206 4289352960
1.4160503 1.6288503 0.36459404 4289352960
1.4152271 1.6280067 0.36790875 4289352960
1.418072 1.6313829 0.37175268 4289352960
1.4171475 1.6304228 0.37417942 4289352960
1.4168509 1.630185 0.37633282 4289352960
1.4133713 1.6262846 0.37719607 4289352960
1.4073668 1.6194783 0.37693417 4289352960
1.4072168 1.6194085 0.37779328 4289352960
1.4161496 1.6297917 0.38065124 4289352960
1.4096392 1.6224021 0.37891519 4289352960
1.4199073 1.6343237 0.38124216 4289352960
1.4076831 1.6203564 0.37708795 4289352960
1.4190967 1.633598 0.37882116 4289352960
1.4173133 1.6316487 0.37657976 4289352960
1.4218296 1.6369517 0.37556693 4289483520
1.4192661 1.6341041 0.37224293 4289352960
1.416047 1.6305012 0.36832419 4289352960
1.4257869 1.6418203 0.36732966 4289483520
1.4226338 1.6382933 0.36257038 4289483520
1.4316918 1.6488291 0.36048263 4289483520
1.4265517 1.6430137 0.35439104 4289483520
1.4268093 1.6434147 0.34924611 4289483520
1.4122009 1.6266918 0.34011504 4289352960
1.4180278 1.6335074 0.33554611 4289352960
1.4263155 1.6431588 0.33111137 4289483520
1.446465 1.6664773 0.328917 4289483520
1.4430659 1.6626667 0.32091215 4289483520
1.4114672 1.6269257 0.2600185 4289352960
1.4302459 1.6486757 0.25384349 4289352960
1.4476566 1.6688514 0.24689378 4289483520
1.443942 1.6646746 0.23597082 4289483520
1.4130896 1.6292095 0.22060178 4289352960
1.4252448 1.643328 0.21183582 4289352960
1.4367502 1.6566991 0.20255923 4289483520
1.427287 1.6458915 0.19008796 4289352960
1.4017553 1.616552 0.17554346 4289222400
1.4145184 1.6313744 0.16570082 4289352960
1.4289211 1.6480896 0.15564634 4289352960
1.4303677 1.649863 0.1438792 4289352960
1.4117852 1.6285323 0.13008444 4289222400
1.4245129 1.6433182 0.11908031 4289352960
1.3166218 1.5189514 0.098686248 4288830720
1.2455592 1.4370598 0.082496636 4288439040
1.233003 1.4226633 0.070822068 4288308480
1.2428695 1.4341385 0.060381036 4288439040
1.2358545 1.4261346 0.049028929 4288308480
1.2213401 1.4094748 0.037518006 4288308480
1.2294278 1.4188985 0.026717382 4288308480
1.2248837 1.4137437 0.015580893 4288308480
1.2167742 1.4044729 0.0044955965 4288308480
1.202492 1.3880757 -0.0064159841 4288177920
1.2103328 1.3972152 -0.017381266 4288177920
1.2168283 1.404803 -0.028438576 4288308480
1.2225935 1.4115485 -0.039559271 4288308480
1.2137688 1.4014488 -0.050138794 4288308480
1.2257051 1.4153206 -0.06154988 4288308480
1.2348557 1.4259772 -0.072942667 4288308480
1.2244086 1.414003 -0.083088852 4288308480
1.2196777 1.4086289 -0.09340059 4288308480
1.2308218 1.4215899 -0.10488238 4288308480
1.2273483 1.417668 -0.11507187 4288308480
1.2155883 1.4041735 -0.12423091 4288308480
1.2261243 1.4164339 -0.13552225 4288308480
1.234527 1.4262314 -0.14658707 4288439040
1.2434975 1.4366862 -0.15770091 4288439040
1.2326517 1.4242457 -0.16611546 4288439040
1.1825041 1.3663902 -0.16857436 4288177920
1.2277063 1.4187118 -0.184395 4288308480
1.2414473 1.4346817 -0.19573483 4288439040
1.2347004 1.4269753 -0.20368131 4288439040
1.2102697 1.3988289 -0.2082615 4288308480
1.0922354 1.262485 -0.19551182 4287655680
1.2432265 1.4371028 -0.23089784 4288439040
1.2469488 1.4414971 -0.23971333 4288439040
1.2370106 1.4300991 -0.24559516 4288439040
1.2279404 1.4197032 -0.25125507 4288439040
1.1983517 1.3855817 -0.25220472 4288177920
1.2189637 1.4095037 -0.26337653 4288308480
1.2268683 1.4187338 -0.27166146 4288439040
1.2273995 1.4194382 -0.27804935 4288439040
1.2278928 1.4200989 -0.28411621 4288439040
1.2266748 1.4187804 -0.28945854 4288439040
1.2262371 1.4183642 -0.29464522 4288439040
1.2179083 1.4088199 -0.2975612 4288308480
1.2080426 1.3974965 -0.29968783 4288308480
1.1875157 1.3738377 -0.298715 4288177920
1.1304111 1.3078564 -0.28794253 4287916800
1.0934652 1.2651913 -0.28168291 4287655680
1.1021472 1.2753178 -0.28676581 4287786240
1.042315 1.2061611 -0.27357429 4287394560
1.0478516 1.2126451 -0.27709559 4287525120
1.0598609 1.226621 -0.28203604 4287525120
1.0628847 1.2301987 -0.28427994 4287525120
1.0659437 1.2338177 -0.28620806 4287525120
1.0658197 1.2337525 -0.28694972 4287525120
1.0567203 1.2232969 -0.28493506 4287525120
1.0534528 1.219592 -0.28415522 4287525120
1.0437855 1.2084767 -0.28131801 4287525120
1.1071327 1.2819003 -0.29779816 4287786240
1.0949662 1.2678938 -0.29359424 4287786240
1.1315739 1.3103662 -0.30209225 4287916800
1.165447 1.349677 -0.30941421 4288047360
1.1933492 1.3820777 -0.31468943 4288308480
1.2060703 1.3968993 -0.31551734 4288308480
1.21018 1.4017483 -0.31368795 4288308480
1.2294471 1.4241558 -0.31536016 4288439040
1.2240212 1.4179606 -0.31029588 4288439040
1.2232962 1.4172107 -0.30608168 4288439040
1.2225468 1.4164326 -0.30151165 4288439040
1.217692 1.4108974 -0.29560173 4288308480
1.210223 1.4023323 -0.28876567 4288308480
1.1919507 1.3812473 -0.27913108 4288177920
1.1983148 1.3887104 -0.27499592 4288308480
1.2140609 1.4070476 -0.27259046 4288308480
1.2313544 1.4271806 -0.27005234 4288439040
1.2240254 1.4187763 -0.26175588 4288439040
1.2120564 1.4049922 -0.25227758 4288308480
1.1980934 1.3888948 -0.24224913 4288177920
1.2113298 1.4043283 -0.23744725 4288308480
1.2219548 1.4167362 -0.23171566 4288308480
1.2180678 1.4123193 -0.22292894 4288308480
1.2036431 1.3956828 -0.21208718 4288308480
1.2130265 1.4066527 -0.20523541 4288308480
1.2254473 1.4211464 -0.19851296 4288308480
1.2260073 1.4218863 -0.1895543 4288308480
1.199687 1.3914491 -0.17642353 4288177920
1.2034554 1.3959086 -0.1676916 4288177920
1.2219318 1.4174297 -0.16064899 4288308480
1.2200803 1.4153718 -0.15062587 4288308480
1.2011625 1.3935144 -0.13849887 4288177920
1.2170856 1.4120772 -0.13025922 4288308480
1.2302278 1.4274156 -0.12133673 4288308480
1.2236425 1.4198649 -0.11028114 4288308480
1.2074685 1.4011863 -0.098435737 4288308480
1.2093704 1.4034824 -0.088078834 4288308480
1.2141218 1.409086 -0.077774957 4288308480
1.2165186 1.4119575 -0.067172363 4288308480
1.1981536 1.3907304 -0.055492204 4288177920
1.2172986 1.4130423 -0.045480657 4288308480
1.2206702 1.4170461 -0.034628157 4288308480
1.2221702 1.4188775 -0.023640543 4288308480
1.220138 1.4166081 -0.012563152 4288308480
1.2332013 1.4318659 -0.0015268982 4288439040
1.2360491 1.4352638 0.0096685998 4288439040
1.214889 1.4107829 0.020500947 4288308480
1.2873677 1.4950433 0.033355415 4288700160
1.4305743 1.6614573 0.049952112 4289352960
1.4407109 1.6733363 0.063230254 4289483520
1.4291837 1.6600533 0.075478308 4289352960
1.4255779 1.6559701 0.087929159 4289352960
1.4352599 1.6673229 0.10115857 4289483520
1.4252453 1.6557941 0.11288881 4289352960
1.4031221 1.6301959 0.12325976 4289222400
1.4337525 1.6658893 0.13820235 4289483520
1.4332196 1.6653758 0.1502486 4289483520
1.4178607 1.6476339 0.16044503 4289352960
1.3823011 1.6064136 0.16776122 4289222400
1.4480145 1.6828882 0.18742381 4289483520
1.449298 1.6844867 0.1990823 4289483520
1.4409472 1.6748873 0.20914409 4289483520
1.4204743 1.6511955 0.21699524 4289352960
1.3804476 1.6047693 0.22116554 4289222400
1.4422581 1.6767306 0.24155794 4289483520
1.4393132 1.6734133 0.25126517 4289483520
1.4188818 1.6497636 0.25747818 4289352960
1.4166241 1.6472433 0.2665455 4289352960
1.3938484 1.6208627 0.27129099 4289222400
1.4301885 1.6632273 0.28731748 4289483520
1.4245838 1.6568145 0.29478732 4289483520
1.4237436 1.6559426 0.3028712 4289483520
1.4226611 1.6547887 0.31054929 4289483520
1.4178169 1.6492589 0.31702146 4289352960
1.4135432 1.644392 0.3232125 4289352960
1.4178371 1.6494921 0.33099213 4289483520
1.42019 1.6523343 0.33797053 4289483520
1.4143 1.6455861 0.34258467 4289352960
1.4130088 1.6441883 0.34788814 4289352960
1.415821 1.6475654 0.35380563 4289483520
1.4083884 1.6390203 0.3567389 4289352960
1.4056655 1.6359555 0.36041799 4289352960
1.4065362 1.6370729 0.36459404 4289352960
1.3999366 1.629495 0.36639559 4289352960
1.4053321 1.6358794 0.37090519 4289352960
1.3979936 1.6274403 0.37161934 4289352960
1.3977003 1.6272024 0.37375802 4289352960
1.3974543 1.6270193 0.37547168 4289352960
1.4004647 1.6306279 0.37762368 4289352960
1.403523 1.6342927 0.3793515 4289352960
1.4002141 1.6305435 0.37891501 4289352960
1.396955 1.6268517 0.37804708 4289352960
1.4039456 1.6350967 0.3795079 4289352960
1.3982188 1.6285304 0.37708795 4289352960
1.4095548 1.6418382 0.37882116 4289352960
1.4020077 1.6331511 0.37503487 4289352960
1.402474 1.6337981 0.37296233 4289352960
1.4031616 1.6347032 0.37051082 4289352960
1.4090915 1.6417156 0.36899671 4289352960
1.3984798 1.6294558 0.3627342 4289352960
1.4098529 1.6428117 0.36174631 4289352960
1.4130656 1.64666 0.35820234 4289483520
1.4201686 1.6550424 0.35519481 4289483520
1.4107807 1.6442063 0.34766167 4289352960
1.4026995 1.634892 0.34011504 4289352960
1.4026957 1.6349914 0.3341665 4289352960
1.4109247 1.6446879 0.32975739 4289352960
1.4302915 1.6673694 0.32744274 4289483520
1.427556 1.6642863 0.31961399 4289483520
1.4019644 1.6351217 0.2600185 4289352960
1.4236821 1.6605567 0.25439131 4289483520
1.4314407 1.6697123 0.24578315 4289483520
1.4251587 1.6624905 0.23448022 4289483520
1.4035736 1.6374148 0.22060178 4289352960
1.4156463 1.6516038 0.21183582 4289352960
1.4205935 1.6574811 0.20163946 4289352960
1.4111907 1.646615 0.18921873 4289352960
1.389719 1.6216644 0.17521638 4289222400
1.4049896 1.6395879 0.16570082 4289352960
1.4102085 1.6457828 0.1546499 4289352960
1.4174849 1.6543798 0.14355046 4289352960
1.3990259 1.6329399 0.1297832 4289222400
1.4149144 1.6515898 0.11908031 4289352960
1.3109986 1.5303892 0.098931417 4288830720
1.2339158 1.4404985 0.082279943 4288439040
1.2279437 1.4336176 0.071010031 4288308480
1.2344928 1.4413553 0.060381036 4288439040
1.2332963 1.4400499 0.049259458 4288439040
1.2196107 1.4241606 0.037719131 4288308480
1.2178884 1.4222398 0.026646234 4288308480
1.2134308 1.4171244 0.015539972 4288308480
1.2067893 1.4094576 0.0044889692 4288308480
1.1878809 1.3874619 -0.0063810484 4288177920
1.1976218 1.3989285 -0.017315483 4288177920
1.2085423 1.4117745 -0.028436679 4288308480
1.2078475 1.4110525 -0.039347477 4288308480
1.2023838 1.4047589 -0.050005738 4288177920
1.2115895 1.415604 -0.061254174 4288308480
1.2199488 1.4254615 -0.072551474 4288308480
1.219141 1.4246083 -0.083293229 4288308480
1.2115065 1.4157771 -0.093404941 4288308480
1.2216737 1.4277495 -0.10480992 4288308480
1.2191186 1.4248539 -0.11507665 4288308480
1.2073866 1.4112319 -0.12423091 4288308480
1.2146091 1.419764 -0.13516149 4288308480
1.2282724 1.4358265 -0.14683525 4288439040
1.235106 1.4439065 -0.15770091 4288439040
1.2236288 1.4305801 -0.16601993 4288439040
1.1712873 1.3694732 -0.16810992 4288047360
1.2194197 1.4258406 -0.184395 4288308480
1.2298349 1.4381104 -0.19522171 4288439040
1.2174612 1.4237316 -0.20220239 4288308480
1.1930581 1.3952826 -0.20669512 4288177920
1.0758251 1.2582587 -0.19388331 4287655680
1.2316071 1.440549 -0.23029473 4288439040
1.2353055 1.4449668 -0.2390894 4288439040
1.2286575 1.4372818 -0.24559516 4288439040
1.219648 1.4268334 -0.25125507 4288439040
1.1870403 1.3887748 -0.25152278 4288177920
1.210731 1.4165817 -0.26337653 4288308480
1.2153667 1.422096 -0.27094474 4288439040
1.2158954 1.4228052 -0.27731648 4288439040
1.2137613 1.4203984 -0.28275648 4288439040
1.2093495 1.4153254 -0.28731126 4288308480
1.2053099 1.4106876 -0.29158673 4288308480
1.2096795 1.4158918 -0.2975612 4288308480
1.1966741 1.4007585 -0.29888713 4288308480
1.1737231 1.3739808 -0.29725415 4288177920
1.1227722 1.3144202 -0.28794253 4287916800
1.0796709 1.2640424 -0.28002182 4287655680
1.0914971 1.2779694 -0.28592721 4287786240
1.091188 1.2776887 -0.28835085 4287786240
1.0407686 1.2187295 -0.27709559 4287525120
1.0501373 1.2297783 -0.28135043 4287525120
1.0556992 1.2363704 -0.28427994 4287525120
1.0497835 1.2295203 -0.28378761 4287525120
1.0522188 1.2324511 -0.28521633 4287525120
1.0495752 1.2294328 -0.28493506 4287525120
1.0399355 1.2182188 -0.28241879 4287525120
1.0341694 1.2115412 -0.280624 4287394560
1.0996453 1.2883289 -0.29779816 4287786240
1.077969 1.2630137 -0.29100493 4287655680
1.1271178 1.3206834 -0.30295172 4287916800
1.1712956 1.3725355 -0.31308472 4288177920
1.1852767 1.389007 -0.31468943 4288308480
1.2004704 1.4069018 -0.31619143 4288308480
1.2042783 1.4114543 -0.31428447 4288308480
1.2124882 1.4211669 -0.31312871 4288439040
1.2144006 1.4234991 -0.30995429 4288439040
1.2094469 1.4177827 -0.30467814 4288308480
1.2142737 1.4235314 -0.30151165 4288439040
1.2062465 1.4142108 -0.29481846 4288308480
1.1962615 1.4025936 -0.28737938 4288308480
1.1896559 1.3949375 -0.28049219 4288308480
1.1927704 1.3986783 -0.27558899 4288308480
1.2050071 1.4131174 -0.27240163 4288308480
1.229441 1.4418629 -0.27147052 4288439040
1.2113711 1.4207613 -0.26081556 4288308480
1.2006358 1.4082599 -0.25160399 4288308480
1.1903018 1.3962277 -0.2423144 4288177920
1.2028631 1.411052 -0.23739509 4288308480
1.2136799 1.4238316 -0.23171566 4288308480
1.2040217 1.412591 -0.22186077 4288308480
1.1896914 1.395867 -0.21105829 4288177920
1.2040857 1.4128458 -0.20511197 4288308480
1.2224377 1.4344709 -0.19937591 4288439040
1.2144759 1.4252187 -0.18905205 4288308480
1.1915598 1.3984151 -0.17642353 4288177920
1.1953022 1.4028965 -0.1676916 4288177920
1.2046068 1.4139071 -0.15945159 4288308480
1.2050838 1.414557 -0.14978942 4288308480
1.1930232 1.400489 -0.13849887 4288177920
1.2088379 1.4191442 -0.13025922 4288308480
1.2186551 1.4307604 -0.12101544 4288308480
1.2121129 1.4231701 -0.10998747 4288308480
1.2025217 1.4119987 -0.098701447 4288308480
1.1979347 1.4067023 -0.087841392 4288177920
1.2026527 1.4123323 -0.077566065 4288308480
1.2050322 1.4152168 -0.066992275 4288308480
1.1835507 1.3900769 -0.055190045 4288177920
1.2032127 1.4132597 -0.045261253 4288308480
1.2123935 1.4241339 -0.034628157 4288308480
1.2138828 1.4259741 -0.023640543 4288308480
1.2145071 1.4267982 -0.012590555 4288308480
1.2215972 1.435219 -0.0015228583 4288308480
1.2276659 1.4424409 0.0096685998 4288439040
1.21281 1.4250766 0.020605626 4288308480
1.2701659 1.492566 0.033134475 4288569600
1.4111515 1.6583431 0.049610451 4289352960
1.4265344 1.6765274 0.063035704 4289483520
1.4104208 1.6576954 0.074996196 4289352960
1.4126682 1.6604426 0.08772812 4289352960
1.422285 1.6718524 0.10092891 4289352960
1.4091033 1.6564631 0.11237278 4289352960
1.3780757 1.620092 0.12188666 4289222400
1.4143231 1.6628109 0.13726103 4289352960
1.4234924 1.6736978 0.1502486 4289483520
1.4101777 1.6581484 0.16066612 4289352960
1.3638771 1.6038082 0.16665643 4289091840
1.4349576 1.6875005 0.1870032 4289483520
1.4330072 1.6853142 0.19818999 4289483520
1.4247159 1.6756696 0.20820169 4289483520
1.4011619 1.6480716 0.21550822 4289352960
1.3684976 1.6097538 0.22074988 4289222400
1.4298892 1.6820754 0.24112365 4289483520
1.4195026 1.6699632 0.24950109 4289483520
1.4121391 1.6614063 0.25800678 4289352960
1.397361 1.6441243 0.26471895 4289352960
1.377957 1.6213968 0.27003202 4289222400
1.4204741 1.6715317 0.28731748 4289483520
1.4181153 1.6688622 0.29545581 4289483520
1.4076577 1.6566612 0.30149749 4289352960
1.4097906 1.659277 0.30984485 4289483520
1.4024175 1.6507043 0.31572333 4289352960
1.397535 1.6450619 0.32173827 4289352960
1.4082029 1.6577247 0.33099213 4289483520
1.410539 1.6605806 0.33797053 4289483520
1.3988779 1.6469572 0.34116754 4289352960
1.4002095 1.64863 0.34709591 4289352960
1.3966143 1.6445017 0.35139436 4289352960
1.3860421 1.6321568 0.35348138 4289352960
1.3929181 1.6403582 0.3595939 4289352960
1.3905923 1.6377236 0.36292842 4289352960
1.390419 1.6376237 0.36639559 4289352960
1.3900367 1.6372778 0.36937976 4289352960
1.3884881 1.6355578 0.37161934 4289352960
1.385646 1.632314 0.3730714 4289352960
1.3879511 1.6351335 0.37547168 4289352960
1.3909404 1.6387596 0.37762368 4289352960
1.3876046 1.6349336 0.37761724 4289352960
1.3849554 1.6319159 0.37735239 4289352960
1.3874528 1.634963 0.37804708 4289352960
1.3918465 1.6402448 0.37881419 4289352960
1.3916416 1.6401078 0.37788484 4289352960
1.3935926 1.6425117 0.37709674 4289352960
1.3924688 1.6412917 0.37503487 4289352960
1.3865571 1.6344277 0.37125561 4289352960
1.3937535 1.6430153 0.37054798 4289352960
1.3937635 1.6431317 0.36748356 4289352960
1.3947028 1.6443437 0.36423329 4289352960
1.3977057 1.647989 0.36108702 4289352960
1.4034479 1.6548648 0.35820234 4289483520
1.4041183 1.6557608 0.35358727 4289483520
1.3922372 1.641855 0.34544346 4289352960
1.3931504 1.6430366 0.34011504 4289352960
1.3899508 1.6393673 0.33340007 4289352960
1.398122 1.6491098 0.32900518 4289352960
1.4147965 1.6688842 0.32611591 4289483520
1.4114367 1.6650269 0.31817156 4289483520
1.3924141 1.643262 0.2600185 4289352960
1.405159 1.6584086 0.25280374 4289352960
1.4216883 1.6780239 0.24578315 4289483520
1.4154485 1.6707655 0.23448022 4289483520
1.3843645 1.6341786 0.21907541 4289222400
1.3995665 1.6522292 0.21086657 4289352960
1.4141306 1.6695287 0.20209935 4289352960
1.3989978 1.6517682 0.18887103 4289352960
1.3770267 1.6259309 0.17480755 4289222400
1.3928357 1.6447023 0.16539477 4289352960
1.3973728 1.650165 0.15429403 4289352960
1.404598 1.6588029 0.14322171 4289352960
1.3862633 1.6372542 0.12948197 4289222400
1.4052678 1.6598054 0.11908031 4289352960
1.2865714 1.5197061 0.097754583 4288700160
1.225141 1.4472364 0.082255691 4288439040
1.2098858 1.4293067 0.070446141 4288308480
1.228392 1.4512616 0.060495183 4288439040
1.2184271 1.4395804 0.048999734 4288308480
1.2118732 1.4319282 0.037737213 4288308480
1.2063518 1.425495 0.026575089 4288308480
1.2077376 1.4272234 0.015573288 4288308480
1.2043704 1.4233351 0.0045107426 4288308480
1.1858747 1.401566 -0.0064140288 4288177920
1.1926804 1.4096993 -0.017362494 4288177920
1.1970676 1.4149749 -0.028360179 4288308480
1.1998824 1.4183925 -0.039356545 4288308480
1.1974069 1.4155564 -0.050140906 4288308480
1.2057086 1.4254614 -0.0613757 4288308480
1.2083966 1.4287302 -0.072358273 4288308480
1.2075946 1.4278731 -0.083071344 4288308480
1.2000127 1.4189986 -0.093154617 4288308480
1.2075323 1.4279814 -0.1043087 4288308480
1.2107964 1.4319326 -0.11507665 4288308480
1.2029443 1.422737 -0.12462461 4288308480
1.2029029 1.4227788 -0.13477899 4288308480
1.2166679 1.4391514 -0.14644787 4288439040
1.2189542 1.4419478 -0.15670864 4288439040
1.2152731 1.4376849 -0.16601993 4288439040
1.1632886 1.3762741 -0.16810992 4288047360
1.2095786 1.4311306 -0.18416461 4288308480
1.2180315 1.4412236 -0.19467768 4288439040
1.2091455 1.4308006 -0.20220239 4288308480
1.1938881 1.4128362 -0.2082615 4288308480
1.068476 1.2645053 -0.19388331 4287655680
1.2191215 1.442881 -0.22952811 4288439040
1.2204627 1.4445605 -0.23784155 4288439040
1.2201834 1.444322 -0.24557918 4288439040
1.2100432 1.4324104 -0.2509914 4288439040
1.1699792 1.3850721 -0.24961336 4288177920
1.1992625 1.4198295 -0.26267684 4288308480
1.2038677 1.4253725 -0.27022806 4288308480
1.2043939 1.4260864 -0.27658361 4288308480
1.1997237 1.4206471 -0.28140977 4288308480
1.2010829 1.4223473 -0.28731126 4288308480
1.1970705 1.417686 -0.29158673 4288308480
1.1924911 1.4123526 -0.29535225 4288308480
1.1853088 1.4039357 -0.2980864 4288308480
1.1625155 1.3770258 -0.29644257 4288177920
1.1087321 1.3134019 -0.2862995 4287916800
1.0691077 1.2665436 -0.27919129 4287655680
1.0783099 1.2775267 -0.28441775 4287655680
1.0250113 1.2144587 -0.27272859 4287394560
1.0304728 1.2210073 -0.27624375 4287525120
1.0366006 1.2283465 -0.27963635 4287525120
1.0395842 1.2319605 -0.28186849 4287525120
1.0426022 1.2356157 -0.28378761 4287525120
1.04248 1.2355497 -0.28452298 4287525120
1.0392191 1.2317635 -0.28406712 4287525120
1.0359954 1.2280205 -0.28328699 4287525120
1.0270932 1.217546 -0.280624 4287394560
1.082595 1.2834213 -0.29520077 4287786240
1.0705922 1.2692727 -0.29100493 4287655680
1.1067015 1.3121669 -0.29951394 4287916800
1.1632791 1.3793364 -0.31308472 4288177920
1.1708108 1.3883555 -0.31299105 4288177920
1.1897115 1.4108579 -0.31551734 4288308480
1.1992123 1.4222155 -0.31511953 4288308480
1.2010089 1.424437 -0.31230214 4288308480
1.1997273 1.4230076 -0.30832005 4288308480
1.1979855 1.4210323 -0.30387139 4288308480
1.199596 1.4230335 -0.29992074 4288308480
1.1942965 1.4168371 -0.29391038 4288308480
1.1871711 1.4084737 -0.2871621 4288308480
1.1783731 1.3981248 -0.27974784 4288177920
1.1788653 1.398798 -0.27425459 4288177920
1.1999415 1.4238969 -0.27312726 4288308480
1.2137762 1.4404057 -0.26986012 4288439040
1.2062638 1.4315817 -0.2615073 4288439040
1.1911359 1.4137182 -0.251335 4288308480
1.1847019 1.4061717 -0.24283813 4288308480
1.1971779 1.4210705 -0.23790307 4288308480
1.2070546 1.4328858 -0.2320407 4288308480
1.200696 1.4254284 -0.22277451 4288308480
1.1844176 1.4061928 -0.21157257 4288177920
1.1868696 1.4091938 -0.2035744 4288308480
1.2076535 1.4339623 -0.19832392 4288308480
1.2082044 1.434708 -0.18937381 4288308480
1.183392 1.4053336 -0.17642353 4288177920
1.1839011 1.4060278 -0.16723855 4288177920
1.1987221 1.4237204 -0.15976794 4288308480
1.2058095 1.4322293 -0.15091427 4288308480
1.1759933 1.3969034 -0.13746437 4288177920
1.1973369 1.4223472 -0.12991069 4288308480
1.206249 1.4330255 -0.12061054 4288308480
1.2025172 1.428683 -0.1098702 4288308480
1.1910596 1.4151609 -0.098435737 4288308480
1.1922116 1.41662 -0.088025458 4288308480
1.1879706 1.4116707 -0.077148288 4288177920
1.1903321 1.414567 -0.066632092 4288177920
1.1722142 1.3931248 -0.055038963 4288177920
1.1885222 1.4125963 -0.045017473 4288177920
1.1976948 1.4235891 -0.034444652 4288308480
1.2026113 1.4295241 -0.023582835 4288308480
1.1939429 1.4193106 -0.012462886 4288308480
1.209088 1.4374061 -0.0015176784 4288308480
1.2128043 1.4419162 0.0096175559 4288308480
1.2012684 1.4282922 0.020550571 4288308480
1.2614483 1.4999409 0.033134475 4288569600
1.3982484 1.6627108 0.049496565 4289352960
1.4135258 1.6809849 0.062892586 4289352960
1.3923855 1.6559502 0.07454896 4289352960
1.3997551 1.6648209 0.087527081 4289352960
1.4035205 1.6694058 0.10028584 4289352960
1.3962711 1.660889 0.11211925 4289352960
1.3743855 1.6349599 0.12240071 4289222400
1.4046111 1.6710228 0.13726103 4289352960
1.4072977 1.6743257 0.14956637 4289352960
1.39151 1.6556479 0.15963556 4289352960
1.3545098 1.6117271 0.16665643 4289091840
1.4186908 1.6882036 0.18616198 4289483520
1.4206009 1.6905844 0.19783305 4289483520
1.4172977 1.686761 0.20855026 4289483520
1.3940406 1.659188 0.21589608 4289352960
1.3558968 1.6138922 0.22023031 4289091840
1.4136705 1.6827662 0.24003792 4289483520
1.4129444 1.6820091 0.25006661 4289483520
1.3992418 1.6658034 0.25741923 4289352960
1.3852048 1.6491976 0.26423186 4289352960
1.3659348 1.6263589 0.26952845 4289222400
1.4043345 1.6721864 0.28601876 4289483520
1.4019949 1.6695069 0.29411882 4289483520
1.3979819 1.6648344 0.30149749 4289352960
1.3969163 1.6636715 0.30914044 4289352960
1.3864136 1.6512685 0.31428093 4289352960
1.3847469 1.6493888 0.32100114 4289352960
1.3953425 1.6621152 0.33023992 4289352960
1.3870884 1.6523886 0.33465275 4289352960
1.3829081 1.6475137 0.33960801 4289352960
1.3816937 1.646172 0.34487772 4289352960
1.3781263 1.6420265 0.34914383 4289352960
1.3891945 1.6553198 0.3567389 4289352960
1.3744609 1.6378683 0.35728651 4289352960
1.3753226 1.6389997 0.36142933 4289352960
1.3776861 1.641921 0.36555496 4289352960
1.3773068 1.6415737 0.36853227 4289352960
1.3732357 1.6368259 0.3700833 4289352960
1.3761122 1.6403593 0.3730714 4289352960
1.3695478 1.6326385 0.37306011 4289352960
1.3725172 1.6362827 0.37520385 4289352960
1.3723596 1.6361991 0.3760564 4289352960
1.375424 1.6399573 0.37735239 4289352960
1.3722084 1.6362276 0.37648445 4289352960
1.3791023 1.6445531 0.37794706 4289352960
1.3696551 1.6333916 0.37449247 4289352960
1.3732955 1.6378375 0.37418032 4289352960
1.3854145 1.6523963 0.37572148 4289352960
1.3770111 1.6424783 0.37125561 4289352960
1.3783202 1.6441449 0.36898535 4289352960
1.3746676 1.6398925 0.36496165 4289352960
1.3793981 1.6456406 0.3627342 4289352960
1.3880804 1.6561043 0.36108702 4289352960
1.3912028 1.6599356 0.35753939 4289352960
1.3855722 1.6533228 0.35133672 4289352960
1.3883554 1.6567495 0.34686944 4289352960
1.3746724 1.6405261 0.33793169 4289352960
1.3740293 1.6398633 0.33186722 4289352960
1.382141 1.6496496 0.32750076 4289352960
1.4018734 1.6733079 0.32537875 4289483520
1.4019806 1.6735427 0.31823257 4289483520
1.3732556 1.6399292 0.25822073 4289222400
1.39212 1.6625631 0.25219634 4289352960
1.4061457 1.6794206 0.24478358 4289483520
1.3993074 1.6713599 0.23341548 4289352960
1.3700923 1.6365694 0.21832205 4289222400
1.3835279 1.6527236 0.20989732 4289352960
1.397988 1.6701038 0.20117956 4289352960
1.3805386 1.6493632 0.18767311 4289222400
1.3611336 1.6262833 0.17398986 4289222400
1.3753833 1.6434138 0.16445655 4289222400
1.3845342 1.6544536 0.15393816 4289352960
1.3885059 1.6593056 0.14256422 4289352960
1.3709357 1.6384133 0.12893975 4289222400
1.3833995 1.6534142 0.11804152 4289222400
1.2710584 1.5192434 0.097246803 4288700160
1.2106365 1.4471158 0.08184655 4288308480
1.2048843 1.4403319 0.070642345 4288308480
1.2109379 1.4476608 0.06004997 4288308480
1.2074536 1.4435877 0.048895847 4288308480
1.1939533 1.4275383 0.037437554 4288308480
1.1941794 1.4278998 0.026489761 4288308480
1.1968358 1.4311674 0.015539972 4288308480
1.1838691 1.4157523 0.0044647767 4288177920
1.1744815 1.4046156 -0.0063965614 4288177920
1.1786742 1.4097199 -0.017277874 4288177920
1.1791832 1.4104187 -0.028130682 4288177920
1.1855524 1.4181273 -0.039156862 4288177920
1.185213 1.4178119 -0.04997535 4288177920
1.1941781 1.4286277 -0.061211418 4288308480
1.2032561 1.4395798 -0.072551474 4288308480
1.1928484 1.4272192 -0.082627557 4288308480
1.1908215 1.4248849 -0.093084 4288308480
1.1895883 1.4235003 -0.10347334 4288308480
1.1992331 1.4351331 -0.1147704 4288308480
1.188237 1.4220648 -0.1239572 4288308480
1.1966416 1.4322147 -0.13501009 4288308480
1.2082624 1.4462156 -0.14644787 4288439040
1.2105324 1.4490253 -0.15670864 4288439040
1.2068763 1.444741 -0.16601993 4288439040
1.1431226 1.3685093 -0.16634512 4288047360
1.20122 1.4381536 -0.18416461 4288308480
1.2064258 1.4444783 -0.19416456 4288439040
1.200789 1.437821 -0.20220239 4288308480
1.1881745 1.4228075 -0.20870735 4288308480
1.0579076 1.2668971 -0.19330172 4287655680
1.207513 1.4461495 -0.228925 4288439040
1.2088462 1.4478385 -0.23721762 4288439040
1.2117478 1.4514065 -0.24557918 4288439040
1.2048532 1.4432404 -0.25165474 4288439040
1.1644289 1.3949071 -0.25015891 4288177920
1.1930023 1.4292274 -0.26312509 4288308480
1.192372 1.4285634 -0.26951134 4288308480
1.1960648 1.4330792 -0.27658361 4288308480
1.1940156 1.4307153 -0.28202131 4288308480
1.1927757 1.4293209 -0.28731126 4288308480
1.192753 1.4293849 -0.29255867 4288308480
1.1842421 1.4192762 -0.29535225 4288308480
1.1771091 1.4108176 -0.2980864 4288308480
1.1481516 1.3761988 -0.29481941 4288177920
1.1499557 1.3784492 -0.29901311 4288177920
1.0617104 1.272751 -0.27919129 4287655680
1.0708485 1.2837875 -0.28441775 4287655680
1.0737008 1.2872893 -0.28767428 4287786240
1.0208169 1.2239635 -0.27556226 4287394560
1.0262715 1.230582 -0.27877933 4287525120
1.0323889 1.2379965 -0.28186849 4287525120
1.0322317 1.2378869 -0.28292316 4287525120
1.0352638 1.2416024 -0.28452298 4287525120
1.0288718 1.2340152 -0.28319916 4287525120
1.0168412 1.2196639 -0.27998778 4287394560
1.0136758 1.2159448 -0.278889 4287394560
1.0694234 1.2828983 -0.29364231 4287655680
1.0600256 1.2717056 -0.29014182 4287655680
1.1053451 1.3261598 -0.30123281 4287916800
1.155223 1.3860905 -0.31308472 4288177920
1.1658567 1.3989385 -0.31384024 4288177920
1.1814713 1.4177655 -0.31551734 4288308480
1.1854956 1.4226855 -0.31368795 4288308480
1.1958461 1.4351987 -0.31312871 4288439040
1.1907868 1.4292179 -0.30815718 4288308480
1.195181 1.4345837 -0.30527493 4288439040
1.1881253 1.4262058 -0.29912528 4288308480
1.18855 1.4268067 -0.29453698 4288308480
1.1821067 1.4191625 -0.28793228 4288308480
1.1638811 1.3973711 -0.27823547 4288177920
1.1699842 1.4047885 -0.27408794 4288177920
1.1847889 1.4226552 -0.27156034 4288308480
1.2053635 1.447453 -0.26986012 4288439040
1.1915652 1.4309746 -0.26012382 4288308480
1.1771727 1.4137807 -0.25012255 4288308480
1.1644367 1.3985742 -0.24035041 4288177920
1.1855137 1.4239802 -0.23722984 4288308480
1.1866219 1.4254024 -0.22970538 4288308480
1.1866535 1.4255315 -0.22170633 4288308480
1.173027 1.4092519 -0.21100096 4288177920
1.1786393 1.4160849 -0.2035744 4288308480
1.1903723 1.4302731 -0.19685112 4288308480
1.199825 1.4417229 -0.18937381 4288308480
1.1745973 1.4114991 -0.17633541 4288177920
1.1782869 1.4160235 -0.16760807 4288177920
1.1872207 1.4268508 -0.15934029 4288308480
1.1876898 1.4275059 -0.14968486 4288308480
1.1646459 1.3998984 -0.13708903 4288177920
1.1800981 1.4185624 -0.12893485 4288177920
1.1978794 1.440029 -0.12061054 4288308480
1.1922556 1.4333599 -0.1096938 4288308480
1.1770474 1.4151666 -0.097957447 4288177920
1.1807443 1.4197022 -0.087788016 4288177920
1.1791424 1.4178667 -0.077110142 4288177920
1.1822103 1.4216466 -0.06663999 4288177920
1.1701107 1.4071863 -0.055324215 4288177920
1.1796883 1.4187951 -0.044995211 4288177920
1.1797923 1.4190108 -0.034166981 4288177920
1.1875961 1.4284881 -0.0234512 4288308480
1.1938845 1.4361439 -0.012549405 4288308480
1.2006928 1.4444261 -0.0015176784 4288308480
1.2043829 1.4489578 0.0096175559 4288308480
1.1897308 1.4314218 0.020495517 4288308480
1.2526879 1.5072649 0.033134475 4288569600
1.3859816 1.6677536 0.049405452 4289352960
1.4016618 1.6867293 0.062800899 4289352960
1.384622 1.6663307 0.07465183 4289352960
1.3874775 1.6698738 0.087366246 4289352960
1.3937703 1.6775547 0.10028584 4289352960
1.3871534 1.6696972 0.11216637 4289352960
1.3559147 1.6322 0.12160059 4289222400
1.3891121 1.6722686 0.13669625 4289352960
1.3900361 1.6734879 0.14876555 4289352960
1.3786542 1.6598911 0.1592675 4289352960
1.341912 1.615757 0.16626188 4289091840
1.4062845 1.6933742 0.1858255 4289483520
1.4107271 1.6988325 0.19783305 4289483520
1.39619 1.6814339 0.20688236 4289352960
1.3793205 1.6612241 0.21511167 4289352960
1.3239357 1.594622 0.21654445 4289091840
1.3974925 1.6833254 0.23895217 4289483520
1.3942357 1.6795099 0.24848314 4289352960
1.3869755 1.6708709 0.25694922 4289352960
1.3844478 1.6679324 0.26593664 4289352960
1.3501004 1.6266559 0.26826951 4289222400
1.3914021 1.676525 0.28536943 4289352960
1.3890798 1.6738338 0.29345033 4289352960
1.3856789 1.6698425 0.30093727 4289352960
1.3846709 1.6687344 0.30857688 4289352960
1.37361 1.6555103 0.31355974 4289352960
1.3751137 1.6574286 0.32100114 4289352960
1.3761665 1.6588036 0.32798332 4289352960
1.3774378 1.660442 0.33465275 4289352960
1.3707633 1.6525019 0.33898419 4289352960
1.3632543 1.6435546 0.34265953 4289352960
1.3688887 1.650453 0.34923378 4289352960
1.370079 1.6519938 0.35429576 4289352960
1.3617469 1.6420523 0.35646245 4289352960
1.3682678 1.6500208 0.36209559 4289352960
1.3618044 1.6423316 0.36387372 4289352960
1.3645741 1.645777 0.36768481 4289352960
1.3605314 1.6410062 0.36922994 4289352960
1.3633881 1.6445569 0.37221313 4289352960
1.3662894 1.6481619 0.37478191 4289352960
1.3629512 1.64424 0.37520126 4289352960
1.3628035 1.6441671 0.3760564 4289352960
1.3627037 1.6441518 0.37648427 4289352960
1.3626521 1.6441946 0.37648445 4289352960
1.3600713 1.6411855 0.37534568 4289352960
1.3636382 1.6455948 0.37546238 4289352960
1.3687028 1.6518123 0.37554476 4289352960
1.3581647 1.6391993 0.37091517 4289352960
1.3586175 1.6398507 0.36886621 4289352960
1.3625683 1.6447245 0.36732754 4289352960
1.3682343 1.6516694 0.36580229 4289352960
1.3666419 1.6498526 0.36190137 4289352960
1.3752623 1.6603655 0.36026296 4289352960
1.3720679 1.6566149 0.35509622 4289352960
1.375916 1.6613674 0.35133672 4289352960
1.3730114 1.6579661 0.34544346 4289352960
1.3556411 1.6370956 0.33559236 4289222400
1.3619308 1.6447964 0.33125407 4289352960
1.3725064 1.6576743 0.32750076 4289352960
1.385793 1.6738286 0.32390448 4289352960
1.3862604 1.6745002 0.3168734 4289352960
1.3636777 1.6479023 0.25822073 4289222400
1.3792437 1.6668192 0.25161871 4289352960
1.3931694 1.6837561 0.24422826 4289352960
1.3832074 1.6718233 0.23235075 4289352960
1.3605341 1.644524 0.21832205 4289222400
1.3713375 1.6576886 0.20950963 4289352960
1.3825216 1.671315 0.20035176 4289352960
1.3764813 1.6641192 0.18843642 4289352960
1.3516353 1.6341859 0.17398986 4289222400
1.3626077 1.6475574 0.16407397 4289222400
1.3685147 1.6548055 0.15322641 4289222400
1.3762714 1.6642913 0.14230122 4289352960
1.3613667 1.6463728 0.12893975 4289222400
1.3705615 1.6575985 0.11776816 4289222400
1.2500932 1.5119973 0.096315138 4288569600
1.2024652 1.4544839 0.081865638 4288308480
1.1932887 1.4434764 0.070454389 4288308480
1.1992989 1.4508396 0.059890963 4288308480
1.1990225 1.4505981 0.048895847 4288308480
1.1830037 1.4313098 0.037355073 4288308480
1.182655 1.4309794 0.026418613 4288308480
1.1821071 1.430408 0.015456679 4288308480
1.1819706 1.4303343 0.0044889692 4288308480
1.1599082 1.4037259 -0.0063616256 4288177920
1.1698593 1.4158593 -0.017269289 4288177920
1.1760429 1.4234343 -0.028253132 4288177920
1.1807264 1.4291945 -0.039271828 4288308480
1.1705658 1.4169863 -0.049705014 4288177920
1.1858344 1.4355609 -0.061211418 4288308480
1.1884848 1.4388616 -0.072165072 4288308480
1.184513 1.4341447 -0.082627557 4288308480
1.1793196 1.4279484 -0.092833675 4288308480
1.1896688 1.4405715 -0.10420863 4288308480
1.1844958 1.4343994 -0.11415788 4288308480
1.1767551 1.4251167 -0.1236235 4288308480
1.1819265 1.4314711 -0.13428858 4288308480
1.195147 1.4475756 -0.14587799 4288308480
1.1988972 1.4522109 -0.15629508 4288439040
1.1889261 1.440225 -0.16470218 4288308480
1.1319607 1.3713068 -0.16588069 4288047360
1.187119 1.43822 -0.18328431 4288308480
1.2011554 1.4553186 -0.19467768 4288439040
1.1952384 1.4482422 -0.20268516 4288308480
1.1678473 1.4151436 -0.20658155 4288177920
1.0473477 1.2692089 -0.19272012 4287525120
1.1990669 1.45316 -0.228925 4288439040
1.2055701 1.4611349 -0.23824124 4288439040
1.19696 1.4507924 -0.24429116 4288439040
1.183809 1.4349444 -0.24900132 4288308480
1.1680814 1.4159708 -0.25271162 4288308480
1.1758342 1.4254602 -0.26116586 4288308480
1.1800263 1.4306339 -0.26860034 4288308480
1.1834171 1.4348365 -0.27558738 4288308480
1.1793687 1.4300197 -0.28052494 4288308480
1.1838483 1.4355431 -0.28717065 4288308480
1.1812624 1.4324992 -0.29178244 4288308480
1.1696708 1.4185331 -0.29377443 4288308480
1.1688694 1.4176518 -0.2980864 4288308480
1.1513159 1.3964516 -0.29771605 4288177920
1.1331205 1.3744701 -0.29671285 4288047360
1.0929766 1.3258605 -0.28943962 4287916800
1.0539449 1.2785941 -0.28190196 4287655680
1.0686901 1.2965652 -0.28835085 4287786240
1.0136685 1.2298902 -0.27556226 4287394560
1.0190843 1.2365404 -0.27877933 4287525120
1.0157616 1.2325876 -0.27928481 4287525120
1.0250019 1.2438799 -0.28292316 4287525120
1.018618 1.2362119 -0.28192291 4287525120
1.0185335 1.2361884 -0.28233123 4287525120
1.0065868 1.2217671 -0.27911958 4287394560
1.0034432 1.2180295 -0.27802151 4287394560
1.0619309 1.2891072 -0.29364231 4287655680
1.0525984 1.2778599 -0.29014182 4287655680
1.1335363 1.3762072 -0.31109551 4288047360
1.1408639 1.3851922 -0.31137514 4288177920
1.1598834 1.408375 -0.31443584 4288308480
1.1698108 1.4205202 -0.31460828 4288308480
1.1771866 1.4295683 -0.31368795 4288308480
1.1808807 1.4341462 -0.31139269 4288308480
1.1824397 1.4361315 -0.30815718 4288308480
