# .PCD v0.7 - Point Cloud Data file format
VERSION 0.7
FIELDS x y z rgba
SIZE 4 4 4 4
TYPE F F F U
COUNT 1 1 1 1
WIDTH 1105
HEIGHT 1
VIEWPOINT 0 0 0 1 0 0 0
POINTS 1105
DATA ascii
3.4689763 0.65377277 0.60710967 4294053120
3.481797 0.65630227 0.61371273 4294183680
3.4811733 0.65629798 0.61724466 4294183680
3.4903467 0.65814096 0.62179911 4294183680
3.424746 0.64588273 0.61227161 4293922560
3.4935632 0.65897483 0.62604594 4294183680
3.4847095 0.65741813 0.62519568 4294183680
3.4846888 0.65752763 0.62519598 4294183680
3.484791 0.65766031 0.62448597 4294183680
3.4961171 0.65991151 0.62505114 4294183680
3.4867849 0.65826344 0.6211924 4294183680
3.4909735 0.65916777 0.61901796 4294183680
3.5087109 0.66263115 0.61850023 4294183680
3.512809 0.66351938 0.6148321 4294183680
3.5136094 0.66378486 0.60986298 4294183680
3.5014572 0.66160303 0.60195392 4294183680
3.5130692 0.6639114 0.59742838 4294183680
3.51529 0.66444552 0.59058547 4294183680
3.5128436 0.66409743 0.58227444 4294183680
3.5129681 0.66423523 0.57372051 4294183680
3.4903831 0.66007841 0.56085408 4294183680
3.4962769 0.6613068 0.55195993 4294183680
3.5276129 0.66734868 0.54633689 4294183680
3.5187526 0.66578698 0.53379577 4294183680
3.5222299 0.66655952 0.52253157 4294183680
3.4668846 0.6568141 0.42597383 4293922560
3.4905672 0.66141438 0.41318846 4294053120
3.5244348 0.66794658 0.40088317 4294183680
3.5138376 0.66605258 0.38296661 4294183680
3.4822297 0.66017455 0.36253852 4294053120
3.4837766 0.66058123 0.34530634 4294053120
3.4931035 0.66246337 0.32840776 4294053120
3.4871879 0.66145504 0.30969679 4294053120
3.4571846 0.65587646 0.28869539 4293922560
3.4595482 0.65643746 0.27022606 4293922560
3.4989936 0.66403598 0.25412792 4294053120
3.4950888 0.6634087 0.23440883 4294053120
3.458005 0.65648234 0.21243918 4293922560
3.4854164 0.66179967 0.19425285 4293922560
3.4931886 0.66338909 0.17455956 4294053120
3.4961495 0.66406518 0.1543742 4294053120
3.4514568 0.65568852 0.132162 4293922560
3.4588368 0.65720314 0.11201899 4293922560
3.4741304 0.66022211 0.091876522 4293922560
3.4669654 0.65897334 0.070992567 4293922560
3.4397573 0.6539138 0.049827117 4293792000
3.4515431 0.65626669 0.029264746 4293792000
3.4619501 0.65835816 0.0085254814 4293922560
3.4193044 0.65035951 -0.012159801 4293792000
3.4413364 0.65466207 -0.032938078 4293792000
3.4485741 0.65615118 -0.053715471 4293792000
3.4548397 0.6574558 -0.074501023 4293922560
3.4130838 0.64962077 -0.093959309 4293661440
3.4421446 0.65526402 -0.11518931 4293792000
3.4649704 0.65972203 -0.13639349 4293922560
3.4689298 0.66058886 -0.15686549 4293922560
3.416925 0.65079683 -0.17435819 4293792000
3.4411755 0.65552765 -0.19539048 4293792000
3.4511614 0.65754229 -0.21559696 4293922560
3.4645255 0.66020131 -0.23591189 4293922560
3.426913 0.65314543 -0.25236487 4293792000
3.4629197 0.66012084 -0.27395177 4293922560
3.4767063 0.66286206 -0.2937519 4293922560
3.474298 0.662516 -0.3119227 4293922560
3.460233 0.65994662 -0.32861799 4293922560
3.4481204 0.6577487 -0.34500152 4293922560
3.4603868 0.66020131 -0.36344209 4293922560
3.4737833 0.66287029 -0.38172433 4294053120
3.4653349 0.66137099 -0.39720663 4293922560
3.4315732 0.65503919 -0.40914881 4293922560
3.4676101 0.66203099 -0.42896116 4294053120
3.4797223 0.66445678 -0.44554648 4294053120
3.4824841 0.66509759 -0.46049753 4294053120
3.477185 0.6641987 -0.47385329 4294053120
3.4711394 0.66315693 -0.48652637 4294053120
3.4395962 0.65724266 -0.49493256 4293922560
3.453805 0.66007018 -0.50929219 4293922560
3.4552443 0.66045773 -0.52124351 4294053120
3.4543951 0.6604079 -0.53225571 4294053120
3.4589472 0.66139084 -0.54350114 4294053120
3.4567864 0.6610902 -0.55307484 4294053120
3.4665577 0.66307181 -0.56394064 4294053120
3.4584947 0.66164213 -0.57126027 4294053120
3.4548633 0.66105998 -0.57862258 4294053120
3.445437 0.65936852 -0.58431548 4294053120
3.4347892 0.65744263 -0.58908248 4293922560
3.4207394 0.65486485 -0.59253651 4293922560
3.401758 0.65134186 -0.59439331 4293792000
3.4242339 0.65575683 -0.60280144 4293922560
3.4208357 0.65521753 -0.60597652 4293922560
3.4203062 0.65522748 -0.60894728 4293922560
3.4198935 0.65525985 -0.61122578 4293922560
3.4050906 0.65253448 -0.61020952 4293922560
3.4097533 0.65353906 -0.61196131 4293922560
3.4048641 0.65271282 -0.61128289 4293922560
3.4183226 0.65540415 -0.61318016 4293922560
3.4259744 0.65698284 -0.61331278 4293922560
3.4393477 0.65965939 -0.61374122 4294053120
3.4300854 0.65799463 -0.60941178 4293922560
3.4417596 0.66034621 -0.60808498 4294053120
3.4437275 0.66083592 -0.60431892 4294053120
3.4548554 0.66308391 -0.60143703 4294053120
3.4545686 0.66314137 -0.59585172 4294053120
3.4574554 0.66380811 -0.59011531 4294053120
3.4607539 0.66455418 -0.58375138 4294053120
3.4466202 0.66195244 -0.57379413 4294053120
3.4447742 0.66171008 -0.56525326 4293922560
3.4341962 0.65978998 -0.55465788 4293922560
3.4249671 0.65812844 -0.54369324 4293922560
3.4215896 0.65759093 -0.53306729 4293922560
3.4544504 0.66401893 -0.52738196 4294053120
3.4481351 0.66291732 -0.51502973 4293922560
3.459506 0.66521609 -0.50471199 4294053120
3.4387 0.66132742 -0.4891609 4293922560
3.4160469 0.65708208 -0.47295284 4293792000
3.4359157 0.66101581 -0.46210331 4293922560
3.4430718 0.66250473 -0.44891348 4293922560
3.4536071 0.66464436 -0.43558389 4293922560
3.4171293 0.65773559 -0.41595072 4293792000
3.4199669 0.6583932 -0.40078446 4293792000
3.4500964 0.66430598 -0.38821501 4293922560
3.4616282 0.66663915 -0.37292415 4293922560
3.4529605 0.66508245 -0.35502982 4293922560
3.412029 0.65730971 -0.33367276 4293792000
3.4345868 0.66176724 -0.31824532 4293792000
3.4412949 0.66317189 -0.30084723 4293922560
3.4371016 0.66247576 -0.28215221 4293792000
3.4091575 0.65720087 -0.26137152 4293792000
3.4451997 0.66426116 -0.24516319 4293922560
3.4467297 0.66466844 -0.22602385 4293922560
3.4538872 0.6661613 -0.20695788 4293922560
3.4591405 0.66728717 -0.18748178 4293922560
3.430985 0.66196764 -0.16612376 4293792000
3.4416506 0.6641376 -0.14656553 4293792000
3.4502187 0.66590339 -0.12664637 4293922560
3.42784 0.66169596 -0.10553612 4293792000
3.4526944 0.66660625 -0.085750297 4293922560
3.4696047 0.66998416 -0.065425307 4293922560
3.4636123 0.66893989 -0.044532444 4293922560
3.455888 0.6675607 -0.023651443 4293922560
3.4821095 0.67273927 -0.0028655871 4293922560
3.4900661 0.6743902 0.018144432 4294053120
3.4488716 0.66654253 0.038679693 4293792000
3.489799 0.67456609 0.060092412 4294053120
3.5092995 0.67844981 0.081434071 4294053120
3.5156651 0.67979503 0.10253794 4294053120
3.4390693 0.6650964 0.12069543 4293792000
3.507596 0.6784634 0.14376533 4294053120
3.5098612 0.67901599 0.16438095 4294053120
3.5015898 0.67752987 0.18429041 4294053120
3.3225958 0.64300424 0.19393954 4293400320
3.5194514 0.68121541 0.22540629 4294053120
3.51109 0.6797114 0.24455482 4294053120
3.5054758 0.67873877 0.26354998 4294053120
3.3175879 0.64246762 0.26749858 4293400320
3.5310831 0.68392718 0.3036384 4294183680
3.5374339 0.68527251 0.32281002 4294183680
3.5321288 0.68435997 0.34056854 4294183680
3.4610319 0.67069751 0.35122037 4293922560
3.2567682 0.6312204 0.34659994 4293269760
3.5442679 0.68705851 0.39430812 4294314240
3.5276151 0.68394536 0.40904942 4294183680
3.504231 0.67952579 0.42236829 4294183680
3.4570479 0.67048895 0.43202946 4293922560
3.3431637 0.64851028 0.43217081 4293530880
3.5340245 0.68564886 0.47152323 4294183680
3.5356734 0.68608403 0.48589733 4294314240
3.5174673 0.68266582 0.49692926 4294183680
3.4902208 0.67749166 0.50594938 4294053120
3.4139962 0.66280687 0.50692469 4293792000
3.3524508 0.65096754 0.50902617 4293661440
3.5243344 0.6844582 0.54632849 4294183680
3.5201468 0.68375969 0.55624402 4294183680
3.5142448 0.68272781 0.56521982 4294183680
3.5206652 0.68408996 0.57552642 4294314240
3.5013971 0.68046016 0.58093864 4294183680
3.492666 0.67887717 0.58736002 4294183680
3.4926224 0.67898262 0.59454149 4294183680
3.4963989 0.67983079 0.60168958 4294183680
3.479501 0.67665863 0.60455871 4294183680
3.483489 0.67754775 0.6103301 4294183680
3.4827499 0.67751759 0.61456609 4294183680
3.4956639 0.68014377 0.62050611 4294183680
3.4445109 0.67030334 0.61431891 4294053120
3.4392936 0.66940022 0.61555922 4294053120
3.4245298 0.66663837 0.61436075 4293922560
3.4895201 0.67940348 0.62675828 4294183680
3.4943321 0.68045431 0.62762672 4294183680
3.4809003 0.67795223 0.62448597 4294183680
3.4714568 0.67622614 0.6213361 4294053120
3.492559 0.68045068 0.62291682 4294183680
3.4909418 0.68024945 0.6197046 4294183680
3.4876564 0.67972296 0.61547643 4294183680
3.5137203 0.68491727 0.61567956 4294314240
3.5145202 0.68518782 0.61070365 4294314240
3.5168991 0.68576628 0.60528529 4294314240
3.5130138 0.68512321 0.59808767 4294183680
3.5162013 0.6858595 0.59139991 4294183680
3.5176334 0.68625361 0.58372122 4294183680
3.5187294 0.68658215 0.57530499 4294183680
3.5048981 0.68399769 0.5638172 4294183680
3.5107923 0.68526244 0.55487233 4294183680
3.513962 0.68599576 0.54483247 4294183680
3.532167 0.6896649 0.53643113 4294314240
3.5231426 0.68801779 0.52325279 4294183680
3.4776144 0.67985892 0.4277716 4294053120
3.5003023 0.68440849 0.4148058 4294053120
3.5178993 0.68796396 0.4005889 4294183680
3.5121961 0.6869632 0.38321739 4294183680
3.4743426 0.67967266 0.36212352 4294053120
3.4837759 0.68163168 0.34569404 4294053120
3.5077517 0.68643713 0.33015534 4294053120
3.4930518 0.6836744 0.31056601 4294053120
3.4718883 0.67964548 0.29024899 4293922560
3.4733629 0.68004745 0.27160999 4293922560
3.4895868 0.68333775 0.25372958 4294053120
3.4986501 0.68522668 0.23491146 4294053120
3.4541216 0.67661822 0.21243918 4293922560
3.4885595 0.683478 0.19464666 4294053120
3.4980855 0.68545842 0.17500088 4294053120
3.498399 0.68563402 0.15464729 4294053120
3.4480698 0.6758827 0.13218085 4293922560
3.4758904 0.68144941 0.11269797 4293922560
3.4764547 0.68167347 0.092041463 4293922560
3.4639716 0.67933881 0.071011111 4293922560
3.4407952 0.67490578 0.049898263 4293792000
3.4538927 0.67758745 0.029317642 4293922560
3.4597356 0.6788466 0.008529623 4293922560
3.4213898 0.67143428 -0.012180923 4293792000
3.4306915 0.67337161 -0.032873183 4293792000
3.4509282 0.67745626 -0.053812709 4293922560
3.4617388 0.67969149 -0.07473392 4293922560
3.4201524 0.67163783 -0.094260037 4293792000
3.449405 0.67749488 -0.1155624 4293922560
3.4633775 0.68035221 -0.1364845 4293922560
3.4752398 0.68279588 -0.15732805 4293922560
3.4159267 0.6712538 -0.17450385 4293792000
3.4556243 0.67916739 -0.19643223 4293922560
3.4650497 0.68113297 -0.21670882 4293922560
3.4510298 0.67848963 -0.2352581 4293922560
3.4278576 0.67404574 -0.25271934 4293792000
3.4667895 0.68181431 -0.27456751 4293922560
3.4812984 0.68478137 -0.29447198 4294053120
3.4782398 0.68429321 -0.31262922 4294053120
3.4636521 0.68153638 -0.3293142 4293922560
3.4547725 0.67990184 -0.34605756 4293922560
3.4708345 0.68317616 -0.36495128 4294053120
3.4725077 0.68361878 -0.38201538 4294053120
3.4559047 0.68046302 -0.39657339 4293922560
3.4330516 0.67607534 -0.40978777 4293922560
3.4693401 0.68333489 -0.42966038 4294053120
3.4852405 0.68658042 -0.44675767 4294053120
3.4805915 0.6857782 -0.46076778 4294053120
3.480108 0.6857965 -0.4747881 4294053120
3.4784517 0.68558359 -0.48810288 4294053120
3.4463913 0.67937714 -0.49647146 4293922560
3.4550481 0.68119645 -0.51005208 4294053120
3.4618161 0.68264377 -0.52282602 4294053120
3.4614515 0.6826849 -0.53394681 4294053120
3.4611666 0.68274164 -0.54446566 4294053120
3.4675341 0.68411088 -0.55542272 4294053120
3.4575791 0.68225968 -0.56311715 4294053120
3.4541664 0.68169898 -0.57119167 4294053120
3.4520059 0.68138528 -0.57879907 4294053120
3.454215 0.68193412 -0.58646804 4294053120
3.4444444 0.68011761 -0.59140795 4294053120
3.4132712 0.67407376 -0.5919131 4293922560
3.4211113 0.67573375 -0.59845269 4293922560
3.3944035 0.67056924 -0.59822774 4293792000
3.407295 0.67322719 -0.60426247 4293922560
3.3869853 0.66932487 -0.60369891 4293792000
3.3952723 0.67107338 -0.60751379 4293792000
3.4244192 0.67694598 -0.61436963 4293922560
3.4203796 0.6762591 -0.61456513 4293922560
3.4010034 0.67253917 -0.61128289 4293922560
3.4183106 0.67607325 -0.61387414 4293922560
3.409802 0.67450166 -0.61111075 4293922560
3.4175637 0.67614859 -0.61054653 4293922560
3.4406893 0.68083626 -0.61199009 4294053120
3.4513853 0.68306541 -0.61047846 4294053120
3.4529388 0.68348563 -0.60662389 4294053120
3.4505076 0.68311703 -0.60136282 4294053120
3.4563739 0.68439126 -0.59684074 4294053120
3.4602139 0.68526459 -0.59125751 4294053120
3.4497702 0.6833089 -0.58256036 4294053120
3.454417 0.68434215 -0.57574612 4294053120
3.4411521 0.68182659 -0.56530118 4293922560
3.4321439 0.68015379 -0.55495703 4293922560
3.4214849 0.67815316 -0.54375845 4293922560
3.432169 0.68038291 -0.53532398 4293922560
3.4566357 0.68534595 -0.52831626 4294053120
3.4649401 0.6871056 -0.51812893 4294053120
3.4634874 0.6869306 -0.50586814 4294053120
3.449276 0.68422461 -0.49122411 4293922560
3.427227 0.67996269 -0.47504118 4293922560
3.4391282 0.68243617 -0.46306223 4293922560
3.4550662 0.68571162 -0.45099056 4293922560
3.4585853 0.68652296 -0.43670884 4293922560
3.423099 0.67959082 -0.41715229 4293792000
3.430613 0.6811946 -0.40249038 4293922560
3.4492407 0.68500602 -0.38856122 4293922560
3.4615357 0.6875608 -0.37333938 4293922560
3.4561739 0.68660867 -0.35576552 4293922560
3.4144127 0.67842382 -0.33428678 4293792000
3.4336991 0.68236804 -0.31852606 4293792000
3.4419715 0.68412441 -0.30124974 4293922560
3.4448268 0.68480444 -0.2831091 4293922560
3.4198649 0.67995381 -0.2624917 4293792000
3.4479213 0.68564475 -0.24563695 4293922560
3.4522986 0.68662798 -0.22664754 4293922560
3.4510481 0.68649197 -0.20702389 4293922560
3.4555805 0.68750638 -0.18750274 4293922560
3.4407852 0.68467522 -0.16678859 4293792000
3.4532025 0.68725884 -0.14722548 4293922560
3.4548867 0.68770689 -0.12696265 4293922560
3.4376509 0.68438834 -0.10595915 4293792000
3.4559591 0.68814611 -0.085929491 4293922560
3.4768314 0.69241571 -0.065636531 4293922560
3.483192 0.69379622 -0.044835392 4293922560
3.464057 0.69009799 -0.023734465 4293922560
3.4755325 0.69249761 -0.0028634465 4293922560
3.4855888 0.69461519 0.018141888 4293922560
3.4684651 0.69131601 0.03894395 4293922560
3.5011032 0.69793564 0.060356062 4294053120
3.5239155 0.70259833 0.081866838 4294183680
3.515146 0.70096469 0.10264018 4294053120
3.4351358 0.68512183 0.12069543 4293792000
3.5069184 0.69955313 0.14390218 4294053120
3.5205402 0.70238537 0.16506995 4294183680
3.492686 0.69694227 0.1840324 4294053120
3.3285837 0.66430545 0.19451167 4293530880
3.5229094 0.70320332 0.22588633 4294183680
3.5256593 0.70386732 0.24585105 4294183680
3.5054724 0.69995177 0.26385188 4294053120
3.3235643 0.66373795 0.26828772 4293530880
3.5381298 0.70670372 0.30459324 4294183680
3.5480318 0.70879751 0.32414851 4294314240
3.5378442 0.70687783 0.34151092 4294183680
3.4717021 0.69377577 0.35270739 4294053120
3.2627883 0.65213364 0.34763908 4293269760
3.5362208 0.70690012 0.39386439 4294183680
3.5235705 0.70448637 0.40904942 4294183680
3.5050814 0.70090425 0.42295584 4294183680
3.4579494 0.69159234 0.43263829 4293922560
3.3490565 0.66992313 0.43342975 4293661440
3.5387962 0.70799303 0.47270221 4294314240
3.5413337 0.70861644 0.48723432 4294314240
3.5279989 0.70606345 0.49898985 4294314240
3.5046589 0.70150685 0.50862622 4294183680
3.4236605 0.68540579 0.50894403 4293922560
3.3573296 0.6722362 0.51035303 4293661440
3.5290112 0.70672727 0.54768246 4294314240
3.5306375 0.70716828 0.55854332 4294314240
3.5286093 0.70687735 0.56818295 4294314240
3.5253329 0.7063362 0.5769524 4294314240
3.5022118 0.70181811 0.58174241 4294183680
3.492521 0.69999027 0.5880115 4294183680
3.5107009 0.7037487 0.59830678 4294183680
3.505914 0.70290369 0.60402149 4294183680
3.4803321 0.69788849 0.60539937 4294183680
3.4843137 0.69880074 0.61117756 4294183680
3.4970992 0.70147926 0.61780888 4294183680
3.43139 0.68841082 0.60979861 4293922560
3.4357183 0.68939149 0.61345667 4294053120
3.4440262 0.69117105 0.61711645 4294053120
3.4302437 0.68851721 0.61609507 4293922560
3.495158 0.70166099 0.6284945 4294183680
3.4903083 0.70080143 0.62762672 4294183680
3.4904094 0.70093584 0.62691396 4294183680
3.4819424 0.69934934 0.62393159 4294183680
3.4972267 0.70253348 0.6244688 4294183680
3.4965777 0.70251739 0.6214211 4294183680
3.5007517 0.70347041 0.61850023 4294183680
3.5096703 0.70537734 0.61567956 4294314240
3.5008042 0.70370984 0.60902238 4294183680
3.5128441 0.70624483 0.60528529 4294314240
3.5238812 0.708579 0.60063046 4294314240
3.5256875 0.70905745 0.59368014 4294314240
3.5232518 0.70868272 0.5853287 4294314240
3.5148818 0.70711404 0.57533973 4294183680
3.5056953 0.70538056 0.56459701 4294183680
3.5067403 0.70570546 0.55487233 4294183680
3.523901 0.70927411 0.54700494 4294314240
3.5242102 0.70945156 0.53584146 4294314240
3.528775 0.71048582 0.52469522 4294314240
3.4685149 0.69908494 0.42714608 4294053120
3.5011239 0.7057718 0.41538343 4294183680
3.5225992 0.71021605 0.40158847 4294183680
3.5130074 0.70839703 0.38374975 4294183680
3.4849515 0.70285344 0.3636499 4294053120
3.4846237 0.7029013 0.34617865 4294053120
3.4949081 0.70509005 0.32932752 4294053120
3.4987745 0.70598453 0.31143525 4294053120
3.4727542 0.70084769 0.29065785 4294053120
3.4614379 0.69867706 0.27099121 4293922560
3.4910185 0.70476192 0.25412792 4294053120
3.4871213 0.70408922 0.23440883 4294053120
3.4589267 0.69850945 0.21298139 4293922560
3.4924443 0.70539236 0.19508941 4294053120
3.4907007 0.7051543 0.17483398 4294053120
3.4908299 0.70529461 0.15449172 4294053120
3.4526742 0.69769841 0.13251095 4293922560
3.4692702 0.7011655 0.11261386 4293922560
3.4747322 0.70238298 0.092102639 4293922560
3.4739511 0.7023387 0.071298361 4293922560
3.4376996 0.69512206 0.049911257 4293792000
3.4547868 0.69869018 0.029359287 4293922560
3.4606225 0.69998354 0.00854172 4293922560
3.4223206 0.69234806 -0.01219839 4293792000
3.4355309 0.69513291 -0.032957803 4293792000
3.462404 0.70068353 -0.054054398 4293922560
3.4676406 0.70185667 -0.074948341 4293922560
3.4308012 0.69451255 -0.094663434 4293792000
3.4608736 0.7007134 -0.11608143 4293922560
3.469929 0.70266026 -0.13690169 4293922560
3.4846959 0.70576453 -0.15793963 4294053120
3.4365509 0.69612598 -0.17576165 4293792000
3.4604158 0.70107335 -0.19693345 4293922560
3.4622955 0.70156747 -0.21678853 4293922560
3.4616866 0.70155728 -0.23625922 4293922560
3.4395092 0.6971752 -0.25387353 4293922560
3.4836249 0.7062313 -0.27622208 4294053120
3.4900424 0.70764643 -0.29555535 4294053120
3.4893272 0.70761555 -0.31399104 4294053120
3.4606133 0.70190567 -0.3294085 4293922560
3.447145 0.6992867 -0.34569579 4293922560
3.4724464 0.70453292 -0.3655462 4294053120
3.4781249 0.7057988 -0.3830792 4294053120
3.4691572 0.7040925 -0.39855814 4294053120
3.4426816 0.69883168 -0.41141626 4293922560
3.4762945 0.70576853 -0.4310236 4294053120
3.4880829 0.70827591 -0.4476434 4294053120
3.4924009 0.70926696 -0.46287033 4294183680
3.4852824 0.70793527 -0.47604868 4294053120
3.4792523 0.7068243 -0.48878482 4294053120
3.4483168 0.70065242 -0.49732849 4293922560
3.457238 0.70257819 -0.51097101 4294053120
3.4604089 0.70333576 -0.52322352 4294053120
3.4723473 0.70587581 -0.5362528 4294053120
3.4774649 0.70703 -0.54766822 4294053120
3.4682541 0.70527071 -0.55618685 4294053120
3.4676344 0.70525813 -0.56541437 4294053120
3.4636779 0.70456678 -0.57343364 4294053120
3.4580281 0.70353067 -0.5804863 4294053120
3.4501834 0.70204753 -0.58646804 4294053120
3.4322033 0.69850117 -0.58999491 4293922560
3.4141161 0.69493192 -0.59275174 4293922560
3.4364319 0.69958663 -0.60183549 4294053120
3.4136126 0.6950528 -0.60231662 4293922560
3.4216573 0.69680274 -0.60751915 4293922560
3.406194 0.69376516 -0.60783279 4293922560
3.3961306 0.69182658 -0.60837823 4293922560
3.391012 0.69089484 -0.609088 4293792000
3.4115565 0.69519228 -0.61369717 4293922560
3.4201865 0.69706279 -0.61545026 4293922560
3.4163926 0.6964013 -0.61424792 4293922560
3.4338005 0.7000621 -0.61613238 4294053120
3.4280431 0.69900054 -0.61313587 4293922560
3.441505 0.7018581 -0.61285216 4294053120
3.4477279 0.70323998 -0.61054587 4294053120
3.4556448 0.70496792 -0.60781062 4294053120
3.4609561 0.70616472 -0.6038906 4294053120
3.466337 0.707376 -0.5992626 4294053120
3.4658258 0.70738512 -0.59291065 4294053120
3.4640963 0.70714551 -0.5856654 4294053120
3.4556031 0.70552486 -0.57661915 4294053120
3.4568646 0.70589548 -0.56854838 4294053120
3.4474766 0.70409131 -0.55809003 4294053120
3.4368372 0.70203084 -0.54683912 4293922560
3.4383173 0.70244569 -0.53691214 4293922560
3.4587114 0.70672536 -0.52925384 4294053120
3.4774528 0.71066862 -0.52061033 4294053120
3.4606884 0.70735586 -0.50605267 4294053120
3.4520199 0.70569706 -0.49219206 4294053120
3.4317317 0.70166183 -0.47622412 4293922560
3.4554875 0.70663208 -0.46581137 4294053120
3.4615047 0.70797586 -0.45236173 4294053120
3.469404 0.70970505 -0.43858954 4294053120
3.4345701 0.70269185 -0.41904199 4293922560
3.4270742 0.7012704 -0.40254769 4293922560
3.4561961 0.70734262 -0.38980237 4293922560
3.4782765 0.71197546 -0.375586 4294053120
3.4725809 0.71092325 -0.35787469 4294053120
3.4240549 0.70110089 -0.33562499 4293792000
3.4447002 0.70544094 -0.31992245 4293922560
3.4564726 0.70796496 -0.30287477 4293922560
3.4505434 0.70686346 -0.28391254 4293922560
3.4212196 0.70096827 -0.26290467 4293792000
3.4490488 0.70678306 -0.24600647 4293922560
3.4587948 0.70889342 -0.22734131 4293922560
3.4566927 0.70857579 -0.20760664 4293922560
3.4545498 0.70824963 -0.18766755 4293922560
3.4482813 0.70707732 -0.1673488 4293922560
3.4592221 0.70943403 -0.14765584 4293922560
3.4611588 0.70994449 -0.12734298 4293922560
3.4344993 0.70458859 -0.10598674 4293792000
3.4728045 0.71256065 -0.0864501 4293922560
3.4775503 0.7136482 -0.06572748 4293922560
3.4794772 0.71415758 -0.044840373 4293922560
3.465656 0.71143425 -0.023773417 4293922560
3.4874601 0.7160244 -0.0028766617 4294053120
3.495961 0.71788424 0.018217335 4294053120
3.4470251 0.70794827 0.038748875 4293922560
3.4943826 0.71778893 0.060311276 4294053120
3.5178998 0.72273487 0.08182352 4294053120
3.5188231 0.72303975 0.10286881 4294183680
3.4496861 0.70894653 0.12134973 4293922560
3.5105615 0.72157204 0.14422172 4294053120
3.5203023 0.72368944 0.16525368 4294183680
3.5022612 0.72009534 0.18475485 4294053120
3.3383474 0.68650252 0.19531265 4293530880
3.5210505 0.72418916 0.22603384 4294183680
3.5234497 0.72479796 0.24598727 4294183680
3.5013349 0.7203635 0.26385188 4294053120
3.3333106 0.68590337 0.26939249 4293530880
3.5437124 0.72931427 0.30543447 4294183680
3.5526221 0.73126429 0.32495159 4294314240
3.5336657 0.72747809 0.34151092 4294183680
3.4676011 0.71399087 0.35270739 4294053120
3.2628303 0.67193466 0.34805474 4293269760
3.5320423 0.72749084 0.39386439 4294183680
3.5327766 0.72775775 0.41060343 4294183680
3.5014179 0.72141254 0.42301378 4294183680
3.4587219 0.71272898 0.43324715 4294053120
3.3450963 0.68942404 0.43342975 4293661440
3.5452175 0.73078507 0.47412065 4294314240
3.5371451 0.72923696 0.48723432 4294314240
3.5374069 0.72940677 0.50091302 4294314240
3.5053604 0.72291362 0.50933069 4294183680
3.4945998 0.72080892 0.52010494 4294183680
3.3581994 0.69278449 0.51109016 4293661440
3.5058959 0.72336853 0.5447399 4294183680
3.5351675 0.72952396 0.55992287 4294314240
3.5337231 0.72934157 0.56968093 4294314240
3.5259929 0.72786158 0.5777446 4294314240
3.5077295 0.72420651 0.58334988 4294183680
3.5077085 0.72431707 0.59126902 4294183680
3.5104048 0.72498882 0.59896606 4294314240
3.5065873 0.72431523 0.60485435 4294183680
3.481034 0.71915102 0.60623997 4294183680
3.4840438 0.7198869 0.61185557 4294183680
3.4977775 0.72283924 0.61866224 4294183680
3.4923253 0.72182685 0.62136436 4294183680
3.4403253 0.71119171 0.61500865 4294053120
3.4447634 0.71222204 0.61798161 4294053120
3.4358184 0.71048516 0.61782932 4294053120
3.4910107 0.72201258 0.6284945 4294183680
3.5006318 0.72411716 0.63023102 4294183680
3.4910884 0.72225744 0.62778109 4294183680
3.4729862 0.71862614 0.62306643 4294183680
3.4882514 0.72189903 0.62360656 4294183680
3.5020723 0.72487408 0.62313765 4294183680
3.5149262 0.72764975 0.62174302 4294314240
3.5103264 0.72681248 0.61652702 4294314240
3.5149853 0.72789228 0.61221677 4294314240
3.527015 0.73049897 0.60845 4294314240
3.5612233 0.73770076 0.60771751 4294444800
3.5359883 0.73258924 0.59612334 4294314240
3.519063 0.72919792 0.5853287 4294314240
3.5203705 0.72958422 0.57692415 4294314240
3.5063622 0.72679591 0.56537676 4294183680
3.5112777 0.72792983 0.55625194 4294183680
3.5241225 0.73070818 0.54769093 4294314240
3.5384181 0.73378825 0.53864259 4294314240
3.5381405 0.7338466 0.52671456 4294314240
3.4877124 0.72412503 0.43002251 4294053120
3.4969525 0.72615808 0.41538343 4294183680
3.5232668 0.73173785 0.40214381 4294183680
3.5273178 0.73269475 0.38577273 4294183680
3.4895635 0.72496676 0.36456573 4294053120
3.4864371 0.72443151 0.34677222 4294053120
3.5066814 0.72875291 0.33083144 4294183680
3.4920225 0.72582096 0.31120539 4294053120
3.4681256 0.72096765 0.29061708 4293922560
3.4778054 0.72309387 0.27259779 4294053120
3.4891486 0.72556674 0.25429523 4294053120
3.4908714 0.72603935 0.23494127 4294053120
3.4688127 0.72156525 0.21384534 4293922560
3.4895692 0.72599727 0.19516179 4294053120
3.5009134 0.72847217 0.1755551 4294053120
3.503201 0.72906297 0.15522458 4294053120
3.4534423 0.71882075 0.13269891 4293922560
3.4619918 0.72071379 0.11251201 4293922560
3.4803677 0.7246533 0.092362359 4294053120
3.4698002 0.72256678 0.071298361 4293922560
3.4492502 0.71840042 0.050138876 4293922560
3.4666686 0.72214192 0.029495515 4293922560
3.4710851 0.72317564 0.0085777985 4293922560
3.4285092 0.7144177 -0.012235078 4293792000
3.4474874 0.71848524 -0.033112101 4293922560
3.4631569 0.72186446 -0.054130897 4293922560
3.4683862 0.72306818 -0.075054243 4293922560
3.435504 0.7163257 -0.094906732 4293792000
3.4763005 0.72494602 -0.11673856 4293922560
3.4807439 0.72598672 -0.13749294 4294053120
3.4854147 0.72707516 -0.15816152 4294053120
3.441236 0.7179721 -0.17621224 4293922560
3.4580286 0.72158903 -0.19703352 4293922560
3.4718282 0.72458243 -0.21764606 4293922560
3.471761 0.72468221 -0.23723093 4294053120
3.4549158 0.72127932 -0.25531656 4293922560
3.4794512 0.72651559 -0.27622208 4294053120
3.4982483 0.73055518 -0.29660571 4294053120
3.4851453 0.72793305 -0.31399104 4294053120
3.4652367 0.7238884 -0.33024448 4294053120
3.4761341 0.72627884 -0.34902138 4294053120
3.4828882 0.72780418 -0.36708555 4294053120
3.4885516 0.72910208 -0.38468894 4294053120
3.4883409 0.72917235 -0.40124333 4294053120
3.4531345 0.72192639 -0.4131611 4293922560
3.504189 0.73271495 -0.43500414 4294183680
3.5010858 0.73218083 -0.44985196 4294183680
3.5115895 0.73449266 -0.46597278 4294183680
3.5135975 0.73502785 -0.48049298 4294183680
3.4934988 0.73093784 -0.49137616 4294183680
3.4722822 0.72661257 -0.50138688 4294053120
3.4618042 0.7245335 -0.51226103 4294053120
3.4732828 0.72704977 -0.52580166 4294053120
3.4716492 0.72682172 -0.53678989 4294053120
3.4858651 0.72991222 -0.54965162 4294183680
3.4872918 0.73032534 -0.55991268 4294183680
3.4725907 0.72736043 -0.56690389 4294053120
3.4691753 0.72675884 -0.57503504 4294053120
3.4670103 0.72641897 -0.58269465 4294053120
3.4508617 0.72314864 -0.58728957 4294053120
3.4459372 0.72222966 -0.59306902 4294053120
3.4502604 0.72324896 -0.59974843 4294053120
3.4274745 0.71858495 -0.60098982 4293922560
3.4230068 0.71776056 -0.60470176 4293922560
3.4271817 0.71874833 -0.6092332 4294053120
3.4266493 0.71874911 -0.61221993 4294053120
3.3920422 0.71160138 -0.60837823 4293922560
3.4013872 0.71367341 -0.61168808 4293922560
3.425761 0.71889985 -0.61699539 4294053120
3.4257054 0.71900052 -0.61718673 4294053120
3.4294772 0.71990472 -0.61734414 4294053120
3.4200246 0.7180326 -0.6144008 4293922560
3.437408 0.72179496 -0.6155526 4294053120
3.4556606 0.72574103 -0.61611539 4294053120
3.4522502 0.72513807 -0.61208451 4294053120
3.4727085 0.72954917 -0.61154914 4294183680
3.470288 0.72915453 -0.60624987 4294183680
3.4800055 0.73131049 -0.60235208 4294183680
3.45682 0.72655147 -0.59208411 4294053120
3.473434 0.73015738 -0.58795333 4294183680
3.4693873 0.72942048 -0.57961857 4294053120
3.4658225 0.72878468 -0.5707103 4294053120
3.4500847 0.72558862 -0.55918717 4294053120
3.4370384 0.72295761 -0.54753202 4294053120
3.4472239 0.72521311 -0.5389536 4294053120
3.4681678 0.72973299 -0.53134245 4294053120
3.4865162 0.73370808 -0.52259839 4294183680
3.4784958 0.73213434 -0.5092718 4294053120
3.4614177 0.72865343 -0.49412894 4294053120
3.4423423 0.72475082 -0.47827443 4293922560
3.4493749 0.72634465 -0.46554995 4294053120
3.4652832 0.72980815 -0.4534035 4294053120
3.4736576 0.73168582 -0.43965873 4294053120
3.4479825 0.72639084 -0.42118761 4293922560
3.4457731 0.7260384 -0.4052341 4293922560
3.4740927 0.7321195 -0.39229527 4294053120
3.4740694 0.73222852 -0.375586 4294053120
3.475198 0.73258042 -0.35857818 4294053120
3.429652 0.72309178 -0.33658087 4293922560
3.4586463 0.72931826 -0.32160684 4293922560
3.4571636 0.72911906 -0.30330244 4293922560
3.4600208 0.72983521 -0.2850374 4293922560
3.4258587 0.72274166 -0.26358029 4293792000
3.454633 0.72892547 -0.24670352 4293922560
3.4674978 0.73175371 -0.22818971 4293922560
3.4622734 0.73076475 -0.20819399 4293922560
3.4640436 0.73125207 -0.18841155 4293922560
3.4577856 0.73004448 -0.16801365 4293922560
3.4648058 0.7316404 -0.14807363 4293922560
3.4706526 0.73298889 -0.12784724 4293922560
3.4401157 0.7266525 -0.1062889 4293922560
3.4637036 0.73174864 -0.086328208 4293922560
3.4782245 0.73493052 -0.065820038 4294053120
3.4748712 0.73433602 -0.044835392 4293922560
3.464586 0.7322762 -0.02379494 4293922560
3.488121 0.73736507 -0.0028807018 4294053120
3.5005245 0.74010193 0.018263273 4294053120
3.452625 0.73008806 0.038858984 4293922560
3.5087276 0.74206656 0.060632452 4294053120
3.5224323 0.74508059 0.082028516 4294183680
3.5184627 0.74435645 0.10298331 4294183680
3.3893948 0.71716243 0.11937381 4293661440
3.5134881 0.74353468 0.14451748 4294183680
3.5090966 0.74272054 0.164928 4294053120
3.5126615 0.74359035 0.18552889 4294183680
3.344058 0.70800871 0.19588478 4293530880
3.5353227 0.74861956 0.22722618 4294183680
3.5279512 0.74717438 0.24660128 4294183680
3.5107374 0.743644 0.26488242 4294183680
3.3390102 0.70737839 0.27018163 4293530880
3.5481763 0.75180727 0.30619156 4294314240
3.5483012 0.7519502 0.32495159 4294314240
3.5391064 0.75011778 0.3424533 4294314240
3.4721434 0.73603892 0.35359958 4294053120
3.2734544 0.69402748 0.34961346 4293400320
3.5413585 0.7509439 0.39538443 4294314240
3.5236166 0.74729741 0.4100379 4294183680
3.4971554 0.74180025 0.42301378 4294183680
3.4681041 0.73575187 0.43495196 4294053120
3.354609 0.7117843 0.43519226 4293661440
3.5447795 0.75225121 0.47464013 4294314240
3.541146 0.75159639 0.48838037 4294314240
3.5195322 0.74712449 0.49898985 4294314240
3.5059314 0.7443524 0.5100351 4294183680
3.4289932 0.72813004 0.51096338 4293922560
3.3637812 0.71439302 0.51256436 4293661440
3.5398777 0.7519083 0.55069125 4294314240
3.5356903 0.75113493 0.56068927 4294314240
3.5616794 0.75677311 0.57488889 4294444800
3.5361793 0.75147104 0.58012122 4294314240
3.5213177 0.74842846 0.58632493 4294314240
3.5034292 0.74474138 0.59126902 4294183680
3.5109451 0.74645442 0.5997901 4294314240
3.5071301 0.74575847 0.60568714 4294314240
3.4951048 0.74331617 0.60943437 4294183680
3.5077455 0.74611968 0.61677092 4294314240
3.4983256 0.74423087 0.6195156 4294183680
3.5015507 0.74503195 0.6237675 4294314240
3.4457576 0.73327392 0.61673307 4294053120
3.4453721 0.73330504 0.61884677 4294053120
3.4451065 0.7333616 0.62025726 4294053120
3.5002301 0.74521071 0.63092524 4294314240
3.5002065 0.74532068 0.63092554 4294314240
3.5003066 0.74545693 0.63020903 4294314240
3.4870434 0.74274677 0.62635404 4294183680
3.4936202 0.74426246 0.62533098 4294183680
3.5112791 0.74813968 0.62554085 4294314240
3.5058086 0.74708927 0.62088966 4294314240
3.515671 0.74930638 0.618222 4294314240
3.5155053 0.74938655 0.61305743 4294314240
3.5362 0.75391412 0.61078197 4294314240
3.5288904 0.75247157 0.60293788 4294314240
3.5316601 0.75317818 0.59612334 4294314240
3.5234423 0.75154132 0.58677548 4294314240
3.5158484 0.75003707 0.57688946 4294314240
3.5107625 0.74906737 0.56678039 4294314240
3.5166411 0.7504372 0.5577848 4294314240
3.5198054 0.75122809 0.54769093 4294314240
3.5254972 0.75255865 0.53733402 4294314240
3.5241275 0.75238204 0.52527219 4294314240
3.4921722 0.74630022 0.43110117 4294183680
3.5073533 0.74965978 0.41713062 4294183680
3.5299797 0.75461185 0.40340498 4294314240
3.522989 0.75323319 0.38577273 4294183680
3.4906323 0.74642986 0.36512554 4294053120
3.4870236 0.74577272 0.34725684 4294053120
3.5160084 0.75208724 0.33211911 4294183680
3.5150113 0.75198942 0.31363925 4294183680
3.4784851 0.74428946 0.29184359 4294053120
3.4823084 0.74522185 0.27328643 4294053120
3.4985175 0.74880558 0.25529167 4294053120
3.5038512 0.75006235 0.23610495 4294053120
3.4737642 0.74373585 0.2144141 4294053120
3.4941525 0.74821573 0.19565859 4294053120
3.4991925 0.74940997 0.17568478 4294053120
3.501828 0.75008947 0.15535474 4294053120
3.4638524 0.74206895 0.13326278 4293922560
3.4794335 0.74552125 0.11321808 4294053120
3.4786716 0.74547225 0.092431046 4294053120
3.5077825 0.75182593 0.072167613 4294053120
3.452831 0.7401616 0.050252762 4293922560
3.469877 0.74392968 0.029559189 4293922560
3.4756978 0.74529183 0.0085997814 4294053120
3.4326746 0.73617923 -0.012265041 4293792000
3.4506629 0.74015045 -0.033183459 4293922560
3.462024 0.74270111 -0.054179907 4293922560
3.4679036 0.74407637 -0.075136334 4293922560
3.441046 0.73842686 -0.095177069 4293922560
3.475148 0.74585915 -0.1168438 4294053120
3.4849536 0.74807823 -0.13782905 4294053120
3.4862173 0.74846411 -0.15839313 4294053120
3.4456618 0.73987037 -0.1766566 4293922560
3.4643552 0.74399817 -0.19763763 4293922560
3.4809158 0.7476691 -0.21848513 4294053120
3.4720256 0.74587363 -0.23754191 4294053120
3.4535837 0.74202538 -0.25553325 4293922560
3.4923582 0.75047117 -0.27758911 4294053120
3.4970536 0.75159502 -0.29687065 4294053120
3.5028322 0.75295216 -0.31597438 4294183680
3.47068 0.7461549 -0.3311719 4294053120
3.4754424 0.747293 -0.34938318 4294053120
3.4904561 0.75063598 -0.36833787 4294053120
3.493077 0.75131446 -0.38566414 4294183680
3.4901156 0.75079221 -0.4019438 4294053120
3.4576087 0.74391299 -0.41420799 4294053120
3.5065587 0.75455999 -0.43583667 4294183680
3.4998674 0.75323516 -0.45025167 4294183680
3.505883 0.75464505 -0.46579111 4294183680
3.5035174 0.754251 -0.4797073 4294183680
3.4911301 0.75169903 -0.49165067 4294183680
3.4649692 0.74618 -0.50095016 4294053120
3.4742501 0.74829286 -0.51473916 4294053120
3.4892004 0.75162756 -0.52886528 4294183680
3.4844627 0.75072157 -0.53943825 4294183680
3.4855018 0.75106007 -0.55027497 4294183680
3.490659 0.75228608 -0.56114751 4294183680
3.4771934 0.74949837 -0.56835854 4294183680
3.4836292 0.75100011 -0.57814628 4294183680
3.4675419 0.74764603 -0.58350623 4294183680
3.4715629 0.74862713 -0.59154487 4294183680
3.4599855 0.74624425 -0.59622508 4294053120
3.4315331 0.74022049 -0.59723264 4294053120
3.4319005 0.74041259 -0.60251206 4294053120
3.4407721 0.74243975 -0.608594 4294053120
3.422936 0.73870361 -0.6092332 4294053120
3.4320323 0.74077958 -0.61394238 4294053120
3.4316156 0.74080247 -0.61623961 4294053120
3.4265046 0.73981178 -0.6169697 4294053120
3.4263275 0.73988622 -0.6178633 4294053120
3.4118321 0.7368682 -0.61545026 4293922560
3.4290752 0.74070507 -0.61803812 4294053120
3.4424658 0.7437107 -0.61920023 4294053120
3.4605899 0.74774003 -0.6204735 4294183680
3.4513736 0.74586213 -0.61611539 4294053120
3.4668477 0.74932015 -0.61543626 4294183680
3.4587667 0.74768728 -0.60985082 4294053120
3.4750762 0.75132722 -0.60784078 4294183680
3.4757612 0.7515896 -0.60236508 4294183680
3.4873178 0.75420326 -0.59805024 4294183680
3.4857912 0.75398773 -0.59077865 4294183680
3.4765589 0.75210512 -0.58153892 4294183680
3.474736 0.75182498 -0.57288969 4294183680
3.4593971 0.74861991 -0.56139386 4294053120
3.4405692 0.74465865 -0.54877633 4294053120
3.4517107 0.74718356 -0.54032654 4294053120
3.4757345 0.75249827 -0.53316432 4294183680
3.4965401 0.75711769 -0.52475315 4294183680
3.4869449 0.75515473 -0.51114422 4294183680
3.4784958 0.75343931 -0.49718511 4294183680
3.4462914 0.74657726 -0.47941935 4294053120
3.4538889 0.74833667 -0.46673974 4294053120
3.4706664 0.75208592 -0.45467347 4294053120
3.4763219 0.75342584 -0.4405441 4294053120
3.4474533 0.74728245 -0.42164764 4293922560
3.4502983 0.74801272 -0.40627193 4293922560
3.4777367 0.75407559 -0.39319617 4294053120
3.4884953 0.75652313 -0.37761572 4294053120
3.4845681 0.75578612 -0.35999325 4294053120
3.4297571 0.74401069 -0.33701086 4293922560
3.4579382 0.7502377 -0.321942 4293922560
3.4651687 0.7519204 -0.3043839 4294053120
3.457746 0.75042349 -0.28520533 4293922560
3.4259734 0.74364072 -0.26391801 4293922560
3.4539332 0.74982327 -0.24696133 4293922560
3.4657545 0.75250357 -0.22835964 4293922560
3.475472 0.75472778 -0.20924851 4294053120
3.4703598 0.75373185 -0.18899074 4294053120
3.4566002 0.75085706 -0.16816576 4293922560
3.4640956 0.75259924 -0.14822815 4293922560
3.4806392 0.75630796 -0.12837525 4294053120
3.4486063 0.74946094 -0.10668433 4293922560
3.4668493 0.75353968 -0.08651457 4293922560
3.4915547 0.75902438 -0.066154853 4294053120
3.4842131 0.75754303 -0.045012116 4294053120
3.4749179 0.75563639 -0.023895731 4294053120
3.5010073 0.76142484 -0.0028949587 4294053120
3.5012529 0.76159346 0.018289914 4294053120
3.4793026 0.75693333 0.039208207 4294053120
3.5004365 0.76164621 0.060564835 4294053120
3.5177372 0.76552635 0.082021654 4294183680
3.5355663 0.76952267 0.1036134 4294183680
3.4646277 0.75419676 0.1221762 4293922560
3.5191467 0.76618046 0.14493138 4294183680
3.5262716 0.76784778 0.16594267 4294183680
3.5131485 0.76510578 0.1857869 4294183680
3.3486557 0.72939217 0.19639969 4293530880
3.5260253 0.76814216 0.22691241 4294183680
3.5332861 0.76984018 0.24728352 4294183680
3.5112174 0.76514739 0.26525047 4294183680
3.3435984 0.72873068 0.27089185 4293530880
3.5596595 0.77593791 0.30756742 4294314240
3.5555346 0.77515578 0.32602209 4294314240
3.5346761 0.77072465 0.3424533 4294314240
3.4775183 0.75837606 0.35459092 4294053120
3.278101 0.71499503 0.35054868 4293400320
3.5514917 0.77474195 0.39701301 4294314240
3.537647 0.77183819 0.41218692 4294314240
3.5112088 0.76618546 0.42524642 4294183680
3.4773347 0.75890821 0.43665677 4294053120
3.3600974 0.73343241 0.43645123 4293661440
3.5451801 0.77394843 0.47528949 4294314240
3.541548 0.7732721 0.48904887 4294314240
3.5383449 0.77268916 0.50228679 4294314240
3.5150762 0.76772356 0.51200753 4294314240
3.4859636 0.76147985 0.52010494 4294183680
3.3827527 0.73904556 0.51610255 4293792000
3.5393 0.77336377 0.55129302 4294314240
3.5409079 0.77383161 0.56222212 4294314240
3.5340502 0.77244925 0.57114601 4294314240
3.5317411 0.77206081 0.58012122 4294314240
3.512552 0.76798159 0.58560044 4294314240
3.5077055 0.76703739 0.59273493 4294314240
3.5161722 0.76900458 0.60143828 4294314240
3.5065787 0.76702189 0.6063534 4294314240
3.4907148 0.76366675 0.60943437 4294183680
3.5033388 0.76654387 0.61677092 4294314240
3.5074058 0.76754916 0.62190497 4294314240
3.5067742 0.76752645 0.62548405 4294314240
3.4462383 0.75439036 0.61759526 4294053120
3.4458518 0.75441927 0.61971194 4294053120
3.4503958 0.75552768 0.62199152 4294053120
3.4540982 0.75645208 0.62339371 4294053120
3.5102348 0.76886165 0.6335299 4294314240
3.5055244 0.76794529 0.63194329 4294314240
3.4874673 0.76410443 0.6272192 4294183680
3.5123172 0.7696647 0.62946957 4294314240
3.5164838 0.77069354 0.62725735 4294314240
3.5293083 0.77362037 0.62583911 4294314240
3.5199096 0.77167612 0.61974746 4294314240
3.5255229 0.77302277 0.61557931 4294314240
3.5317476 0.77450395 0.61078197 4294314240
3.5340805 0.77513194 0.60458606 4294314240
3.5358856 0.77564424 0.59758919 4294314240
3.5334649 0.77522957 0.58918679 4294314240
3.529743 0.77452922 0.57989985 4294314240
3.534318 0.77564949 0.57130307 4294314240
3.5170352 0.77197242 0.55855125 4294314240
3.5385439 0.77680999 0.55130154 4294314240
3.5345776 0.77605569 0.53939795 4294314240
3.5341818 0.7760852 0.52743578 4294314240
3.4974613 0.76876503 0.4322997 4294183680
3.5029261 0.77008164 0.41713062 4294183680
3.5303764 0.77623254 0.40396029 4294314240
3.5272808 0.77566808 0.386731 4294314240
3.4910822 0.76782274 0.36563432 4294183680
3.496228 0.76906973 0.3486138 4294183680
3.5138576 0.77306342 0.33233577 4294183680
3.5066786 0.77159953 0.31329155 4294183680
3.469223 0.76347214 0.29143476 4294053120
3.4827762 0.7665695 0.273669 4294053120
3.498966 0.77024817 0.25564754 4294053120
3.5122881 0.77329659 0.23697305 4294183680
3.4596238 0.76181549 0.21381164 4293922560
3.4981096 0.77040535 0.19612819 4294053120
3.5110071 0.77336144 0.17650117 4294183680
3.5150452 0.77436668 0.15613861 4294183680
3.4684672 0.76421982 0.13360935 4293922560
3.4896719 0.76900691 0.1136951 4294053120
3.4853547 0.76817036 0.09272597 4294053120
3.4896736 0.76923716 0.07188604 4294053120
3.4582245 0.76241869 0.050395053 4293922560
3.4654837 0.76413327 0.029559189 4293922560
3.4712965 0.76552933 0.0085997814 4294053120
3.4331336 0.75722629 -0.012282236 4293922560
3.4511745 0.76131916 -0.033230469 4293922560
3.4625201 0.7639361 -0.054256406 4293922560
3.4781539 0.76749992 -0.075454019 4294053120
3.4406662 0.75934118 -0.095287323 4293922560
3.4821081 0.76860195 -0.11722639 4294053120
3.4836617 0.7690596 -0.13795282 4294053120
3.4910636 0.7708087 -0.15881467 4294053120
3.4539742 0.7627334 -0.17730761 4293922560
3.4697113 0.76632285 -0.19819453 4294053120
3.4844956 0.76970297 -0.21898758 4294053120
3.4676211 0.76608974 -0.23754191 4294053120
3.453182 0.76301354 -0.25582811 4293922560
3.4807708 0.76922423 -0.27701962 4294053120
3.5000541 0.773601 -0.29750293 4294183680
3.502156 0.77418101 -0.31631488 4294183680
3.4807587 0.76956564 -0.3325558 4294053120
3.4790008 0.76929164 -0.35018551 4294053120
3.4960215 0.77317053 -0.36939427 4294183680
3.5008616 0.77435631 -0.38701516 4294183680
3.4899905 0.77206671 -0.40244064 4294183680
3.467284 0.76715779 -0.41589543 4294053120
3.5046663 0.77554435 -0.43615568 4294183680
3.5102353 0.77689242 -0.45216012 4294183680
3.5081096 0.77653748 -0.46668008 4294183680
3.5173304 0.77869451 -0.48221162 4294314240
3.5064502 0.77640128 -0.4944368 4294183680
3.4741812 0.76937079 -0.50292158 4294183680
3.486454 0.77220356 -0.51720506 4294183680
3.4737949 0.76951426 -0.52720088 4294183680
3.4831219 0.77169508 -0.53991753 4294183680
3.4893546 0.77319103 -0.55158508 4294183680
3.4823589 0.77175564 -0.56052655 4294183680
3.4824083 0.77188134 -0.56993639 4294183680
3.4705212 0.76936096 -0.57670504 4294183680
3.4803832 0.77166194 -0.58641374 4294183680
3.4709942 0.76969463 -0.59220207 4294183680
3.4603927 0.76745778 -0.59705561 4294183680
3.4464109 0.76447046 -0.60058701 4294053120
3.4323394 0.76146233 -0.60335779 4294053120
3.4315782 0.76140654 -0.60774213 4294053120
3.423383 0.75970101 -0.61009026 4294053120
3.4180417 0.75862837 -0.61221993 4294053120
3.4358952 0.76270419 -0.61779559 4294053120
3.4307892 0.76168382 -0.6185298 4294053120
3.4219587 0.75983614 -0.6178633 4294053120
3.4219017 0.75993633 -0.61805493 4294053120
3.4295087 0.76173872 -0.61890566 4294053120
3.4428816 0.76482248 -0.62006599 4294053120
3.4561746 0.76788944 -0.6204735 4294183680
3.4556243 0.7678811 -0.61766243 4294183680
3.4624233 0.76950604 -0.61543626 4294183680
3.4826617 0.77411872 -0.61484873 4294183680
3.4706399 0.77156097 -0.60784078 4294183680
3.4896097 0.77589321 -0.60553831 4294183680
3.4867153 0.77536464 -0.59871149 4294183680
3.4861543 0.7753548 -0.59159577 4294183680
3.4721181 0.77234751 -0.58153892 4294183680
3.4733834 0.77274352 -0.57339925 4294183680
3.4584372 0.76953232 -0.56195617 4294053120
3.4447327 0.76659656 -0.55014348 4294053120
3.4510386 0.76811367 -0.54091275 4294053120
3.4712913 0.77273583 -0.53316432 4294183680
3.4994571 0.77912122 -0.52586329 4294183680
3.4876013 0.77659655 -0.511895 4294183680
3.4726834 0.77338928 -0.49698994 4294053120
3.4506636 0.76859909 -0.48064235 4294053120
3.457782 0.77029866 -0.46786436 4294053120
3.4800644 0.77537733 -0.45648876 4294183680
3.4744349 0.77423763 -0.44086912 4294053120
3.4507973 0.7690841 -0.42259753 4294053120
3.4507301 0.76918286 -0.40684354 4294053120
3.4758499 0.7748968 -0.39348659 4294053120
3.4888816 0.77791709 -0.37814173 4294183680
3.4884467 0.77793515 -0.36085609 4294053120
3.4302218 0.765064 -0.3374888 4293922560
3.4535086 0.77037162 -0.321942 4293922560
3.4633055 0.77267122 -0.30461049 4294053120
3.4581795 0.77164167 -0.28560707 4294053120
3.4361813 0.76684642 -0.26504403 4293922560
3.4623609 0.77280307 -0.24788164 4294053120
3.4798167 0.77681404 -0.22958052 4294053120
3.4710157 0.7749638 -0.20924851 4294053120
3.4801438 0.7771166 -0.18976691 4294053120
3.457041 0.77207178 -0.16840319 4293922560
3.4733033 0.77581823 -0.14881304 4294053120
3.4808364 0.77761573 -0.12854744 4294053120
3.4587288 0.77279091 -0.10713495 4293922560
3.4809372 0.77786785 -0.086977758 4294053120
3.4870732 0.77935404 -0.066154853 4294053120
3.4846196 0.77892059 -0.04507523 4294053120
3.4889984 0.78001446 -0.024023401 4294053120
3.4939308 0.78123248 -0.0028928218 4294053120
3.5016358 0.78307074 0.018315436 4294053120
3.4748335 0.77719164 0.039208207 4294053120
3.5121851 0.78566164 0.06084628 4294183680
3.531754 0.79015565 0.082454428 4294183680
3.531023 0.79010856 0.1036134 4294183680
3.4552984 0.7732783 0.12200402 4293922560
3.5169151 0.78718376 0.14502589 4294183680
3.5265276 0.78945166 0.16616835 4294183680
3.5271475 0.78970683 0.18676737 4294183680
3.3443494 0.74888974 0.19639969 4293530880
3.5286536 0.79027683 0.227374 4294183680
3.5423706 0.79346573 0.24823864 4294314240
3.5203242 0.78864366 0.26628104 4294183680
3.3538873 0.75146818 0.27207553 4293661440
3.5463274 0.79470307 0.30681032 4294314240
3.559705 0.79781836 0.32682517 4294314240
3.5388687 0.7932651 0.34330145 4294314240
3.4866345 0.78167152 0.35597882 4294053120
3.2932894 0.73843396 0.35262698 4293400320
3.5517678 0.79650813 0.39755589 4294314240
3.5427852 0.79461062 0.41331798 4294314240
3.5066853 0.7866295 0.42524642 4294183680
3.4728541 0.77915502 0.43665677 4294053120
3.365447 0.75516862 0.43771017 4293661440
3.5551229 0.79784709 0.47723758 4294444800
3.5514872 0.79714841 0.49105436 4294444800
3.5424812 0.7952438 0.50352311 4294314240
3.5202034 0.7903589 0.51341635 4294314240
3.4949849 0.78481215 0.52212429 4294183680
3.3822494 0.75960863 0.51669228 4293792000
3.5492029 0.7972213 0.55354965 4294444800
3.5363393 0.79444855 0.56222212 4294314240
3.5391271 0.79519165 0.57270557 4294444800
3.5358531 0.79457271 0.5815472 4294444800
3.5128326 0.78951555 0.5864042 4294314240
3.5079901 0.78854293 0.59354931 4294314240
3.5262151 0.79275602 0.6039359 4294314240
3.5116706 0.78960198 0.60801905 4294314240
3.491015 0.7850728 0.61027503 4294183680
3.5036209 0.78802335 0.61761838 4294314240
3.5076809 0.78905225 0.62275833 4294314240
3.4509392 0.77640212 0.61632144 4294053120
3.4504333 0.77640224 0.61914724 4294053120
3.4548504 0.77751011 0.62213439 4294183680
3.4593866 0.77864522 0.62441951 4294183680
3.4496324 0.77656358 0.62339371 4294053120
3.5008919 0.78821838 0.63266176 4294314240
3.4913826 0.78619266 0.63020903 4294314240
3.496408 0.7874397 0.62964165 4294314240
3.512578 0.79119736 0.63033175 4294314240
3.511934 0.79116821 0.62725735 4294314240
3.5029049 0.78924978 0.62196201 4294314240
3.5297754 0.79542053 0.6222899 4294444800
3.5248058 0.79441702 0.61625183 4294314240
3.5367942 0.79723573 0.61244762 4294444800
3.5473738 0.79973763 0.60764694 4294444800
3.5414701 0.79852355 0.59930915 4294444800
3.5375535 0.79775727 0.59063357 4294444800
3.5299861 0.79616725 0.58069211 4294314240
3.5210669 0.79427177 0.5698995 4294314240
3.5172977 0.79353774 0.55931771 4294314240
3.5252786 0.79545468 0.54994756 4294314240
3.5444684 0.79990172 0.54160941 4294444800
3.5527666 0.80189174 0.53089756 4294444800
