# .PCD v0.7 - Point Cloud Data file format
VERSION 0.7
FIELDS x y z rgba
SIZE 4 4 4 4
TYPE F F F U
COUNT 1 1 1 1
WIDTH 1103
HEIGHT 1
VIEWPOINT 0 0 0 1 0 0 0
POINTS 1103
DATA ascii
2.6483998 -1.9700236 0.54488957 4293269760
2.6665912 -1.9834251 0.55533081 4293400320
2.6729789 -1.9880459 0.56272864 4293400320
2.6873522 -1.998605 0.5711962 4293400320
2.6867754 -1.9980451 0.57584834 4293400320
2.7020984 -2.0093083 0.58325845 4293530880
2.7048557 -2.0112267 0.58730173 4293530880
2.7045417 -2.0108612 0.58999449 4293530880
2.7122242 -2.0164409 0.5937469 4293530880
2.7010314 -2.0079877 0.59267217 4293530880
2.6930954 -2.0019567 0.59161031 4293530880
2.6931584 -2.0018721 0.59161055 4293530880
2.6893642 -1.9989207 0.59007156 4293530880
2.6785493 -1.9907516 0.58630782 4293400320
2.6709876 -1.9850014 0.58258134 4293400320
2.6603525 -1.9769679 0.57751983 4293400320
2.6458485 -1.9660608 0.57097298 4293269760
2.7195201 -2.0206716 0.58269304 4293530880
2.6822495 -1.9928478 0.56991601 4293400320
2.6600795 -1.9762462 0.55979526 4293269760
2.6947408 -2.0018659 0.56094927 4293530880
2.7340009 -2.0308979 0.56223124 4293661440
2.7441182 -2.0382795 0.55674165 4293661440
2.7412565 -2.0360203 0.54795533 4293661440
2.733325 -2.0299962 0.53755713 4293661440
2.7385108 -2.0337141 0.52912718 4293661440
2.7437541 -2.0374742 0.52006304 4293661440
2.7462466 -2.0391912 0.50985229 4293661440
2.7427251 -2.0364428 0.49794674 4293661440
2.7147992 -2.014854 0.40813601 4293530880
2.7304993 -2.0263734 0.39546242 4293530880
2.7429085 -2.0354488 0.38171384 4293530880
2.7294135 -2.0253015 0.36394361 4293530880
2.7093847 -2.0103076 0.34509626 4293400320
2.7170331 -2.0158503 0.32946503 4293400320
2.7173514 -2.0159543 0.31253251 4293400320
2.7186537 -2.0167878 0.29535881 4293400320
2.7026479 -2.0047827 0.27607608 4293400320
2.7029173 -2.0048506 0.25825566 4293400320
2.725863 -2.0217376 0.24216415 4293530880
2.6979115 -2.000875 0.2213234 4293400320
2.7070551 -2.0075243 0.20341231 4293400320
2.6998439 -2.0020452 0.18403898 4293400320
2.725749 -2.0211222 0.16659164 4293400320
2.7127087 -2.0113208 0.14649436 4293400320
2.6990786 -2.0010834 0.12639795 4293269760
2.6856835 -1.9910216 0.1063712 4293269760
2.7050765 -2.0052669 0.087484859 4293400320
2.6681244 -1.9777445 0.066811562 4293139200
2.6727264 -1.9810256 0.047343671 4293269760
2.6980386 -1.9996557 0.027972829 4293269760
2.6873477 -1.9916012 0.0080921901 4293269760
2.6691501 -1.9779853 -0.011606282 4293139200
2.664866 -1.9746808 -0.031186396 4293139200
2.6828034 -1.9878418 -0.051092207 4293269760
2.6727707 -1.980278 -0.070467569 4293269760
2.6571944 -1.9686081 -0.089432791 4293139200
2.6818681 -1.9867574 -0.10972064 4293269760
2.6974344 -1.9981577 -0.12980762 4293269760
2.6594927 -1.9699227 -0.14701891 4293139200
2.6510668 -1.9635525 -0.16537023 4293139200
2.6721807 -1.9790608 -0.18547247 4293269760
2.6826007 -1.9866476 -0.20485085 4293269760
2.6564271 -1.967135 -0.22110349 4293139200
2.6517315 -1.9635288 -0.23869003 4293139200
2.6949794 -1.9954216 -0.26058739 4293400320
2.7059193 -2.0033901 -0.27943516 4293400320
2.6767113 -1.9816351 -0.29371241 4293269760
2.5822787 -1.9115987 -0.29972103 4292878080
2.6903934 -1.9915026 -0.32898024 4293400320
2.7003269 -1.9987243 -0.34660089 4293400320
2.6810708 -1.984341 -0.3600356 4293269760
2.6817222 -1.9846926 -0.37563181 4293269760
2.5913539 -1.9176868 -0.37755424 4292878080
2.6919091 -1.9919701 -0.40691155 4293400320
2.7128963 -2.0073683 -0.42444447 4293400320
2.7123644 -2.0068431 -0.43824071 4293530880
2.6893404 -1.9896771 -0.44779137 4293400320
2.6766329 -1.9801455 -0.45837855 4293269760
2.670604 -1.9755554 -0.46950096 4293269760
2.6801021 -1.9824513 -0.48283219 4293400320
2.6749058 -1.9784776 -0.49298465 4293400320
2.6856515 -1.9862952 -0.50553161 4293400320
2.6737809 -1.9773859 -0.51323938 4293400320
2.6618035 -1.9683986 -0.5202502 4293269760
2.6656678 -1.9711267 -0.52972835 4293269760
2.6595695 -1.966488 -0.53660876 4293269760
2.6131482 -1.9320371 -0.53458333 4293139200
2.635339 -1.9483159 -0.54590076 4293139200
2.5777409 -1.9056082 -0.5399788 4293008640
2.5961132 -1.9190638 -0.54924673 4293008640
2.6066298 -1.9267112 -0.5562703 4293139200
2.6100926 -1.9291439 -0.56116438 4293139200
2.621562 -1.9374938 -0.56714535 4293139200
2.6323237 -1.9453194 -0.57233715 4293139200
2.6281226 -1.9420871 -0.57361424 4293139200
2.6279733 -1.9418492 -0.5751006 4293139200
2.6318767 -1.9446056 -0.57680148 4293139200
2.6129026 -1.9304594 -0.57281291 4293139200
2.6130304 -1.9304268 -0.57233977 4293139200
2.5942376 -1.9164174 -0.56706053 4293008640
2.5834544 -1.908326 -0.56288421 4293008640
2.5719647 -1.8997141 -0.55791402 4292878080
2.6173818 -1.9331331 -0.56459171 4293139200
2.6028969 -1.9223086 -0.55765474 4293008640
2.6498437 -1.9568515 -0.56316912 4293269760
2.6659157 -1.9685909 -0.56135345 4293269760
2.6808081 -1.9794577 -0.5585717 4293400320
2.6884768 -1.9849896 -0.55358428 4293400320
2.6894693 -1.9855919 -0.54655868 4293400320
2.6754396 -1.9751041 -0.53588587 4293400320
2.6658263 -1.9678779 -0.52555001 4293269760
2.670975 -1.9715488 -0.51753151 4293269760
2.6873155 -1.9834799 -0.51101005 4293400320
2.6953695 -1.9892937 -0.50223696 4293400320
2.7197759 -2.0071747 -0.49580681 4293530880
2.7060354 -1.9969029 -0.4818165 4293400320
2.6775506 -1.9757528 -0.46483743 4293269760
2.6789651 -1.9766667 -0.45264152 4293269760
2.695163 -1.9884874 -0.44234607 4293400320
2.7077799 -1.9976648 -0.43082196 4293400320
2.7052658 -1.9956787 -0.41635522 4293400320
2.6626036 -1.9640777 -0.39548454 4293269760
2.6861973 -1.9813514 -0.38411099 4293269760
2.7024348 -1.9931972 -0.37103379 4293400320
2.7222528 -2.0076821 -0.35782692 4293400320
2.7026732 -1.9931107 -0.33904591 4293400320
2.6655819 -1.9656283 -0.31803811 4293269760
2.6847031 -1.9795982 -0.30349407 4293269760
2.7012012 -1.9916322 -0.28809437 4293400320
2.6846156 -1.9792732 -0.26885256 4293269760
2.6745484 -1.9717214 -0.25014395 4293269760
2.6934998 -1.9855621 -0.23381557 4293269760
2.7170293 -2.0027754 -0.21734233 4293400320
2.6774185 -1.9734477 -0.19569525 4293269760
2.6404788 -1.9460926 -0.17456257 4293008640
2.7085159 -1.9961061 -0.15995918 4293400320
2.7024403 -1.9914976 -0.14036968 4293269760
2.6456578 -1.9495248 -0.1184457 4293139200
2.6996686 -1.9891932 -0.10137195 4293269760
2.7190809 -2.003365 -0.082359508 4293400320
2.7025261 -1.9910368 -0.062149417 4293269760
2.6669745 -1.9647157 -0.041817192 4293139200
2.7272627 -2.0089967 -0.022761507 4293400320
2.7318094 -2.0122135 -0.0027414793 4293400320
2.6783662 -1.9727181 0.016979715 4293269760
2.6315544 -1.938112 0.035987888 4293008640
2.7626112 -2.0345001 0.058004849 4293530880
2.7484877 -2.0239658 0.077766426 4293530880
2.6705508 -1.9664443 0.094968133 4293139200
2.6069932 -1.9195176 0.11155193 4292878080
2.7533774 -2.0271664 0.1375894 4293530880
2.7515042 -2.0256538 0.15710631 4293530880
2.6803966 -1.9731747 0.17198309 4293269760
2.5670075 -1.8895791 0.18266383 4292747520
2.7624855 -2.0333369 0.21568251 4293530880
2.7350142 -2.012984 0.23222288 4293530880
2.6881833 -1.9783863 0.24636182 4293269760
2.5714669 -1.8923635 0.25273526 4292747520
2.7888832 -2.0522268 0.29231575 4293661440
2.7856474 -2.0497108 0.30984557 4293661440
2.6949749 -1.9828625 0.31671634 4293269760
2.6814365 -1.9727715 0.33164746 4293269760
2.6083035 -1.9188403 0.3383157 4293008640
2.7773249 -2.0430491 0.37656987 4293661440
2.7392807 -2.0149305 0.38710442 4293530880
2.723778 -2.0033953 0.40008718 4293530880
2.6749661 -1.9673636 0.40737829 4293269760
2.6344166 -1.9374131 0.41499341 4293139200
2.784502 -2.0476546 0.45271757 4293792000
2.7516975 -2.0233979 0.46079382 4293661440
2.7322531 -2.0089676 0.47033399 4293530880
2.6836045 -1.9730674 0.47400287 4293400320
2.6280797 -1.9321166 0.47546056 4293139200
2.6579723 -1.9539647 0.49171233 4293269760
2.7990134 -2.0575132 0.52863014 4293792000
2.7561357 -2.025861 0.53059447 4293661440
2.7290106 -2.0057912 0.53473115 4293530880
2.7430954 -2.0160105 0.54627788 4293661440
2.7651863 -2.0321121 0.55889833 4293661440
2.7011759 -1.9849409 0.55335909 4293400320
2.7122791 -1.9929687 0.56241781 4293530880
2.7306035 -2.0063012 0.57238942 4293530880
2.7370825 -2.0109293 0.57926619 4293661440
2.7364943 -2.0103648 0.58398414 4293661440
2.7479053 -2.0186148 0.59059733 4293661440
2.7586083 -2.0263441 0.59639937 4293661440
2.7582872 -2.0259745 0.59913385 4293661440
2.7540915 -2.0227597 0.60032207 4293661440
2.7507858 -2.0201988 0.60099661 4293661440
2.7578962 -2.0252874 0.60324305 4293661440
2.7539909 -2.0222862 0.60237521 4293661440
2.7430377 -2.0141106 0.59926319 4293661440
2.7353551 -2.0083373 0.59617066 4293661440
2.7206199 -1.9973869 0.59085858 4293530880
2.7139149 -1.9923332 0.58661753 4293530880
2.783839 -2.0435309 0.59817171 4293792000
2.7622313 -2.0275362 0.58930337 4293661440
2.7319596 -2.0051839 0.57798612 4293530880
2.7136788 -1.9916351 0.56862324 4293530880
2.7524784 -2.019978 0.5705086 4293661440
2.7919228 -2.0487905 0.57167816 4293792000
2.773875 -2.0354123 0.56036335 4293792000
2.7992442 -2.0538924 0.55714512 4293792000
2.7793512 -2.0391619 0.54426318 4293792000
2.7965255 -2.0516272 0.53801781 4293792000
2.7938406 -2.0495226 0.52728432 4293792000
2.8003492 -2.0541618 0.51766592 4293792000
2.804014 -2.0567148 0.5068897 4293792000
2.7689266 -2.0301149 0.41448814 4293661440
2.7847166 -2.0415573 0.40158522 4293661440
2.7931936 -2.047637 0.38704488 4293792000
2.7724426 -2.0322909 0.36809602 4293661440
2.7667851 -2.0280104 0.35089645 4293661440
2.7712781 -2.0311699 0.33460203 4293661440
2.7676022 -2.028342 0.31694746 4293661440
2.762727 -2.0246356 0.29886037 4293530880
2.7568898 -2.0202246 0.28040978 4293530880
2.7531569 -2.0173564 0.26192844 4293530880
2.7802398 -2.0370669 0.24593639 4293661440
2.7513793 -2.0157881 0.22474235 4293530880
2.7573559 -2.0200338 0.20630413 4293530880
2.7614033 -2.0228655 0.1874287 4293530880
2.7761545 -2.0335376 0.16894533 4293661440
2.7590384 -2.0208669 0.14835794 4293530880
2.7534196 -2.0166183 0.12839033 4293530880
2.7399757 -2.0066397 0.10805665 4293400320
2.7594595 -2.0207756 0.088861383 4293530880
2.7223544 -1.993472 0.067877531 4293400320
2.7269809 -1.9967281 0.048097827 4293400320
2.756439 -2.0181646 0.028455924 4293530880
2.7457039 -2.0101724 0.0082325069 4293530880
2.7193596 -1.990754 -0.011773973 4293400320
2.7182832 -1.9898348 -0.031675313 4293400320
2.7298522 -1.9981719 -0.051765632 4293400320
2.7270215 -1.9959683 -0.071590073 4293400320
2.7113724 -1.9843836 -0.090865582 4293269760
2.7442105 -2.0082846 -0.11179059 4293530880
2.7509632 -2.0130935 -0.13181689 4293530880
2.7096236 -1.9827116 -0.14914906 4293269760
2.7051814 -1.9793305 -0.16802362 4293269760
2.7295969 -1.9970632 -0.18864684 4293400320
2.7327969 -1.9992726 -0.20779093 4293400320
2.7024708 -1.9769561 -0.22397335 4293269760
2.705792 -1.9792553 -0.24251406 4293269760
2.7451854 -2.0079389 -0.26430628 4293530880
2.7440903 -2.0070055 -0.28216466 4293530880
2.7340422 -1.9995244 -0.29871985 4293400320
2.6432016 -1.9329613 -0.30547988 4293139200
2.7296603 -1.9960566 -0.33235407 4293400320
2.739239 -2.002929 -0.35009164 4293530880
2.7351234 -1.9997878 -0.36572337 4293530880
2.7193351 -1.9881129 -0.37927136 4293400320
2.6409693 -1.9306922 -0.38313764 4293139200
2.7459435 -2.0073018 -0.41330457 4293530880
2.7557971 -2.0143719 -0.429313 4293530880
2.7584372 -2.0161686 -0.44377923 4293661440
2.7392976 -2.0020473 -0.45415959 4293530880
2.6766241 -1.9561127 -0.4564175 4293269760
2.7244394 -1.9909256 -0.47691801 4293530880
2.715174 -1.9840238 -0.4870598 4293400320
2.7327125 -1.9967078 -0.50148588 4293530880
2.7354996 -1.9986125 -0.51271415 4293530880
2.7307434 -1.9950058 -0.52193344 4293530880
2.7194929 -1.9866556 -0.52925438 4293530880
2.7233553 -1.9893459 -0.53887969 4293530880
2.7132277 -1.9818174 -0.54509622 4293530880
2.673764 -1.952863 -0.54464686 4293269760
2.6277688 -1.9191425 -0.54200721 4293139200
2.6421556 -1.9295224 -0.55110794 4293139200
2.6566117 -1.9399514 -0.5596453 4293269760
2.6679578 -1.9481082 -0.56692618 4293269760
2.6865456 -1.9615514 -0.57513475 4293400320
2.6781607 -1.9553003 -0.57691544 4293400320
2.6857798 -1.9607335 -0.5814662 4293400320
2.6855335 -1.9604244 -0.58364183 4293400320
2.6893578 -1.9630866 -0.58602089 4293400320
2.681344 -1.9571079 -0.58513379 4293400320
2.6774023 -1.9541019 -0.58444703 4293400320
2.6735549 -1.9511651 -0.58309674 4293269760
2.6626408 -1.9430717 -0.57952803 4293269760
2.6518173 -1.9350457 -0.57531297 4293269760
2.6363075 -1.9236012 -0.56943053 4293139200
2.6787446 -1.9544368 -0.57536215 4293400320
2.6602273 -1.9407984 -0.56750518 4293269760
2.6994233 -1.9692641 -0.57125807 4293400320
2.7125108 -1.9786812 -0.56872767 4293530880
2.7305417 -1.9917026 -0.56650662 4293530880
2.7235043 -1.9864384 -0.55840415 4293530880
2.7392657 -1.9978024 -0.55430347 4293530880
2.7331669 -1.9932228 -0.54511321 4293530880
2.7195408 -1.983155 -0.53385252 4293530880
2.7247293 -1.9868073 -0.5256952 4293530880
2.7331712 -1.9928315 -0.51751322 4293530880
2.7380791 -1.9962782 -0.50801933 4293530880
2.7658026 -2.0163577 -0.50204718 4293661440
2.7560196 -2.009093 -0.4886238 4293661440
2.7386365 -1.9962893 -0.47341505 4293530880
2.7288721 -1.9890404 -0.45910802 4293530880
2.741153 -1.99786 -0.4479762 4293530880
2.7538419 -2.0069757 -0.43628281 4293530880
2.7553451 -2.0079386 -0.42225501 4293530880
2.7237551 -1.9847866 -0.40284306 4293400320
2.7402496 -1.9966743 -0.39017004 4293530880
2.752562 -2.0055132 -0.37630537 4293530880
2.7652626 -2.0146339 -0.36193129 4293530880
2.7425096 -1.9979254 -0.34257725 4293530880
2.7196317 -1.981128 -0.32310426 4293400320
2.7348299 -1.9920677 -0.30784342 4293400320
2.7473893 -2.0010839 -0.2917721 4293530880
2.7388051 -1.9946997 -0.2731109 4293400320
2.7246823 -1.9842831 -0.25374725 4293400320
2.7550197 -2.0062442 -0.23813722 4293530880
2.763341 -2.012171 -0.22010538 4293530880
2.7562325 -2.0068624 -0.20059782 4293530880
2.6937513 -1.9612392 -0.17732599 4293269760
2.7475681 -2.0002894 -0.16157451 4293530880
2.7568088 -2.0068843 -0.14258391 4293530880
2.7038329 -1.9681894 -0.12053476 4293269760
2.7500026 -2.0016654 -0.10282233 4293530880
2.7614214 -2.0098441 -0.083285876 4293530880
2.7650096 -2.0123229 -0.063315645 4293530880
2.7139499 -1.9750322 -0.042372603 4293269760
2.7817748 -2.0242569 -0.023117637 4293530880
2.7863421 -2.0274465 -0.0027843034 4293661440
2.7326701 -1.9882616 0.017250247 4293400320
2.6735277 -1.9451017 0.036406294 4293139200
2.8091848 -2.0436628 0.058731724 4293661440
2.8063152 -2.0414405 0.079064734 4293661440
2.728847 -1.9849554 0.096628316 4293400320
2.6528862 -1.9295744 0.11303269 4293008640
2.8039289 -2.0393004 0.13951939 4293661440
2.802038 -2.0377905 0.15931109 4293661440
2.7338467 -1.988067 0.17466646 4293400320
2.6167309 -1.9027742 0.18541004 4292878080
2.820296 -2.0506625 0.21925953 4293792000
2.7854285 -2.0251763 0.23549759 4293661440
2.7270901 -1.9826297 0.24886461 4293400320
2.6058323 -1.8943485 0.25502372 4292878080
2.850765 -2.0722692 0.29753131 4293922560
2.8402424 -2.0644836 0.31457487 4293922560
2.7378888 -1.9899546 0.32039165 4293400320
2.7234726 -1.9793459 0.33541456 4293400320
2.6427715 -1.9205675 0.34132922 4293008640
2.8277817 -2.0548835 0.3817814 4293792000
2.7935746 -2.0298917 0.39309904 4293661440
2.7699499 -2.0125926 0.40513998 4293661440
2.7281389 -1.9820824 0.41371039 4293400320
2.6801715 -1.9471039 0.42040691 4293269760
2.8268685 -2.0535414 0.45765269 4293922560
2.8099446 -2.0411122 0.46854839 4293792000
2.7863867 -2.0238664 0.47761473 4293661440
2.7335045 -1.9853247 0.4807654 4293530880
2.758656 -2.0034597 0.49696365 4293661440
2.6997232 -1.9605305 0.49731445 4293400320
2.8493514 -2.0690534 0.5358513 4294053120
2.8174689 -2.0457666 0.54009813 4293922560
2.7750206 -2.0148118 0.54143715 4293661440
2.7971416 -2.0307386 0.55467534 4293792000
2.8185122 -2.0461185 0.5672574 4293922560
2.7510207 -1.9969907 0.56117713 4293661440
2.7541766 -1.9991494 0.56868076 4293661440
2.7805498 -2.0181594 0.58038455 4293792000
2.7910352 -2.025636 0.58817691 4293792000
2.7904348 -2.0250664 0.59296733 4293792000
2.793911 -2.0274551 0.59793621 4293792000
2.8014643 -2.0328019 0.60309386 4293792000
2.8083127 -2.0376365 0.60741097 4293922560
2.8080812 -2.037334 0.60949278 4293922560
2.8039618 -2.0342107 0.6100148 4293792000
2.7967522 -2.0288463 0.6091463 4293792000
2.8119621 -2.0397451 0.61244541 4293922560
2.7850201 -2.0200684 0.60585338 4293792000
2.7781041 -2.0149188 0.60291892 4293792000
2.7704856 -2.0092604 0.59913576 4293661440
2.7669477 -2.006562 0.59554356 4293661440
2.8339863 -2.0550418 0.60636401 4293922560
2.815486 -2.0414915 0.59811717 4293922560
2.7898839 -2.0227938 0.5877375 4293792000
2.7675464 -2.0064654 0.57745129 4293661440
2.806524 -2.0345895 0.57924384 4293792000
2.8421564 -2.0602851 0.57949626 4294053120
2.8515918 -2.0669882 0.57362068 4294053120
2.8455398 -2.062465 0.56395823 4294053120
2.8335738 -2.0536561 0.5525288 4293922560
2.8468385 -2.0631335 0.54537559 4294053120
2.8481619 -2.0639563 0.53525782 4294053120
2.8427043 -2.059865 0.5232681 4293922560
2.8472004 -2.0629864 0.51251507 4293922560
2.8152819 -2.0389891 0.41964176 4293792000
2.8351793 -2.0532641 0.40713042 4293922560
2.8469319 -2.0616391 0.39282018 4293922560
2.8269193 -2.0470114 0.37373909 4293792000
2.8172305 -2.0398605 0.35578084 4293792000
2.8217614 -2.0430062 0.33925441 4293792000
2.8301871 -2.0489709 0.32274207 4293792000
2.8275068 -2.046895 0.30457273 4293792000
2.8033285 -2.0292575 0.2839258 4293661440
2.8117096 -2.0351899 0.26636636 4293792000
2.8340783 -2.0512452 0.24963745 4293792000
2.8059194 -2.0307302 0.22822705 4293661440
2.8119366 -2.0349503 0.2094972 4293661440
2.8079257 -2.0319135 0.18977962 4293661440
2.8308418 -2.0483606 0.17154418 4293792000
2.8217585 -2.0416532 0.15108831 4293792000
2.8080318 -2.0315869 0.13038272 4293661440
2.7904909 -2.0187626 0.1095831 4293661440
2.8060143 -2.0298586 0.089978181 4293661440
2.7809074 -2.0115635 0.069044068 4293530880
2.7734058 -2.0060043 0.048709691 4293530880
2.7997627 -2.0249345 0.028780891 4293661440
2.792212 -2.0193398 0.0083365347 4293661440
2.7698071 -2.0030038 -0.011941664 4293530880
2.7687247 -2.0020888 -0.03212662 4293530880
2.7835813 -2.0126984 -0.052561224 4293530880
2.7815444 -2.0110927 -0.072712578 4293530880
2.7617724 -1.9966651 -0.092163205 4293530880
2.7825937 -2.011585 -0.11287484 4293530880
2.7982774 -2.0227892 -0.13351706 4293661440
2.7640409 -1.9979085 -0.15150109 4293530880
2.7595685 -1.9945437 -0.17067701 4293530880
2.7800286 -2.0091989 -0.19131999 4293530880
2.7832298 -2.0113792 -0.21073101 4293530880
2.7568049 -1.9921508 -0.2275106 4293530880
2.7601242 -1.9944174 -0.24633807 4293530880
2.7923949 -2.0176022 -0.26771528 4293661440
2.8025894 -2.0248339 -0.28696194 4293661440
2.7844036 -2.0115619 -0.30293664 4293661440
2.7550631 -1.9902333 -0.31706241 4293530880
2.7840011 -2.0110047 -0.33753809 4293661440
2.7935998 -2.0178049 -0.35553071 4293661440
2.7854156 -2.0117602 -0.37087455 4293661440
2.7534287 -1.9885262 -0.38240409 4293530880
2.6867967 -1.9402761 -0.38813946 4293269760
2.8002465 -2.0220704 -0.41969761 4293792000
2.8020761 -2.0232575 -0.43467876 4293792000
2.8167694 -2.0337322 -0.45124981 4293792000
2.7975249 -2.0197039 -0.46185455 4293792000
2.7417912 -1.9793353 -0.46555543 4293530880
2.778543 -2.0057342 -0.48433509 4293661440
2.7652054 -1.9959741 -0.49394017 4293661440
2.7787895 -2.0056465 -0.50778848 4293661440
2.7747521 -2.0026 -0.51787555 4293661440
2.7767806 -2.0039313 -0.52849209 4293661440
2.7734785 -2.0014157 -0.53748226 4293661440
2.7733364 -2.0011806 -0.54645324 4293661440
2.7132187 -1.9576713 -0.54279363 4293400320
2.7275074 -1.9678508 -0.55324954 4293530880
2.6733038 -1.928616 -0.54907227 4293269760
2.6957386 -1.9446726 -0.55991161 4293400320
2.7102444 -1.9550074 -0.56853443 4293400320
2.7136347 -1.9573234 -0.57419926 4293400320
2.7282979 -1.9677696 -0.58160883 4293530880
2.7398486 -1.9759697 -0.58771396 4293530880
2.7466938 -1.9807752 -0.59214544 4293530880
2.7392511 -1.9752772 -0.59280503 4293530880
2.7390943 -1.9750332 -0.59434116 4293530880
2.7390332 -1.9748584 -0.59520197 4293530880
2.7270863 -1.9661144 -0.5927819 4293530880
2.7232237 -1.9631995 -0.59142476 4293530880
2.7122657 -1.9551704 -0.58783966 4293400320
2.6934099 -1.9414494 -0.58187264 4293400320
2.6826334 -1.9335533 -0.57699364 4293269760
2.7324498 -1.969329 -0.58442301 4293530880
2.7170606 -1.9581081 -0.57718581 4293400320
2.7524347 -1.9834697 -0.58002102 4293661440
2.7623892 -1.9905113 -0.57674414 4293661440
2.7885091 -2.0091996 -0.57609475 4293792000
2.7774549 -2.0011022 -0.5670656 4293661440
2.7892942 -2.0094991 -0.56204826 4293792000
2.7871892 -2.0078495 -0.55354506 4293792000
2.7695155 -1.9949856 -0.54137182 4293661440
2.7819579 -2.0038154 -0.53447497 4293661440
2.7872472 -2.0074923 -0.52552867 4293661440
2.8034301 -2.0190141 -0.51795316 4293792000
2.8048136 -2.0198767 -0.5069837 4293792000
2.8102527 -2.0236597 -0.49614018 4293792000
2.7928174 -2.0109713 -0.48074752 4293661440
2.7830336 -2.0037937 -0.4662481 4293661440
2.7873428 -2.0067635 -0.45360634 4293661440
2.8081532 -2.0216119 -0.44301361 4293792000
2.8137121 -2.0254798 -0.42938396 4293792000
2.770731 -1.9944071 -0.40806526 4293530880
2.7905388 -2.0085318 -0.39565751 4293661440
2.802923 -2.017312 -0.38157699 4293661440
2.8197205 -2.0292671 -0.36750531 4293792000
2.8072789 -2.0201793 -0.34919161 4293661440
2.7699111 -1.9931566 -0.32769248 4293530880
2.7932756 -2.0098357 -0.31309885 4293661440
2.7937782 -2.0100641 -0.29544982 4293661440
2.7892182 -2.0066504 -0.2769675 4293661440
2.7831469 -2.0021498 -0.25810125 4293530880
2.7982445 -2.0128775 -0.24085566 4293661440
2.8139036 -2.0240073 -0.22318971 4293661440
2.8027263 -2.0158341 -0.20312339 4293661440
2.7367494 -1.9682505 -0.17939855 4293400320
2.8021557 -2.0151567 -0.16409139 4293661440
2.8106353 -2.0211208 -0.14475636 4293661440
2.7615023 -1.9856577 -0.1225878 4293530880
2.8086879 -2.0194526 -0.10457486 4293661440
2.8274679 -2.0328207 -0.084919214 4293792000
2.799418 -2.0125206 -0.063833967 4293661440
2.7522039 -1.978447 -0.042789161 4293400320
2.8406157 -2.0418675 -0.023507366 4293792000
2.8411436 -2.0421114 -0.0028271277 4293792000
2.7831845 -2.00032 0.017495258 4293530880
2.7164829 -1.952251 0.036835715 4293269760
2.8600173 -2.0552685 0.059543122 4293922560
2.8530719 -2.0501413 0.080044165 4293792000
2.7639067 -1.985938 0.097458415 4293530880
2.6908672 -1.9333291 0.1141691 4293139200
2.8737891 -2.0646176 0.14239457 4293922560
2.8528054 -2.0494063 0.16151586 4293792000
2.7810714 -1.9977413 0.176937 4293530880
2.7272182 -1.9589267 0.1924267 4293400320
2.8751581 -2.0650532 0.22258554 4293922560
2.8648195 -2.0574913 0.24119219 4293922560
2.7774773 -1.9946305 0.25239795 4293530880
2.7234197 -1.9556795 0.26541194 4293400320
2.8984039 -2.0811973 0.30123267 4294053120
2.8910575 -2.0757844 0.31885803 4294053120
2.8616016 -2.0544989 0.33346227 4293922560
2.769717 -1.9883982 0.33967733 4293530880
2.6805789 -1.9242777 0.34475839 4293139200
2.8784695 -2.0661981 0.38699293 4294053120
2.8287621 -2.0303829 0.39637911 4293792000
2.8163204 -2.0213189 0.41019279 4293792000
2.7710896 -1.988724 0.41845948 4293530880
2.7301576 -1.9592185 0.42644984 4293400320
2.9060276 -2.085288 0.46849316 4294183680
2.8604381 -2.052438 0.47496596 4293922560
2.8287134 -2.0295403 0.48283488 4293792000
2.8547175 -2.0480618 0.49997699 4293922560
2.7976191 -2.0069647 0.50186777 4293792000
2.753695 -1.9753231 0.50512797 4293530880
2.8926878 -2.0748899 0.54171848 4294183680
2.8606567 -2.0517783 0.54607624 4294053120
2.8172138 -2.0204852 0.54736334 4293792000
2.8313918 -2.030519 0.55911171 4293922560
2.8616667 -2.0520942 0.57352668 4294053120
2.8719466 -2.0593293 0.5833872 4294053120
2.8830976 -2.067188 0.59280336 4294183680
2.8155 -2.0185866 0.58521497 4293792000
2.8260231 -2.0259967 0.59305251 4293922560
2.8254144 -2.0254259 0.59788269 4293922560
2.8208919 -2.0220497 0.60117894 4293922560
2.839684 -2.0353851 0.60875845 4293922560
2.8393517 -2.0350118 0.61154956 4293922560
2.8319118 -2.0295451 0.61208826 4293922560
2.8317761 -2.0293131 0.61348331 4293922560
2.8237348 -2.0234163 0.61244512 4293922560
2.8318036 -2.0290635 0.61418164 4293922560
2.8199587 -2.0204422 0.61088276 4293922560
2.8162174 -2.0176277 0.60862899 4293792000
2.8913369 -2.0713081 0.62265021 4294183680
2.8878009 -2.0686378 0.61895072 4294183680
2.8651361 -2.0522659 0.6104601 4294053120
2.8465617 -2.038826 0.60218507 4293922560
2.8280687 -2.0254462 0.59328568 4293922560
2.8751459 -2.059026 0.5973888 4294053120
2.9028351 -2.0787175 0.59661186 4294183680
2.9130492 -2.0858934 0.59146285 4294183680
2.9164271 -2.0881736 0.58420557 4294183680
2.9063559 -2.0808244 0.57359892 4294183680
2.9012864 -2.0770569 0.56336308 4294183680
2.9138274 -2.0858967 0.55587119 4294183680
2.894706 -2.0720711 0.54172689 4294183680
2.9196796 -2.0898087 0.53518695 4294183680
2.920099 -2.0899701 0.52343655 4294183680
2.8883543 -2.0663643 0.42873201 4294053120
2.8899112 -2.0673409 0.41325322 4294053120
2.9166944 -2.0863621 0.40076196 4294183680
2.8992236 -2.0737271 0.38169438 4294053120
2.8863924 -2.0644121 0.36298996 4294053120
2.8684278 -2.0514274 0.34342217 4293922560
2.8837953 -2.0622809 0.32747957 4294053120
2.8855743 -2.0634162 0.3095274 4294053120
2.8611898 -2.0458434 0.28857395 4293922560
2.8768208 -2.0568836 0.27139476 4293922560
2.8768029 -2.0567341 0.252341 4293922560
2.8710482 -2.0524836 0.23254786 4293922560
2.8731542 -2.0538528 0.21316293 4293922560
2.8771613 -2.0565805 0.19364592 4293922560
2.8930953 -2.0678329 0.1745836 4294053120
2.8644924 -2.0472531 0.1527352 4293922560
2.8466501 -2.0343661 0.13162327 4293792000
2.8603544 -2.0440242 0.11185709 4293792000
2.8682086 -2.0495007 0.091588065 4293922560
2.8523467 -2.0380311 0.07052175 4293792000
2.846648 -2.0338242 0.049787089 4293792000
2.845674 -2.0329933 0.029130591 4293792000
2.8580463 -2.0416965 0.0084974319 4293792000
2.8204885 -2.0147326 -0.012109356 4293661440
2.8344591 -2.0245779 -0.032751936 4293792000
2.8456953 -2.0324683 -0.053509582 4293792000
2.8281987 -2.0198376 -0.073623292 4293661440
2.8349538 -2.0245275 -0.094210111 4293792000
2.8487501 -2.0342448 -0.11507572 4293792000
2.8636754 -2.0447669 -0.1360667 4293922560
2.8394341 -2.027323 -0.15498346 4293792000
2.828624 -2.0194707 -0.17421736 4293792000
2.8420577 -2.0289266 -0.19477196 4293792000
2.8420191 -2.0287642 -0.21428362 4293792000
2.8199093 -2.0128477 -0.23174666 4293661440
2.8291066 -2.0192785 -0.25144038 4293792000
2.8503463 -2.0343032 -0.27213031 4293792000
2.8686762 -2.0472493 -0.2925024 4293922560
2.8462234 -2.0310907 -0.30836979 4293792000
2.8128097 -2.0071132 -0.32235685 4293661440
2.8454986 -2.0303037 -0.34355417 4293792000
2.8595495 -2.0401936 -0.36240494 4293922560
2.8468709 -2.0310128 -0.37747523 4293792000
2.825212 -2.0154271 -0.3907361 4293792000
2.7449529 -1.9580425 -0.39488608 4293400320
2.8540051 -2.0356967 -0.42597002 4293922560
2.8679252 -2.0454895 -0.44303751 4293922560
2.8592508 -2.0391674 -0.45614433 4293922560
2.8439448 -2.0281165 -0.46755943 4293922560
2.8382735 -2.0239377 -0.47992766 4293922560
2.8167863 -2.008482 -0.48895326 4293792000
2.8384383 -2.0237861 -0.50490677 4293922560
2.8331168 -2.0198576 -0.51555687 4293792000
2.835892 -2.0217018 -0.52707916 4293922560
2.8310609 -2.0181239 -0.53657603 4293792000
2.823705 -2.0127461 -0.54493397 4293792000
2.8235464 -2.0124996 -0.55402678 4293792000
2.8092849 -2.0022013 -0.55966896 4293792000
2.7734792 -1.9765511 -0.56022906 4293661440
2.7999282 -1.9952675 -0.57268238 4293792000
2.7415552 -1.9535403 -0.56705421 4293530880
2.7529008 -1.9614943 -0.57507551 4293530880
2.7675352 -1.9717906 -0.58316374 4293661440
2.7710154 -1.9741389 -0.58825326 4293661440
2.7818062 -1.9816948 -0.59422737 4293661440
2.7854662 -1.9841702 -0.59800178 4293661440
2.7892206 -1.9867123 -0.60110378 4293661440
2.785049 -1.9836092 -0.60179466 4293661440
2.7809753 -1.9805762 -0.60179836 4293661440
2.7697802 -1.9724718 -0.599554 4293661440
2.7699132 -1.9724355 -0.59905875 4293661440
2.7540979 -1.9610431 -0.59441972 4293530880
2.7512138 -1.9588592 -0.59188467 4293530880
2.7243483 -1.9396021 -0.58352536 4293400320
2.7824047 -1.9808036 -0.59262908 4293661440
2.813827 -2.0030401 -0.59525269 4293792000
2.8237462 -2.0099676 -0.59257072 4293792000
2.8228145 -2.0091708 -0.58690602 4293792000
2.8387365 -2.0203691 -0.58402967 4293922560
2.838505 -2.0200698 -0.57711732 4293922560
2.8435588 -2.0235319 -0.57059735 4293922560
2.8374512 -2.0190513 -0.56118143 4293922560
2.8346124 -2.0168972 -0.55179018 4293922560
2.8282042 -2.0122037 -0.54109836 4293792000
2.8524647 -2.0293295 -0.53558689 4293922560
2.8570375 -2.0324476 -0.52566069 4293922560
2.8777964 -2.0470791 -0.51801103 4294053120
2.8679621 -2.039948 -0.50422168 4293922560
2.8500912 -2.0271018 -0.48856515 4293922560
2.8366506 -2.0174079 -0.47325346 4293792000
2.853106 -2.028976 -0.46237686 4293922560
2.8634536 -2.0361991 -0.44985858 4293922560
2.8602314 -2.0337725 -0.43466732 4293922560
2.8314378 -2.013165 -0.41527149 4293792000
2.8592808 -2.0328262 -0.40371799 4293922560
2.8648429 -2.0366449 -0.38838446 4293922560
2.8792348 -2.0467403 -0.37370148 4293922560
2.8682392 -2.0387883 -0.35529077 4293922560
2.8388531 -2.017766 -0.33445212 4293792000
2.8552542 -2.0292883 -0.31871539 4293792000
2.861397 -2.033519 -0.30134267 4293922560
2.8510072 -2.0260003 -0.28192618 4293792000
2.8441188 -2.0209708 -0.26265919 4293792000
2.8691933 -2.0386524 -0.24593595 4293922560
2.8703091 -2.0393095 -0.22671735 4293922560
2.8598711 -2.0317583 -0.20640345 4293792000
2.7677083 -1.9661517 -0.18067397 4293400320
2.8691289 -2.0380642 -0.16731507 4293922560
2.88467 -2.0489674 -0.14795202 4293922560
2.8515494 -2.0253072 -0.12605917 4293792000
2.877852 -2.0438526 -0.10670484 4293922560
2.8831832 -2.0475025 -0.086232804 4293922560
2.8914442 -2.0532324 -0.065658502 4293922560
2.783251 -1.9762723 -0.043092109 4293530880
2.8963988 -2.0564768 -0.023869434 4293922560
2.9079432 -2.0645363 -0.0028815796 4294053120
2.9023015 -2.0603938 0.018168265 4294053120
2.8153524 -1.9985341 0.038017854 4293661440
2.9313679 -2.0807514 0.060775153 4294053120
2.9336197 -2.0822113 0.08196222 4294183680
2.8648505 -2.0332651 0.10059837 4293792000
2.7885432 -1.978976 0.11782213 4293530880
2.9415786 -2.0874436 0.14514843 4294183680
2.935631 -2.0830841 0.16551521 4294183680
2.8657193 -2.0333405 0.18156567 4293922560
2.7271855 -1.9349164 0.19162573 4293269760
2.9498146 -2.0927308 0.22741742 4294183680
2.9516764 -2.0939121 0.24747346 4294183680
2.8742139 -2.0388248 0.26010484 4293922560
2.7152529 -1.9259374 0.26351804 4293269760
2.9763122 -2.1109669 0.30804622 4294314240
2.9705906 -2.1067686 0.32627052 4294314240
2.9355481 -2.0817776 0.34066007 4294183680
2.789372 -1.9779834 0.34066868 4293530880
2.7644732 -1.9601969 0.35407346 4293530880
2.9764621 -2.1103706 0.3985076 4294314240
2.939307 -2.0838883 0.41016093 4294183680
2.8393915 -2.0129168 0.41183788 4293792000
2.7745318 -1.9668052 0.41724175 4293530880
2.7261486 -1.9323786 0.42405784 4293400320
2.9853258 -2.1159506 0.47928154 4294444800
2.9595478 -2.0975399 0.48938525 4294314240
2.9097464 -2.0621066 0.49460727 4294183680
2.8698325 -2.0336845 0.50054055 4293922560
2.7979612 -1.9826214 0.4998484 4293661440
2.7498233 -1.9483814 0.50232691 4293530880
2.973321 -2.1065998 0.55451089 4294444800
2.9618189 -2.0983109 0.56304401 4294444800
2.9450645 -2.0863023 0.56983238 4294314240
2.912221 -2.0628982 0.57268983 4294183680
2.9305151 -2.0757189 0.58489132 4294314240
2.8766494 -2.0374296 0.58192134 4294053120
2.883019 -2.0418046 0.59033114 4294053120
2.89027 -2.0468037 0.59826738 4294053120
2.9008207 -2.0541384 0.60622728 4294183680
2.9042165 -2.0564063 0.61201221 4294183680
2.9036829 -2.0558915 0.61625987 4294183680
2.9112852 -2.0611367 0.62152302 4294183680
2.9109435 -2.0607576 0.62437266 4294183680
2.917937 -2.0655708 0.62806988 4294183680
2.9177964 -2.0653338 0.62950134 4294183680
2.9065046 -2.057204 0.62778687 4294183680
2.9105885 -2.0599573 0.62865531 4294183680
2.9027169 -2.0542493 0.62620711 4294183680
2.8989658 -2.0514579 0.62391853 4294183680
2.8920987 -2.0464621 0.62023604 4294183680
2.8732655 -2.033 0.61328614 4294053120
2.9306931 -2.0734954 0.62184352 4294314240
2.9273396 -2.0709846 0.61671042 4294314240
2.9517436 -2.0881104 0.61666805 4294314240
2.9618359 -2.0951102 0.61285424 4294444800
2.9578295 -2.0921369 0.60539919 4294444800
2.9767625 -2.1053884 0.60189831 4294444800
2.9698091 -2.1003304 0.59243751 4294444800
2.9797843 -2.1072447 0.58565772 4294444800
2.9795148 -2.1069138 0.57615983 4294444800
2.962693 -2.0948789 0.56285536 4294314240
2.9681051 -2.0985658 0.5531655 4294444800
2.9876997 -2.1122792 0.54539013 4294444800
2.9823201 -2.1083353 0.53237891 4294444800
2.952404 -2.0862885 0.4364275 4294314240
2.9668922 -2.0963867 0.42250758 4294314240
2.9843299 -2.1085675 0.4083603 4294444800
2.9769611 -2.1032209 0.39030895 4294314240
2.9432282 -2.0792501 0.36860788 4294183680
2.946265 -2.0812566 0.35128349 4294183680
2.9709244 -2.0985363 0.33597967 4294314240
2.9593151 -2.0901964 0.31612566 4294314240
2.9261584 -2.0666399 0.29390717 4294053120
2.9436417 -2.0788491 0.27655122 4294183680
2.9493811 -2.0827634 0.25763848 4294183680
2.9457178 -2.0800378 0.23761028 4294183680
2.9309168 -2.0694485 0.2165502 4294053120
2.9478209 -2.0812454 0.19758216 4294183680
2.9535854 -2.085176 0.17749773 4294183680
2.9613421 -2.0905128 0.15724713 4294183680
2.9303534 -2.0684988 0.13493399 4294053120
2.9305196 -2.0684781 0.11412773 4294053120
2.9384289 -2.0739226 0.093442917 4294183680
2.9169104 -2.0585978 0.071820267 4294053120
2.9135044 -2.056057 0.050746012 4294053120
2.9223669 -2.0621736 0.02979218 4294053120
2.9217684 -2.0616138 0.0086510293 4294053120
2.9050698 -2.0496945 -0.012421011 4293922560
2.9021676 -2.0475101 -0.03339589 4293922560
2.9142148 -2.0558727 -0.054571845 4294053120
2.9127989 -2.0547366 -0.07551267 4294053120
2.8961148 -2.0428312 -0.095845431 4293922560
2.9188828 -2.0587537 -0.11742222 4294053120
2.9265091 -2.0639951 -0.1384785 4294053120
2.9153371 -2.0559785 -0.15846992 4294053120
2.8905323 -2.0383494 -0.17729586 4293922560
2.900682 -2.0453706 -0.19796954 4293922560
2.9088445 -2.0509892 -0.21841745 4294053120
2.9038088 -2.0473022 -0.23765738 4294053120
2.8982866 -2.0432725 -0.25652647 4293922560
2.9284947 -2.0644312 -0.27843827 4294053120
2.930582 -2.0657649 -0.29758233 4294183680
2.930655 -2.0656784 -0.31620806 4294183680
2.8407328 -2.0021632 -0.32421455 4293792000
2.9089267 -2.0500896 -0.34976414 4294053120
2.9253914 -2.0615559 -0.36922091 4294183680
2.9178894 -2.0561318 -0.38529685 4294053120
2.9047861 -2.0467618 -0.40008539 4294053120
2.8413205 -2.0019095 -0.40706459 4293792000
2.9254553 -2.0610507 -0.43483451 4294183680
2.9344771 -2.0672688 -0.45145017 4294183680
2.9379582 -2.0695832 -0.46676919 4294183680
2.919909 -2.0567315 -0.47807017 4294183680
2.8981836 -2.0412922 -0.48803863 4294053120
2.9024243 -2.0441427 -0.5017429 4294053120
2.9128821 -2.0513711 -0.51601416 4294183680
2.9075091 -2.0474505 -0.52691466 4294053120
2.9102671 -2.0492561 -0.53867435 4294183680
2.9125822 -2.0507491 -0.54975295 4294183680
2.8993771 -2.0413153 -0.55723292 4294053120
2.9026961 -2.0435157 -0.56721145 4294053120
2.8873441 -2.032572 -0.572851 4294053120
2.8740106 -2.0230508 -0.57814515 4294053120
2.8308647 -1.9925469 -0.5766257 4293792000
2.8453827 -2.0026319 -0.58610618 4293922560
2.8527198 -2.0076618 -0.59347385 4293922560
2.7983208 -1.969246 -0.58722311 4293661440
2.8090634 -1.976674 -0.59387547 4293792000
2.8086138 -1.9762256 -0.59748411 4293792000
2.8082581 -1.9758434 -0.6004132 4293792000
2.8233037 -1.9862967 -0.60594469 4293792000
2.8118632 -1.9781159 -0.60508811 4293792000
2.8117993 -1.9779388 -0.60596448 4293792000
2.8078067 -1.9749984 -0.60528421 4293792000
2.7926357 -1.964196 -0.60148776 4293661440
2.8538494 -2.0071166 -0.61341476 4293922560
2.8469346 -2.0021195 -0.6099577 4293922560
2.8280284 -1.988691 -0.60324049 4293792000
2.8707705 -2.0186129 -0.60893488 4294053120
2.8910022 -2.0327032 -0.60906309 4294053120
2.894726 -2.0351858 -0.60496742 4294053120
2.9064262 -2.0432751 -0.60180479 4294183680
2.9048324 -2.0420182 -0.59517014 4294183680
2.9095399 -2.045191 -0.58912724 4294183680
2.9169996 -2.0502977 -0.58292723 4294183680
2.9100702 -2.0452907 -0.57317722 4294183680
2.9011691 -2.0388985 -0.5624243 4294053120
2.8943591 -2.0339768 -0.55147862 4294053120
2.9037759 -2.040458 -0.54297984 4294053120
2.9233823 -2.0540981 -0.53565633 4294183680
2.9345486 -2.0618062 -0.52605534 4294183680
2.9303551 -2.0587225 -0.51307362 4294183680
2.9136245 -2.0468316 -0.49740338 4294053120
2.9063237 -2.0415664 -0.48288473 4294053120
2.9155154 -2.0478864 -0.47054932 4294053120
2.9227777 -2.0528502 -0.45729178 4294183680
2.9414022 -2.0657935 -0.44516614 4294183680
2.9092548 -2.0430796 -0.42493144 4294053120
2.9108191 -2.0440414 -0.40930647 4294053120
2.9363911 -2.0618608 -0.39644888 4294183680
2.9379334 -2.0628061 -0.37975374 4294183680
2.9430873 -2.0662868 -0.36306486 4294183680
2.9054639 -2.0397358 -0.34089383 4294053120
2.9228058 -2.0517733 -0.32491589 4294053120
2.9212766 -2.0505629 -0.30638534 4294053120
2.9332452 -2.0588264 -0.28886732 4294053120
2.91085 -2.0429711 -0.26771817 4294053120
2.9324312 -2.0579803 -0.25032443 4294053120
2.9376552 -2.0615087 -0.23108418 4294183680
2.9363861 -2.0604804 -0.21105571 4294053120
2.9197776 -2.0486891 -0.18981853 4294053120
2.9291644 -2.0551381 -0.17011493 4294053120
2.942703 -2.0644991 -0.15030901 4294183680
2.9142826 -2.0444238 -0.12830369 4294053120
2.9326034 -2.0571387 -0.10828868 4294053120
2.9433179 -2.0645165 -0.087670118 4294183680
2.9470611 -2.067004 -0.066646844 4294183680
2.9241273 -2.0507817 -0.04508749 4294053120
2.9557831 -2.0728445 -0.024258887 4294183680
2.9641016 -2.0785391 -0.0029251787 4294183680
2.9740832 -2.0853992 0.018541239 4294183680
2.8302236 -1.9843935 0.038061898 4293661440
2.9927425 -2.0982025 0.061793115 4294314240
2.9902585 -2.0963206 0.08320199 4294314240
2.9746192 -2.0852175 0.10402448 4294183680
2.7885685 -1.9546647 0.11734001 4293530880
2.9987376 -2.1018436 0.14736208 4294314240
3.0118637 -2.1109028 0.16911703 4294444800
2.9762244 -2.0857852 0.1877939 4294314240
2.8014326 -1.9631571 0.19603568 4293530880
3.0153084 -2.1128931 0.23151368 4294444800
3.0164566 -2.1135566 0.25186804 4294444800
2.9805393 -2.0882506 0.26862127 4294314240
2.7975247 -1.9598943 0.27038977 4293530880
3.0304062 -2.122905 0.31235948 4294575360
3.0316329 -2.1236222 0.33161044 4294575360
3.0133004 -2.1106393 0.34825 4294444800
2.9264143 -2.0496438 0.3559413 4294053120
2.7400014 -1.9189531 0.34950122 4293400320
3.0219767 -2.116292 0.4029437 4294444800
3.0156565 -2.1117249 0.41909102 4294444800
2.9849253 -2.0900655 0.43117318 4294314240
2.9234018 -2.0468495 0.43782839 4294053120
2.8000016 -1.9603183 0.43376181 4293661440
3.0198607 -2.1141033 0.4828403 4294575360
3.0229101 -2.1160967 0.49781558 4294575360
2.9816377 -2.0870655 0.50475204 4294444800
2.9203191 -2.0440075 0.50726044 4294183680
2.8770475 -2.013586 0.51187247 4293922560
2.8951936 -2.0261505 0.52671713 4294053120
3.0090306 -2.1056764 0.55887312 4294575360
3.0065486 -2.1037991 0.56920737 4294575360
2.9984717 -2.098007 0.57779109 4294444800
2.9839354 -2.0876963 0.58439058 4294444800
3.0022826 -2.1003923 0.5967626 4294575360
2.9806972 -2.0851517 0.60050148 4294444800
2.9878719 -2.0900311 0.60929728 4294444800
2.9398773 -2.0563209 0.60604548 4294314240
2.9512689 -2.0641508 0.61424643 4294314240
2.9506316 -2.0635672 0.61924922 4294314240
2.9500885 -2.0630493 0.62354714 4294314240
2.9496424 -2.0625994 0.62713563 4294314240
2.9565609 -2.0672989 0.63156295 4294314240
2.9563148 -2.0669885 0.63372755 4294314240
2.9561715 -2.06675 0.63517189 4294314240
2.9561319 -2.0665843 0.63589466 4294314240
2.9529684 -2.0642345 0.63520044 4294314240
2.9410293 -2.0557511 0.63187766 4294314240
2.9413009 -2.0558035 0.63044137 4294314240
2.9960749 -2.0939472 0.63990742 4294444800
2.981216 -2.0834229 0.633726 4294444800
2.973721 -2.0780461 0.62839365 4294444800
2.9796259 -2.0820332 0.62515956 4294444800
2.9835079 -2.0846064 0.62075621 4294444800
3.0023384 -2.0976231 0.61869562 4294575360
3.0112915 -2.1037374 0.61382246 4294575360
3.0070977 -2.100667 0.60554707 4294575360
3.0106633 -2.1030171 0.59813291 4294575360
3.003773 -2.0980635 0.58796006 4294444800
2.9929578 -2.0903697 0.57639444 4294444800
2.997849 -2.0936456 0.56720728 4294444800
3.0110788 -2.1027443 0.55888176 4294575360
3.0095716 -2.1015511 0.54713833 4294444800
3.0047874 -2.0980699 0.5341984 4294444800
2.9803166 -2.0800846 0.43875468 4294314240
3.0085588 -2.0996552 0.42669186 4294444800
3.0209529 -2.1081641 0.41168392 4294444800
3.0082138 -2.0991335 0.39279631 4294444800
2.9841974 -2.0822353 0.37221313 4294314240
2.9952517 -2.0898087 0.3556664 4294314240
3.007539 -2.0982413 0.33873215 4294444800
3.0019686 -2.0942147 0.31937325 4294444800
2.9801664 -2.078866 0.29811016 4294314240
2.9894123 -2.085176 0.27970517 4294314240
2.9974022 -2.0906091 0.26076484 4294314240
2.999572 -2.0919826 0.24096707 4294314240
2.975256 -2.0748849 0.21892928 4294183680
3.0090833 -2.0983348 0.20086551 4294444800
3.0172379 -2.1038804 0.18058325 4294444800
3.0103164 -2.0989137 0.1591956 4294444800
2.9747257 -2.0739596 0.13641848 4294183680
2.9854529 -2.0812991 0.11579288 4294314240
2.9897106 -2.0841277 0.094685942 4294314240
2.9805243 -2.0775847 0.073087282 4294183680
2.9652438 -2.0667951 0.051436573 4294183680
2.9715347 -2.0710411 0.030169899 4294183680
2.979357 -2.076354 0.0087855747 4294183680
2.945271 -2.0524616 -0.012541555 4294053120
2.9504359 -2.055923 -0.033812914 4294183680
2.9631665 -2.0646558 -0.055262316 4294183680
2.9636173 -2.0648315 -0.076516926 4294183680
2.9550614 -2.0587325 -0.097397633 4294183680
2.9694886 -2.068645 -0.11897113 4294183680
2.9771383 -2.0738351 -0.14030008 4294183680
2.9862852 -2.0800674 -0.16166496 4294314240
2.9453175 -2.0513942 -0.17992006 4294053120
2.9634643 -2.0638952 -0.20143028 4294183680
2.9744875 -2.0714335 -0.22243643 4294183680
2.9634981 -2.0636423 -0.24155441 4294183680
2.9530461 -2.0562263 -0.26030841 4294183680
2.9749537 -2.0713418 -0.28170329 4294314240
2.9893031 -2.0811934 -0.30230868 4294314240
2.984663 -2.0778236 -0.32072374 4294314240
2.954247 -2.0565112 -0.3357968 4294183680
2.973599 -2.0698438 -0.35608417 4294314240
2.9758408 -2.0712657 -0.37405881 4294314240
2.9871213 -2.0789778 -0.39283258 4294314240
2.9794631 -2.0735087 -0.40869999 4294314240
2.9449348 -2.0493422 -0.42019126 4294183680
2.9782002 -2.0723524 -0.44087228 4294314240
2.9850445 -2.0769756 -0.45736015 4294314240
2.9907124 -2.0807798 -0.47321638 4294444800
2.9915748 -2.0812404 -0.48781019 4294444800
2.9775698 -2.0713582 -0.4993661 4294314240
2.9577968 -2.0574653 -0.50923425 4294314240
2.957782 -2.057317 -0.52183586 4294314240
2.964098 -2.0615721 -0.53498423 4294314240
2.9673011 -2.0636616 -0.54699624 4294314240
2.9609599 -2.0591135 -0.55661041 4294314240
2.9667094 -2.0629735 -0.56785381 4294314240
2.9688697 -2.0643373 -0.57778227 4294314240
2.9592798 -2.0575311 -0.5847348 4294314240
2.9432976 -2.0462821 -0.58967483 4294183680
2.9401791 -2.0439768 -0.59645635 4294183680
2.9321811 -2.0382802 -0.60152894 4294183680
2.9108155 -2.0232923 -0.60309732 4294183680
2.9376781 -2.0418277 -0.61396021 4294183680
2.8858285 -2.0056553 -0.60762388 4294053120
2.8821297 -2.0029502 -0.61063039 4294053120
2.889044 -2.0076208 -0.61517417 4294053120
2.8928201 -2.0101101 -0.61834043 4294053120
2.892652 -2.0098586 -0.61994272 4294053120
2.8844976 -2.0040584 -0.61910468 4294053120
2.8732097 -1.9960821 -0.61686569 4293922560
2.8733461 -1.996043 -0.61635619 4293922560
2.9167612 -2.0260665 -0.62438929 4294183680
2.9296193 -2.0348616 -0.62512231 4294183680
2.9331763 -2.0371957 -0.62312698 4294183680
2.9521055 -2.0502052 -0.62364298 4294314240
2.9555783 -2.0524795 -0.62013781 4294314240
2.9648254 -2.058763 -0.61710012 4294314240
2.9704611 -2.0625379 -0.61256522 4294314240
2.9603937 -2.0554099 -0.60409015 4294314240
2.9660225 -2.0591798 -0.5981245 4294314240
2.9671135 -2.0597992 -0.59053361 4294314240
2.96017 -2.054841 -0.58067715 4294314240
2.9486651 -2.0467176 -0.56931049 4294314240
2.9455533 -2.0444205 -0.55895394 4294183680
2.9634943 -2.0567348 -0.55189651 4294314240
2.9819047 -2.0693734 -0.54416108 4294314240
2.9870305 -2.0727916 -0.53328943 4294444800
2.9726853 -2.0626986 -0.51837212 4294314240
2.9694071 -2.0602856 -0.50486851 4294314240
2.9624817 -2.0553427 -0.49021742 4294314240
2.9657977 -2.0575051 -0.47672179 4294314240
2.978574 -2.0662301 -0.46413016 4294314240
2.9844906 -2.0701957 -0.44985428 4294314240
2.9647839 -2.0563881 -0.43128482 4294183680
2.966377 -2.0573552 -0.41542622 4294183680
2.9813092 -2.0675726 -0.40088016 4294314240
2.9865503 -2.0710685 -0.38447165 4294314240
2.9951053 -2.0768619 -0.36798289 4294314240
2.9569979 -2.0502996 -0.34553277 4294183680
2.9677324 -2.0576048 -0.32857192 4294183680
2.9728837 -2.061038 -0.31053323 4294183680
2.9822335 -2.0673814 -0.29250056 4294314240
2.9628272 -2.0537903 -0.27139345 4294183680
2.9767542 -2.0633061 -0.25307754 4294183680
2.9925718 -2.0741308 -0.23444952 4294314240
2.9971025 -2.0771315 -0.21454628 4294314240
2.9754238 -2.0619688 -0.19265187 4294183680
2.9840875 -2.0678339 -0.17260203 4294314240
2.9939859 -2.0745537 -0.15230849 4294314240
2.9845552 -2.0678804 -0.13086486 4294183680
2.9793439 -2.0641313 -0.10956866 4294183680
2.9901171 -2.071456 -0.088703096 4294314240
3.0044384 -2.0812378 -0.067669041 4294314240
2.9757409 -2.0612199 -0.045697376 4294183680
2.9879477 -2.0695362 -0.024423493 4294314240
3.0077071 -2.0830824 -0.0029561843 4294314240
3.0095315 -2.0842061 0.018686213 4294314240
2.9560673 -2.0470428 0.039593223 4294183680
3.021452 -2.0921805 0.062133152 4294444800
3.0359952 -2.1021099 0.084132381 4294444800
3.0246935 -2.0941439 0.10534716 4294444800
2.8643003 -1.9829627 0.12003853 4293792000
3.0172353 -2.0886998 0.14767057 4294314240
3.0219333 -2.0918117 0.16899525 4294444800
3.0024695 -2.0781991 0.18868269 4294314240
2.8812566 -1.994166 0.20080507 4293792000
3.0246589 -2.0932767 0.23129128 4294444800
3.0265443 -2.0944409 0.25168714 4294444800
3.0223494 -2.0913975 0.27128661 4294444800
2.8616583 -1.98007 0.2754688 4293792000
3.0406361 -2.1037688 0.3121452 4294444800
3.0414317 -2.1041782 0.33133563 4294575360
3.0295448 -2.0958135 0.34871024 4294444800
2.9819889 -2.0627763 0.36123294 4294314240
2.8109128 -1.9443047 0.3570953 4293530880
3.0276496 -2.0940807 0.40206647 4294444800
3.0226116 -2.0904558 0.41835788 4294444800
3.0032287 -2.0769107 0.43206182 4294444800
2.9666088 -2.0514483 0.44250178 4294183680
2.863893 -1.980286 0.4418647 4293792000
3.0318832 -2.0963049 0.48280156 4294575360
3.0241864 -2.0908427 0.4960112 4294444800
3.0072415 -2.0789876 0.50702727 4294444800
2.9963913 -2.0713477 0.51836914 4294444800
2.9815884 -2.0609763 0.52832657 4294314240
2.9530802 -2.0411332 0.53507566 4294183680
3.0220001 -2.0886297 0.55901229 4294575360
3.0126615 -2.0820353 0.56805843 4294444800
3.0175447 -2.0852702 0.57911539 4294575360
3.0021911 -2.0745206 0.58558881 4294444800
2.9940434 -2.0687516 0.59271902 4294444800
2.9907415 -2.0663314 0.60008943 4294444800
3.0011914 -2.0734119 0.60953963 4294444800
3.0084741 -2.0783038 0.61767983 4294444800
2.9903171 -2.0656219 0.61985815 4294444800
2.9937251 -2.067837 0.62575418 4294444800
2.997227 -2.0701168 0.63095057 4294444800
3.0040686 -2.0747027 0.63612658 4294444800
2.9964199 -2.0692813 0.63749123 4294444800
2.9961696 -2.0689695 0.63967609 4294444800
3.0000756 -2.0715275 0.64200115 4294444800
2.9959829 -2.0685625 0.64186352 4294444800
2.9919956 -2.0656707 0.64099568 4294444800
2.9840612 -2.0600545 0.63853353 4294444800
2.9843361 -2.0601058 0.63708204 4294444800
3.0061729 -2.0750403 0.63947117 4294444800
2.9944959 -2.0668411 0.63397837 4294444800
3.0054965 -2.0742946 0.63254368 4294444800
3.0051401 -2.0739093 0.62796688 4294444800
3.0095768 -2.0768316 0.62365198 4294444800
3.0023229 -2.0716865 0.61619461 4294444800
3.018235 -2.0825264 0.61275417 4294575360
3.00665 -2.0743935 0.60301286 4294444800
3.0128632 -2.0785406 0.59615386 4294444800
